uniorb/output/strategy_1/Drop/Drop_KinoSat_111406.txt

KinoSat_111406
-------------------------
    Access    *     Start Time (UTCG)     *     Stop Time (UTCG)  *   Duration (s)        *       Station  *  Data (Mbytes)
         1   01 Jun 2027 03:15:07.808   01 Jun 2027 03:15:36.266            28.458              Murmansk1           889.313
         2   01 Jun 2027 03:15:36.266   01 Jun 2027 03:15:46.102             9.836              Murmansk2           307.375
         3   01 Jun 2027 03:15:46.826   01 Jun 2027 03:15:56.264             9.438                Novosib           294.938
         4   01 Jun 2027 03:15:56.727   01 Jun 2027 03:16:23.561            26.834              Murmansk2           838.562
         5   01 Jun 2027 03:16:30.126   01 Jun 2027 03:18:00.797            90.671                Novosib          2833.469
         6   01 Jun 2027 03:18:09.326   01 Jun 2027 03:19:36.527            87.201              Murmansk1          2725.031
         7   01 Jun 2027 03:19:50.757   01 Jun 2027 03:20:22.396            31.639              Murmansk2           988.719
         8   01 Jun 2027 03:20:32.304   01 Jun 2027 03:20:51.323            19.019                 Moscow           594.344
         9   01 Jun 2027 03:21:21.013   01 Jun 2027 03:23:03.785           102.772                 Moscow          3211.625
        10   01 Jun 2027 03:36:16.379   01 Jun 2027 03:39:26.034           189.655               CapeTown          5926.719
        11   01 Jun 2027 03:42:20.058   01 Jun 2027 03:42:47.775            27.717               CapeTown           866.156
        12   01 Jun 2027 04:32:22.876   01 Jun 2027 04:33:33.445            70.569                Anadyr1          2205.281
        13   01 Jun 2027 04:39:52.917   01 Jun 2027 04:41:05.519            72.602                Anadyr2          2268.813
        14   01 Jun 2027 04:51:15.365   01 Jun 2027 04:51:55.037            39.672                Norilsk          1239.750
        15   01 Jun 2027 04:52:08.529   01 Jun 2027 04:52:39.951            31.422                Norilsk           981.938
        16   01 Jun 2027 04:52:49.608   01 Jun 2027 04:55:32.250           162.642              Murmansk2          5082.562
        17   01 Jun 2027 05:12:52.932   01 Jun 2027 05:13:34.234            41.302               CapeTown          1290.687
        18   01 Jun 2027 06:15:27.437   01 Jun 2027 06:17:48.633           141.196               Magadan2          4412.375
        19   01 Jun 2027 06:18:47.277   01 Jun 2027 06:18:54.318             7.041               Magadan2           220.031
        20   01 Jun 2027 06:18:58.770   01 Jun 2027 06:19:25.482            26.712               Magadan2           834.750
        21   01 Jun 2027 06:20:07.179   01 Jun 2027 06:21:06.628            59.449                Anadyr2          1857.781
        22   01 Jun 2027 07:52:32.162   01 Jun 2027 07:55:21.117           168.955                Anadyr2          5279.844
        23   01 Jun 2027 09:26:10.610   01 Jun 2027 09:26:54.336            43.726                Novosib          1366.438
        24   01 Jun 2027 09:27:11.738   01 Jun 2027 09:28:20.231            68.493                Irkutsk          2140.406
        25   01 Jun 2027 09:28:31.183   01 Jun 2027 09:29:02.093            30.910               Magadan2           965.938
        26   01 Jun 2027 09:29:24.013   01 Jun 2027 09:29:44.224            20.211                Irkutsk           631.594
        27   01 Jun 2027 09:30:04.738   01 Jun 2027 09:32:25.022           140.284                Irkutsk          4383.875
        28   01 Jun 2027 09:32:29.118   01 Jun 2027 09:33:15.706            46.588                Norilsk          1455.875
        29   01 Jun 2027 09:33:23.545   01 Jun 2027 09:34:37.688            74.143              Murmansk2          2316.969
        30   01 Jun 2027 09:34:37.688   01 Jun 2027 09:34:52.826            15.138              Murmansk1           473.063
        31   01 Jun 2027 10:07:08.443   01 Jun 2027 10:08:11.085            62.642            RioGallegos          1957.563
        32   01 Jun 2027 10:10:25.566   01 Jun 2027 10:10:30.890             5.324            RioGallegos           166.375
        33   01 Jun 2027 10:42:17.862   01 Jun 2027 10:42:59.914            42.052                Sumatra          1314.125
        34   01 Jun 2027 10:54:16.396   01 Jun 2027 10:55:13.205            56.809                  Delhi          1775.281
        35   01 Jun 2027 11:03:47.594   01 Jun 2027 11:04:12.775            25.181                Irkutsk           786.906
        36   01 Jun 2027 11:04:41.089   01 Jun 2027 11:07:57.876           196.787                Novosib          6149.594
        37   01 Jun 2027 11:08:00.318   01 Jun 2027 11:09:36.818            96.500                Norilsk          3015.625
        38   01 Jun 2027 11:09:37.812   01 Jun 2027 11:09:58.642            20.830                Novosib           650.937
        39   01 Jun 2027 11:45:31.861   01 Jun 2027 11:45:49.783            17.922            RioGallegos           560.063
        40   01 Jun 2027 11:48:15.424   01 Jun 2027 11:49:20.383            64.959            RioGallegos          2029.969
        41   01 Jun 2027 11:50:29.117   01 Jun 2027 11:50:29.183             0.066            RioGallegos             2.062
        42   01 Jun 2027 12:19:50.241   01 Jun 2027 12:22:19.613           149.372                Sumatra          4667.875
        43   01 Jun 2027 12:24:34.946   01 Jun 2027 12:24:41.996             7.050                Sumatra           220.313
        44   01 Jun 2027 12:34:40.332   01 Jun 2027 12:36:14.447            94.115                Novosib          2941.094
        45   01 Jun 2027 12:36:28.007   01 Jun 2027 12:37:29.615            61.608                Irkutsk          1925.250
        46   01 Jun 2027 12:38:06.829   01 Jun 2027 12:38:52.797            45.968                Norilsk          1436.500
        47   01 Jun 2027 12:41:54.232   01 Jun 2027 12:42:24.981            30.749                Norilsk           960.906
        48   01 Jun 2027 14:05:31.388   01 Jun 2027 14:06:18.537            47.149                  Delhi          1473.406
        49   01 Jun 2027 14:07:05.327   01 Jun 2027 14:09:30.528           145.201                  Delhi          4537.531
        50   01 Jun 2027 14:11:54.134   01 Jun 2027 14:12:45.381            51.247                 Moscow          1601.469
        51   01 Jun 2027 14:14:05.238   01 Jun 2027 14:15:32.381            87.143              Murmansk1          2723.219
        52   01 Jun 2027 14:15:42.868   01 Jun 2027 14:16:10.050            27.182              Murmansk2           849.437
        53   01 Jun 2027 14:16:42.628   01 Jun 2027 14:18:55.567           132.939                Norilsk          4154.344
        54   01 Jun 2027 15:26:37.439   01 Jun 2027 15:28:56.401           138.962               CapeTown          4342.563
        55   01 Jun 2027 15:47:14.189   01 Jun 2027 15:48:12.915            58.726                 Moscow          1835.187
        56   01 Jun 2027 15:50:38.740   01 Jun 2027 15:51:09.427            30.687              Murmansk2           958.969
        57   01 Jun 2027 15:51:42.231   01 Jun 2027 15:52:13.418            31.187              Murmansk1           974.594
        58   01 Jun 2027 15:53:38.404   01 Jun 2027 15:54:08.668            30.264              Murmansk1           945.750
        59   01 Jun 2027 15:54:08.668   01 Jun 2027 15:54:25.850            17.182              Murmansk2           536.937
        60   01 Jun 2027 16:05:29.001   01 Jun 2027 16:06:39.945            70.944                Anadyr2          2217.000
        61   01 Jun 2027 16:06:52.700   01 Jun 2027 16:07:49.681            56.981                Anadyr1          1780.656
        62   01 Jun 2027 16:08:23.659   01 Jun 2027 16:08:53.734            30.075                Anadyr1           939.844
        63   01 Jun 2027 17:00:04.923   01 Jun 2027 17:02:39.412           154.489               CapeTown          4827.781
        64   01 Jun 2027 17:28:42.829   01 Jun 2027 17:31:45.169           182.340                 Moscow          5698.125
        65   01 Jun 2027 17:31:58.170   01 Jun 2027 17:32:54.919            56.749              Murmansk2          1773.406
        66   01 Jun 2027 17:40:44.471   01 Jun 2027 17:40:47.448             2.977                Anadyr1            93.031
        67   01 Jun 2027 17:43:40.570   01 Jun 2027 17:43:58.236            17.666                Anadyr2           552.063
        68   01 Jun 2027 17:45:16.163   01 Jun 2027 17:46:40.058            83.895               Magadan2          2621.719
        69   01 Jun 2027 18:37:37.424   01 Jun 2027 18:38:25.345            47.921               CapeTown          1497.531
        70   01 Jun 2027 19:16:37.020   01 Jun 2027 19:20:33.931           236.911                Anadyr2          7403.469
        71   01 Jun 2027 19:20:52.961   01 Jun 2027 19:23:59.567           186.606               Magadan2          5831.437
        72   01 Jun 2027 20:52:31.415   01 Jun 2027 20:54:39.531           128.116                Anadyr1          4003.625
        73   01 Jun 2027 20:54:48.787   01 Jun 2027 20:58:06.854           198.067               Magadan1          6189.594
        74   01 Jun 2027 20:58:06.854   01 Jun 2027 20:58:59.552            52.698               Magadan2          1646.812
        75   01 Jun 2027 20:59:18.425   01 Jun 2027 20:59:57.339            38.914                Norilsk          1216.063
        76   01 Jun 2027 21:02:42.712   01 Jun 2027 21:03:39.175            56.463                Irkutsk          1764.469
        77   01 Jun 2027 21:46:52.787   01 Jun 2027 21:48:55.125           122.338            RioGallegos          3823.063
        78   01 Jun 2027 22:28:05.896   01 Jun 2027 22:28:55.322            49.426                Anadyr1          1544.562
        79   01 Jun 2027 22:30:21.465   01 Jun 2027 22:30:31.898            10.433                Norilsk           326.031
        80   01 Jun 2027 22:30:52.733   01 Jun 2027 22:32:18.068            85.335               Magadan1          2666.719
        81   01 Jun 2027 22:33:29.677   01 Jun 2027 22:33:39.130             9.453                Norilsk           295.406
        82   01 Jun 2027 22:33:44.536   01 Jun 2027 22:34:06.621            22.085                Norilsk           690.156
        83   01 Jun 2027 22:34:29.639   01 Jun 2027 22:35:26.363            56.724                Irkutsk          1772.625
        84   01 Jun 2027 22:36:09.081   01 Jun 2027 22:36:37.179            28.098                Novosib           878.063
        85   01 Jun 2027 22:36:41.199   01 Jun 2027 22:37:17.540            36.341                Irkutsk          1135.656
        86   01 Jun 2027 22:37:26.419   01 Jun 2027 22:38:00.770            34.351                Novosib          1073.469
        87   01 Jun 2027 22:38:56.281   01 Jun 2027 22:39:43.039            46.758                Novosib          1461.188
        88   01 Jun 2027 22:48:12.641   01 Jun 2027 22:50:56.538           163.897                Sumatra          5121.781
        89   02 Jun 2027 00:03:41.370   02 Jun 2027 00:04:29.379            48.009                Anadyr1          1500.281
        90   02 Jun 2027 00:05:17.250   02 Jun 2027 00:05:26.294             9.044                Anadyr2           282.625
        91   02 Jun 2027 00:06:19.476   02 Jun 2027 00:06:34.962            15.486                Norilsk           483.937
        92   02 Jun 2027 00:06:58.679   02 Jun 2027 00:08:14.993            76.314               Magadan1          2384.813
        93   02 Jun 2027 00:09:28.648   02 Jun 2027 00:09:38.956            10.308                Norilsk           322.125
        94   02 Jun 2027 00:10:04.717   02 Jun 2027 00:10:07.500             2.783               Magadan1            86.969
        95   02 Jun 2027 00:10:12.378   02 Jun 2027 00:11:26.043            73.665                Irkutsk          2302.031
        96   02 Jun 2027 00:11:52.846   02 Jun 2027 00:12:17.053            24.207                Irkutsk           756.469
        97   02 Jun 2027 00:12:42.680   02 Jun 2027 00:14:07.329            84.649                Novosib          2645.281
        98   02 Jun 2027 00:15:50.500   02 Jun 2027 00:16:05.802            15.302                Novosib           478.188
        99   02 Jun 2027 00:17:58.326   02 Jun 2027 00:19:10.114            71.788                  Delhi          2243.375
       100   02 Jun 2027 00:19:25.926   02 Jun 2027 00:19:58.390            32.464                  Delhi          1014.500
       101   02 Jun 2027 00:59:26.844   02 Jun 2027 01:00:26.659            59.815            RioGallegos          1869.219
       102   02 Jun 2027 01:36:14.977   02 Jun 2027 01:36:51.022            36.045                Anadyr1          1126.406
       103   02 Jun 2027 01:37:31.358   02 Jun 2027 01:38:07.876            36.518                Anadyr1          1141.187
       104   02 Jun 2027 01:38:42.675   02 Jun 2027 01:39:12.450            29.775                Anadyr2           930.469
       105   02 Jun 2027 01:41:40.058   02 Jun 2027 01:41:51.001            10.943                Anadyr1           341.969
       106   02 Jun 2027 01:42:18.663   02 Jun 2027 01:42:55.720            37.057                Norilsk          1158.031
       107   02 Jun 2027 01:43:00.155   02 Jun 2027 01:44:13.665            73.510               Magadan2          2297.187
       108   02 Jun 2027 01:44:23.789   02 Jun 2027 01:44:53.705            29.916               Magadan2           934.875
       109   02 Jun 2027 01:45:30.542   02 Jun 2027 01:46:18.579            48.037              Murmansk2          1501.156
       110   02 Jun 2027 01:46:41.185   02 Jun 2027 01:47:16.580            35.395              Murmansk1          1106.094
       111   02 Jun 2027 01:47:29.836   02 Jun 2027 01:48:17.019            47.183                Novosib          1474.469
       112   02 Jun 2027 01:48:18.079   02 Jun 2027 01:48:18.616             0.537              Murmansk1            16.781
       113   02 Jun 2027 01:49:15.745   02 Jun 2027 01:49:44.782            29.037                 Moscow           907.406
       114   02 Jun 2027 01:49:57.023   02 Jun 2027 01:50:16.512            19.489                Irkutsk           609.031
       115   02 Jun 2027 01:53:30.388   02 Jun 2027 01:55:10.510           100.122                 Moscow          3128.813
       116   02 Jun 2027 03:09:41.793   02 Jun 2027 03:09:56.325            14.532                Anadyr1           454.125
       117   02 Jun 2027 03:09:56.325   02 Jun 2027 03:10:19.278            22.953                Anadyr2           717.281
       118   02 Jun 2027 03:27:03.812   02 Jun 2027 03:27:57.122            53.310                Novosib          1665.937
       119   02 Jun 2027 03:28:15.404   02 Jun 2027 03:28:34.490            19.086                Novosib           596.438
       120   02 Jun 2027 03:28:40.644   02 Jun 2027 03:29:03.902            23.258                Novosib           726.812
       121   02 Jun 2027 03:29:17.382   02 Jun 2027 03:31:14.565           117.183                Novosib          3661.969
       122   02 Jun 2027 03:31:28.247   02 Jun 2027 03:32:38.160            69.913              Murmansk2          2184.781
       123   02 Jun 2027 03:32:43.849   02 Jun 2027 03:33:36.708            52.859                 Moscow          1651.844
       124   02 Jun 2027 03:35:06.593   02 Jun 2027 03:35:20.412            13.819                 Moscow           431.844
       125   02 Jun 2027 03:47:59.047   02 Jun 2027 03:51:20.881           201.834               CapeTown          6307.313
       126   02 Jun 2027 04:51:12.421   02 Jun 2027 04:52:47.502            95.081                Anadyr2          2971.281
       127   02 Jun 2027 05:03:49.208   02 Jun 2027 05:06:40.334           171.126                 Moscow          5347.687
       128   02 Jun 2027 05:07:00.889   02 Jun 2027 05:07:28.497            27.608                 Moscow           862.750
       129   02 Jun 2027 05:07:44.734   02 Jun 2027 05:08:09.655            24.921              Murmansk1           778.781
       130   02 Jun 2027 05:08:28.886   02 Jun 2027 05:08:44.261            15.375                 Moscow           480.469
       131   02 Jun 2027 05:09:16.188   02 Jun 2027 05:09:22.063             5.875              Murmansk2           183.594
       132   02 Jun 2027 05:24:33.597   02 Jun 2027 05:26:04.570            90.973               CapeTown          2842.906
       133   02 Jun 2027 05:26:48.736   02 Jun 2027 05:28:00.732            71.996               CapeTown          2249.875
       134   02 Jun 2027 06:26:14.072   02 Jun 2027 06:26:35.101            21.029               Magadan1           657.156
       135   02 Jun 2027 06:26:54.177   02 Jun 2027 06:29:24.595           150.418                Anadyr2          4700.563
       136   02 Jun 2027 06:29:24.595   02 Jun 2027 06:30:01.350            36.755                Anadyr1          1148.594
       137   02 Jun 2027 06:30:15.533   02 Jun 2027 06:30:40.521            24.988                Anadyr1           780.875
       138   02 Jun 2027 06:30:48.573   02 Jun 2027 06:31:02.018            13.445               Magadan2           420.156
       139   02 Jun 2027 08:02:46.282   02 Jun 2027 08:04:04.660            78.378                Norilsk          2449.313
       140   02 Jun 2027 08:04:41.292   02 Jun 2027 08:07:42.666           181.374                Irkutsk          5667.937
       141   02 Jun 2027 08:07:43.963   02 Jun 2027 08:10:51.835           187.872              Murmansk2          5871.000
       142   02 Jun 2027 08:10:51.835   02 Jun 2027 08:11:35.981            44.146              Murmansk1          1379.562
       143   02 Jun 2027 08:44:18.341   02 Jun 2027 08:45:01.370            43.029            RioGallegos          1344.656
       144   02 Jun 2027 08:45:59.985   02 Jun 2027 08:47:24.647            84.662            RioGallegos          2645.688
       145   02 Jun 2027 09:37:08.898   02 Jun 2027 09:39:12.111           123.213               Magadan1          3850.406
       146   02 Jun 2027 09:40:24.061   02 Jun 2027 09:43:37.437           193.376               Magadan2          6043.000
       147   02 Jun 2027 09:44:38.004   02 Jun 2027 09:45:01.804            23.800                Novosib           743.750
       148   02 Jun 2027 09:45:37.814   02 Jun 2027 09:45:49.276            11.462              Murmansk2           358.188
       149   02 Jun 2027 10:20:38.685   02 Jun 2027 10:21:23.866            45.181            RioGallegos          1411.906
       150   02 Jun 2027 10:54:08.919   02 Jun 2027 10:56:02.300           113.381                Sumatra          3543.156
       151   02 Jun 2027 11:16:04.874   02 Jun 2027 11:17:52.574           107.700                Novosib          3365.625
       152   02 Jun 2027 11:18:11.852   02 Jun 2027 11:22:14.661           242.809              Murmansk1          7587.781
       153   02 Jun 2027 11:22:14.661   02 Jun 2027 11:22:36.560            21.899              Murmansk2           684.344
       154   02 Jun 2027 11:23:22.300   02 Jun 2027 11:23:30.084             7.784              Murmansk1           243.250
       155   02 Jun 2027 11:58:19.051   02 Jun 2027 11:59:18.236            59.185            RioGallegos          1849.531
       156   02 Jun 2027 12:01:12.245   02 Jun 2027 12:02:29.521            77.276            RioGallegos          2414.875
       157   02 Jun 2027 12:37:14.659   02 Jun 2027 12:37:18.366             3.707                Sumatra           115.844
       158   02 Jun 2027 12:38:16.255   02 Jun 2027 12:38:49.054            32.799                  Delhi          1024.969
       159   02 Jun 2027 12:40:54.710   02 Jun 2027 12:42:22.437            87.727                  Delhi          2741.469
       160   02 Jun 2027 12:45:47.439   02 Jun 2027 12:46:42.829            55.390                Novosib          1730.938
       161   02 Jun 2027 12:48:12.021   02 Jun 2027 12:48:44.843            32.822                Novosib          1025.687
       162   02 Jun 2027 12:49:28.534   02 Jun 2027 12:50:50.437            81.903                Irkutsk          2559.469
       163   02 Jun 2027 12:50:53.364   02 Jun 2027 12:51:07.125            13.761              Murmansk2           430.031
       164   02 Jun 2027 12:51:33.061   02 Jun 2027 12:51:52.271            19.210                Norilsk           600.313
       165   02 Jun 2027 12:53:56.537   02 Jun 2027 12:54:23.734            27.197                Norilsk           849.906
       166   02 Jun 2027 14:19:39.357   02 Jun 2027 14:22:08.726           149.369                  Delhi          4667.781
       167   02 Jun 2027 14:22:44.769   02 Jun 2027 14:23:54.470            69.701                 Moscow          2178.156
       168   02 Jun 2027 14:25:57.708   02 Jun 2027 14:26:21.073            23.365                 Moscow           730.156
       169   02 Jun 2027 14:26:31.191   02 Jun 2027 14:27:52.514            81.323              Murmansk2          2541.344
       170   02 Jun 2027 14:28:09.165   02 Jun 2027 14:28:26.528            17.363              Murmansk1           542.594
       171   02 Jun 2027 14:28:45.514   02 Jun 2027 14:30:36.741           111.227                Novosib          3475.844
       172   02 Jun 2027 14:31:56.707   02 Jun 2027 14:33:36.805           100.098                Norilsk          3128.063
       173   02 Jun 2027 15:37:53.144   02 Jun 2027 15:37:59.662             6.518               CapeTown           203.687
       174   02 Jun 2027 15:38:57.092   02 Jun 2027 15:40:36.768            99.676               CapeTown          3114.875
       175   02 Jun 2027 15:59:34.290   02 Jun 2027 16:00:49.172            74.882                 Moscow          2340.062
       176   02 Jun 2027 16:02:52.974   02 Jun 2027 16:03:22.835            29.861              Murmansk1           933.156
       177   02 Jun 2027 16:03:44.181   02 Jun 2027 16:04:06.285            22.104              Murmansk1           690.750
       178   02 Jun 2027 16:05:26.101   02 Jun 2027 16:06:09.609            43.508              Murmansk1          1359.625
       179   02 Jun 2027 16:17:19.875   02 Jun 2027 16:18:48.612            88.737                Anadyr2          2773.031
       180   02 Jun 2027 16:19:50.874   02 Jun 2027 16:20:57.768            66.894                Anadyr2          2090.438
       181   02 Jun 2027 17:12:06.469   02 Jun 2027 17:14:28.718           142.249               CapeTown          4445.281
       182   02 Jun 2027 17:41:48.840   02 Jun 2027 17:42:58.217            69.377              Murmansk2          2168.031
       183   02 Jun 2027 17:43:28.420   02 Jun 2027 17:44:51.488            83.068              Murmansk2          2595.875
       184   02 Jun 2027 17:45:30.381   02 Jun 2027 17:47:10.496           100.115              Murmansk1          3128.594
       185   02 Jun 2027 17:52:44.722   02 Jun 2027 17:53:06.327            21.605                Anadyr1           675.156
       186   02 Jun 2027 17:56:37.263   02 Jun 2027 17:57:27.650            50.387               Magadan1          1574.594
       187   02 Jun 2027 17:58:05.157   02 Jun 2027 17:58:39.040            33.883               Magadan1          1058.844
       188   02 Jun 2027 18:00:57.370   02 Jun 2027 18:01:45.686            48.316               Magadan2          1509.875
       189   02 Jun 2027 18:02:28.807   02 Jun 2027 18:02:49.338            20.531               Magadan1           641.594
       190   02 Jun 2027 18:50:23.402   02 Jun 2027 18:50:39.624            16.222               CapeTown           506.938
       191   02 Jun 2027 19:28:38.664   02 Jun 2027 19:32:31.309           232.645                Anadyr2          7270.156
       192   02 Jun 2027 19:32:33.754   02 Jun 2027 19:34:24.321           110.567               Magadan1          3455.219
       193   02 Jun 2027 19:34:24.321   02 Jun 2027 19:35:57.535            93.214               Magadan2          2912.937
       194   02 Jun 2027 21:04:31.892   02 Jun 2027 21:06:41.000           129.108                Anadyr1          4034.625
       195   02 Jun 2027 21:06:50.678   02 Jun 2027 21:10:37.855           227.177               Magadan2          7099.281
       196   02 Jun 2027 21:10:39.964   02 Jun 2027 21:12:09.630            89.666                Norilsk          2802.062
       197   02 Jun 2027 21:13:40.425   02 Jun 2027 21:13:57.141            16.716                Irkutsk           522.375
       198   02 Jun 2027 21:14:23.159   02 Jun 2027 21:14:31.187             8.028                Irkutsk           250.875
       199   02 Jun 2027 21:58:44.278   02 Jun 2027 21:59:41.988            57.710            RioGallegos          1803.437
       200   02 Jun 2027 22:01:10.097   02 Jun 2027 22:01:48.545            38.448            RioGallegos          1201.500
       201   02 Jun 2027 22:07:04.571   02 Jun 2027 22:07:31.475            26.904            RioGallegos           840.750
       202   02 Jun 2027 22:08:13.525   02 Jun 2027 22:08:13.731             0.206            RioGallegos             6.437
       203   02 Jun 2027 22:40:01.714   02 Jun 2027 22:42:26.034           144.320                Anadyr1          4510.000
       204   02 Jun 2027 22:42:33.730   02 Jun 2027 22:44:12.924            99.194                Norilsk          3099.812
       205   02 Jun 2027 22:44:22.352   02 Jun 2027 22:44:56.877            34.525               Magadan1          1078.906
       206   02 Jun 2027 22:46:25.568   02 Jun 2027 22:46:48.952            23.384                Irkutsk           730.750
       207   02 Jun 2027 22:47:24.891   02 Jun 2027 22:48:34.729            69.838                Irkutsk          2182.438
       208   02 Jun 2027 22:49:30.985   02 Jun 2027 22:49:38.123             7.138                Novosib           223.063
       209   02 Jun 2027 22:50:09.544   02 Jun 2027 22:50:44.431            34.887                Novosib          1090.219
       210   02 Jun 2027 22:53:38.965   02 Jun 2027 22:54:32.675            53.710                Novosib          1678.437
       211   02 Jun 2027 23:00:06.643   02 Jun 2027 23:01:22.988            76.345                Sumatra          2385.781
       212   02 Jun 2027 23:08:52.230   02 Jun 2027 23:09:40.304            48.074                Sumatra          1502.312
       213   03 Jun 2027 00:14:31.755   03 Jun 2027 00:15:49.553            77.798                Anadyr2          2431.188
       214   03 Jun 2027 00:16:48.714   03 Jun 2027 00:17:20.705            31.991                Anadyr1           999.719
       215   03 Jun 2027 00:18:21.677   03 Jun 2027 00:20:12.162           110.485                Norilsk          3452.656
       216   03 Jun 2027 00:21:36.079   03 Jun 2027 00:21:45.571             9.492               Magadan2           296.625
       217   03 Jun 2027 00:22:10.846   03 Jun 2027 00:23:19.905            69.059               Magadan2          2158.094
       218   03 Jun 2027 00:23:26.445   03 Jun 2027 00:24:46.597            80.152                Novosib          2504.750
       219   03 Jun 2027 00:27:26.505   03 Jun 2027 00:28:38.780            72.275                Novosib          2258.594
       220   03 Jun 2027 00:29:46.527   03 Jun 2027 00:30:37.177            50.650                  Delhi          1582.812
       221   03 Jun 2027 00:31:37.260   03 Jun 2027 00:31:58.068            20.808                  Delhi           650.250
       222   03 Jun 2027 00:32:20.232   03 Jun 2027 00:32:23.717             3.485                  Delhi           108.906
       223   03 Jun 2027 00:41:23.782   03 Jun 2027 00:42:07.052            43.270                  Delhi          1352.188
       224   03 Jun 2027 01:10:54.776   03 Jun 2027 01:11:31.177            36.401            RioGallegos          1137.531
       225   03 Jun 2027 01:12:32.913   03 Jun 2027 01:13:15.135            42.222            RioGallegos          1319.437
       226   03 Jun 2027 01:18:15.889   03 Jun 2027 01:19:03.335            47.446            RioGallegos          1482.687
       227   03 Jun 2027 01:49:29.962   03 Jun 2027 01:49:40.000            10.038                Anadyr2           313.688
       228   03 Jun 2027 01:50:07.533   03 Jun 2027 01:50:26.064            18.531                Anadyr2           579.094
       229   03 Jun 2027 01:50:47.618   03 Jun 2027 01:50:54.167             6.549                Anadyr2           204.656
       230   03 Jun 2027 01:52:28.122   03 Jun 2027 01:52:48.566            20.444                Anadyr2           638.875
       231   03 Jun 2027 01:53:37.136   03 Jun 2027 01:54:09.639            32.503                Anadyr1          1015.719
       232   03 Jun 2027 01:54:13.510   03 Jun 2027 01:54:32.224            18.714               Magadan2           584.813
       233   03 Jun 2027 01:54:54.815   03 Jun 2027 01:55:42.332            47.517               Magadan2          1484.906
       234   03 Jun 2027 01:55:51.328   03 Jun 2027 01:56:03.044            11.716                Norilsk           366.125
       235   03 Jun 2027 01:56:36.952   03 Jun 2027 01:58:42.607           125.655              Murmansk1          3926.719
       236   03 Jun 2027 01:58:57.312   03 Jun 2027 01:59:16.743            19.431                Novosib           607.219
       237   03 Jun 2027 02:00:54.263   03 Jun 2027 02:01:18.482            24.219                 Moscow           756.844
       238   03 Jun 2027 02:02:58.413   03 Jun 2027 02:03:05.755             7.342                 Moscow           229.438
       239   03 Jun 2027 02:05:29.942   03 Jun 2027 02:07:05.647            95.705                 Moscow          2990.781
       240   03 Jun 2027 02:29:20.929   03 Jun 2027 02:30:11.858            50.929               CapeTown          1591.531
       241   03 Jun 2027 03:28:14.824   03 Jun 2027 03:28:25.028            10.204                Anadyr2           318.875
       242   03 Jun 2027 03:30:00.360   03 Jun 2027 03:30:23.819            23.459               Magadan1           733.094
       243   03 Jun 2027 03:39:32.284   03 Jun 2027 03:39:52.204            19.920                Norilsk           622.500
       244   03 Jun 2027 03:40:02.842   03 Jun 2027 03:41:53.299           110.457                Norilsk          3451.781
       245   03 Jun 2027 03:42:03.846   03 Jun 2027 03:44:09.250           125.404              Murmansk2          3918.875
       246   03 Jun 2027 03:44:20.279   03 Jun 2027 03:45:11.253            50.974                 Moscow          1592.937
       247   03 Jun 2027 05:02:59.107   03 Jun 2027 05:04:13.552            74.445               Magadan1          2326.406
       248   03 Jun 2027 05:04:13.552   03 Jun 2027 05:05:44.210            90.658               Magadan2          2833.063
       249   03 Jun 2027 05:05:44.210   03 Jun 2027 05:06:04.224            20.014               Magadan1           625.438
       250   03 Jun 2027 05:07:10.748   03 Jun 2027 05:07:35.656            24.908                Anadyr2           778.375
       251   03 Jun 2027 05:08:14.304   03 Jun 2027 05:08:26.345            12.041                Anadyr2           376.281
       252   03 Jun 2027 05:09:08.787   03 Jun 2027 05:09:15.341             6.554                Anadyr2           204.813
       253   03 Jun 2027 05:15:05.856   03 Jun 2027 05:16:17.121            71.265                Norilsk          2227.031
       254   03 Jun 2027 05:16:20.723   03 Jun 2027 05:16:31.642            10.919              Murmansk2           341.219
       255   03 Jun 2027 05:16:31.642   03 Jun 2027 05:20:07.742           216.100              Murmansk1          6753.125
       256   03 Jun 2027 06:37:17.973   03 Jun 2027 06:38:10.818            52.845               Magadan2          1651.406
       257   03 Jun 2027 06:39:13.098   03 Jun 2027 06:42:11.004           177.906               Magadan2          5559.563
       258   03 Jun 2027 06:42:11.004   03 Jun 2027 06:43:05.238            54.234               Magadan1          1694.812
       259   03 Jun 2027 06:44:38.345   03 Jun 2027 06:45:39.942            61.597              Murmansk2          1924.906
       260   03 Jun 2027 08:12:43.588   03 Jun 2027 08:13:29.728            46.140                Irkutsk          1441.875
       261   03 Jun 2027 08:14:16.792   03 Jun 2027 08:18:35.705           258.913                Anadyr2          8091.031
       262   03 Jun 2027 08:19:08.838   03 Jun 2027 08:19:32.996            24.158                Irkutsk           754.938
       263   03 Jun 2027 08:19:39.316   03 Jun 2027 08:19:58.281            18.965              Murmansk1           592.656
       264   03 Jun 2027 08:20:11.756   03 Jun 2027 08:20:17.080             5.324                Norilsk           166.375
       265   03 Jun 2027 08:20:52.729   03 Jun 2027 08:21:29.317            36.588              Murmansk1          1143.375
       266   03 Jun 2027 08:22:41.576   03 Jun 2027 08:23:30.106            48.530              Murmansk2          1516.563
       267   03 Jun 2027 08:56:01.003   03 Jun 2027 08:56:17.441            16.438            RioGallegos           513.687
       268   03 Jun 2027 08:56:29.689   03 Jun 2027 08:57:04.839            35.150            RioGallegos          1098.438
       269   03 Jun 2027 09:35:20.680   03 Jun 2027 09:35:49.932            29.252                Sumatra           914.125
       270   03 Jun 2027 09:49:47.254   03 Jun 2027 09:52:14.796           147.542               Magadan2          4610.688
       271   03 Jun 2027 09:52:42.328   03 Jun 2027 09:53:26.072            43.744                Irkutsk          1367.000
       272   03 Jun 2027 09:53:44.823   03 Jun 2027 09:54:08.254            23.431                Norilsk           732.219
       273   03 Jun 2027 09:54:14.653   03 Jun 2027 09:54:55.750            41.097                Novosib          1284.281
       274   03 Jun 2027 09:55:04.739   03 Jun 2027 09:55:42.175            37.436                Norilsk          1169.875
       275   03 Jun 2027 09:55:54.459   03 Jun 2027 09:56:33.237            38.778                Irkutsk          1211.813
       276   03 Jun 2027 09:56:36.593   03 Jun 2027 09:57:47.902            71.309                Novosib          2228.406
       277   03 Jun 2027 09:59:08.965   03 Jun 2027 09:59:49.118            40.153              Murmansk1          1254.781
       278   03 Jun 2027 10:00:46.031   03 Jun 2027 10:01:09.971            23.940              Murmansk1           748.125
       279   03 Jun 2027 10:31:22.786   03 Jun 2027 10:31:47.709            24.923            RioGallegos           778.844
       280   03 Jun 2027 10:31:58.966   03 Jun 2027 10:32:43.890            44.924            RioGallegos          1403.875
       281   03 Jun 2027 10:34:25.080   03 Jun 2027 10:35:15.994            50.914            RioGallegos          1591.062
       282   03 Jun 2027 11:06:05.785   03 Jun 2027 11:06:51.859            46.074                Sumatra          1439.813
       283   03 Jun 2027 11:08:48.928   03 Jun 2027 11:09:03.983            15.055                Sumatra           470.469
       284   03 Jun 2027 11:09:15.184   03 Jun 2027 11:10:02.704            47.520                Sumatra          1485.000
       285   03 Jun 2027 11:26:59.897   03 Jun 2027 11:27:34.118            34.221                Irkutsk          1069.406
       286   03 Jun 2027 11:27:53.718   03 Jun 2027 11:28:02.889             9.171                Norilsk           286.594
       287   03 Jun 2027 11:28:12.100   03 Jun 2027 11:28:19.686             7.586                Novosib           237.063
       288   03 Jun 2027 11:28:26.013   03 Jun 2027 11:28:37.699            11.686              Murmansk2           365.188
       289   03 Jun 2027 11:28:41.481   03 Jun 2027 11:29:25.323            43.842                Irkutsk          1370.063
       290   03 Jun 2027 11:29:29.850   03 Jun 2027 11:30:15.415            45.565                Novosib          1423.906
       291   03 Jun 2027 11:30:16.977   03 Jun 2027 11:31:04.643            47.666                 Moscow          1489.563
       292   03 Jun 2027 11:31:11.412   03 Jun 2027 11:31:35.574            24.162                 Moscow           755.062
       293   03 Jun 2027 11:31:40.539   03 Jun 2027 11:32:20.063            39.524                Norilsk          1235.125
       294   03 Jun 2027 11:32:22.753   03 Jun 2027 11:32:40.168            17.415              Murmansk2           544.219
       295   03 Jun 2027 11:32:42.172   03 Jun 2027 11:33:41.875            59.703              Murmansk2          1865.719
       296   03 Jun 2027 12:11:18.986   03 Jun 2027 12:11:27.825             8.839            RioGallegos           276.219
       297   03 Jun 2027 12:12:03.236   03 Jun 2027 12:13:07.352            64.116            RioGallegos          2003.625
       298   03 Jun 2027 12:52:40.118   03 Jun 2027 12:54:43.432           123.314                  Delhi          3853.562
       299   03 Jun 2027 12:58:08.387   03 Jun 2027 12:58:11.593             3.206                Novosib           100.188
       300   03 Jun 2027 12:58:44.761   03 Jun 2027 12:59:20.406            35.645                Novosib          1113.906
       301   03 Jun 2027 13:00:08.357   03 Jun 2027 13:00:36.202            27.845                Novosib           870.156
       302   03 Jun 2027 13:02:11.659   03 Jun 2027 13:04:05.326           113.667                Norilsk          3552.094
       303   03 Jun 2027 13:05:35.552   03 Jun 2027 13:05:58.836            23.284                Norilsk           727.625
       304   03 Jun 2027 13:11:24.469   03 Jun 2027 13:11:47.551            23.082                Norilsk           721.312
       305   03 Jun 2027 14:34:42.344   03 Jun 2027 14:36:07.213            84.869                 Moscow          2652.156
       306   03 Jun 2027 14:37:13.277   03 Jun 2027 14:38:29.868            76.591                 Moscow          2393.469
       307   03 Jun 2027 14:39:22.153   03 Jun 2027 14:41:18.546           116.393              Murmansk2          3637.281
       308   03 Jun 2027 14:42:00.902   03 Jun 2027 14:43:38.670            97.768                Norilsk          3055.250
       309   03 Jun 2027 14:45:36.166   03 Jun 2027 14:47:00.146            83.980                Norilsk          2624.375
       310   03 Jun 2027 15:49:22.728   03 Jun 2027 15:52:22.602           179.874               CapeTown          5621.062
       311   03 Jun 2027 16:12:16.413   03 Jun 2027 16:12:22.078             5.665                 Moscow           177.031
       312   03 Jun 2027 16:15:09.203   03 Jun 2027 16:17:04.096           114.893              Murmansk2          3590.406
       313   03 Jun 2027 16:29:13.325   03 Jun 2027 16:31:51.949           158.624                Anadyr2          4957.000
       314   03 Jun 2027 17:24:10.767   03 Jun 2027 17:26:04.184           113.417               CapeTown          3544.281
       315   03 Jun 2027 17:54:25.039   03 Jun 2027 17:55:24.565            59.526              Murmansk2          1860.187
       316   03 Jun 2027 17:55:29.301   03 Jun 2027 17:57:32.330           123.029              Murmansk1          3844.656
       317   03 Jun 2027 17:59:10.136   03 Jun 2027 17:59:24.188            14.052              Murmansk1           439.125
       318   03 Jun 2027 18:04:45.338   03 Jun 2027 18:04:49.872             4.534                Anadyr2           141.688
       319   03 Jun 2027 18:05:46.778   03 Jun 2027 18:06:31.988            45.210                Anadyr1          1412.812
       320   03 Jun 2027 18:07:45.781   03 Jun 2027 18:08:06.099            20.318                Anadyr2           634.937
       321   03 Jun 2027 18:08:13.589   03 Jun 2027 18:08:58.581            44.992               Magadan1          1406.000
       322   03 Jun 2027 18:08:58.581   03 Jun 2027 18:08:59.222             0.641               Magadan2            20.031
       323   03 Jun 2027 18:10:07.536   03 Jun 2027 18:11:02.915            55.379               Magadan1          1730.594
       324   03 Jun 2027 18:14:09.815   03 Jun 2027 18:14:47.593            37.778               Magadan2          1180.562
       325   03 Jun 2027 19:06:02.579   03 Jun 2027 19:06:20.761            18.182               CapeTown           568.188
       326   03 Jun 2027 19:40:40.289   03 Jun 2027 19:42:25.509           105.220                Anadyr1          3288.125
       327   03 Jun 2027 19:42:40.041   03 Jun 2027 19:44:25.635           105.594                Anadyr2          3299.813
       328   03 Jun 2027 19:44:56.674   03 Jun 2027 19:47:27.537           150.863               Magadan1          4714.469
       329   03 Jun 2027 19:48:02.128   03 Jun 2027 19:48:07.881             5.753               Magadan1           179.781
       330   03 Jun 2027 19:48:46.064   03 Jun 2027 19:49:07.612            21.548               Magadan2           673.375
       331   03 Jun 2027 19:52:16.309   03 Jun 2027 19:53:40.634            84.325               Magadan1          2635.156
       332   03 Jun 2027 21:16:32.027   03 Jun 2027 21:20:12.308           220.281                Anadyr2          6883.781
       333   03 Jun 2027 21:20:15.555   03 Jun 2027 21:22:02.819           107.264               Magadan2          3352.000
       334   03 Jun 2027 21:22:26.920   03 Jun 2027 21:22:45.269            18.349               Magadan1           573.406
       335   03 Jun 2027 21:23:55.553   03 Jun 2027 21:24:16.127            20.574               Magadan1           642.938
       336   03 Jun 2027 21:24:22.113   03 Jun 2027 21:26:12.970           110.857                Irkutsk          3464.281
       337   03 Jun 2027 21:28:06.456   03 Jun 2027 21:29:41.826            95.370                Irkutsk          2980.313
       338   03 Jun 2027 21:40:12.285   03 Jun 2027 21:41:04.222            51.937                Sumatra          1623.031
       339   03 Jun 2027 21:41:26.897   03 Jun 2027 21:41:29.159             2.262                Sumatra            70.687
       340   03 Jun 2027 22:51:56.564   03 Jun 2027 22:52:47.976            51.412                Anadyr1          1606.625
       341   03 Jun 2027 22:53:19.942   03 Jun 2027 22:54:24.201            64.259                Anadyr2          2008.094
       342   03 Jun 2027 22:54:35.472   03 Jun 2027 22:55:38.054            62.582                Norilsk          1955.687
       343   03 Jun 2027 22:55:41.846   03 Jun 2027 22:56:05.629            23.783                Norilsk           743.219
       344   03 Jun 2027 22:57:22.449   03 Jun 2027 22:58:08.590            46.141               Magadan1          1441.906
       345   03 Jun 2027 22:59:19.968   03 Jun 2027 23:01:15.693           115.725                Novosib          3616.406
       346   03 Jun 2027 23:12:06.325   03 Jun 2027 23:12:26.247            19.922                Sumatra           622.562
       347   03 Jun 2027 23:16:45.878   03 Jun 2027 23:18:02.492            76.614                Sumatra          2394.187
       348   03 Jun 2027 23:52:56.670   03 Jun 2027 23:53:07.315            10.645            RioGallegos           332.656
       349   03 Jun 2027 23:53:15.486   03 Jun 2027 23:53:19.113             3.627            RioGallegos           113.344
       350   03 Jun 2027 23:55:58.348   03 Jun 2027 23:56:38.279            39.931            RioGallegos          1247.844
       351   04 Jun 2027 00:26:57.709   04 Jun 2027 00:27:59.936            62.227                Anadyr1          1944.594
       352   04 Jun 2027 00:27:59.936   04 Jun 2027 00:28:03.109             3.173                Anadyr2            99.156
       353   04 Jun 2027 00:28:08.405   04 Jun 2027 00:28:24.548            16.143                Anadyr2           504.469
       354   04 Jun 2027 00:28:49.674   04 Jun 2027 00:29:02.261            12.587                Anadyr1           393.344
       355   04 Jun 2027 00:30:23.846   04 Jun 2027 00:30:57.206            33.360                Norilsk          1042.500
       356   04 Jun 2027 00:31:01.673   04 Jun 2027 00:33:02.146           120.473               Magadan1          3764.781
       357   04 Jun 2027 00:33:49.781   04 Jun 2027 00:34:44.815            55.034              Murmansk2          1719.812
       358   04 Jun 2027 00:34:44.815   04 Jun 2027 00:35:43.603            58.788              Murmansk1          1837.125
       359   04 Jun 2027 00:38:59.794   04 Jun 2027 00:39:20.102            20.308                Novosib           634.625
       360   04 Jun 2027 00:41:39.012   04 Jun 2027 00:42:30.067            51.055                  Delhi          1595.469
       361   04 Jun 2027 00:45:32.014   04 Jun 2027 00:45:35.067             3.053                  Delhi            95.406
       362   04 Jun 2027 00:48:29.378   04 Jun 2027 00:48:53.577            24.199                  Delhi           756.219
       363   04 Jun 2027 00:49:26.654   04 Jun 2027 00:50:03.060            36.406                  Delhi          1137.687
       364   04 Jun 2027 01:23:19.986   04 Jun 2027 01:24:30.100            70.114            RioGallegos          2191.062
       365   04 Jun 2027 01:29:26.462   04 Jun 2027 01:30:21.680            55.218            RioGallegos          1725.563
       366   04 Jun 2027 01:59:37.211   04 Jun 2027 01:59:44.441             7.230                Anadyr2           225.938
       367   04 Jun 2027 02:01:13.667   04 Jun 2027 02:01:40.027            26.360                Anadyr2           823.750
       368   04 Jun 2027 02:02:40.110   04 Jun 2027 02:02:50.128            10.018                Anadyr2           313.063
       369   04 Jun 2027 02:02:53.012   04 Jun 2027 02:03:02.784             9.772                Anadyr2           305.375
       370   04 Jun 2027 02:03:55.766   04 Jun 2027 02:04:00.171             4.405                Anadyr1           137.656
       371   04 Jun 2027 02:05:24.558   04 Jun 2027 02:05:59.681            35.123                Anadyr1          1097.594
       372   04 Jun 2027 02:06:07.955   04 Jun 2027 02:06:51.764            43.809               Magadan2          1369.031
       373   04 Jun 2027 02:07:39.492   04 Jun 2027 02:08:28.023            48.531                Norilsk          1516.594
       374   04 Jun 2027 02:08:36.468   04 Jun 2027 02:08:41.319             4.851              Murmansk1           151.594
       375   04 Jun 2027 02:08:44.001   04 Jun 2027 02:10:05.340            81.339              Murmansk2          2541.844
       376   04 Jun 2027 02:10:14.561   04 Jun 2027 02:11:20.836            66.275                Novosib          2071.094
       377   04 Jun 2027 02:17:24.132   04 Jun 2027 02:17:42.999            18.867                Novosib           589.594
       378   04 Jun 2027 02:18:34.535   04 Jun 2027 02:18:54.260            19.725                  Delhi           616.406
       379   04 Jun 2027 02:21:41.819   04 Jun 2027 02:22:33.350            51.531                  Delhi          1610.344
       380   04 Jun 2027 02:40:49.165   04 Jun 2027 02:41:23.042            33.877               CapeTown          1058.656
       381   04 Jun 2027 02:46:02.531   04 Jun 2027 02:46:25.768            23.237               CapeTown           726.156
       382   04 Jun 2027 03:51:39.043   04 Jun 2027 03:51:42.163             3.120                Norilsk            97.500
       383   04 Jun 2027 03:52:00.791   04 Jun 2027 03:54:31.947           151.156                Novosib          4723.625
       384   04 Jun 2027 03:55:09.029   04 Jun 2027 03:57:03.806           114.777              Murmansk2          3586.781
       385   04 Jun 2027 03:57:04.748   04 Jun 2027 04:00:35.940           211.192                 Moscow          6599.750
       386   04 Jun 2027 04:11:40.195   04 Jun 2027 04:14:43.447           183.252               CapeTown          5726.625
       387   04 Jun 2027 04:15:25.612   04 Jun 2027 04:15:50.230            24.618               CapeTown           769.313
       388   04 Jun 2027 04:16:14.464   04 Jun 2027 04:16:22.286             7.822               CapeTown           244.438
       389   04 Jun 2027 04:24:04.315   04 Jun 2027 04:24:26.068            21.753               CapeTown           679.781
       390   04 Jun 2027 05:15:08.914   04 Jun 2027 05:15:30.323            21.409               Magadan1           669.031
       391   04 Jun 2027 05:15:36.078   04 Jun 2027 05:18:55.140           199.062                Anadyr2          6220.688
       392   04 Jun 2027 06:50:03.386   04 Jun 2027 06:51:16.414            73.028               Magadan1          2282.125
       393   04 Jun 2027 06:51:41.630   04 Jun 2027 06:53:43.034           121.404                Norilsk          3793.875
       394   04 Jun 2027 06:54:10.345   04 Jun 2027 06:57:06.725           176.380                Anadyr1          5511.875
       395   04 Jun 2027 06:57:11.486   04 Jun 2027 06:59:03.154           111.668                Norilsk          3489.625
       396   04 Jun 2027 06:59:10.402   04 Jun 2027 07:01:29.734           139.332              Murmansk1          4354.125
       397   04 Jun 2027 07:02:20.032   04 Jun 2027 07:02:28.343             8.311              Murmansk1           259.719
       398   04 Jun 2027 07:02:40.062   04 Jun 2027 07:03:32.729            52.667              Murmansk2          1645.844
       399   04 Jun 2027 07:35:33.779   04 Jun 2027 07:35:34.689             0.910            RioGallegos            28.437
       400   04 Jun 2027 07:37:13.894   04 Jun 2027 07:37:20.357             6.463            RioGallegos           201.969
       401   04 Jun 2027 07:38:31.114   04 Jun 2027 07:38:48.054            16.940            RioGallegos           529.375
       402   04 Jun 2027 08:24:01.299   04 Jun 2027 08:24:06.401             5.102               Magadan1           159.437
       403   04 Jun 2027 08:24:19.242   04 Jun 2027 08:24:48.143            28.901                Irkutsk           903.156
       404   04 Jun 2027 08:25:07.123   04 Jun 2027 08:25:17.344            10.221                Irkutsk           319.406
       405   04 Jun 2027 08:25:20.366   04 Jun 2027 08:26:13.861            53.495               Magadan2          1671.719
       406   04 Jun 2027 08:26:33.292   04 Jun 2027 08:26:41.038             7.746               Magadan2           242.063
       407   04 Jun 2027 08:26:43.402   04 Jun 2027 08:27:51.701            68.299               Magadan1          2134.344
       408   04 Jun 2027 08:27:59.206   04 Jun 2027 08:28:05.284             6.078                Irkutsk           189.938
       409   04 Jun 2027 08:28:46.801   04 Jun 2027 08:29:37.923            51.122                Novosib          1597.563
       410   04 Jun 2027 08:29:40.890   04 Jun 2027 08:30:10.729            29.839                Novosib           932.469
       411   04 Jun 2027 08:30:17.219   04 Jun 2027 08:31:07.137            49.918                Anadyr1          1559.937
       412   04 Jun 2027 08:31:10.882   04 Jun 2027 08:31:49.069            38.187               Magadan2          1193.344
       413   04 Jun 2027 08:31:56.608   04 Jun 2027 08:32:13.413            16.805                Norilsk           525.156
       414   04 Jun 2027 08:32:13.418   04 Jun 2027 08:32:32.924            19.506              Murmansk2           609.563
       415   04 Jun 2027 08:32:41.808   04 Jun 2027 08:33:11.713            29.905                Norilsk           934.531
       416   04 Jun 2027 08:33:18.713   04 Jun 2027 08:33:29.996            11.283              Murmansk2           352.594
       417   04 Jun 2027 08:34:33.465   04 Jun 2027 08:35:23.119            49.654              Murmansk2          1551.687
       418   04 Jun 2027 09:07:46.928   04 Jun 2027 09:08:40.312            53.384            RioGallegos          1668.250
       419   04 Jun 2027 09:45:27.270   04 Jun 2027 09:47:00.554            93.284                Sumatra          2915.125
       420   04 Jun 2027 10:01:36.356   04 Jun 2027 10:01:52.836            16.480               Magadan2           515.000
       421   04 Jun 2027 10:01:57.845   04 Jun 2027 10:02:05.771             7.926                Novosib           247.687
       422   04 Jun 2027 10:02:28.830   04 Jun 2027 10:02:30.326             1.496                Norilsk            46.750
       423   04 Jun 2027 10:02:49.787   04 Jun 2027 10:04:16.239            86.452                Irkutsk          2701.625
       424   04 Jun 2027 10:04:47.138   04 Jun 2027 10:05:00.370            13.232                Irkutsk           413.500
       425   04 Jun 2027 10:05:07.158   04 Jun 2027 10:05:53.174            46.016               Magadan1          1438.000
       426   04 Jun 2027 10:06:01.466   04 Jun 2027 10:06:09.534             8.068                Norilsk           252.125
       427   04 Jun 2027 10:06:10.660   04 Jun 2027 10:06:46.186            35.526               Magadan1          1110.187
       428   04 Jun 2027 10:06:47.233   04 Jun 2027 10:07:09.122            21.889              Murmansk1           684.031
       429   04 Jun 2027 10:07:17.308   04 Jun 2027 10:07:57.794            40.486              Murmansk1          1265.187
       430   04 Jun 2027 10:08:02.968   04 Jun 2027 10:08:15.398            12.430                Novosib           388.438
       431   04 Jun 2027 10:08:21.204   04 Jun 2027 10:08:41.561            20.357                Norilsk           636.156
       432   04 Jun 2027 10:08:47.213   04 Jun 2027 10:09:41.570            54.357              Murmansk2          1698.656
       433   04 Jun 2027 10:43:35.521   04 Jun 2027 10:43:49.467            13.946            RioGallegos           435.812
       434   04 Jun 2027 10:44:41.683   04 Jun 2027 10:45:18.943            37.260            RioGallegos          1164.375
       435   04 Jun 2027 11:19:45.439   04 Jun 2027 11:20:42.680            57.241                Sumatra          1788.781
       436   04 Jun 2027 11:27:49.823   04 Jun 2027 11:27:56.724             6.901                  Delhi           215.656
       437   04 Jun 2027 11:30:50.211   04 Jun 2027 11:31:21.516            31.305                  Delhi           978.281
       438   04 Jun 2027 11:38:27.771   04 Jun 2027 11:39:55.126            87.355                Norilsk          2729.844
       439   04 Jun 2027 11:40:13.489   04 Jun 2027 11:40:25.144            11.655              Murmansk1           364.219
       440   04 Jun 2027 11:40:25.555   04 Jun 2027 11:40:43.447            17.892              Murmansk2           559.125
       441   04 Jun 2027 11:40:49.825   04 Jun 2027 11:41:39.791            49.966                Novosib          1561.438
       442   04 Jun 2027 11:41:40.731   04 Jun 2027 11:41:45.062             4.331              Murmansk1           135.344
       443   04 Jun 2027 11:41:46.823   04 Jun 2027 11:42:00.594            13.771                Norilsk           430.344
       444   04 Jun 2027 11:42:03.632   04 Jun 2027 11:42:29.546            25.914                Norilsk           809.813
       445   04 Jun 2027 11:42:44.293   04 Jun 2027 11:43:13.783            29.490                 Moscow           921.562
       446   04 Jun 2027 11:43:40.582   04 Jun 2027 11:44:56.165            75.583                 Moscow          2361.969
       447   04 Jun 2027 12:24:43.183   04 Jun 2027 12:26:26.891           103.708            RioGallegos          3240.875
       448   04 Jun 2027 13:05:20.108   04 Jun 2027 13:07:12.384           112.276                  Delhi          3508.625
       449   04 Jun 2027 13:10:33.635   04 Jun 2027 13:11:26.908            53.273                Novosib          1664.781
       450   04 Jun 2027 13:14:28.217   04 Jun 2027 13:15:35.482            67.265                Novosib          2102.031
       451   04 Jun 2027 13:15:43.851   04 Jun 2027 13:16:22.965            39.114              Murmansk2          1222.312
       452   04 Jun 2027 13:16:51.776   04 Jun 2027 13:17:33.633            41.857                Norilsk          1308.031
       453   04 Jun 2027 13:24:13.829   04 Jun 2027 13:24:17.744             3.915                Norilsk           122.344
       454   04 Jun 2027 14:46:42.770   04 Jun 2027 14:50:01.714           198.944                 Moscow          6217.000
       455   04 Jun 2027 14:50:11.713   04 Jun 2027 14:53:30.943           199.230              Murmansk1          6225.937
       456   04 Jun 2027 14:54:45.814   04 Jun 2027 14:56:00.692            74.878                Norilsk          2339.937
       457   04 Jun 2027 14:57:47.835   04 Jun 2027 14:59:31.959           104.124                Norilsk          3253.875
       458   04 Jun 2027 16:10:49.388   04 Jun 2027 16:10:54.721             5.333               CapeTown           166.656
       459   04 Jun 2027 16:10:59.317   04 Jun 2027 16:11:20.205            20.888               CapeTown           652.750
       460   04 Jun 2027 16:11:40.718   04 Jun 2027 16:12:07.882            27.164               CapeTown           848.875
       461   04 Jun 2027 16:24:27.632   04 Jun 2027 16:25:12.405            44.773                 Moscow          1399.156
       462   04 Jun 2027 16:27:27.520   04 Jun 2027 16:27:48.315            20.795              Murmansk1           649.844
       463   04 Jun 2027 16:29:29.427   04 Jun 2027 16:29:43.186            13.759              Murmansk1           429.969
       464   04 Jun 2027 16:31:08.377   04 Jun 2027 16:31:35.189            26.812              Murmansk2           837.875
       465   04 Jun 2027 16:33:35.159   04 Jun 2027 16:34:16.653            41.494              Murmansk1          1296.688
       466   04 Jun 2027 16:38:24.618   04 Jun 2027 16:39:04.922            40.304              Murmansk1          1259.500
       467   04 Jun 2027 16:41:08.630   04 Jun 2027 16:42:21.559            72.929                Anadyr1          2279.031
       468   04 Jun 2027 16:43:05.322   04 Jun 2027 16:43:52.858            47.536                Anadyr2          1485.500
       469   04 Jun 2027 16:50:38.794   04 Jun 2027 16:50:40.265             1.471                Anadyr2            45.969
       470   04 Jun 2027 17:36:17.912   04 Jun 2027 17:37:02.976            45.064               CapeTown          1408.250
       471   04 Jun 2027 17:40:47.286   04 Jun 2027 17:41:01.504            14.218               CapeTown           444.313
       472   04 Jun 2027 17:44:24.524   04 Jun 2027 17:45:10.579            46.055               CapeTown          1439.219
       473   04 Jun 2027 18:07:04.798   04 Jun 2027 18:11:09.017           244.219              Murmansk2          7631.844
       474   04 Jun 2027 18:16:46.249   04 Jun 2027 18:16:50.866             4.617                Anadyr1           144.281
       475   04 Jun 2027 18:17:07.685   04 Jun 2027 18:17:37.033            29.348                Anadyr2           917.125
       476   04 Jun 2027 18:19:57.271   04 Jun 2027 18:21:29.033            91.762               Magadan2          2867.563
       477   04 Jun 2027 18:24:34.491   04 Jun 2027 18:24:45.880            11.389               Magadan2           355.906
       478   04 Jun 2027 18:26:04.089   04 Jun 2027 18:26:17.788            13.699               Magadan1           428.094
       479   04 Jun 2027 18:27:59.734   04 Jun 2027 18:28:34.840            35.106               Magadan1          1097.063
       480   04 Jun 2027 19:52:41.869   04 Jun 2027 19:56:28.516           226.647                Anadyr1          7082.719
       481   04 Jun 2027 19:57:01.091   04 Jun 2027 19:58:35.267            94.176               Magadan1          2943.000
       482   04 Jun 2027 19:58:50.071   04 Jun 2027 19:59:53.817            63.746               Magadan2          1992.063
