uniorb/output/strategy_1/Drop/Drop_KinoSat_111409.txt

KinoSat_111409
-------------------------
    Access    *     Start Time (UTCG)     *     Stop Time (UTCG)  *   Duration (s)        *       Station  *  Data (Mbytes)
         1   01 Jun 2027 04:24:22.166   01 Jun 2027 04:24:24.191             2.025                Norilsk            63.281
         2   01 Jun 2027 04:24:25.965   01 Jun 2027 04:25:11.408            45.443              Murmansk2          1420.094
         3   01 Jun 2027 04:25:26.086   01 Jun 2027 04:27:59.436           153.350              Murmansk1          4792.187
         4   01 Jun 2027 04:49:17.226   01 Jun 2027 04:51:18.294           121.068               CapeTown          3783.375
         5   01 Jun 2027 05:45:56.453   01 Jun 2027 05:46:30.351            33.898                Anadyr2          1059.312
         6   01 Jun 2027 05:47:19.736   01 Jun 2027 05:49:30.861           131.125               Magadan2          4097.656
         7   01 Jun 2027 05:49:30.861   01 Jun 2027 05:49:39.095             8.234               Magadan1           257.312
         8   01 Jun 2027 05:49:56.971   01 Jun 2027 05:51:06.824            69.853                Anadyr2          2182.906
         9   01 Jun 2027 05:51:27.106   01 Jun 2027 05:51:57.962            30.856               Magadan2           964.250
        10   01 Jun 2027 07:24:06.043   01 Jun 2027 07:24:14.185             8.142               Magadan2           254.437
        11   01 Jun 2027 07:24:26.291   01 Jun 2027 07:25:14.175            47.884                Anadyr2          1496.375
        12   01 Jun 2027 07:25:14.175   01 Jun 2027 07:27:28.458           134.283                Anadyr1          4196.344
        13   01 Jun 2027 07:27:32.825   01 Jun 2027 07:28:38.571            65.746              Murmansk1          2054.563
        14   01 Jun 2027 07:32:10.264   01 Jun 2027 07:32:19.958             9.694                 Moscow           302.937
        15   01 Jun 2027 07:33:09.772   01 Jun 2027 07:33:21.775            12.003                 Moscow           375.094
        16   01 Jun 2027 08:04:59.538   01 Jun 2027 08:05:48.570            49.032            RioGallegos          1532.250
        17   01 Jun 2027 08:05:57.680   01 Jun 2027 08:06:11.531            13.851            RioGallegos           432.844
        18   01 Jun 2027 08:57:45.267   01 Jun 2027 08:57:59.700            14.433                Irkutsk           451.031
        19   01 Jun 2027 08:58:37.201   01 Jun 2027 08:59:27.660            50.459                Irkutsk          1576.844
        20   01 Jun 2027 08:59:51.265   01 Jun 2027 09:00:44.165            52.900                Irkutsk          1653.125
        21   01 Jun 2027 09:00:44.773   01 Jun 2027 09:01:33.760            48.987                Norilsk          1530.844
        22   01 Jun 2027 09:01:40.143   01 Jun 2027 09:03:20.405           100.262                Irkutsk          3133.188
        23   01 Jun 2027 09:03:23.555   01 Jun 2027 09:03:29.223             5.668               Magadan1           177.125
        24   01 Jun 2027 09:03:32.094   01 Jun 2027 09:03:55.702            23.608              Murmansk1           737.750
        25   01 Jun 2027 09:38:26.125   01 Jun 2027 09:40:37.719           131.594            RioGallegos          4112.312
        26   01 Jun 2027 10:14:23.440   01 Jun 2027 10:15:11.991            48.551                Sumatra          1517.219
        27   01 Jun 2027 10:35:00.128   01 Jun 2027 10:38:50.564           230.436                Irkutsk          7201.125
        28   01 Jun 2027 10:39:01.989   01 Jun 2027 10:39:51.821            49.832              Murmansk1          1557.250
        29   01 Jun 2027 11:15:28.210   01 Jun 2027 11:15:55.242            27.032            RioGallegos           844.750
        30   01 Jun 2027 11:16:32.471   01 Jun 2027 11:17:11.576            39.105            RioGallegos          1222.031
        31   01 Jun 2027 11:18:29.047   01 Jun 2027 11:19:38.302            69.255            RioGallegos          2164.219
        32   01 Jun 2027 11:49:43.116   01 Jun 2027 11:51:12.297            89.181                Sumatra          2786.906
        33   01 Jun 2027 12:04:56.481   01 Jun 2027 12:05:17.914            21.433                Irkutsk           669.781
        34   01 Jun 2027 12:07:57.770   01 Jun 2027 12:08:18.056            20.286                Irkutsk           633.938
        35   01 Jun 2027 12:09:02.187   01 Jun 2027 12:09:58.721            56.534                Irkutsk          1766.687
        36   01 Jun 2027 13:36:03.227   01 Jun 2027 13:37:53.302           110.075                  Delhi          3439.844
        37   01 Jun 2027 13:38:39.683   01 Jun 2027 13:39:48.093            68.410                  Delhi          2137.812
        38   01 Jun 2027 13:45:37.407   01 Jun 2027 13:46:15.040            37.633                Novosib          1176.031
        39   01 Jun 2027 13:47:36.752   01 Jun 2027 13:47:58.622            21.870                Novosib           683.437
        40   01 Jun 2027 13:54:19.872   01 Jun 2027 13:54:46.579            26.707                Norilsk           834.594
        41   01 Jun 2027 13:54:55.785   01 Jun 2027 13:56:34.328            98.543                Norilsk          3079.469
        42   01 Jun 2027 15:21:59.063   01 Jun 2027 15:22:12.426            13.363                 Moscow           417.594
        43   01 Jun 2027 15:22:35.140   01 Jun 2027 15:22:48.001            12.861              Murmansk1           401.906
        44   01 Jun 2027 15:22:55.250   01 Jun 2027 15:23:19.971            24.721              Murmansk1           772.531
        45   01 Jun 2027 15:24:37.857   01 Jun 2027 15:24:44.219             6.362              Murmansk2           198.813
        46   01 Jun 2027 15:24:53.364   01 Jun 2027 15:25:29.408            36.044              Murmansk1          1126.375
        47   01 Jun 2027 15:26:41.397   01 Jun 2027 15:27:04.407            23.010              Murmansk1           719.063
        48   01 Jun 2027 15:28:13.198   01 Jun 2027 15:30:36.577           143.379                Norilsk          4480.594
        49   01 Jun 2027 15:38:00.228   01 Jun 2027 15:38:00.953             0.725                Anadyr1            22.656
        50   01 Jun 2027 15:38:22.498   01 Jun 2027 15:38:33.010            10.512                Anadyr1           328.500
        51   01 Jun 2027 15:38:37.185   01 Jun 2027 15:39:02.933            25.748                Anadyr1           804.625
        52   01 Jun 2027 16:37:38.353   01 Jun 2027 16:37:58.210            19.857               CapeTown           620.531
        53   01 Jun 2027 16:38:29.524   01 Jun 2027 16:38:55.583            26.059               CapeTown           814.344
        54   01 Jun 2027 16:41:53.930   01 Jun 2027 16:43:08.346            74.416               CapeTown          2325.500
        55   01 Jun 2027 17:01:07.335   01 Jun 2027 17:01:57.161            49.826                 Moscow          1557.062
        56   01 Jun 2027 17:02:13.476   01 Jun 2027 17:02:21.520             8.044                 Moscow           251.375
        57   01 Jun 2027 17:02:57.876   01 Jun 2027 17:03:36.884            39.008                 Moscow          1219.000
        58   01 Jun 2027 17:07:07.729   01 Jun 2027 17:07:55.249            47.520              Murmansk1          1485.000
        59   01 Jun 2027 17:12:35.041   01 Jun 2027 17:13:02.540            27.499                Anadyr2           859.344
        60   01 Jun 2027 17:14:01.816   01 Jun 2027 17:14:27.083            25.267                Anadyr2           789.594
        61   01 Jun 2027 17:16:50.514   01 Jun 2027 17:17:01.853            11.339                Anadyr2           354.344
        62   01 Jun 2027 17:17:10.462   01 Jun 2027 17:17:25.260            14.798                Anadyr1           462.438
        63   01 Jun 2027 17:17:59.092   01 Jun 2027 17:18:13.811            14.719                Anadyr1           459.969
        64   01 Jun 2027 17:20:15.761   01 Jun 2027 17:20:41.851            26.090                Anadyr2           815.313
        65   01 Jun 2027 18:14:18.347   01 Jun 2027 18:14:36.609            18.262               CapeTown           570.687
        66   01 Jun 2027 18:17:42.632   01 Jun 2027 18:18:23.385            40.753               CapeTown          1273.531
        67   01 Jun 2027 18:40:09.508   01 Jun 2027 18:45:10.143           300.635              Murmansk2          9394.844
        68   01 Jun 2027 18:54:54.474   01 Jun 2027 18:54:59.694             5.220               Magadan2           163.125
        69   01 Jun 2027 18:55:56.387   01 Jun 2027 18:56:34.947            38.560               Magadan2          1205.000
        70   01 Jun 2027 18:57:47.588   01 Jun 2027 18:58:03.869            16.281               Magadan1           508.781
        71   01 Jun 2027 18:59:07.689   01 Jun 2027 19:00:03.258            55.569               Magadan2          1736.531
        72   01 Jun 2027 20:23:46.050   01 Jun 2027 20:27:49.063           243.013                Anadyr2          7594.156
        73   01 Jun 2027 20:27:54.438   01 Jun 2027 20:29:17.794            83.356               Magadan1          2604.875
        74   01 Jun 2027 20:30:25.042   01 Jun 2027 20:30:44.442            19.400               Magadan1           606.250
        75   01 Jun 2027 20:33:22.131   01 Jun 2027 20:33:42.457            20.326               Magadan1           635.187
        76   01 Jun 2027 20:36:27.848   01 Jun 2027 20:36:34.637             6.789               Magadan1           212.156
        77   01 Jun 2027 20:36:44.327   01 Jun 2027 20:37:13.645            29.318               Magadan2           916.188
        78   01 Jun 2027 21:18:43.715   01 Jun 2027 21:20:53.878           130.163            RioGallegos          4067.594
        79   01 Jun 2027 21:23:14.885   01 Jun 2027 21:23:34.110            19.225            RioGallegos           600.781
        80   01 Jun 2027 21:23:54.349   01 Jun 2027 21:23:59.149             4.800            RioGallegos           150.000
        81   01 Jun 2027 21:24:34.905   01 Jun 2027 21:25:17.289            42.384            RioGallegos          1324.500
        82   01 Jun 2027 21:59:29.402   01 Jun 2027 21:59:58.904            29.502                Anadyr1           921.938
        83   01 Jun 2027 22:01:37.632   01 Jun 2027 22:03:23.010           105.378                Norilsk          3293.062
        84   01 Jun 2027 22:03:38.012   01 Jun 2027 22:03:53.071            15.059               Magadan1           470.594
        85   01 Jun 2027 22:06:03.989   01 Jun 2027 22:06:52.012            48.023                Irkutsk          1500.719
        86   01 Jun 2027 22:08:36.832   01 Jun 2027 22:09:28.759            51.927                Irkutsk          1622.719
        87   01 Jun 2027 22:12:02.572   01 Jun 2027 22:12:16.819            14.247                Irkutsk           445.219
        88   01 Jun 2027 22:14:25.768   01 Jun 2027 22:14:47.317            21.549                Irkutsk           673.406
        89   01 Jun 2027 22:15:05.802   01 Jun 2027 22:15:31.091            25.289                Irkutsk           790.281
        90   01 Jun 2027 22:21:36.341   01 Jun 2027 22:22:23.620            47.279                Sumatra          1477.469
        91   01 Jun 2027 22:30:23.417   01 Jun 2027 22:31:06.775            43.358                Sumatra          1354.938
        92   01 Jun 2027 23:04:43.373   01 Jun 2027 23:05:03.969            20.596            RioGallegos           643.625
        93   01 Jun 2027 23:34:29.693   01 Jun 2027 23:35:30.064            60.371                Anadyr1          1886.594
        94   01 Jun 2027 23:36:50.452   01 Jun 2027 23:37:11.558            21.106                Anadyr1           659.563
        95   01 Jun 2027 23:37:27.959   01 Jun 2027 23:37:41.381            13.422                Anadyr2           419.438
        96   01 Jun 2027 23:38:09.834   01 Jun 2027 23:39:53.671           103.837               Magadan2          3244.906
        97   01 Jun 2027 23:41:00.629   01 Jun 2027 23:41:12.864            12.235                Norilsk           382.344
        98   01 Jun 2027 23:41:19.137   01 Jun 2027 23:41:20.696             1.559               Magadan1            48.719
        99   01 Jun 2027 23:41:23.200   01 Jun 2027 23:43:40.644           137.444                Irkutsk          4295.125
       100   01 Jun 2027 23:48:22.577   01 Jun 2027 23:49:54.907            92.330                Novosib          2885.312
       101   01 Jun 2027 23:53:42.663   01 Jun 2027 23:53:45.197             2.534                  Delhi            79.187
       102   01 Jun 2027 23:54:35.105   01 Jun 2027 23:54:45.343            10.238                  Delhi           319.938
       103   01 Jun 2027 23:54:56.253   01 Jun 2027 23:56:19.967            83.714                  Delhi          2616.063
       104   02 Jun 2027 01:08:16.611   02 Jun 2027 01:08:58.371            41.760                Anadyr2          1305.000
       105   02 Jun 2027 01:08:58.371   02 Jun 2027 01:09:23.536            25.165                Anadyr1           786.406
       106   02 Jun 2027 01:10:03.998   02 Jun 2027 01:10:39.542            35.544                Anadyr2          1110.750
       107   02 Jun 2027 01:13:21.917   02 Jun 2027 01:13:45.792            23.875                Anadyr2           746.094
       108   02 Jun 2027 01:13:58.033   02 Jun 2027 01:14:43.375            45.342               Magadan2          1416.937
       109   02 Jun 2027 01:14:43.375   02 Jun 2027 01:15:44.836            61.461               Magadan1          1920.656
       110   02 Jun 2027 01:15:56.726   02 Jun 2027 01:16:07.153            10.427               Magadan1           325.844
       111   02 Jun 2027 01:16:56.398   02 Jun 2027 01:18:41.666           105.268              Murmansk1          3289.625
       112   02 Jun 2027 01:20:46.010   02 Jun 2027 01:21:03.989            17.979                Irkutsk           561.844
       113   02 Jun 2027 01:22:40.091   02 Jun 2027 01:22:58.242            18.151              Murmansk2           567.219
       114   02 Jun 2027 01:24:41.671   02 Jun 2027 01:25:10.618            28.947                  Delhi           904.594
       115   02 Jun 2027 01:28:49.170   02 Jun 2027 01:28:55.651             6.481                  Delhi           202.531
       116   02 Jun 2027 01:29:55.925   02 Jun 2027 01:30:05.811             9.886                  Delhi           308.937
       117   02 Jun 2027 01:33:00.756   02 Jun 2027 01:33:23.153            22.397                  Delhi           699.906
       118   02 Jun 2027 02:07:33.551   02 Jun 2027 02:08:17.180            43.629            RioGallegos          1363.406
       119   02 Jun 2027 02:09:20.935   02 Jun 2027 02:10:33.335            72.400            RioGallegos          2262.500
       120   02 Jun 2027 02:41:34.857   02 Jun 2027 02:41:51.372            16.515                Anadyr1           516.094
       121   02 Jun 2027 02:41:58.453   02 Jun 2027 02:43:01.697            63.244                Anadyr2          1976.375
       122   02 Jun 2027 02:44:24.804   02 Jun 2027 02:44:43.716            18.912                Anadyr1           591.000
       123   02 Jun 2027 02:47:12.327   02 Jun 2027 02:48:07.935            55.608               Magadan1          1737.750
       124   02 Jun 2027 02:49:11.580   02 Jun 2027 02:49:30.999            19.419               Magadan2           606.844
       125   02 Jun 2027 02:49:38.109   02 Jun 2027 02:49:42.672             4.563                Norilsk           142.594
       126   02 Jun 2027 02:51:07.743   02 Jun 2027 02:51:09.913             2.170               Magadan2            67.812
       127   02 Jun 2027 02:51:20.201   02 Jun 2027 02:51:33.665            13.464                Norilsk           420.750
       128   02 Jun 2027 02:51:39.413   02 Jun 2027 02:52:36.521            57.108              Murmansk1          1784.625
       129   02 Jun 2027 02:52:42.134   02 Jun 2027 02:53:23.316            41.182              Murmansk2          1286.937
       130   02 Jun 2027 02:53:33.289   02 Jun 2027 02:53:57.592            24.303                Novosib           759.469
       131   02 Jun 2027 02:54:49.244   02 Jun 2027 02:55:07.805            18.561                Novosib           580.031
       132   02 Jun 2027 02:59:56.734   02 Jun 2027 03:00:21.663            24.929                Novosib           779.031
       133   02 Jun 2027 03:00:43.765   02 Jun 2027 03:01:11.758            27.993              Murmansk1           874.781
       134   02 Jun 2027 03:01:14.879   02 Jun 2027 03:02:01.732            46.853              Murmansk2          1464.156
       135   02 Jun 2027 03:20:06.983   02 Jun 2027 03:20:36.688            29.705               CapeTown           928.281
       136   02 Jun 2027 04:35:47.397   02 Jun 2027 04:36:12.788            25.391                Norilsk           793.469
       137   02 Jun 2027 04:36:16.407   02 Jun 2027 04:37:29.414            73.007              Murmansk1          2281.469
       138   02 Jun 2027 04:37:45.145   02 Jun 2027 04:39:03.439            78.294              Murmansk1          2446.687
       139   02 Jun 2027 04:39:17.829   02 Jun 2027 04:39:50.613            32.784              Murmansk1          1024.500
       140   02 Jun 2027 04:54:57.609   02 Jun 2027 04:56:54.503           116.894               CapeTown          3652.937
       141   02 Jun 2027 05:58:19.488   02 Jun 2027 05:58:36.416            16.928               Magadan1           529.000
       142   02 Jun 2027 05:58:36.416   02 Jun 2027 06:01:18.932           162.516               Magadan2          5078.625
       143   02 Jun 2027 07:36:09.456   02 Jun 2027 07:37:47.973            98.517               Magadan2          3078.656
       144   02 Jun 2027 07:38:37.671   02 Jun 2027 07:39:59.736            82.065                Anadyr2          2564.531
       145   02 Jun 2027 09:10:33.544   02 Jun 2027 09:11:20.815            47.271               Magadan2          1477.219
       146   02 Jun 2027 09:11:50.689   02 Jun 2027 09:12:52.429            61.740                Irkutsk          1929.375
       147   02 Jun 2027 09:12:52.975   02 Jun 2027 09:15:19.898           146.923               Magadan2          4591.344
       148   02 Jun 2027 09:15:19.898   02 Jun 2027 09:15:22.295             2.397               Magadan1            74.906
       149   02 Jun 2027 10:25:57.711   02 Jun 2027 10:27:26.625            88.914                Sumatra          2778.563
       150   02 Jun 2027 10:46:27.634   02 Jun 2027 10:47:29.554            61.920                Irkutsk          1935.000
       151   02 Jun 2027 10:47:58.341   02 Jun 2027 10:49:56.944           118.603                Irkutsk          3706.344
       152   02 Jun 2027 10:50:29.521   02 Jun 2027 10:50:50.363            20.842                Norilsk           651.312
       153   02 Jun 2027 10:50:53.610   02 Jun 2027 10:51:15.597            21.987              Murmansk2           687.094
       154   02 Jun 2027 10:51:17.506   02 Jun 2027 10:52:50.852            93.346                Norilsk          2917.062
       155   02 Jun 2027 11:27:57.492   02 Jun 2027 11:28:44.143            46.651            RioGallegos          1457.844
       156   02 Jun 2027 11:30:26.948   02 Jun 2027 11:31:36.800            69.852            RioGallegos          2182.875
       157   02 Jun 2027 12:02:10.005   02 Jun 2027 12:03:19.805            69.800                Sumatra          2181.250
       158   02 Jun 2027 12:05:25.471   02 Jun 2027 12:05:58.243            32.772                Sumatra          1024.125
       159   02 Jun 2027 12:06:28.115   02 Jun 2027 12:07:25.791            57.676                Sumatra          1802.375
       160   02 Jun 2027 12:17:38.932   02 Jun 2027 12:17:44.064             5.132                Irkutsk           160.375
       161   02 Jun 2027 12:17:49.939   02 Jun 2027 12:17:53.184             3.245                Novosib           101.406
       162   02 Jun 2027 12:18:19.296   02 Jun 2027 12:20:53.631           154.335                Irkutsk          4822.969
       163   02 Jun 2027 12:22:10.008   02 Jun 2027 12:22:30.390            20.382                Irkutsk           636.938
       164   02 Jun 2027 12:23:16.543   02 Jun 2027 12:23:46.166            29.623                Norilsk           925.719
       165   02 Jun 2027 13:47:20.568   02 Jun 2027 13:52:14.480           293.912                  Delhi          9184.750
       166   02 Jun 2027 13:57:01.332   02 Jun 2027 13:57:18.067            16.735                Novosib           522.969
       167   02 Jun 2027 13:57:33.054   02 Jun 2027 13:58:13.522            40.468              Murmansk1          1264.625
       168   02 Jun 2027 13:59:12.651   02 Jun 2027 13:59:34.899            22.248                Norilsk           695.250
       169   02 Jun 2027 13:59:36.712   02 Jun 2027 14:00:34.662            57.950                Novosib          1810.937
       170   02 Jun 2027 14:02:23.893   02 Jun 2027 14:02:40.066            16.173                Norilsk           505.406
       171   02 Jun 2027 15:12:07.947   02 Jun 2027 15:12:53.509            45.562               CapeTown          1423.812
       172   02 Jun 2027 15:14:06.933   02 Jun 2027 15:14:29.691            22.758               CapeTown           711.187
       173   02 Jun 2027 15:30:09.514   02 Jun 2027 15:31:26.335            76.821                 Moscow          2400.656
       174   02 Jun 2027 15:33:39.091   02 Jun 2027 15:34:33.994            54.903              Murmansk1          1715.719
       175   02 Jun 2027 15:36:54.169   02 Jun 2027 15:37:31.576            37.407              Murmansk2          1168.969
       176   02 Jun 2027 15:49:05.356   02 Jun 2027 15:49:58.553            53.197                Anadyr1          1662.406
       177   02 Jun 2027 15:50:06.161   02 Jun 2027 15:50:47.864            41.703                Anadyr2          1303.219
       178   02 Jun 2027 16:43:24.336   02 Jun 2027 16:44:17.579            53.243               CapeTown          1663.844
       179   02 Jun 2027 16:46:25.982   02 Jun 2027 16:47:05.127            39.145               CapeTown          1223.281
       180   02 Jun 2027 17:10:06.980   02 Jun 2027 17:14:01.591           234.611                 Moscow          7331.594
       181   02 Jun 2027 17:16:57.840   02 Jun 2027 17:17:05.365             7.525              Murmansk2           235.156
       182   02 Jun 2027 17:24:01.776   02 Jun 2027 17:24:48.298            46.522                Anadyr1          1453.812
       183   02 Jun 2027 17:24:52.363   02 Jun 2027 17:25:15.054            22.691                Anadyr1           709.094
       184   02 Jun 2027 17:26:12.154   02 Jun 2027 17:26:29.428            17.274                Anadyr1           539.813
       185   02 Jun 2027 17:31:13.069   02 Jun 2027 17:31:29.371            16.302                Anadyr2           509.438
       186   02 Jun 2027 18:24:20.674   02 Jun 2027 18:25:19.633            58.959               CapeTown          1842.469
       187   02 Jun 2027 18:53:13.227   02 Jun 2027 18:56:59.320           226.093              Murmansk2          7065.406
       188   02 Jun 2027 18:59:51.670   02 Jun 2027 18:59:53.982             2.312                Anadyr2            72.250
       189   02 Jun 2027 19:01:01.930   02 Jun 2027 19:01:39.485            37.555                Anadyr2          1173.594
       190   02 Jun 2027 19:02:27.896   02 Jun 2027 19:02:40.339            12.443               Magadan2           388.844
       191   02 Jun 2027 19:02:40.339   02 Jun 2027 19:03:16.008            35.669               Magadan1          1114.656
       192   02 Jun 2027 19:03:39.591   02 Jun 2027 19:04:21.210            41.619               Magadan2          1300.594
       193   02 Jun 2027 19:04:48.214   02 Jun 2027 19:05:13.494            25.280               Magadan1           790.000
       194   02 Jun 2027 19:07:36.015   02 Jun 2027 19:08:15.585            39.570               Magadan2          1236.563
       195   02 Jun 2027 20:35:47.151   02 Jun 2027 20:39:01.983           194.832                Anadyr2          6088.500
       196   02 Jun 2027 20:39:02.730   02 Jun 2027 20:39:33.325            30.595                Norilsk           956.094
       197   02 Jun 2027 20:39:35.084   02 Jun 2027 20:42:27.634           172.550               Magadan1          5392.188
       198   02 Jun 2027 21:30:26.473   02 Jun 2027 21:32:49.645           143.172            RioGallegos          4474.125
       199   02 Jun 2027 22:11:27.143   02 Jun 2027 22:12:00.643            33.500                Anadyr2          1046.875
       200   02 Jun 2027 22:12:59.857   02 Jun 2027 22:14:13.554            73.697                Anadyr2          2303.031
       201   02 Jun 2027 22:14:19.746   02 Jun 2027 22:15:45.503            85.757               Magadan2          2679.906
       202   02 Jun 2027 22:16:15.347   02 Jun 2027 22:16:57.358            42.011               Magadan2          1312.844
       203   02 Jun 2027 22:17:55.102   02 Jun 2027 22:18:31.031            35.929                Irkutsk          1122.781
       204   02 Jun 2027 22:18:51.504   02 Jun 2027 22:19:16.839            25.335                Irkutsk           791.719
       205   02 Jun 2027 22:20:50.624   02 Jun 2027 22:21:25.289            34.665                Novosib          1083.281
       206   02 Jun 2027 22:32:22.421   02 Jun 2027 22:33:13.611            51.190                Sumatra          1599.687
       207   02 Jun 2027 22:34:00.984   02 Jun 2027 22:35:05.541            64.557                Sumatra          2017.406
       208   02 Jun 2027 23:46:19.111   02 Jun 2027 23:46:49.906            30.795                Anadyr1           962.344
       209   02 Jun 2027 23:47:27.952   02 Jun 2027 23:47:48.402            20.450                Anadyr1           639.062
       210   02 Jun 2027 23:48:36.273   02 Jun 2027 23:49:05.765            29.492                Anadyr2           921.625
       211   02 Jun 2027 23:49:33.340   02 Jun 2027 23:49:53.091            19.751                Norilsk           617.219
       212   02 Jun 2027 23:50:12.422   02 Jun 2027 23:51:40.712            88.290               Magadan2          2759.063
       213   02 Jun 2027 23:52:48.656   02 Jun 2027 23:53:20.439            31.783                Norilsk           993.219
       214   02 Jun 2027 23:53:25.190   02 Jun 2027 23:53:59.282            34.092                Irkutsk          1065.375
       215   02 Jun 2027 23:54:16.013   02 Jun 2027 23:54:46.559            30.546                Irkutsk           954.563
       216   02 Jun 2027 23:55:41.342   02 Jun 2027 23:56:21.491            40.149                Novosib          1254.656
       217   02 Jun 2027 23:58:16.488   02 Jun 2027 23:58:30.131            13.643                Novosib           426.344
       218   03 Jun 2027 00:00:05.331   03 Jun 2027 00:00:19.777            14.446                Novosib           451.438
       219   03 Jun 2027 00:01:40.364   03 Jun 2027 00:02:31.136            50.772                  Delhi          1586.625
       220   03 Jun 2027 00:05:40.394   03 Jun 2027 00:06:47.092            66.698                  Delhi          2084.312
       221   03 Jun 2027 00:43:36.617   03 Jun 2027 00:44:44.091            67.474            RioGallegos          2108.562
       222   03 Jun 2027 01:19:58.027   03 Jun 2027 01:20:17.013            18.986                Anadyr1           593.312
       223   03 Jun 2027 01:20:49.943   03 Jun 2027 01:21:24.066            34.123                Anadyr2          1066.344
       224   03 Jun 2027 01:22:05.340   03 Jun 2027 01:22:48.043            42.703                Anadyr2          1334.469
       225   03 Jun 2027 01:25:33.390   03 Jun 2027 01:25:43.750            10.360                Norilsk           323.750
       226   03 Jun 2027 01:25:52.468   03 Jun 2027 01:28:08.054           135.586               Magadan1          4237.063
       227   03 Jun 2027 01:28:53.320   03 Jun 2027 01:30:36.367           103.047              Murmansk1          3220.219
       228   03 Jun 2027 01:32:49.368   03 Jun 2027 01:32:53.665             4.297                Novosib           134.281
       229   03 Jun 2027 01:32:55.734   03 Jun 2027 01:33:29.216            33.482                Irkutsk          1046.313
       230   03 Jun 2027 01:39:16.522   03 Jun 2027 01:39:32.353            15.831                  Delhi           494.719
       231   03 Jun 2027 01:41:55.087   03 Jun 2027 01:42:26.513            31.426                  Delhi           982.062
       232   03 Jun 2027 01:47:27.906   03 Jun 2027 01:48:15.524            47.618                  Delhi          1488.063
       233   03 Jun 2027 02:53:18.956   03 Jun 2027 02:55:53.990           155.034                Anadyr2          4844.812
       234   03 Jun 2027 02:58:40.581   03 Jun 2027 03:00:04.264            83.683               Magadan1          2615.094
       235   03 Jun 2027 03:09:38.588   03 Jun 2027 03:10:44.032            65.444                 Moscow          2045.125
       236   03 Jun 2027 03:10:54.069   03 Jun 2027 03:11:18.859            24.790                Norilsk           774.688
       237   03 Jun 2027 03:11:19.133   03 Jun 2027 03:11:41.824            22.691                Novosib           709.094
       238   03 Jun 2027 03:12:00.539   03 Jun 2027 03:12:40.738            40.199                 Moscow          1256.219
       239   03 Jun 2027 03:12:42.836   03 Jun 2027 03:13:37.174            54.338                Norilsk          1698.062
       240   03 Jun 2027 03:13:45.670   03 Jun 2027 03:15:38.390           112.720                 Moscow          3522.500
       241   03 Jun 2027 03:15:43.851   03 Jun 2027 03:15:57.263            13.412                 Moscow           419.125
       242   03 Jun 2027 03:16:38.670   03 Jun 2027 03:19:17.096           158.426                 Moscow          4950.813
       243   03 Jun 2027 03:31:41.428   03 Jun 2027 03:39:11.106           449.678               CapeTown         14052.437
       244   03 Jun 2027 04:27:41.244   03 Jun 2027 04:30:14.498           153.254                Anadyr2          4789.188
       245   03 Jun 2027 04:30:14.498   03 Jun 2027 04:31:18.170            63.672                Anadyr1          1989.750
       246   03 Jun 2027 04:47:09.126   03 Jun 2027 04:48:50.105           100.979                 Moscow          3155.594
       247   03 Jun 2027 04:49:07.513   03 Jun 2027 04:50:37.567            90.054                 Moscow          2814.188
       248   03 Jun 2027 06:10:11.740   03 Jun 2027 06:12:02.778           111.038                Anadyr1          3469.937
       249   03 Jun 2027 06:12:06.224   03 Jun 2027 06:12:09.787             3.563               Magadan2           111.344
       250   03 Jun 2027 06:12:15.931   03 Jun 2027 06:14:03.395           107.464               Magadan1          3358.250
       251   03 Jun 2027 06:14:06.813   03 Jun 2027 06:14:14.698             7.885               Magadan1           246.406
       252   03 Jun 2027 07:47:37.551   03 Jun 2027 07:48:23.225            45.674                Anadyr1          1427.313
       253   03 Jun 2027 07:48:41.676   03 Jun 2027 07:51:54.953           193.277                Anadyr1          6039.906
       254   03 Jun 2027 09:22:28.999   03 Jun 2027 09:23:50.305            81.306               Magadan2          2540.812
       255   03 Jun 2027 09:24:18.639   03 Jun 2027 09:26:12.839           114.200               Magadan1          3568.750
       256   03 Jun 2027 09:26:12.839   03 Jun 2027 09:27:12.975            60.136               Magadan2          1879.250
       257   03 Jun 2027 09:27:19.225   03 Jun 2027 09:28:43.004            83.779              Murmansk1          2618.094
       258   03 Jun 2027 09:28:43.805   03 Jun 2027 09:29:08.625            24.820              Murmansk2           775.625
       259   03 Jun 2027 09:29:59.566   03 Jun 2027 09:30:01.528             1.962              Murmansk2            61.313
       260   03 Jun 2027 09:30:17.933   03 Jun 2027 09:30:44.713            26.780              Murmansk2           836.875
       261   03 Jun 2027 10:02:24.178   03 Jun 2027 10:03:16.742            52.564            RioGallegos          1642.625
       262   03 Jun 2027 10:03:29.312   03 Jun 2027 10:03:47.148            17.836            RioGallegos           557.375
       263   03 Jun 2027 10:37:39.815   03 Jun 2027 10:39:48.629           128.814                Sumatra          4025.438
       264   03 Jun 2027 10:57:59.868   03 Jun 2027 10:59:15.718            75.850                Irkutsk          2370.313
       265   03 Jun 2027 10:59:26.189   03 Jun 2027 11:00:43.229            77.040                Irkutsk          2407.500
       266   03 Jun 2027 11:00:55.034   03 Jun 2027 11:02:38.669           103.635              Murmansk2          3238.594
       267   03 Jun 2027 11:02:46.883   03 Jun 2027 11:02:52.338             5.455                Norilsk           170.469
       268   03 Jun 2027 11:02:58.903   03 Jun 2027 11:03:20.569            21.666                Norilsk           677.063
       269   03 Jun 2027 11:03:40.184   03 Jun 2027 11:04:01.180            20.996                Novosib           656.125
       270   03 Jun 2027 11:04:15.283   03 Jun 2027 11:05:02.155            46.872              Murmansk2          1464.750
       271   03 Jun 2027 11:40:33.097   03 Jun 2027 11:41:52.711            79.614            RioGallegos          2487.937
       272   03 Jun 2027 11:42:28.170   03 Jun 2027 11:43:16.916            48.746            RioGallegos          1523.313
       273   03 Jun 2027 12:14:48.211   03 Jun 2027 12:15:26.500            38.289                Sumatra          1196.531
       274   03 Jun 2027 12:17:41.425   03 Jun 2027 12:18:23.506            42.081                Sumatra          1315.031
       275   03 Jun 2027 12:19:22.552   03 Jun 2027 12:19:48.103            25.551                Sumatra           798.469
       276   03 Jun 2027 12:29:07.245   03 Jun 2027 12:29:32.574            25.329                Novosib           791.531
       277   03 Jun 2027 12:29:56.402   03 Jun 2027 12:31:31.968            95.566                Novosib          2986.437
       278   03 Jun 2027 12:32:48.206   03 Jun 2027 12:34:09.791            81.585                Irkutsk          2549.531
       279   03 Jun 2027 12:37:10.423   03 Jun 2027 12:37:43.143            32.720                Norilsk          1022.500
       280   03 Jun 2027 14:00:18.869   03 Jun 2027 14:01:36.505            77.636                  Delhi          2426.125
       281   03 Jun 2027 14:02:26.715   03 Jun 2027 14:04:46.512           139.797                  Delhi          4368.656
       282   03 Jun 2027 14:08:50.027   03 Jun 2027 14:11:35.810           165.783                Novosib          5180.719
       283   03 Jun 2027 14:11:45.966   03 Jun 2027 14:12:22.635            36.669                Norilsk          1145.906
       284   03 Jun 2027 14:13:10.251   03 Jun 2027 14:14:14.680            64.429                Norilsk          2013.406
       285   03 Jun 2027 15:22:17.637   03 Jun 2027 15:24:09.721           112.084               CapeTown          3502.625
       286   03 Jun 2027 15:24:13.933   03 Jun 2027 15:24:22.638             8.705               CapeTown           272.031
       287   03 Jun 2027 15:42:24.388   03 Jun 2027 15:43:29.148            64.760                 Moscow          2023.750
       288   03 Jun 2027 15:45:50.675   03 Jun 2027 15:46:38.049            47.374              Murmansk2          1480.437
       289   03 Jun 2027 15:48:33.678   03 Jun 2027 15:48:40.403             6.725              Murmansk1           210.156
       290   03 Jun 2027 15:48:55.242   03 Jun 2027 15:50:07.399            72.157              Murmansk2          2254.906
       291   03 Jun 2027 16:00:50.336   03 Jun 2027 16:01:54.284            63.948                Anadyr1          1998.375
       292   03 Jun 2027 16:02:16.525   03 Jun 2027 16:02:23.388             6.863                Anadyr1           214.469
       293   03 Jun 2027 16:03:01.970   03 Jun 2027 16:03:05.579             3.609                Anadyr1           112.781
       294   03 Jun 2027 16:03:29.452   03 Jun 2027 16:04:12.603            43.151                Anadyr1          1348.469
       295   03 Jun 2027 16:55:21.954   03 Jun 2027 16:56:05.063            43.109               CapeTown          1347.156
       296   03 Jun 2027 17:03:04.954   03 Jun 2027 17:03:14.920             9.966               CapeTown           311.438
       297   03 Jun 2027 17:23:21.390   03 Jun 2027 17:25:04.944           103.554                 Moscow          3236.062
       298   03 Jun 2027 17:25:42.310   03 Jun 2027 17:26:43.718            61.408              Murmansk1          1919.000
       299   03 Jun 2027 17:27:02.042   03 Jun 2027 17:27:07.445             5.403                 Moscow           168.844
       300   03 Jun 2027 17:28:12.660   03 Jun 2027 17:29:43.103            90.443              Murmansk1          2826.344
       301   03 Jun 2027 17:36:01.378   03 Jun 2027 17:36:40.900            39.522                Anadyr1          1235.062
       302   03 Jun 2027 17:40:57.858   03 Jun 2027 17:42:24.924            87.066               Magadan1          2720.813
       303   03 Jun 2027 18:32:40.967   03 Jun 2027 18:33:27.690            46.723               CapeTown          1460.094
       304   03 Jun 2027 19:06:50.461   03 Jun 2027 19:08:07.260            76.799              Murmansk2          2399.969
       305   03 Jun 2027 19:11:53.276   03 Jun 2027 19:13:40.539           107.263                Anadyr1          3351.969
       306   03 Jun 2027 19:13:41.608   03 Jun 2027 19:14:03.980            22.372                Anadyr2           699.125
       307   03 Jun 2027 19:14:15.565   03 Jun 2027 19:15:27.382            71.817                Anadyr2          2244.281
       308   03 Jun 2027 19:16:06.212   03 Jun 2027 19:17:00.744            54.532               Magadan2          1704.125
       309   03 Jun 2027 19:17:23.284   03 Jun 2027 19:18:13.489            50.205               Magadan1          1568.906
       310   03 Jun 2027 20:47:48.028   03 Jun 2027 20:49:55.998           127.970                Anadyr1          3999.062
       311   03 Jun 2027 20:50:05.026   03 Jun 2027 20:54:06.199           241.173               Magadan2          7536.656
       312   03 Jun 2027 20:54:21.618   03 Jun 2027 20:54:30.100             8.482               Magadan2           265.063
       313   03 Jun 2027 20:54:38.154   03 Jun 2027 20:54:51.709            13.555                Norilsk           423.594
       314   03 Jun 2027 21:42:13.682   03 Jun 2027 21:45:37.110           203.428            RioGallegos          6357.125
       315   03 Jun 2027 21:51:22.884   03 Jun 2027 21:51:29.043             6.159            RioGallegos           192.469
       316   03 Jun 2027 22:23:24.136   03 Jun 2027 22:24:05.847            41.711                Anadyr1          1303.469
       317   03 Jun 2027 22:25:38.042   03 Jun 2027 22:27:26.770           108.728                Norilsk          3397.750
       318   03 Jun 2027 22:27:36.566   03 Jun 2027 22:28:04.293            27.727               Magadan2           866.469
       319   03 Jun 2027 22:28:31.204   03 Jun 2027 22:29:31.884            60.680               Magadan2          1896.250
       320   03 Jun 2027 22:29:48.535   03 Jun 2027 22:30:03.099            14.564                Irkutsk           455.125
       321   03 Jun 2027 22:30:40.382   03 Jun 2027 22:31:14.776            34.394                Irkutsk          1074.813
       322   03 Jun 2027 22:31:41.368   03 Jun 2027 22:32:41.135            59.767                Novosib          1867.719
       323   03 Jun 2027 22:33:22.633   03 Jun 2027 22:34:18.294            55.661                Novosib          1739.406
       324   03 Jun 2027 22:43:33.398   03 Jun 2027 22:44:15.570            42.172                Sumatra          1317.875
       325   03 Jun 2027 22:46:31.422   03 Jun 2027 22:47:04.962            33.540                Sumatra          1048.125
       326   03 Jun 2027 23:58:07.216   03 Jun 2027 23:58:11.917             4.701                Anadyr1           146.906
       327   03 Jun 2027 23:58:11.917   03 Jun 2027 23:58:55.139            43.222                Anadyr2          1350.687
       328   03 Jun 2027 23:59:26.443   04 Jun 2027 00:00:24.405            57.962                Anadyr1          1811.313
       329   04 Jun 2027 00:00:30.581   04 Jun 2027 00:00:50.205            19.624                Anadyr1           613.250
       330   04 Jun 2027 00:01:35.520   04 Jun 2027 00:01:52.343            16.823                Norilsk           525.719
       331   04 Jun 2027 00:02:14.750   04 Jun 2027 00:02:56.133            41.383               Magadan2          1293.219
       332   04 Jun 2027 00:02:56.133   04 Jun 2027 00:03:09.279            13.146               Magadan1           410.813
       333   04 Jun 2027 00:03:34.248   04 Jun 2027 00:04:35.822            61.574               Magadan1          1924.188
       334   04 Jun 2027 00:05:27.983   04 Jun 2027 00:05:37.732             9.749                Irkutsk           304.656
       335   04 Jun 2027 00:06:37.450   04 Jun 2027 00:06:56.806            19.356                Irkutsk           604.875
       336   04 Jun 2027 00:07:29.366   04 Jun 2027 00:08:01.883            32.517                Novosib          1016.156
       337   04 Jun 2027 00:08:04.961   04 Jun 2027 00:08:30.039            25.078                Novosib           783.688
       338   04 Jun 2027 00:09:19.391   04 Jun 2027 00:09:27.768             8.377                Novosib           261.781
       339   04 Jun 2027 00:11:15.690   04 Jun 2027 00:11:34.364            18.674                Novosib           583.562
       340   04 Jun 2027 00:13:21.063   04 Jun 2027 00:14:39.169            78.106                  Delhi          2440.812
       341   04 Jun 2027 00:15:04.812   04 Jun 2027 00:16:38.010            93.198                  Delhi          2912.438
       342   04 Jun 2027 00:57:34.998   04 Jun 2027 00:57:50.556            15.558            RioGallegos           486.188
       343   04 Jun 2027 00:59:30.578   04 Jun 2027 00:59:31.394             0.816            RioGallegos            25.500
       344   04 Jun 2027 00:59:37.518   04 Jun 2027 01:00:37.504            59.986            RioGallegos          1874.563
       345   04 Jun 2027 01:32:09.856   04 Jun 2027 01:32:50.157            40.301                Anadyr1          1259.406
       346   04 Jun 2027 01:34:06.426   04 Jun 2027 01:34:36.426            30.000                Anadyr1           937.500
       347   04 Jun 2027 01:37:34.982   04 Jun 2027 01:37:46.047            11.065                Norilsk           345.781
       348   04 Jun 2027 01:37:47.415   04 Jun 2027 01:39:35.111           107.696               Magadan2          3365.500
       349   04 Jun 2027 01:39:55.847   04 Jun 2027 01:41:56.618           120.771              Murmansk1          3774.094
       350   04 Jun 2027 01:42:07.824   04 Jun 2027 01:42:48.581            40.757              Murmansk1          1273.656
       351   04 Jun 2027 01:44:28.836   04 Jun 2027 01:46:44.521           135.685                Novosib          4240.156
       352   04 Jun 2027 03:05:04.087   04 Jun 2027 03:05:33.776            29.689                Anadyr2           927.781
       353   04 Jun 2027 03:05:33.776   04 Jun 2027 03:05:41.303             7.527                Anadyr1           235.219
       354   04 Jun 2027 03:10:30.610   04 Jun 2027 03:10:45.152            14.542                Anadyr2           454.438
       355   04 Jun 2027 03:10:54.693   04 Jun 2027 03:11:20.242            25.549               Magadan1           798.406
       356   04 Jun 2027 03:14:19.413   04 Jun 2027 03:14:22.888             3.475               Magadan1           108.594
       357   04 Jun 2027 03:22:09.552   04 Jun 2027 03:22:42.265            32.713                Norilsk          1022.281
       358   04 Jun 2027 03:22:43.159   04 Jun 2027 03:23:46.940            63.781                Norilsk          1993.156
       359   04 Jun 2027 03:23:53.094   04 Jun 2027 03:27:09.042           195.948                Novosib          6123.375
       360   04 Jun 2027 03:27:22.464   04 Jun 2027 03:27:28.480             6.016                 Moscow           188.000
       361   04 Jun 2027 03:27:40.989   04 Jun 2027 03:30:44.350           183.361                 Moscow          5730.031
       362   04 Jun 2027 03:43:21.931   04 Jun 2027 03:44:59.189            97.258               CapeTown          3039.313
       363   04 Jun 2027 03:45:47.834   04 Jun 2027 03:46:39.078            51.244               CapeTown          1601.375
       364   04 Jun 2027 03:47:26.378   04 Jun 2027 03:49:47.591           141.213               CapeTown          4412.906
       365   04 Jun 2027 04:46:39.957   04 Jun 2027 04:47:05.295            25.338                Anadyr2           791.813
       366   04 Jun 2027 04:47:13.368   04 Jun 2027 04:48:11.502            58.134                Anadyr2          1816.687
       367   04 Jun 2027 04:58:46.632   04 Jun 2027 05:01:16.868           150.236              Murmansk1          4694.875
       368   04 Jun 2027 05:01:16.868   04 Jun 2027 05:02:24.921            68.053              Murmansk2          2126.656
       369   04 Jun 2027 05:03:01.344   04 Jun 2027 05:03:21.980            20.636              Murmansk2           644.875
       370   04 Jun 2027 06:21:33.049   04 Jun 2027 06:22:45.432            72.383               Magadan2          2261.969
       371   04 Jun 2027 06:22:58.167   04 Jun 2027 06:24:41.141           102.974                Anadyr1          3217.938
       372   04 Jun 2027 06:24:47.017   04 Jun 2027 06:25:34.592            47.575                Anadyr1          1486.719
       373   04 Jun 2027 06:25:52.554   04 Jun 2027 06:26:47.303            54.749               Magadan2          1710.906
       374   04 Jun 2027 07:58:02.034   04 Jun 2027 07:58:15.781            13.747                Norilsk           429.594
       375   04 Jun 2027 07:58:24.853   04 Jun 2027 07:58:33.441             8.588               Magadan2           268.375
       376   04 Jun 2027 07:58:44.385   04 Jun 2027 07:59:17.275            32.890                Norilsk          1027.813
       377   04 Jun 2027 07:59:41.548   04 Jun 2027 08:00:04.429            22.881                Norilsk           715.031
       378   04 Jun 2027 08:00:09.043   04 Jun 2027 08:02:38.255           149.212                Anadyr2          4662.875
       379   04 Jun 2027 08:42:01.746   04 Jun 2027 08:42:46.063            44.317            RioGallegos          1384.906
       380   04 Jun 2027 09:32:36.793   04 Jun 2027 09:33:01.158            24.365               Magadan2           761.406
       381   04 Jun 2027 09:33:08.699   04 Jun 2027 09:33:37.508            28.809                Norilsk           900.281
       382   04 Jun 2027 09:33:58.170   04 Jun 2027 09:34:29.101            30.931                Irkutsk           966.594
       383   04 Jun 2027 09:34:29.357   04 Jun 2027 09:35:27.023            57.666               Magadan2          1802.062
       384   04 Jun 2027 09:35:27.023   04 Jun 2027 09:35:44.081            17.058               Magadan1           533.063
       385   04 Jun 2027 09:35:51.324   04 Jun 2027 09:36:15.750            24.426                Irkutsk           763.313
       386   04 Jun 2027 09:36:20.780   04 Jun 2027 09:36:32.730            11.950               Magadan2           373.437
       387   04 Jun 2027 09:36:47.533   04 Jun 2027 09:36:51.656             4.123                Norilsk           128.844
       388   04 Jun 2027 09:36:54.206   04 Jun 2027 09:37:29.254            35.048                Irkutsk          1095.250
       389   04 Jun 2027 09:37:47.275   04 Jun 2027 09:38:10.544            23.269                Irkutsk           727.156
       390   04 Jun 2027 09:38:11.548   04 Jun 2027 09:39:00.343            48.795               Magadan2          1524.844
       391   04 Jun 2027 09:39:10.094   04 Jun 2027 09:39:54.566            44.472                Novosib          1389.750
       392   04 Jun 2027 09:47:31.068   04 Jun 2027 09:47:58.672            27.604              Murmansk1           862.625
       393   04 Jun 2027 10:14:28.232   04 Jun 2027 10:14:33.485             5.253            RioGallegos           164.156
       394   04 Jun 2027 10:15:08.079   04 Jun 2027 10:15:24.900            16.821            RioGallegos           525.656
       395   04 Jun 2027 10:15:53.639   04 Jun 2027 10:16:43.331            49.692            RioGallegos          1552.875
       396   04 Jun 2027 10:49:28.533   04 Jun 2027 10:50:09.918            41.385                Sumatra          1293.281
       397   04 Jun 2027 11:02:49.705   04 Jun 2027 11:03:21.279            31.574                  Delhi           986.687
       398   04 Jun 2027 11:09:36.878   04 Jun 2027 11:10:44.838            67.960                Novosib          2123.750
       399   04 Jun 2027 11:10:47.936   04 Jun 2027 11:10:54.902             6.966                Irkutsk           217.688
       400   04 Jun 2027 11:11:02.287   04 Jun 2027 11:11:19.200            16.913                Novosib           528.531
       401   04 Jun 2027 11:11:28.406   04 Jun 2027 11:12:01.223            32.817                Novosib          1025.531
       402   04 Jun 2027 11:12:12.216   04 Jun 2027 11:12:15.447             3.231              Murmansk1           100.969
       403   04 Jun 2027 11:12:22.040   04 Jun 2027 11:12:39.394            17.354              Murmansk2           542.313
       404   04 Jun 2027 11:12:45.178   04 Jun 2027 11:13:00.112            14.934              Murmansk1           466.687
       405   04 Jun 2027 11:13:10.836   04 Jun 2027 11:13:25.307            14.471                Novosib           452.219
       406   04 Jun 2027 11:13:28.550   04 Jun 2027 11:13:59.728            31.178                Novosib           974.312
       407   04 Jun 2027 11:14:04.362   04 Jun 2027 11:14:29.310            24.948                 Moscow           779.625
       408   04 Jun 2027 11:14:34.325   04 Jun 2027 11:15:24.969            50.644                Irkutsk          1582.625
       409   04 Jun 2027 11:15:28.784   04 Jun 2027 11:15:49.313            20.529                Norilsk           641.531
       410   04 Jun 2027 11:15:49.380   04 Jun 2027 11:15:56.271             6.891              Murmansk1           215.344
       411   04 Jun 2027 11:16:07.016   04 Jun 2027 11:16:17.779            10.763                 Moscow           336.344
       412   04 Jun 2027 11:53:16.588   04 Jun 2027 11:53:19.773             3.185            RioGallegos            99.531
       413   04 Jun 2027 11:53:55.862   04 Jun 2027 11:54:32.818            36.956            RioGallegos          1154.875
       414   04 Jun 2027 11:55:29.548   04 Jun 2027 11:56:32.268            62.720            RioGallegos          1960.000
       415   04 Jun 2027 12:27:44.818   04 Jun 2027 12:29:31.157           106.339                Sumatra          3323.094
       416   04 Jun 2027 12:41:59.102   04 Jun 2027 12:42:28.068            28.966                Novosib           905.187
       417   04 Jun 2027 12:43:39.961   04 Jun 2027 12:44:45.935            65.974                Irkutsk          2061.688
       418   04 Jun 2027 12:45:01.105   04 Jun 2027 12:46:16.546            75.441                Norilsk          2357.531
       419   04 Jun 2027 12:49:00.273   04 Jun 2027 12:49:06.125             5.852              Murmansk2           182.875
       420   04 Jun 2027 12:54:40.682   04 Jun 2027 12:54:50.753            10.071                Norilsk           314.719
       421   04 Jun 2027 14:13:51.310   04 Jun 2027 14:16:11.296           139.986                  Delhi          4374.562
       422   04 Jun 2027 14:16:48.787   04 Jun 2027 14:17:38.911            50.124                  Delhi          1566.375
       423   04 Jun 2027 14:19:11.134   04 Jun 2027 14:20:10.283            59.149                 Moscow          1848.406
       424   04 Jun 2027 14:21:22.338   04 Jun 2027 14:23:38.569           136.231              Murmansk2          4257.219
       425   04 Jun 2027 14:24:22.190   04 Jun 2027 14:25:07.058            44.868                Norilsk          1402.125
       426   04 Jun 2027 14:28:53.816   04 Jun 2027 14:29:43.241            49.425                Norilsk          1544.531
       427   04 Jun 2027 15:33:24.943   04 Jun 2027 15:36:00.420           155.477               CapeTown          4858.656
       428   04 Jun 2027 15:58:04.160   04 Jun 2027 16:00:29.661           145.501              Murmansk1          4546.906
       429   04 Jun 2027 16:12:39.925   04 Jun 2027 16:14:09.241            89.316                Anadyr1          2791.125
       430   04 Jun 2027 16:14:23.379   04 Jun 2027 16:15:06.807            43.428                Anadyr1          1357.125
       431   04 Jun 2027 16:16:06.189   04 Jun 2027 16:16:07.770             1.581                Anadyr1            49.406
       432   04 Jun 2027 17:07:22.430   04 Jun 2027 17:09:49.366           146.936               CapeTown          4591.750
       433   04 Jun 2027 17:36:52.689   04 Jun 2027 17:37:24.505            31.816              Murmansk2           994.250
       434   04 Jun 2027 17:37:24.505   04 Jun 2027 17:38:45.047            80.542              Murmansk1          2516.937
       435   04 Jun 2027 17:43:38.273   04 Jun 2027 17:43:48.149             9.876              Murmansk2           308.625
       436   04 Jun 2027 17:48:01.467   04 Jun 2027 17:49:25.181            83.714                Anadyr1          2616.062
       437   04 Jun 2027 17:51:02.157   04 Jun 2027 17:51:11.657             9.500                Anadyr1           296.875
       438   04 Jun 2027 17:51:34.858   04 Jun 2027 17:51:44.991            10.133                Anadyr1           316.656
       439   04 Jun 2027 17:52:06.501   04 Jun 2027 17:52:43.538            37.037               Magadan1          1157.406
       440   04 Jun 2027 17:52:43.538   04 Jun 2027 17:53:37.101            53.563               Magadan2          1673.844
       441   04 Jun 2027 17:53:46.260   04 Jun 2027 17:54:03.652            17.392               Magadan2           543.500
       442   04 Jun 2027 18:45:20.133   04 Jun 2027 18:45:50.795            30.662               CapeTown           958.188
       443   04 Jun 2027 19:23:54.915   04 Jun 2027 19:27:46.838           231.923                Anadyr2          7247.594
       444   04 Jun 2027 19:28:02.118   04 Jun 2027 19:29:16.209            74.091               Magadan1          2315.344
       445   04 Jun 2027 19:29:16.209   04 Jun 2027 19:31:18.023           121.814               Magadan2          3806.687
       446   04 Jun 2027 20:59:48.624   04 Jun 2027 21:01:57.524           128.900                Anadyr2          4028.125
       447   04 Jun 2027 21:02:02.402   04 Jun 2027 21:03:24.852            82.450                Anadyr1          2576.562
       448   04 Jun 2027 21:03:28.127   04 Jun 2027 21:03:32.650             4.523                Norilsk           141.344
       449   04 Jun 2027 21:03:37.294   04 Jun 2027 21:03:51.103            13.809                Norilsk           431.531
       450   04 Jun 2027 21:04:12.633   04 Jun 2027 21:07:25.702           193.069                Norilsk          6033.406
       451   04 Jun 2027 21:08:51.956   04 Jun 2027 21:09:30.025            38.069                Irkutsk          1189.656
       452   04 Jun 2027 21:54:04.137   04 Jun 2027 21:55:31.646            87.509            RioGallegos          2734.656
       453   04 Jun 2027 22:00:07.204   04 Jun 2027 22:00:13.170             5.966            RioGallegos           186.438
       454   04 Jun 2027 22:02:27.847   04 Jun 2027 22:02:42.946            15.099            RioGallegos           471.844
       455   04 Jun 2027 22:03:27.976   04 Jun 2027 22:03:32.731             4.755            RioGallegos           148.594
       456   04 Jun 2027 22:35:20.302   04 Jun 2027 22:36:03.674            43.372                Anadyr2          1355.375
       457   04 Jun 2027 22:36:56.324   04 Jun 2027 22:37:43.624            47.300                Anadyr1          1478.125
       458   04 Jun 2027 22:37:43.629   04 Jun 2027 22:39:28.769           105.140                Norilsk          3285.625
       459   04 Jun 2027 22:39:32.279   04 Jun 2027 22:39:46.509            14.230               Magadan2           444.687
       460   04 Jun 2027 22:40:08.549   04 Jun 2027 22:41:23.301            74.752               Magadan2          2336.000
       461   04 Jun 2027 22:43:16.548   04 Jun 2027 22:43:33.992            17.444                Novosib           545.125
       462   04 Jun 2027 22:44:36.570   04 Jun 2027 22:44:45.507             8.937                Novosib           279.281
       463   04 Jun 2027 22:44:52.815   04 Jun 2027 22:45:45.122            52.307                Novosib          1634.594
       464   04 Jun 2027 22:48:56.806   04 Jun 2027 22:49:23.858            27.052                Novosib           845.375
       465   04 Jun 2027 22:49:56.356   04 Jun 2027 22:50:02.147             5.791                Novosib           180.969
       466   04 Jun 2027 22:55:25.149   04 Jun 2027 22:56:02.672            37.523                Sumatra          1172.594
       467   04 Jun 2027 22:58:27.972   04 Jun 2027 22:58:40.442            12.470                Sumatra           389.688
       468   04 Jun 2027 22:58:45.115   04 Jun 2027 22:58:46.922             1.807                Sumatra            56.469
       469   04 Jun 2027 23:03:31.731   04 Jun 2027 23:04:57.091            85.360                Sumatra          2667.500
       470   05 Jun 2027 00:09:54.027   05 Jun 2027 00:11:02.466            68.439                Anadyr1          2138.719
       471   05 Jun 2027 00:12:12.490   05 Jun 2027 00:12:32.355            19.865                Anadyr2           620.781
       472   05 Jun 2027 00:13:37.721   05 Jun 2027 00:13:52.399            14.678                Norilsk           458.687
       473   05 Jun 2027 00:14:16.704   05 Jun 2027 00:16:36.328           139.624               Magadan1          4363.250
       474   05 Jun 2027 00:17:31.543   05 Jun 2027 00:18:13.252            41.709                Irkutsk          1303.406
       475   05 Jun 2027 00:18:50.999   05 Jun 2027 00:19:49.480            58.481                Novosib          1827.531
       476   05 Jun 2027 00:22:25.971   05 Jun 2027 00:22:52.752            26.781                Novosib           836.906
       477   05 Jun 2027 00:25:07.402   05 Jun 2027 00:25:55.214            47.812                  Delhi          1494.125
       478   05 Jun 2027 00:27:29.589   05 Jun 2027 00:28:34.043            64.454                  Delhi          2014.188
       479   05 Jun 2027 00:36:21.076   05 Jun 2027 00:36:34.130            13.054                  Delhi           407.938
       480   05 Jun 2027 00:37:16.865   05 Jun 2027 00:37:18.426             1.561                  Delhi            48.781
       481   05 Jun 2027 01:06:26.331   05 Jun 2027 01:06:51.716            25.385            RioGallegos           793.281
       482   05 Jun 2027 01:10:21.153   05 Jun 2027 01:10:37.729            16.576            RioGallegos           518.000
