uniorb/output/strategy_1/Drop/Drop_KinoSat_111307.txt

KinoSat_111307
-------------------------
    Access    *     Start Time (UTCG)     *     Stop Time (UTCG)  *   Duration (s)        *       Station  *  Data (Mbytes)
         1   01 Jun 2027 03:09:22.474   01 Jun 2027 03:09:35.336            12.862              Murmansk2           401.938
         2   01 Jun 2027 03:09:45.218   01 Jun 2027 03:10:50.603            65.385                 Moscow          2043.281
         3   01 Jun 2027 03:10:55.043   01 Jun 2027 03:11:04.398             9.355                 Moscow           292.344
         4   01 Jun 2027 03:11:08.389   01 Jun 2027 03:12:07.537            59.148                Norilsk          1848.375
         5   01 Jun 2027 03:12:10.684   01 Jun 2027 03:13:55.010           104.326              Murmansk1          3260.188
         6   01 Jun 2027 03:14:10.127   01 Jun 2027 03:14:53.540            43.413              Murmansk1          1356.656
         7   01 Jun 2027 03:15:27.008   01 Jun 2027 03:18:32.837           185.829                 Moscow          5807.156
         8   01 Jun 2027 03:29:59.323   01 Jun 2027 03:32:47.829           168.506               CapeTown          5265.813
         9   01 Jun 2027 03:34:25.529   01 Jun 2027 03:35:28.148            62.619               CapeTown          1956.844
        10   01 Jun 2027 04:33:58.580   01 Jun 2027 04:37:58.174           239.594                Anadyr2          7487.313
        11   01 Jun 2027 04:38:39.359   01 Jun 2027 04:39:22.195            42.836                Anadyr1          1338.625
        12   01 Jun 2027 04:45:16.659   01 Jun 2027 04:45:38.035            21.376              Murmansk2           668.000
        13   01 Jun 2027 04:45:38.035   01 Jun 2027 04:46:06.027            27.992              Murmansk1           874.750
        14   01 Jun 2027 04:46:09.682   01 Jun 2027 04:46:29.890            20.208                Norilsk           631.500
        15   01 Jun 2027 04:47:43.386   01 Jun 2027 04:48:04.631            21.245              Murmansk2           663.906
        16   01 Jun 2027 06:09:11.582   01 Jun 2027 06:12:41.550           209.968               Magadan2          6561.500
        17   01 Jun 2027 06:13:05.453   01 Jun 2027 06:14:16.271            70.818                Anadyr1          2213.063
        18   01 Jun 2027 07:44:25.118   01 Jun 2027 07:46:40.625           135.507                Irkutsk          4234.594
        19   01 Jun 2027 07:47:05.440   01 Jun 2027 07:49:57.850           172.410                Irkutsk          5387.813
        20   01 Jun 2027 07:50:05.024   01 Jun 2027 07:50:29.926            24.902                Anadyr1           778.188
        21   01 Jun 2027 07:50:44.629   01 Jun 2027 07:52:04.868            80.239                Norilsk          2507.469
        22   01 Jun 2027 07:52:35.665   01 Jun 2027 07:53:13.320            37.655              Murmansk2          1176.719
        23   01 Jun 2027 07:54:11.071   01 Jun 2027 07:54:37.646            26.575                Norilsk           830.469
        24   01 Jun 2027 07:55:47.934   01 Jun 2027 07:56:13.750            25.816              Murmansk1           806.750
        25   01 Jun 2027 08:26:15.815   01 Jun 2027 08:26:44.548            28.733            RioGallegos           897.906
        26   01 Jun 2027 08:27:20.179   01 Jun 2027 08:27:43.234            23.055            RioGallegos           720.469
        27   01 Jun 2027 08:28:25.978   01 Jun 2027 08:28:46.572            20.594            RioGallegos           643.563
        28   01 Jun 2027 09:21:21.723   01 Jun 2027 09:25:34.290           252.567               Magadan1          7892.719
        29   01 Jun 2027 09:25:41.871   01 Jun 2027 09:26:39.292            57.421                Irkutsk          1794.406
        30   01 Jun 2027 09:26:54.336   01 Jun 2027 09:27:52.892            58.556                Novosib          1829.875
        31   01 Jun 2027 10:05:35.896   01 Jun 2027 10:05:42.930             7.034            RioGallegos           219.812
        32   01 Jun 2027 10:05:53.777   01 Jun 2027 10:06:18.959            25.182            RioGallegos           786.938
        33   01 Jun 2027 10:36:14.059   01 Jun 2027 10:37:27.186            73.127                Sumatra          2285.219
        34   01 Jun 2027 10:58:19.457   01 Jun 2027 10:59:05.807            46.350                Novosib          1448.438
        35   01 Jun 2027 10:59:10.438   01 Jun 2027 11:00:21.822            71.384              Murmansk2          2230.750
        36   01 Jun 2027 11:00:22.254   01 Jun 2027 11:02:24.070           121.816                Irkutsk          3806.750
        37   01 Jun 2027 11:03:04.229   01 Jun 2027 11:03:28.736            24.507              Murmansk1           765.844
        38   01 Jun 2027 11:04:13.430   01 Jun 2027 11:05:01.546            48.116                Norilsk          1503.625
        39   01 Jun 2027 11:05:11.760   01 Jun 2027 11:05:20.057             8.297              Murmansk2           259.281
        40   01 Jun 2027 11:05:43.486   01 Jun 2027 11:06:16.888            33.402              Murmansk1          1043.813
        41   01 Jun 2027 11:41:07.849   01 Jun 2027 11:41:33.509            25.660            RioGallegos           801.875
        42   01 Jun 2027 11:42:13.397   01 Jun 2027 11:43:24.962            71.565            RioGallegos          2236.406
        43   01 Jun 2027 11:44:39.092   01 Jun 2027 11:45:29.853            50.761            RioGallegos          1586.281
        44   01 Jun 2027 12:16:09.652   01 Jun 2027 12:17:33.083            83.431                Sumatra          2607.219
        45   01 Jun 2027 12:19:17.198   01 Jun 2027 12:19:50.241            33.043                Sumatra          1032.594
        46   01 Jun 2027 12:23:10.781   01 Jun 2027 12:23:34.788            24.007                  Delhi           750.219
        47   01 Jun 2027 12:28:06.180   01 Jun 2027 12:29:23.242            77.062                Novosib          2408.188
        48   01 Jun 2027 12:30:39.540   01 Jun 2027 12:30:47.903             8.363                Novosib           261.344
        49   01 Jun 2027 12:31:05.861   01 Jun 2027 12:32:21.737            75.876                Novosib          2371.125
        50   01 Jun 2027 12:32:56.291   01 Jun 2027 12:33:17.983            21.692              Murmansk1           677.875
        51   01 Jun 2027 12:33:48.812   01 Jun 2027 12:34:17.576            28.764                Norilsk           898.875
        52   01 Jun 2027 12:36:40.452   01 Jun 2027 12:37:33.242            52.790                Norilsk          1649.688
        53   01 Jun 2027 14:04:50.621   01 Jun 2027 14:07:29.628           159.007                 Moscow          4968.969
        54   01 Jun 2027 14:08:14.429   01 Jun 2027 14:10:42.029           147.600              Murmansk1          4612.500
        55   01 Jun 2027 14:10:45.245   01 Jun 2027 14:10:52.962             7.717              Murmansk2           241.156
        56   01 Jun 2027 14:11:50.176   01 Jun 2027 14:13:13.484            83.308                Norilsk          2603.375
        57   01 Jun 2027 14:15:42.822   01 Jun 2027 14:16:01.502            18.680                Norilsk           583.750
        58   01 Jun 2027 14:16:26.017   01 Jun 2027 14:16:42.628            16.611                Norilsk           519.094
        59   01 Jun 2027 15:19:42.806   01 Jun 2027 15:22:37.299           174.493               CapeTown          5452.906
        60   01 Jun 2027 15:41:54.852   01 Jun 2027 15:43:00.735            65.883                 Moscow          2058.844
        61   01 Jun 2027 15:45:09.359   01 Jun 2027 15:45:53.072            43.713              Murmansk1          1366.031
        62   01 Jun 2027 15:46:46.537   01 Jun 2027 15:47:53.809            67.272              Murmansk2          2102.250
        63   01 Jun 2027 15:59:23.882   01 Jun 2027 16:01:20.188           116.306                Anadyr2          3634.563
        64   01 Jun 2027 16:54:16.033   01 Jun 2027 16:56:28.407           132.374               CapeTown          4136.687
        65   01 Jun 2027 17:24:16.326   01 Jun 2027 17:25:18.319            61.993              Murmansk2          1937.281
        66   01 Jun 2027 17:26:28.357   01 Jun 2027 17:27:41.349            72.992              Murmansk1          2281.000
        67   01 Jun 2027 17:29:16.703   01 Jun 2027 17:29:45.572            28.869              Murmansk2           902.156
        68   01 Jun 2027 17:34:52.685   01 Jun 2027 17:36:48.594           115.909                Anadyr1          3622.156
        69   01 Jun 2027 17:38:31.027   01 Jun 2027 17:40:37.333           126.306               Magadan1          3947.062
        70   01 Jun 2027 19:10:47.096   01 Jun 2027 19:12:41.732           114.636                Anadyr1          3582.375
        71   01 Jun 2027 19:12:52.280   01 Jun 2027 19:14:51.165           118.885                Anadyr2          3715.156
        72   01 Jun 2027 19:15:11.057   01 Jun 2027 19:16:52.530           101.473               Magadan1          3171.031
        73   01 Jun 2027 19:20:52.961   01 Jun 2027 19:21:09.514            16.553               Magadan1           517.281
        74   01 Jun 2027 19:22:04.266   01 Jun 2027 19:22:08.622             4.356               Magadan1           136.125
        75   01 Jun 2027 20:46:39.413   01 Jun 2027 20:48:48.308           128.895                Anadyr2          4027.969
        76   01 Jun 2027 20:48:48.468   01 Jun 2027 20:50:22.101            93.633                Anadyr1          2926.031
        77   01 Jun 2027 20:50:33.248   01 Jun 2027 20:54:00.359           207.111                Norilsk          6472.219
        78   01 Jun 2027 20:54:34.097   01 Jun 2027 20:56:11.688            97.591                Irkutsk          3049.719
        79   01 Jun 2027 21:00:33.100   01 Jun 2027 21:00:34.292             1.192                Irkutsk            37.250
        80   01 Jun 2027 21:11:18.613   01 Jun 2027 21:12:16.836            58.223                Sumatra          1819.469
        81   01 Jun 2027 21:13:09.989   01 Jun 2027 21:14:28.175            78.186                Sumatra          2443.313
        82   01 Jun 2027 22:22:27.824   01 Jun 2027 22:22:51.262            23.438                Anadyr2           732.437
        83   01 Jun 2027 22:22:51.262   01 Jun 2027 22:23:09.947            18.685                Anadyr1           583.906
        84   01 Jun 2027 22:23:14.094   01 Jun 2027 22:24:31.608            77.514                Anadyr1          2422.313
        85   01 Jun 2027 22:24:57.784   01 Jun 2027 22:26:30.975            93.191                Norilsk          2912.219
        86   01 Jun 2027 22:27:02.261   01 Jun 2027 22:27:08.197             5.936               Magadan2           185.500
        87   01 Jun 2027 22:28:31.587   01 Jun 2027 22:29:44.657            73.070                Irkutsk          2283.438
        88   01 Jun 2027 22:29:55.588   01 Jun 2027 22:31:14.495            78.907                Novosib          2465.844
        89   01 Jun 2027 22:36:04.995   01 Jun 2027 22:36:09.081             4.086                Novosib           127.687
        90   01 Jun 2027 22:42:13.326   01 Jun 2027 22:42:56.752            43.426                Sumatra          1357.062
        91   01 Jun 2027 22:44:50.420   01 Jun 2027 22:45:10.010            19.590                Sumatra           612.188
        92   01 Jun 2027 23:56:30.882   01 Jun 2027 23:58:38.247           127.365                Anadyr2          3980.156
        93   01 Jun 2027 23:59:17.689   01 Jun 2027 23:59:25.298             7.609                Anadyr1           237.781
        94   02 Jun 2027 00:00:30.500   02 Jun 2027 00:01:56.111            85.611                Norilsk          2675.344
        95   02 Jun 2027 00:02:20.647   02 Jun 2027 00:02:36.580            15.933               Magadan1           497.906
        96   02 Jun 2027 00:03:16.911   02 Jun 2027 00:03:28.667            11.756               Magadan1           367.375
        97   02 Jun 2027 00:03:37.931   02 Jun 2027 00:04:09.229            31.298               Magadan1           978.062
        98   02 Jun 2027 00:04:16.568   02 Jun 2027 00:04:49.663            33.095              Murmansk2          1034.219
        99   02 Jun 2027 00:04:56.350   02 Jun 2027 00:06:48.329           111.979              Murmansk1          3499.344
       100   02 Jun 2027 00:11:49.489   02 Jun 2027 00:13:24.687            95.198                  Delhi          2974.938
       101   02 Jun 2027 00:14:36.871   02 Jun 2027 00:14:50.763            13.892                  Delhi           434.125
       102   02 Jun 2027 00:53:08.920   02 Jun 2027 00:53:50.765            41.845            RioGallegos          1307.656
       103   02 Jun 2027 00:56:22.668   02 Jun 2027 00:56:33.456            10.788            RioGallegos           337.125
       104   02 Jun 2027 01:01:40.422   02 Jun 2027 01:01:54.393            13.971            RioGallegos           436.594
       105   02 Jun 2027 01:29:52.898   02 Jun 2027 01:30:18.163            25.265                Anadyr1           789.531
       106   02 Jun 2027 01:30:33.512   02 Jun 2027 01:31:15.232            41.720                Anadyr2          1303.750
       107   02 Jun 2027 01:31:56.495   02 Jun 2027 01:32:09.071            12.576                Anadyr2           393.000
       108   02 Jun 2027 01:32:28.592   02 Jun 2027 01:32:50.490            21.898                Anadyr2           684.313
       109   02 Jun 2027 01:33:04.800   02 Jun 2027 01:33:17.904            13.104                Anadyr2           409.500
       110   02 Jun 2027 01:35:31.663   02 Jun 2027 01:35:45.749            14.086                Anadyr2           440.187
       111   02 Jun 2027 01:35:53.483   02 Jun 2027 01:35:58.307             4.824                Anadyr2           150.750
       112   02 Jun 2027 01:36:04.509   02 Jun 2027 01:37:52.141           107.632               Magadan1          3363.500
       113   02 Jun 2027 01:38:24.996   02 Jun 2027 01:39:00.727            35.731               Magadan1          1116.594
       114   02 Jun 2027 01:40:04.886   02 Jun 2027 01:41:04.231            59.345              Murmansk1          1854.531
       115   02 Jun 2027 01:41:50.895   02 Jun 2027 01:42:34.199            43.304                Novosib          1353.250
       116   02 Jun 2027 01:42:52.986   02 Jun 2027 01:43:39.366            46.380                 Moscow          1449.375
       117   02 Jun 2027 01:48:29.867   02 Jun 2027 01:48:37.489             7.622                  Delhi           238.188
       118   02 Jun 2027 01:49:07.348   02 Jun 2027 01:49:17.338             9.990                  Delhi           312.188
       119   02 Jun 2027 01:51:12.508   02 Jun 2027 01:51:53.976            41.468                  Delhi          1295.875
       120   02 Jun 2027 02:10:31.630   02 Jun 2027 02:10:48.296            16.666               CapeTown           520.812
       121   02 Jun 2027 03:03:29.190   02 Jun 2027 03:03:54.574            25.384                Anadyr2           793.250
       122   02 Jun 2027 03:04:26.770   02 Jun 2027 03:04:30.421             3.651                Anadyr2           114.094
       123   02 Jun 2027 03:05:05.332   02 Jun 2027 03:05:21.856            16.524                Anadyr1           516.375
       124   02 Jun 2027 03:05:21.856   02 Jun 2027 03:05:53.667            31.811                Anadyr2           994.094
       125   02 Jun 2027 03:21:32.139   02 Jun 2027 03:22:00.407            28.268              Murmansk2           883.375
       126   02 Jun 2027 03:22:10.738   02 Jun 2027 03:22:41.778            31.040                 Moscow           970.000
       127   02 Jun 2027 03:22:51.423   02 Jun 2027 03:24:12.541            81.118              Murmansk1          2534.938
       128   02 Jun 2027 03:24:20.637   02 Jun 2027 03:24:56.182            35.545                Novosib          1110.781
       129   02 Jun 2027 03:25:06.457   02 Jun 2027 03:27:06.213           119.756              Murmansk1          3742.375
       130   02 Jun 2027 03:29:29.086   02 Jun 2027 03:29:33.136             4.050                 Moscow           126.563
       131   02 Jun 2027 03:29:43.225   02 Jun 2027 03:30:40.868            57.643                 Moscow          1801.344
       132   02 Jun 2027 03:41:50.172   02 Jun 2027 03:44:52.101           181.929               CapeTown          5685.281
       133   02 Jun 2027 04:40:07.761   02 Jun 2027 04:40:20.853            13.092                Anadyr2           409.125
       134   02 Jun 2027 04:45:10.541   02 Jun 2027 04:47:58.251           167.710               Magadan1          5240.937
       135   02 Jun 2027 04:48:00.949   02 Jun 2027 04:51:12.421           191.472                Anadyr2          5983.500
       136   02 Jun 2027 04:51:12.421   02 Jun 2027 04:51:23.757            11.336                Anadyr1           354.250
       137   02 Jun 2027 06:19:49.332   02 Jun 2027 06:19:54.843             5.511                Anadyr2           172.219
       138   02 Jun 2027 06:20:10.121   02 Jun 2027 06:21:52.646           102.525               Magadan2          3203.906
       139   02 Jun 2027 06:22:20.047   02 Jun 2027 06:23:57.423            97.376                Norilsk          3043.000
       140   02 Jun 2027 06:24:04.726   02 Jun 2027 06:26:14.072           129.346               Magadan2          4042.062
       141   02 Jun 2027 06:26:35.101   02 Jun 2027 06:26:57.183            22.082               Magadan1           690.063
       142   02 Jun 2027 07:06:01.101   02 Jun 2027 07:06:08.359             7.258            RioGallegos           226.812
       143   02 Jun 2027 07:09:20.577   02 Jun 2027 07:10:37.315            76.738            RioGallegos          2398.062
       144   02 Jun 2027 07:55:03.628   02 Jun 2027 07:55:52.683            49.055                Irkutsk          1532.969
       145   02 Jun 2027 07:55:59.780   02 Jun 2027 07:56:52.023            52.243               Magadan1          1632.594
       146   02 Jun 2027 07:57:02.111   02 Jun 2027 07:59:03.084           120.973                Norilsk          3780.406
       147   02 Jun 2027 07:59:08.030   02 Jun 2027 08:00:13.418            65.388                Irkutsk          2043.375
       148   02 Jun 2027 08:00:15.857   02 Jun 2027 08:01:17.953            62.096               Magadan1          1940.500
       149   02 Jun 2027 08:01:27.243   02 Jun 2027 08:02:16.885            49.642                Anadyr2          1551.313
       150   02 Jun 2027 08:02:26.106   02 Jun 2027 08:02:55.592            29.486                Novosib           921.437
       151   02 Jun 2027 08:03:09.542   02 Jun 2027 08:03:37.609            28.067              Murmansk1           877.094
       152   02 Jun 2027 08:38:00.287   02 Jun 2027 08:39:10.164            69.877            RioGallegos          2183.656
       153   02 Jun 2027 09:32:08.098   02 Jun 2027 09:35:23.629           195.531               Magadan1          6110.344
       154   02 Jun 2027 09:36:19.152   02 Jun 2027 09:37:08.898            49.746               Magadan1          1554.563
       155   02 Jun 2027 09:37:21.003   02 Jun 2027 09:37:48.436            27.433              Murmansk1           857.281
       156   02 Jun 2027 09:37:50.856   02 Jun 2027 09:38:04.696            13.840                Norilsk           432.500
       157   02 Jun 2027 09:38:21.959   02 Jun 2027 09:39:08.480            46.521              Murmansk1          1453.781
       158   02 Jun 2027 09:39:08.480   02 Jun 2027 09:40:32.664            84.184              Murmansk2          2630.750
       159   02 Jun 2027 10:13:36.910   02 Jun 2027 10:15:25.575           108.665            RioGallegos          3395.781
       160   02 Jun 2027 10:17:43.964   02 Jun 2027 10:18:03.844            19.880            RioGallegos           621.250
       161   02 Jun 2027 10:48:13.990   02 Jun 2027 10:50:18.702           124.712                Sumatra          3897.250
       162   02 Jun 2027 10:58:12.423   02 Jun 2027 10:58:24.102            11.679                  Delhi           364.969
       163   02 Jun 2027 11:10:07.104   02 Jun 2027 11:12:02.684           115.580                Norilsk          3611.875
       164   02 Jun 2027 11:12:09.631   02 Jun 2027 11:14:18.703           129.072                Irkutsk          4033.500
       165   02 Jun 2027 11:14:34.555   02 Jun 2027 11:14:36.915             2.360                Norilsk            73.750
       166   02 Jun 2027 11:14:38.523   02 Jun 2027 11:14:43.484             4.961              Murmansk2           155.031
       167   02 Jun 2027 11:14:43.484   02 Jun 2027 11:15:30.403            46.919              Murmansk1          1466.219
       168   02 Jun 2027 11:15:47.719   02 Jun 2027 11:16:04.874            17.155                Novosib           536.094
       169   02 Jun 2027 11:16:50.147   02 Jun 2027 11:17:01.489            11.342              Murmansk2           354.437
       170   02 Jun 2027 11:19:32.933   02 Jun 2027 11:19:44.975            12.042              Murmansk2           376.312
       171   02 Jun 2027 11:54:08.932   02 Jun 2027 11:56:37.610           148.678            RioGallegos          4646.188
       172   02 Jun 2027 12:34:41.350   02 Jun 2027 12:35:30.607            49.257                  Delhi          1539.281
       173   02 Jun 2027 12:36:22.496   02 Jun 2027 12:37:09.361            46.865                  Delhi          1464.531
       174   02 Jun 2027 12:40:29.410   02 Jun 2027 12:41:56.963            87.553                Novosib          2736.031
       175   02 Jun 2027 12:42:45.257   02 Jun 2027 12:45:29.276           164.019                Novosib          5125.594
       176   02 Jun 2027 12:45:31.294   02 Jun 2027 12:46:02.435            31.141                Norilsk           973.156
       177   02 Jun 2027 12:46:58.356   02 Jun 2027 12:47:50.237            51.881                Norilsk          1621.281
       178   02 Jun 2027 14:16:49.741   02 Jun 2027 14:19:50.563           180.822                 Moscow          5650.688
       179   02 Jun 2027 14:20:17.398   02 Jun 2027 14:23:07.533           170.135              Murmansk2          5316.719
       180   02 Jun 2027 14:24:33.176   02 Jun 2027 14:26:09.652            96.476                Norilsk          3014.875
       181   02 Jun 2027 14:26:49.301   02 Jun 2027 14:27:41.628            52.327                Norilsk          1635.219
       182   02 Jun 2027 15:31:17.460   02 Jun 2027 15:32:37.303            79.843               CapeTown          2495.094
       183   02 Jun 2027 15:54:21.663   02 Jun 2027 15:55:12.385            50.722                 Moscow          1585.063
       184   02 Jun 2027 15:56:24.875   02 Jun 2027 15:56:56.028            31.153                 Moscow           973.531
       185   02 Jun 2027 15:57:26.698   02 Jun 2027 15:58:41.798            75.100              Murmansk2          2346.875
       186   02 Jun 2027 15:59:19.459   02 Jun 2027 15:59:55.490            36.031              Murmansk1          1125.969
       187   02 Jun 2027 16:01:24.903   02 Jun 2027 16:01:40.786            15.883              Murmansk2           496.344
       188   02 Jun 2027 16:11:18.351   02 Jun 2027 16:13:01.546           103.195                Anadyr2          3224.844
       189   02 Jun 2027 17:06:21.823   02 Jun 2027 17:08:26.182           124.359               CapeTown          3886.219
       190   02 Jun 2027 17:36:54.410   02 Jun 2027 17:41:15.894           261.484              Murmansk1          8171.375
       191   02 Jun 2027 17:46:53.415   02 Jun 2027 17:47:17.398            23.983                Anadyr2           749.469
       192   02 Jun 2027 17:47:29.678   02 Jun 2027 17:49:03.681            94.003                Anadyr1          2937.594
       193   02 Jun 2027 17:50:11.803   02 Jun 2027 17:51:29.584            77.781               Magadan1          2430.656
       194   02 Jun 2027 19:22:48.648   02 Jun 2027 19:24:41.936           113.288                Anadyr1          3540.250
       195   02 Jun 2027 19:24:53.871   02 Jun 2027 19:26:45.999           112.128                Anadyr2          3504.000
       196   02 Jun 2027 19:27:09.456   02 Jun 2027 19:28:43.583            94.127               Magadan1          2941.469
       197   02 Jun 2027 19:29:02.722   02 Jun 2027 19:30:13.431            70.709               Magadan1          2209.656
       198   02 Jun 2027 20:19:56.662   02 Jun 2027 20:21:48.846           112.184            RioGallegos          3505.750
       199   02 Jun 2027 20:58:39.279   02 Jun 2027 21:02:12.107           212.828                Anadyr2          6650.875
       200   02 Jun 2027 21:02:29.023   02 Jun 2027 21:04:40.477           131.454               Magadan2          4107.937
       201   02 Jun 2027 21:05:52.710   02 Jun 2027 21:06:14.339            21.629               Magadan1           675.906
       202   02 Jun 2027 21:06:35.699   02 Jun 2027 21:09:02.090           146.391                Irkutsk          4574.719
       203   02 Jun 2027 21:21:30.808   02 Jun 2027 21:23:17.797           106.989                Sumatra          3343.406
       204   02 Jun 2027 22:34:00.491   02 Jun 2027 22:35:01.351            60.860                Anadyr1          1901.875
       205   02 Jun 2027 22:35:09.263   02 Jun 2027 22:35:51.968            42.705                Anadyr2          1334.531
       206   02 Jun 2027 22:36:32.546   02 Jun 2027 22:38:32.965           120.419                Norilsk          3763.094
       207   02 Jun 2027 22:38:50.930   02 Jun 2027 22:39:15.434            24.504               Magadan2           765.750
       208   02 Jun 2027 22:40:29.591   02 Jun 2027 22:42:17.136           107.545                Irkutsk          3360.781
       209   02 Jun 2027 22:53:09.733   02 Jun 2027 22:53:40.552            30.819                  Delhi           963.094
       210   02 Jun 2027 22:54:23.648   02 Jun 2027 22:54:29.901             6.253                  Delhi           195.406
       211   02 Jun 2027 22:55:38.555   02 Jun 2027 22:56:48.891            70.336                Sumatra          2198.000
       212   02 Jun 2027 23:29:00.897   02 Jun 2027 23:29:18.061            17.164            RioGallegos           536.375
       213   03 Jun 2027 00:08:15.369   03 Jun 2027 00:09:45.238            89.869                Anadyr2          2808.406
       214   03 Jun 2027 00:10:29.942   03 Jun 2027 00:10:34.851             4.909                Anadyr1           153.406
       215   03 Jun 2027 00:10:41.103   03 Jun 2027 00:11:07.310            26.207                Anadyr2           818.969
       216   03 Jun 2027 00:12:32.592   03 Jun 2027 00:14:35.483           122.891                Norilsk          3840.344
       217   03 Jun 2027 00:15:43.914   03 Jun 2027 00:19:23.233           219.319              Murmansk1          6853.719
       218   03 Jun 2027 00:23:44.041   03 Jun 2027 00:26:24.797           160.756                  Delhi          5023.625
       219   03 Jun 2027 01:06:09.288   03 Jun 2027 01:06:38.548            29.260            RioGallegos           914.375
       220   03 Jun 2027 01:41:34.269   03 Jun 2027 01:42:43.754            69.485                Anadyr1          2171.406
       221   03 Jun 2027 01:43:14.144   03 Jun 2027 01:43:45.825            31.681                Anadyr1           990.031
       222   03 Jun 2027 01:47:43.004   03 Jun 2027 01:48:41.381            58.377               Magadan2          1824.281
       223   03 Jun 2027 01:48:43.535   03 Jun 2027 01:48:49.090             5.555                Norilsk           173.594
       224   03 Jun 2027 01:49:54.018   03 Jun 2027 01:50:20.442            26.424               Magadan1           825.750
       225   03 Jun 2027 01:50:44.224   03 Jun 2027 01:53:00.113           135.889              Murmansk2          4246.531
       226   03 Jun 2027 01:53:55.436   03 Jun 2027 01:54:20.682            25.246                Novosib           788.938
       227   03 Jun 2027 01:54:39.852   03 Jun 2027 01:55:22.541            42.689                 Moscow          1334.031
       228   03 Jun 2027 02:00:59.228   03 Jun 2027 02:01:52.834            53.606                  Delhi          1675.188
       229   03 Jun 2027 02:21:20.329   03 Jun 2027 02:22:55.845            95.516               CapeTown          2984.875
       230   03 Jun 2027 03:19:25.148   03 Jun 2027 03:19:26.980             1.832               Magadan1            57.250
       231   03 Jun 2027 03:19:26.980   03 Jun 2027 03:20:30.609            63.629               Magadan2          1988.406
       232   03 Jun 2027 03:33:54.363   03 Jun 2027 03:34:07.823            13.460                Norilsk           420.625
       233   03 Jun 2027 03:34:18.330   03 Jun 2027 03:35:06.774            48.444              Murmansk1          1513.875
       234   03 Jun 2027 03:35:15.973   03 Jun 2027 03:36:18.563            62.590                Novosib          1955.938
       235   03 Jun 2027 03:36:28.278   03 Jun 2027 03:39:17.018           168.740              Murmansk2          5273.125
       236   03 Jun 2027 03:39:27.647   03 Jun 2027 03:40:21.349            53.702                 Moscow          1678.188
       237   03 Jun 2027 03:53:46.039   03 Jun 2027 03:56:42.256           176.217               CapeTown          5506.781
       238   03 Jun 2027 04:57:22.124   03 Jun 2027 04:59:09.938           107.814               Magadan2          3369.187
       239   03 Jun 2027 04:59:09.938   03 Jun 2027 04:59:27.026            17.088               Magadan1           534.000
       240   03 Jun 2027 05:00:39.808   03 Jun 2027 05:01:06.842            27.034               Magadan1           844.813
       241   03 Jun 2027 06:33:34.507   03 Jun 2027 06:34:02.255            27.748               Magadan1           867.125
       242   03 Jun 2027 06:34:32.368   03 Jun 2027 06:36:23.113           110.745                Anadyr2          3460.781
       243   03 Jun 2027 06:36:23.113   03 Jun 2027 06:37:44.056            80.943                Anadyr1          2529.469
       244   03 Jun 2027 06:38:21.910   03 Jun 2027 06:39:19.463            57.553              Murmansk2          1798.531
       245   03 Jun 2027 08:07:48.213   03 Jun 2027 08:08:28.331            40.118               Magadan2          1253.687
       246   03 Jun 2027 08:08:29.172   03 Jun 2027 08:10:51.949           142.777                Anadyr1          4461.781
       247   03 Jun 2027 08:11:22.290   03 Jun 2027 08:11:29.605             7.315                Novosib           228.594
       248   03 Jun 2027 08:11:35.484   03 Jun 2027 08:12:08.771            33.287                Norilsk          1040.219
       249   03 Jun 2027 08:12:09.971   03 Jun 2027 08:12:56.271            46.300               Magadan1          1446.875
       250   03 Jun 2027 08:12:56.271   03 Jun 2027 08:13:06.682            10.411               Magadan2           325.344
       251   03 Jun 2027 08:13:15.379   03 Jun 2027 08:13:57.387            42.008                Anadyr1          1312.750
       252   03 Jun 2027 08:13:57.789   03 Jun 2027 08:14:25.681            27.892                Norilsk           871.625
       253   03 Jun 2027 08:14:37.898   03 Jun 2027 08:15:12.870            34.972                Novosib          1092.875
       254   03 Jun 2027 08:15:13.721   03 Jun 2027 08:16:36.867            83.146              Murmansk1          2598.312
       255   03 Jun 2027 08:49:47.985   03 Jun 2027 08:51:36.000           108.015            RioGallegos          3375.469
       256   03 Jun 2027 09:44:32.825   03 Jun 2027 09:47:24.580           171.755               Magadan2          5367.344
       257   03 Jun 2027 09:47:24.580   03 Jun 2027 09:47:57.565            32.985               Magadan1          1030.781
       258   03 Jun 2027 09:48:27.515   03 Jun 2027 09:48:48.335            20.820              Murmansk1           650.625
       259   03 Jun 2027 09:49:04.155   03 Jun 2027 09:49:11.883             7.728                Norilsk           241.500
       260   03 Jun 2027 09:49:11.884   03 Jun 2027 09:52:32.214           200.330              Murmansk2          6260.312
       261   03 Jun 2027 10:25:51.808   03 Jun 2027 10:26:58.003            66.195            RioGallegos          2068.594
       262   03 Jun 2027 11:00:19.593   03 Jun 2027 11:00:42.660            23.067                Sumatra           720.844
       263   03 Jun 2027 11:09:40.810   03 Jun 2027 11:10:35.423            54.613                  Delhi          1706.656
       264   03 Jun 2027 11:21:15.329   03 Jun 2027 11:21:45.082            29.753                Irkutsk           929.781
       265   03 Jun 2027 11:22:14.072   03 Jun 2027 11:22:53.789            39.717              Murmansk1          1241.156
       266   03 Jun 2027 11:22:53.789   03 Jun 2027 11:23:06.314            12.525              Murmansk2           391.406
       267   03 Jun 2027 11:23:10.358   03 Jun 2027 11:24:04.304            53.946                Norilsk          1685.812
       268   03 Jun 2027 11:24:09.722   03 Jun 2027 11:24:42.534            32.812              Murmansk1          1025.375
       269   03 Jun 2027 11:24:55.496   03 Jun 2027 11:26:07.384            71.888                Novosib          2246.500
       270   03 Jun 2027 11:26:13.197   03 Jun 2027 11:26:31.866            18.669                Norilsk           583.406
       271   03 Jun 2027 11:26:33.625   03 Jun 2027 11:26:41.547             7.922              Murmansk2           247.562
       272   03 Jun 2027 11:27:03.188   03 Jun 2027 11:27:13.872            10.684                 Moscow           333.875
       273   03 Jun 2027 11:28:41.617   03 Jun 2027 11:29:45.039            63.422                Norilsk          1981.937
       274   03 Jun 2027 12:08:11.907   03 Jun 2027 12:08:34.781            22.874            RioGallegos           714.813
       275   03 Jun 2027 12:08:49.544   03 Jun 2027 12:10:10.054            80.510            RioGallegos          2515.938
       276   03 Jun 2027 12:44:51.753   03 Jun 2027 12:45:26.265            34.512                  Delhi          1078.500
       277   03 Jun 2027 12:52:57.231   03 Jun 2027 12:53:44.661            47.430                Novosib          1482.188
       278   03 Jun 2027 12:54:54.985   03 Jun 2027 12:56:33.377            98.392                Novosib          3074.750
       279   03 Jun 2027 12:56:42.417   03 Jun 2027 12:57:27.145            44.728              Murmansk1          1397.750
       280   03 Jun 2027 12:58:03.936   03 Jun 2027 12:59:47.265           103.329                Norilsk          3229.031
       281   03 Jun 2027 14:28:51.746   03 Jun 2027 14:31:11.314           139.568                 Moscow          4361.500
       282   03 Jun 2027 14:32:08.362   03 Jun 2027 14:32:15.798             7.436                 Moscow           232.375
       283   03 Jun 2027 14:32:21.953   03 Jun 2027 14:34:36.115           134.162              Murmansk1          4192.562
       284   03 Jun 2027 14:34:36.115   03 Jun 2027 14:35:34.051            57.936              Murmansk2          1810.500
       285   03 Jun 2027 14:37:20.814   03 Jun 2027 14:38:11.356            50.542                Norilsk          1579.437
       286   03 Jun 2027 14:40:52.232   03 Jun 2027 14:41:55.847            63.615                Norilsk          1987.969
       287   03 Jun 2027 15:42:59.069   03 Jun 2027 15:44:04.315            65.246               CapeTown          2038.937
       288   03 Jun 2027 15:44:33.834   03 Jun 2027 15:45:28.215            54.381               CapeTown          1699.406
       289   03 Jun 2027 16:06:53.582   03 Jun 2027 16:07:27.514            33.932                 Moscow          1060.375
       290   03 Jun 2027 16:09:46.157   03 Jun 2027 16:10:53.532            67.375              Murmansk2          2105.469
       291   03 Jun 2027 16:13:46.668   03 Jun 2027 16:14:45.669            59.001              Murmansk2          1843.781
       292   03 Jun 2027 16:23:14.388   03 Jun 2027 16:25:17.181           122.793                Anadyr2          3837.281
       293   03 Jun 2027 16:28:32.437   03 Jun 2027 16:29:08.194            35.757                Anadyr2          1117.406
       294   03 Jun 2027 17:18:30.548   03 Jun 2027 17:19:29.524            58.976               CapeTown          1843.000
       295   03 Jun 2027 17:29:16.012   03 Jun 2027 17:29:22.208             6.196               CapeTown           193.625
       296   03 Jun 2027 17:49:36.392   03 Jun 2027 17:53:40.243           243.851              Murmansk2          7620.344
       297   03 Jun 2027 17:58:54.407   03 Jun 2027 17:59:25.316            30.909                Anadyr2           965.906
       298   03 Jun 2027 18:01:58.110   03 Jun 2027 18:03:20.916            82.806               Magadan1          2587.688
       299   03 Jun 2027 18:04:05.691   03 Jun 2027 18:04:38.200            32.509               Magadan1          1015.906
       300   03 Jun 2027 18:04:54.831   03 Jun 2027 18:04:59.639             4.808               Magadan1           150.250
       301   03 Jun 2027 19:34:50.127   03 Jun 2027 19:36:55.537           125.410                Anadyr1          3919.062
       302   03 Jun 2027 19:36:58.443   03 Jun 2027 19:37:10.233            11.790                Anadyr1           368.438
       303   03 Jun 2027 19:37:10.233   03 Jun 2027 19:37:53.179            42.946                Anadyr2          1342.063
       304   03 Jun 2027 19:37:56.528   03 Jun 2027 19:38:14.259            17.731                Anadyr2           554.094
       305   03 Jun 2027 19:38:17.119   03 Jun 2027 19:40:53.544           156.425               Magadan2          4888.281
       306   03 Jun 2027 19:42:12.779   03 Jun 2027 19:42:47.608            34.829               Magadan1          1088.406
       307   03 Jun 2027 19:44:10.549   03 Jun 2027 19:44:56.674            46.125               Magadan1          1441.406
       308   03 Jun 2027 19:48:07.881   03 Jun 2027 19:48:12.947             5.066               Magadan1           158.312
       309   03 Jun 2027 19:49:07.612   03 Jun 2027 19:49:19.622            12.010               Magadan2           375.313
       310   03 Jun 2027 20:30:51.031   03 Jun 2027 20:33:27.694           156.663            RioGallegos          4895.719
       311   03 Jun 2027 20:36:19.189   03 Jun 2027 20:36:43.240            24.051            RioGallegos           751.594
       312   03 Jun 2027 21:10:38.709   03 Jun 2027 21:11:08.665            29.956                Anadyr2           936.125
       313   03 Jun 2027 21:11:51.073   03 Jun 2027 21:12:04.522            13.449                Anadyr2           420.281
       314   03 Jun 2027 21:12:10.125   03 Jun 2027 21:12:21.079            10.954                Anadyr2           342.312
       315   03 Jun 2027 21:12:47.650   03 Jun 2027 21:15:45.293           177.643                Norilsk          5551.344
       316   03 Jun 2027 21:15:54.777   03 Jun 2027 21:15:56.500             1.723                Norilsk            53.844
       317   03 Jun 2027 21:16:27.047   03 Jun 2027 21:16:28.809             1.762                Norilsk            55.063
       318   03 Jun 2027 21:17:39.324   03 Jun 2027 21:18:33.147            53.823                Irkutsk          1681.969
       319   03 Jun 2027 21:19:58.431   03 Jun 2027 21:20:16.846            18.415                Norilsk           575.469
       320   03 Jun 2027 21:20:47.245   03 Jun 2027 21:20:51.317             4.072                Irkutsk           127.250
       321   03 Jun 2027 21:21:29.219   03 Jun 2027 21:21:55.209            25.990                Irkutsk           812.187
       322   03 Jun 2027 21:23:10.573   03 Jun 2027 21:23:54.469            43.896                Irkutsk          1371.750
       323   03 Jun 2027 21:26:44.873   03 Jun 2027 21:26:45.762             0.889                Irkutsk            27.781
       324   03 Jun 2027 21:32:29.568   03 Jun 2027 21:34:51.008           141.440                Sumatra          4420.000
       325   03 Jun 2027 21:41:04.222   03 Jun 2027 21:41:26.897            22.675                Sumatra           708.594
       326   03 Jun 2027 22:46:32.132   03 Jun 2027 22:46:49.624            17.492                Anadyr1           546.625
       327   03 Jun 2027 22:47:41.262   03 Jun 2027 22:48:26.355            45.093                Anadyr2          1409.156
       328   03 Jun 2027 22:48:34.254   03 Jun 2027 22:49:05.137            30.883                Norilsk           965.094
       329   03 Jun 2027 22:49:10.692   03 Jun 2027 22:49:48.034            37.342               Magadan1          1166.937
       330   03 Jun 2027 22:49:57.380   03 Jun 2027 22:50:43.115            45.735               Magadan2          1429.219
       331   03 Jun 2027 22:52:28.741   03 Jun 2027 22:53:39.726            70.985                Irkutsk          2218.281
       332   03 Jun 2027 22:53:47.956   03 Jun 2027 22:56:03.573           135.617                Novosib          4238.031
       333   03 Jun 2027 23:02:50.938   03 Jun 2027 23:04:46.825           115.887                  Delhi          3621.469
       334   04 Jun 2027 00:20:14.238   04 Jun 2027 00:20:19.706             5.468                Anadyr2           170.875
       335   04 Jun 2027 00:21:09.779   04 Jun 2027 00:21:46.524            36.745                Anadyr2          1148.281
       336   04 Jun 2027 00:22:14.325   04 Jun 2027 00:22:30.540            16.215                Anadyr1           506.719
       337   04 Jun 2027 00:22:31.079   04 Jun 2027 00:22:37.568             6.489                Anadyr2           202.781
       338   04 Jun 2027 00:22:41.478   04 Jun 2027 00:22:49.976             8.498                Anadyr2           265.563
       339   04 Jun 2027 00:22:58.908   04 Jun 2027 00:23:50.264            51.356                Anadyr2          1604.875
       340   04 Jun 2027 00:24:34.630   04 Jun 2027 00:24:51.478            16.848                Norilsk           526.500
       341   04 Jun 2027 00:25:08.757   04 Jun 2027 00:25:50.548            41.791               Magadan1          1305.969
       342   04 Jun 2027 00:26:24.352   04 Jun 2027 00:26:44.419            20.067               Magadan2           627.094
       343   04 Jun 2027 00:27:27.302   04 Jun 2027 00:28:47.757            80.455              Murmansk2          2514.219
       344   04 Jun 2027 00:28:48.164   04 Jun 2027 00:29:31.512            43.348                Novosib          1354.625
       345   04 Jun 2027 00:29:51.223   04 Jun 2027 00:30:33.282            42.059              Murmansk1          1314.344
       346   04 Jun 2027 00:31:59.785   04 Jun 2027 00:32:44.412            44.627              Murmansk1          1394.594
       347   04 Jun 2027 00:43:52.894   04 Jun 2027 00:44:35.254            42.360                  Delhi          1323.750
       348   04 Jun 2027 01:17:40.934   04 Jun 2027 01:18:37.402            56.468            RioGallegos          1764.625
       349   04 Jun 2027 01:19:54.317   04 Jun 2027 01:20:42.731            48.414            RioGallegos          1512.938
       350   04 Jun 2027 01:53:16.087   04 Jun 2027 01:53:42.841            26.754                Anadyr1           836.063
       351   04 Jun 2027 01:54:12.855   04 Jun 2027 01:54:56.296            43.441                Anadyr1          1357.531
       352   04 Jun 2027 01:55:14.917   04 Jun 2027 01:55:57.287            42.370                Anadyr2          1324.063
       353   04 Jun 2027 01:59:17.303   04 Jun 2027 01:59:37.211            19.908                Anadyr2           622.125
       354   04 Jun 2027 02:00:04.842   04 Jun 2027 02:00:07.353             2.511               Magadan2            78.469
       355   04 Jun 2027 02:00:12.795   04 Jun 2027 02:01:03.109            50.314               Magadan1          1572.313
       356   04 Jun 2027 02:01:36.255   04 Jun 2027 02:01:55.643            19.388               Magadan2           605.875
       357   04 Jun 2027 02:02:44.550   04 Jun 2027 02:03:42.102            57.552              Murmansk1          1798.500
       358   04 Jun 2027 02:03:42.102   04 Jun 2027 02:04:41.347            59.245              Murmansk2          1851.406
       359   04 Jun 2027 02:06:02.334   04 Jun 2027 02:06:30.301            27.967                Irkutsk           873.969
       360   04 Jun 2027 02:06:49.669   04 Jun 2027 02:07:03.080            13.411                 Moscow           419.094
       361   04 Jun 2027 02:09:29.820   04 Jun 2027 02:09:43.128            13.308                 Moscow           415.875
       362   04 Jun 2027 02:12:10.022   04 Jun 2027 02:12:27.720            17.698                 Moscow           553.063
       363   04 Jun 2027 02:13:40.876   04 Jun 2027 02:14:05.305            24.429                  Delhi           763.406
       364   04 Jun 2027 02:18:19.076   04 Jun 2027 02:18:34.535            15.459                  Delhi           483.094
       365   04 Jun 2027 02:18:54.260   04 Jun 2027 02:19:01.077             6.817                  Delhi           213.031
       366   04 Jun 2027 02:32:27.780   04 Jun 2027 02:33:05.886            38.106               CapeTown          1190.812
       367   04 Jun 2027 02:39:49.283   04 Jun 2027 02:40:33.834            44.551               CapeTown          1392.219
       368   04 Jun 2027 03:45:43.695   04 Jun 2027 03:46:22.626            38.931                Novosib          1216.594
       369   04 Jun 2027 03:47:11.080   04 Jun 2027 03:47:18.606             7.526                Norilsk           235.187
       370   04 Jun 2027 03:47:20.063   04 Jun 2027 03:50:20.326           180.263              Murmansk2          5633.219
       371   04 Jun 2027 03:51:09.723   04 Jun 2027 03:51:24.880            15.157              Murmansk2           473.656
       372   04 Jun 2027 05:09:16.092   04 Jun 2027 05:09:24.428             8.336               Magadan2           260.500
       373   04 Jun 2027 05:09:24.428   04 Jun 2027 05:09:50.900            26.472               Magadan1           827.250
       374   04 Jun 2027 05:10:01.655   04 Jun 2027 05:13:19.123           197.468                Anadyr2          6170.875
       375   04 Jun 2027 06:46:40.472   04 Jun 2027 06:47:39.181            58.709                Norilsk          1834.656
       376   04 Jun 2027 06:47:44.750   04 Jun 2027 06:50:03.386           138.636               Magadan1          4332.375
       377   04 Jun 2027 06:50:06.134   04 Jun 2027 06:50:25.989            19.855                Anadyr1           620.469
       378   04 Jun 2027 06:50:54.144   04 Jun 2027 06:51:12.052            17.908                Anadyr1           559.625
       379   04 Jun 2027 07:29:13.426   04 Jun 2027 07:30:08.875            55.449            RioGallegos          1732.781
       380   04 Jun 2027 08:19:27.516   04 Jun 2027 08:20:32.284            64.768               Magadan2          2024.000
       381   04 Jun 2027 08:20:35.120   04 Jun 2027 08:20:54.100            18.980                Norilsk           593.125
       382   04 Jun 2027 08:21:33.189   04 Jun 2027 08:22:23.300            50.111                Irkutsk          1565.969
       383   04 Jun 2027 08:22:40.560   04 Jun 2027 08:25:12.889           152.329                Anadyr2          4760.281
       384   04 Jun 2027 08:25:20.366   04 Jun 2027 08:25:54.870            34.504               Magadan1          1078.250
       385   04 Jun 2027 08:26:13.861   04 Jun 2027 08:26:33.292            19.431               Magadan1           607.219
       386   04 Jun 2027 08:26:44.050   04 Jun 2027 08:27:46.990            62.940              Murmansk2          1966.875
       387   04 Jun 2027 08:28:39.724   04 Jun 2027 08:28:59.461            19.737              Murmansk2           616.781
       388   04 Jun 2027 08:31:47.739   04 Jun 2027 08:31:59.796            12.057              Murmansk1           376.781
       389   04 Jun 2027 09:01:38.880   04 Jun 2027 09:02:28.791            49.911            RioGallegos          1559.719
       390   04 Jun 2027 09:38:06.609   04 Jun 2027 09:38:19.933            13.324                Sumatra           416.375
       391   04 Jun 2027 09:40:40.708   04 Jun 2027 09:41:23.751            43.043                Sumatra          1345.094
       392   04 Jun 2027 09:56:15.348   04 Jun 2027 09:56:17.831             2.483                Novosib            77.594
       393   04 Jun 2027 09:56:56.829   04 Jun 2027 09:58:01.685            64.856                Irkutsk          2026.750
       394   04 Jun 2027 09:58:08.027   04 Jun 2027 09:58:33.766            25.739                Norilsk           804.344
       395   04 Jun 2027 09:58:37.474   04 Jun 2027 09:58:48.552            11.078                Norilsk           346.187
       396   04 Jun 2027 09:58:57.213   04 Jun 2027 10:00:14.779            77.566                Novosib          2423.938
       397   04 Jun 2027 10:00:37.835   04 Jun 2027 10:00:40.484             2.649                Novosib            82.781
       398   04 Jun 2027 10:00:44.579   04 Jun 2027 10:00:59.074            14.495                Norilsk           452.969
       399   04 Jun 2027 10:01:03.507   04 Jun 2027 10:01:33.077            29.570              Murmansk2           924.063
       400   04 Jun 2027 10:01:49.174   04 Jun 2027 10:01:55.411             6.237                Norilsk           194.906
       401   04 Jun 2027 10:01:55.808   04 Jun 2027 10:02:27.497            31.689                Irkutsk           990.281
       402   04 Jun 2027 10:03:09.016   04 Jun 2027 10:03:32.229            23.213                Novosib           725.406
       403   04 Jun 2027 10:03:33.279   04 Jun 2027 10:03:44.386            11.107              Murmansk2           347.094
       404   04 Jun 2027 10:38:10.950   04 Jun 2027 10:38:22.777            11.827            RioGallegos           369.594
       405   04 Jun 2027 10:39:00.910   04 Jun 2027 10:39:30.770            29.860            RioGallegos           933.125
       406   04 Jun 2027 10:40:24.448   04 Jun 2027 10:40:52.133            27.685            RioGallegos           865.156
       407   04 Jun 2027 11:12:31.198   04 Jun 2027 11:13:04.019            32.821                Sumatra          1025.656
       408   04 Jun 2027 11:15:09.453   04 Jun 2027 11:16:58.982           109.529                Sumatra          3422.781
       409   04 Jun 2027 11:33:51.391   04 Jun 2027 11:34:18.993            27.602                Irkutsk           862.563
       410   04 Jun 2027 11:34:22.023   04 Jun 2027 11:34:29.778             7.755              Murmansk1           242.344
       411   04 Jun 2027 11:34:29.778   04 Jun 2027 11:34:46.986            17.208              Murmansk2           537.750
       412   04 Jun 2027 11:34:55.059   04 Jun 2027 11:35:24.644            29.585                Norilsk           924.531
       413   04 Jun 2027 11:35:30.506   04 Jun 2027 11:35:49.800            19.294                 Moscow           602.937
       414   04 Jun 2027 11:35:51.066   04 Jun 2027 11:36:13.756            22.690                Novosib           709.062
       415   04 Jun 2027 11:36:22.139   04 Jun 2027 11:36:46.957            24.818                Norilsk           775.562
       416   04 Jun 2027 11:36:51.970   04 Jun 2027 11:36:55.543             3.573                 Moscow           111.656
       417   04 Jun 2027 11:36:55.686   04 Jun 2027 11:37:43.854            48.168              Murmansk2          1505.250
       418   04 Jun 2027 11:37:47.879   04 Jun 2027 11:38:29.964            42.085              Murmansk1          1315.156
       419   04 Jun 2027 12:57:14.256   04 Jun 2027 12:59:02.321           108.065                  Delhi          3377.031
       420   04 Jun 2027 13:01:19.091   04 Jun 2027 13:01:59.828            40.737                  Delhi          1273.031
       421   04 Jun 2027 13:05:30.326   04 Jun 2027 13:06:57.748            87.422                Novosib          2731.937
       422   04 Jun 2027 13:08:37.166   04 Jun 2027 13:09:26.649            49.483              Murmansk1          1546.344
       423   04 Jun 2027 13:09:36.664   04 Jun 2027 13:10:33.635            56.971                Novosib          1780.344
       424   04 Jun 2027 13:11:16.559   04 Jun 2027 13:11:42.535            25.976                Norilsk           811.750
       425   04 Jun 2027 13:12:11.263   04 Jun 2027 13:12:48.108            36.845                Norilsk          1151.406
       426   04 Jun 2027 13:14:13.756   04 Jun 2027 13:15:05.750            51.994                Norilsk          1624.812
       427   04 Jun 2027 14:40:56.734   04 Jun 2027 14:44:45.910           229.176                 Moscow          7161.750
       428   04 Jun 2027 14:45:12.531   04 Jun 2027 14:46:28.003            75.472              Murmansk1          2358.500
       429   04 Jun 2027 14:46:28.003   04 Jun 2027 14:47:41.299            73.296              Murmansk2          2290.500
       430   04 Jun 2027 14:51:35.453   04 Jun 2027 14:52:08.667            33.214                Norilsk          1037.938
       431   04 Jun 2027 14:53:30.638   04 Jun 2027 14:54:25.027            54.389                Norilsk          1699.656
       432   04 Jun 2027 15:01:37.442   04 Jun 2027 15:01:47.969            10.527                Anadyr2           328.969
       433   04 Jun 2027 15:02:08.489   04 Jun 2027 15:02:46.796            38.307                Anadyr2          1197.094
       434   04 Jun 2027 15:54:45.860   04 Jun 2027 15:55:17.826            31.966               CapeTown           998.937
       435   04 Jun 2027 16:02:02.182   04 Jun 2027 16:02:08.234             6.052               CapeTown           189.125
       436   04 Jun 2027 16:02:11.292   04 Jun 2027 16:04:12.749           121.457               CapeTown          3795.531
       437   04 Jun 2027 16:22:07.832   04 Jun 2027 16:22:27.683            19.851              Murmansk1           620.344
       438   04 Jun 2027 16:25:47.983   04 Jun 2027 16:26:21.852            33.869              Murmansk1          1058.406
       439   04 Jun 2027 16:31:35.189   04 Jun 2027 16:32:01.124            25.935              Murmansk1           810.469
       440   04 Jun 2027 16:35:11.633   04 Jun 2027 16:35:24.875            13.242                Anadyr2           413.812
       441   04 Jun 2027 16:35:32.393   04 Jun 2027 16:37:07.635            95.242                Anadyr1          2976.312
       442   04 Jun 2027 16:40:30.459   04 Jun 2027 16:40:48.367            17.908                Anadyr1           559.625
       443   04 Jun 2027 16:40:55.903   04 Jun 2027 16:41:08.630            12.727                Anadyr1           397.719
       444   04 Jun 2027 16:44:29.974   04 Jun 2027 16:45:00.491            30.517                Anadyr2           953.656
       445   04 Jun 2027 17:30:42.559   04 Jun 2027 17:31:43.075            60.516               CapeTown          1891.125
       446   04 Jun 2027 17:41:01.504   04 Jun 2027 17:41:26.206            24.702               CapeTown           771.937
       447   04 Jun 2027 18:02:23.132   04 Jun 2027 18:07:29.761           306.629              Murmansk1          9582.156
       448   04 Jun 2027 18:13:48.035   04 Jun 2027 18:15:10.101            82.066               Magadan2          2564.562
       449   04 Jun 2027 18:16:56.041   04 Jun 2027 18:17:05.850             9.809               Magadan2           306.531
       450   04 Jun 2027 18:21:53.337   04 Jun 2027 18:22:24.477            31.140               Magadan2           973.125
       451   04 Jun 2027 19:46:51.503   04 Jun 2027 19:49:50.135           178.632                Anadyr2          5582.250
       452   04 Jun 2027 19:49:55.626   04 Jun 2027 19:50:07.186            11.560                Anadyr2           361.250
       453   04 Jun 2027 19:50:18.385   04 Jun 2027 19:50:28.740            10.355                Anadyr2           323.594
       454   04 Jun 2027 19:50:30.178   04 Jun 2027 19:52:54.680           144.502               Magadan1          4515.688
       455   04 Jun 2027 19:53:32.560   04 Jun 2027 19:53:43.806            11.246               Magadan2           351.437
       456   04 Jun 2027 19:56:28.503   04 Jun 2027 19:57:01.091            32.588               Magadan2          1018.375
       457   04 Jun 2027 20:42:15.237   04 Jun 2027 20:45:12.195           176.958            RioGallegos          5529.937
       458   04 Jun 2027 20:48:35.675   04 Jun 2027 20:49:12.420            36.745            RioGallegos          1148.281
       459   04 Jun 2027 21:22:37.640   04 Jun 2027 21:23:10.498            32.858                Anadyr2          1026.812
       460   04 Jun 2027 21:24:45.719   04 Jun 2027 21:27:55.895           190.176                Norilsk          5943.000
       461   04 Jun 2027 21:28:11.395   04 Jun 2027 21:29:20.490            69.095                Norilsk          2159.219
       462   04 Jun 2027 21:32:21.771   04 Jun 2027 21:32:43.251            21.480                Irkutsk           671.250
       463   04 Jun 2027 21:37:53.000   04 Jun 2027 21:38:37.163            44.163                Irkutsk          1380.094
       464   04 Jun 2027 21:43:47.198   04 Jun 2027 21:46:32.209           165.011                Sumatra          5156.594
       465   04 Jun 2027 22:58:51.619   04 Jun 2027 22:59:02.201            10.582                Anadyr1           330.688
       466   04 Jun 2027 23:00:36.126   04 Jun 2027 23:02:35.571           119.445                Norilsk          3732.656
       467   04 Jun 2027 23:02:38.071   04 Jun 2027 23:03:08.934            30.863               Magadan2           964.469
       468   04 Jun 2027 23:04:28.901   04 Jun 2027 23:05:19.809            50.908                Irkutsk          1590.875
       469   04 Jun 2027 23:05:22.062   04 Jun 2027 23:06:57.325            95.263                Novosib          2976.969
       470   04 Jun 2027 23:13:41.701   04 Jun 2027 23:13:46.474             4.773                Novosib           149.156
       471   04 Jun 2027 23:13:52.710   04 Jun 2027 23:14:40.174            47.464                  Delhi          1483.250
       472   04 Jun 2027 23:16:23.081   04 Jun 2027 23:16:55.718            32.637                  Delhi          1019.906
       473   04 Jun 2027 23:17:35.723   04 Jun 2027 23:17:58.458            22.735                  Delhi           710.469
       474   04 Jun 2027 23:20:44.629   04 Jun 2027 23:21:34.712            50.083                  Delhi          1565.094
       475   05 Jun 2027 00:31:41.430   05 Jun 2027 00:32:16.894            35.464                Anadyr1          1108.250
       476   05 Jun 2027 00:32:44.139   05 Jun 2027 00:33:06.912            22.773                Anadyr1           711.656
       477   05 Jun 2027 00:33:21.204   05 Jun 2027 00:33:47.857            26.653                Anadyr2           832.906
       478   05 Jun 2027 00:33:59.843   05 Jun 2027 00:34:12.155            12.312                Anadyr2           384.750
       479   05 Jun 2027 00:34:30.877   05 Jun 2027 00:34:40.873             9.996                Anadyr2           312.375
       480   05 Jun 2027 00:36:36.581   05 Jun 2027 00:37:24.378            47.797                Norilsk          1493.656
       481   05 Jun 2027 00:37:49.121   05 Jun 2027 00:38:44.161            55.040               Magadan1          1720.000
       482   05 Jun 2027 00:39:17.040   05 Jun 2027 00:39:44.803            27.763              Murmansk2           867.594
