uniorb/output/strategy_1/Drop/Drop_KinoSat_110702.txt

KinoSat_110702
-------------------------
    Access    *     Start Time (UTCG)     *     Stop Time (UTCG)  *   Duration (s)        *       Station  *  Data (Mbytes)
         1   01 Jun 2027 04:10:23.040   01 Jun 2027 04:13:21.893           178.853                Anadyr1          5589.156
         2   01 Jun 2027 04:13:31.568   01 Jun 2027 04:14:53.444            81.876               Magadan2          2558.625
         3   01 Jun 2027 05:45:15.502   01 Jun 2027 05:45:40.724            25.222                Irkutsk           788.187
         4   01 Jun 2027 05:46:09.922   01 Jun 2027 05:47:19.736            69.814               Magadan1          2181.687
         5   01 Jun 2027 05:47:29.728   01 Jun 2027 05:47:38.634             8.906                Novosib           278.312
         6   01 Jun 2027 05:47:46.847   01 Jun 2027 05:49:30.861           104.014               Magadan1          3250.438
         7   01 Jun 2027 05:49:39.095   01 Jun 2027 05:50:23.507            44.412               Magadan2          1387.875
         8   01 Jun 2027 05:50:43.853   01 Jun 2027 05:50:53.210             9.357                Novosib           292.406
         9   01 Jun 2027 06:25:21.413   01 Jun 2027 06:27:33.799           132.386            RioGallegos          4137.063
        10   01 Jun 2027 06:27:49.948   01 Jun 2027 06:28:32.990            43.042            RioGallegos          1345.063
        11   01 Jun 2027 07:01:20.819   01 Jun 2027 07:02:13.707            52.888                Sumatra          1652.750
        12   01 Jun 2027 07:02:24.146   01 Jun 2027 07:02:30.723             6.577                Sumatra           205.531
        13   01 Jun 2027 07:07:32.271   01 Jun 2027 07:08:26.539            54.268                Sumatra          1695.875
        14   01 Jun 2027 07:22:08.622   01 Jun 2027 07:22:13.162             4.540                Novosib           141.875
        15   01 Jun 2027 07:22:31.324   01 Jun 2027 07:22:41.154             9.830                Norilsk           307.187
        16   01 Jun 2027 07:22:49.137   01 Jun 2027 07:24:27.515            98.378                Novosib          3074.313
        17   01 Jun 2027 07:24:39.211   01 Jun 2027 07:24:44.823             5.612                Novosib           175.375
        18   01 Jun 2027 07:24:45.387   01 Jun 2027 07:26:03.897            78.510              Murmansk2          2453.438
        19   01 Jun 2027 07:26:09.793   01 Jun 2027 07:28:11.523           121.730                Norilsk          3804.063
        20   01 Jun 2027 07:28:38.571   01 Jun 2027 07:30:46.145           127.574              Murmansk1          3986.687
        21   01 Jun 2027 07:30:46.145   01 Jun 2027 07:31:03.934            17.789              Murmansk2           555.906
        22   01 Jun 2027 08:02:22.104   01 Jun 2027 08:02:33.806            11.702            RioGallegos           365.687
        23   01 Jun 2027 08:03:26.944   01 Jun 2027 08:04:06.272            39.328            RioGallegos          1229.000
        24   01 Jun 2027 08:05:48.570   01 Jun 2027 08:05:57.680             9.110            RioGallegos           284.687
        25   01 Jun 2027 08:06:11.531   01 Jun 2027 08:07:04.536            53.005            RioGallegos          1656.406
        26   01 Jun 2027 08:36:36.534   01 Jun 2027 08:37:35.291            58.757                Sumatra          1836.156
        27   01 Jun 2027 08:40:03.595   01 Jun 2027 08:41:09.384            65.789                Sumatra          2055.906
        28   01 Jun 2027 08:44:47.718   01 Jun 2027 08:46:32.802           105.084                  Delhi          3283.875
        29   01 Jun 2027 08:47:22.030   01 Jun 2027 08:48:40.297            78.267                  Delhi          2445.844
        30   01 Jun 2027 08:59:53.702   01 Jun 2027 09:02:31.792           158.090              Murmansk1          4940.313
        31   01 Jun 2027 09:03:11.506   01 Jun 2027 09:03:33.387            21.881                 Moscow           683.781
        32   01 Jun 2027 09:04:11.523   01 Jun 2027 09:04:26.290            14.767                 Moscow           461.469
        33   01 Jun 2027 10:21:31.636   01 Jun 2027 10:21:38.002             6.366                  Delhi           198.937
        34   01 Jun 2027 10:22:41.479   01 Jun 2027 10:24:15.748            94.269                  Delhi          2945.906
        35   01 Jun 2027 10:35:38.415   01 Jun 2027 10:37:16.113            97.698                 Moscow          3053.062
        36   01 Jun 2027 10:37:30.385   01 Jun 2027 10:41:35.971           245.586                 Moscow          7674.563
        37   01 Jun 2027 12:05:51.002   01 Jun 2027 12:06:07.860            16.858                 Moscow           526.812
        38   01 Jun 2027 12:06:50.168   01 Jun 2027 12:07:46.596            56.428                 Moscow          1763.375
        39   01 Jun 2027 12:09:33.193   01 Jun 2027 12:09:52.273            19.080                 Moscow           596.250
        40   01 Jun 2027 12:10:30.784   01 Jun 2027 12:10:38.913             8.129              Murmansk1           254.031
        41   01 Jun 2027 12:10:55.722   01 Jun 2027 12:11:27.232            31.510              Murmansk1           984.687
        42   01 Jun 2027 12:12:49.512   01 Jun 2027 12:14:01.375            71.863              Murmansk1          2245.719
        43   01 Jun 2027 12:15:08.237   01 Jun 2027 12:15:08.506             0.269              Murmansk1             8.406
        44   01 Jun 2027 12:15:09.813   01 Jun 2027 12:15:34.436            24.623                Norilsk           769.469
        45   01 Jun 2027 12:24:30.116   01 Jun 2027 12:27:49.794           199.678                Anadyr1          6239.937
        46   01 Jun 2027 12:28:24.679   01 Jun 2027 12:29:07.372            42.693                Anadyr2          1334.156
        47   01 Jun 2027 13:50:46.198   01 Jun 2027 13:51:24.742            38.544              Murmansk2          1204.500
        48   01 Jun 2027 13:58:58.977   01 Jun 2027 14:02:15.400           196.423                Anadyr2          6138.219
        49   01 Jun 2027 14:04:43.055   01 Jun 2027 14:05:09.346            26.291                Anadyr1           821.594
        50   01 Jun 2027 14:05:47.452   01 Jun 2027 14:06:51.889            64.437                Anadyr1          2013.656
        51   01 Jun 2027 15:30:17.779   01 Jun 2027 15:30:26.888             9.109              Murmansk2           284.656
        52   01 Jun 2027 15:30:35.823   01 Jun 2027 15:31:23.458            47.635              Murmansk2          1488.594
        53   01 Jun 2027 15:34:45.295   01 Jun 2027 15:35:27.109            41.814                Anadyr2          1306.687
        54   01 Jun 2027 15:37:01.591   01 Jun 2027 15:37:28.664            27.073                Anadyr2           846.031
        55   01 Jun 2027 15:37:30.126   01 Jun 2027 15:40:31.162           181.036               Magadan2          5657.375
        56   01 Jun 2027 15:40:31.162   01 Jun 2027 15:41:29.828            58.666               Magadan1          1833.313
        57   01 Jun 2027 15:43:09.018   01 Jun 2027 15:43:37.330            28.312               Magadan1           884.750
        58   01 Jun 2027 15:45:18.824   01 Jun 2027 15:45:37.631            18.807               Magadan1           587.719
        59   01 Jun 2027 15:45:45.918   01 Jun 2027 15:46:54.088            68.170               Magadan1          2130.313
        60   01 Jun 2027 17:16:05.224   01 Jun 2027 17:16:32.781            27.557               Magadan2           861.156
        61   01 Jun 2027 17:16:32.781   01 Jun 2027 17:16:37.420             4.639               Magadan1           144.969
        62   01 Jun 2027 17:16:40.630   01 Jun 2027 17:16:40.998             0.368               Magadan2            11.500
        63   01 Jun 2027 17:17:58.896   01 Jun 2027 17:17:59.092             0.196                Anadyr1             6.125
        64   01 Jun 2027 17:18:13.811   01 Jun 2027 17:18:17.156             3.345                Anadyr1           104.531
        65   01 Jun 2027 17:18:24.846   01 Jun 2027 17:18:56.283            31.437               Magadan2           982.406
        66   01 Jun 2027 17:20:17.835   01 Jun 2027 17:20:31.223            13.388               Magadan2           418.375
        67   01 Jun 2027 17:21:20.155   01 Jun 2027 17:21:41.580            21.425               Magadan2           669.531
        68   01 Jun 2027 17:22:24.731   01 Jun 2027 17:22:50.508            25.777               Magadan2           805.531
        69   01 Jun 2027 18:05:41.786   01 Jun 2027 18:09:12.795           211.009            RioGallegos          6594.031
        70   01 Jun 2027 18:10:16.630   01 Jun 2027 18:12:19.357           122.727            RioGallegos          3835.219
        71   01 Jun 2027 18:50:17.209   01 Jun 2027 18:52:48.324           151.115                Norilsk          4722.344
        72   01 Jun 2027 18:53:00.853   01 Jun 2027 18:53:44.067            43.214                Irkutsk          1350.438
        73   01 Jun 2027 18:54:38.591   01 Jun 2027 18:56:00.942            82.351                Irkutsk          2573.469
        74   01 Jun 2027 19:03:22.284   01 Jun 2027 19:03:44.360            22.076                Irkutsk           689.875
        75   01 Jun 2027 19:07:06.512   01 Jun 2027 19:10:25.436           198.924                Sumatra          6216.375
        76   01 Jun 2027 19:13:36.318   01 Jun 2027 19:13:56.731            20.413                Sumatra           637.906
        77   01 Jun 2027 20:28:40.028   01 Jun 2027 20:29:48.209            68.181                Novosib          2130.656
        78   01 Jun 2027 20:33:27.737   01 Jun 2027 20:34:25.010            57.273                Novosib          1789.781
        79   01 Jun 2027 20:35:26.834   01 Jun 2027 20:36:30.867            64.033                Novosib          2001.031
        80   01 Jun 2027 20:38:03.084   01 Jun 2027 20:42:08.471           245.387                  Delhi          7668.344
        81   01 Jun 2027 22:03:00.827   01 Jun 2027 22:08:48.864           348.037              Murmansk2         10876.156
        82   01 Jun 2027 23:36:40.170   01 Jun 2027 23:37:32.510            52.340               Magadan2          1635.625
        83   01 Jun 2027 23:38:35.256   01 Jun 2027 23:40:16.172           100.916              Murmansk1          3153.625
        84   01 Jun 2027 23:42:02.105   01 Jun 2027 23:42:15.304            13.199              Murmansk1           412.469
        85   01 Jun 2027 23:42:16.230   01 Jun 2027 23:42:33.213            16.983                 Moscow           530.719
        86   01 Jun 2027 23:42:52.841   01 Jun 2027 23:43:52.697            59.856              Murmansk2          1870.500
        87   01 Jun 2027 23:44:00.090   01 Jun 2027 23:44:13.125            13.035                 Moscow           407.344
        88   01 Jun 2027 23:45:26.061   01 Jun 2027 23:45:34.387             8.326              Murmansk1           260.188
        89   01 Jun 2027 23:45:35.328   01 Jun 2027 23:46:10.724            35.396                 Moscow          1106.125
        90   01 Jun 2027 23:49:35.457   01 Jun 2027 23:50:14.615            39.158                 Moscow          1223.688
        91   01 Jun 2027 23:50:50.564   01 Jun 2027 23:51:07.757            17.193                 Moscow           537.281
        92   02 Jun 2027 00:07:03.597   02 Jun 2027 00:08:11.895            68.298               CapeTown          2134.313
        93   02 Jun 2027 00:09:50.664   02 Jun 2027 00:12:14.482           143.818               CapeTown          4494.313
        94   02 Jun 2027 01:13:30.056   02 Jun 2027 01:13:44.533            14.477               Magadan1           452.406
        95   02 Jun 2027 01:14:04.052   02 Jun 2027 01:14:43.375            39.323               Magadan1          1228.844
        96   02 Jun 2027 01:15:44.388   02 Jun 2027 01:16:56.398            72.010              Murmansk2          2250.313
        97   02 Jun 2027 01:21:00.301   02 Jun 2027 01:21:14.136            13.835                 Moscow           432.344
        98   02 Jun 2027 01:21:16.420   02 Jun 2027 01:21:50.132            33.712                 Moscow          1053.500
        99   02 Jun 2027 01:26:55.182   02 Jun 2027 01:27:07.682            12.500                 Moscow           390.625
       100   02 Jun 2027 01:41:51.696   02 Jun 2027 01:43:14.672            82.976               CapeTown          2593.000
       101   02 Jun 2027 01:50:15.695   02 Jun 2027 01:50:34.199            18.504               CapeTown           578.250
       102   02 Jun 2027 02:38:35.774   02 Jun 2027 02:40:41.149           125.375                Anadyr2          3917.969
       103   02 Jun 2027 02:40:49.295   02 Jun 2027 02:41:43.746            54.451               Magadan1          1701.594
       104   02 Jun 2027 02:41:52.152   02 Jun 2027 02:42:28.900            36.748               Magadan2          1148.375
       105   02 Jun 2027 02:46:38.189   02 Jun 2027 02:46:55.867            17.678                Norilsk           552.438
       106   02 Jun 2027 02:47:19.582   02 Jun 2027 02:47:48.182            28.600                Norilsk           893.750
       107   02 Jun 2027 02:50:27.062   02 Jun 2027 02:51:05.386            38.324              Murmansk2          1197.625
       108   02 Jun 2027 02:51:05.386   02 Jun 2027 02:51:39.413            34.027              Murmansk1          1063.344
       109   02 Jun 2027 02:54:02.257   02 Jun 2027 02:54:14.949            12.692                 Moscow           396.625
       110   02 Jun 2027 02:54:57.181   02 Jun 2027 02:55:03.467             6.286                 Moscow           196.437
       111   02 Jun 2027 02:56:01.148   02 Jun 2027 02:57:07.148            66.000                 Moscow          2062.500
       112   02 Jun 2027 04:21:37.523   02 Jun 2027 04:22:15.195            37.672                Irkutsk          1177.250
       113   02 Jun 2027 04:22:36.786   02 Jun 2027 04:23:03.983            27.197                Anadyr1           849.906
       114   02 Jun 2027 04:23:05.503   02 Jun 2027 04:24:32.864            87.361                Anadyr2          2730.031
       115   02 Jun 2027 05:03:26.301   02 Jun 2027 05:03:33.149             6.848            RioGallegos           214.000
       116   02 Jun 2027 05:58:01.291   02 Jun 2027 05:58:34.128            32.837                Irkutsk          1026.156
       117   02 Jun 2027 05:58:36.416   02 Jun 2027 06:01:18.932           162.516               Magadan1          5078.625
       118   02 Jun 2027 06:01:31.012   02 Jun 2027 06:02:11.465            40.453               Magadan1          1264.156
       119   02 Jun 2027 06:02:11.465   02 Jun 2027 06:02:13.329             1.864               Magadan2            58.250
       120   02 Jun 2027 06:02:22.858   02 Jun 2027 06:03:25.361            62.503                Norilsk          1953.219
       121   02 Jun 2027 06:04:24.250   02 Jun 2027 06:04:48.936            24.686                Norilsk           771.438
       122   02 Jun 2027 06:04:55.915   02 Jun 2027 06:05:30.613            34.698                Norilsk          1084.313
       123   02 Jun 2027 06:06:19.890   02 Jun 2027 06:06:25.924             6.034                Norilsk           188.562
       124   02 Jun 2027 06:06:50.632   02 Jun 2027 06:07:14.898            24.266              Murmansk1           758.313
       125   02 Jun 2027 06:37:18.462   02 Jun 2027 06:39:31.066           132.604            RioGallegos          4143.875
       126   02 Jun 2027 07:12:54.389   02 Jun 2027 07:16:31.063           216.674                Sumatra          6771.063
       127   02 Jun 2027 07:34:26.467   02 Jun 2027 07:34:38.851            12.384                Irkutsk           387.000
       128   02 Jun 2027 07:34:51.679   02 Jun 2027 07:35:07.681            16.002                Novosib           500.062
       129   02 Jun 2027 07:35:19.707   02 Jun 2027 07:36:20.241            60.534                Norilsk          1891.687
       130   02 Jun 2027 07:36:38.337   02 Jun 2027 07:41:25.884           287.547              Murmansk1          8985.844
       131   02 Jun 2027 07:41:25.884   02 Jun 2027 07:44:01.616           155.732              Murmansk2          4866.625
       132   02 Jun 2027 08:15:32.882   02 Jun 2027 08:16:23.119            50.237            RioGallegos          1569.906
       133   02 Jun 2027 08:18:24.825   02 Jun 2027 08:19:17.724            52.899            RioGallegos          1653.094
       134   02 Jun 2027 08:49:02.373   02 Jun 2027 08:49:29.288            26.915                Sumatra           841.094
       135   02 Jun 2027 08:51:13.875   02 Jun 2027 08:52:00.449            46.574                Sumatra          1455.437
       136   02 Jun 2027 08:56:35.282   02 Jun 2027 08:58:18.312           103.030                  Delhi          3219.687
       137   02 Jun 2027 08:59:20.903   02 Jun 2027 08:59:41.786            20.883                  Delhi           652.594
       138   02 Jun 2027 09:11:36.658   02 Jun 2027 09:11:50.689            14.031                Irkutsk           438.469
       139   02 Jun 2027 09:11:57.966   02 Jun 2027 09:11:59.745             1.779              Murmansk1            55.594
       140   02 Jun 2027 09:12:05.032   02 Jun 2027 09:12:21.793            16.761              Murmansk1           523.781
       141   02 Jun 2027 09:12:33.474   02 Jun 2027 09:13:07.544            34.070                Novosib          1064.688
       142   02 Jun 2027 09:13:08.866   02 Jun 2027 09:15:42.662           153.796                 Moscow          4806.125
       143   02 Jun 2027 09:15:47.630   02 Jun 2027 09:16:38.354            50.724              Murmansk1          1585.125
       144   02 Jun 2027 10:34:12.393   02 Jun 2027 10:35:54.686           102.293                  Delhi          3196.656
       145   02 Jun 2027 10:36:49.852   02 Jun 2027 10:38:15.372            85.520                  Delhi          2672.500
       146   02 Jun 2027 10:47:43.345   02 Jun 2027 10:48:17.802            34.457                Novosib          1076.781
       147   02 Jun 2027 10:48:24.114   02 Jun 2027 10:50:59.951           155.837                 Moscow          4869.906
       148   02 Jun 2027 10:53:57.416   02 Jun 2027 10:54:40.303            42.887              Murmansk1          1340.219
       149   02 Jun 2027 11:59:28.638   02 Jun 2027 11:59:58.132            29.494               CapeTown           921.687
       150   02 Jun 2027 12:00:52.947   02 Jun 2027 12:00:58.676             5.729               CapeTown           179.031
       151   02 Jun 2027 12:17:03.722   02 Jun 2027 12:18:05.732            62.010                 Moscow          1937.812
       152   02 Jun 2027 12:20:31.638   02 Jun 2027 12:21:21.756            50.118                 Moscow          1566.188
       153   02 Jun 2027 12:21:46.260   02 Jun 2027 12:21:57.879            11.619                 Moscow           363.094
       154   02 Jun 2027 12:22:02.553   02 Jun 2027 12:22:18.008            15.455              Murmansk2           482.969
       155   02 Jun 2027 12:22:18.008   02 Jun 2027 12:26:14.094           236.086              Murmansk1          7377.688
       156   02 Jun 2027 12:26:57.204   02 Jun 2027 12:27:07.116             9.912              Murmansk2           309.750
       157   02 Jun 2027 12:36:04.708   02 Jun 2027 12:39:41.969           217.261                Anadyr2          6789.406
       158   02 Jun 2027 12:40:45.462   02 Jun 2027 12:42:11.697            86.235                Anadyr1          2694.844
       159   02 Jun 2027 13:58:45.619   02 Jun 2027 13:59:27.191            41.572              Murmansk1          1299.125
       160   02 Jun 2027 14:00:40.809   02 Jun 2027 14:01:04.599            23.790              Murmansk1           743.437
       161   02 Jun 2027 14:02:29.638   02 Jun 2027 14:02:49.825            20.187              Murmansk2           630.844
       162   02 Jun 2027 14:10:57.604   02 Jun 2027 14:15:10.382           252.778                Anadyr2          7899.313
       163   02 Jun 2027 15:40:08.324   02 Jun 2027 15:42:17.599           129.275              Murmansk1          4039.844
       164   02 Jun 2027 15:46:46.523   02 Jun 2027 15:48:08.122            81.599                Anadyr1          2549.969
       165   02 Jun 2027 15:49:24.167   02 Jun 2027 15:53:27.692           243.525               Magadan2          7610.156
       166   02 Jun 2027 15:54:45.413   02 Jun 2027 15:54:56.312            10.899               Magadan2           340.594
       167   02 Jun 2027 15:57:20.913   02 Jun 2027 15:58:33.733            72.820               Magadan2          2275.625
       168   02 Jun 2027 17:22:41.379   02 Jun 2027 17:22:54.635            13.256                Anadyr1           414.250
       169   02 Jun 2027 17:23:03.964   02 Jun 2027 17:23:22.896            18.932                Anadyr2           591.625
       170   02 Jun 2027 17:24:48.298   02 Jun 2027 17:24:52.363             4.065                Anadyr2           127.031
       171   02 Jun 2027 17:24:58.419   02 Jun 2027 17:26:58.725           120.306               Magadan1          3759.562
       172   02 Jun 2027 17:28:03.081   02 Jun 2027 17:28:23.488            20.407                Norilsk           637.719
       173   02 Jun 2027 17:37:04.101   02 Jun 2027 17:37:45.273            41.172               Magadan1          1286.625
       174   02 Jun 2027 18:17:23.752   02 Jun 2027 18:20:06.655           162.903            RioGallegos          5090.719
       175   02 Jun 2027 18:20:36.254   02 Jun 2027 18:23:39.086           182.832            RioGallegos          5713.500
       176   02 Jun 2027 19:02:07.204   02 Jun 2027 19:04:02.747           115.543                Norilsk          3610.719
       177   02 Jun 2027 19:05:45.005   02 Jun 2027 19:06:15.734            30.729                Irkutsk           960.281
       178   02 Jun 2027 19:06:45.859   02 Jun 2027 19:07:51.910            66.051                Irkutsk          2064.094
       179   02 Jun 2027 19:08:03.915   02 Jun 2027 19:10:02.543           118.628                Novosib          3707.125
       180   02 Jun 2027 19:20:54.623   02 Jun 2027 19:22:30.484            95.861                Sumatra          2995.656
       181   02 Jun 2027 19:23:47.451   02 Jun 2027 19:24:37.811            50.360                Sumatra          1573.750
       182   02 Jun 2027 20:40:34.581   02 Jun 2027 20:40:57.625            23.044                Novosib           720.125
       183   02 Jun 2027 20:44:07.872   02 Jun 2027 20:44:39.695            31.823                Novosib           994.469
       184   02 Jun 2027 20:45:05.327   02 Jun 2027 20:46:16.034            70.707                Novosib          2209.594
       185   02 Jun 2027 20:48:37.639   02 Jun 2027 20:49:22.999            45.360                  Delhi          1417.500
       186   02 Jun 2027 20:49:57.574   02 Jun 2027 20:51:36.999            99.425                  Delhi          3107.031
       187   02 Jun 2027 20:53:52.377   02 Jun 2027 20:55:19.798            87.421                  Delhi          2731.906
       188   02 Jun 2027 22:14:55.843   02 Jun 2027 22:19:02.746           246.903              Murmansk1          7715.719
       189   02 Jun 2027 22:19:55.522   02 Jun 2027 22:21:26.552            91.030              Murmansk1          2844.687
       190   02 Jun 2027 22:21:40.128   02 Jun 2027 22:25:12.041           211.913                 Moscow          6622.281
       191   02 Jun 2027 23:50:36.327   02 Jun 2027 23:50:45.240             8.913              Murmansk1           278.531
       192   02 Jun 2027 23:51:51.987   02 Jun 2027 23:52:36.478            44.491              Murmansk2          1390.344
       193   02 Jun 2027 23:54:02.113   02 Jun 2027 23:54:54.713            52.600                 Moscow          1643.750
       194   02 Jun 2027 23:56:15.616   02 Jun 2027 23:57:31.248            75.632                 Moscow          2363.500
       195   03 Jun 2027 00:18:37.616   03 Jun 2027 00:20:01.632            84.016               CapeTown          2625.500
       196   03 Jun 2027 00:20:29.045   03 Jun 2027 00:22:06.618            97.573               CapeTown          3049.156
       197   03 Jun 2027 01:22:38.189   03 Jun 2027 01:22:42.474             4.285               Magadan2           133.906
       198   03 Jun 2027 01:24:58.000   03 Jun 2027 01:25:20.820            22.820               Magadan1           713.125
       199   03 Jun 2027 01:26:34.116   03 Jun 2027 01:28:53.320           139.204              Murmansk2          4350.125
       200   03 Jun 2027 01:39:07.016   03 Jun 2027 01:39:31.165            24.149                 Moscow           754.656
       201   03 Jun 2027 01:54:08.424   03 Jun 2027 01:55:05.337            56.913               CapeTown          1778.531
       202   03 Jun 2027 02:02:14.491   03 Jun 2027 02:03:33.390            78.899               CapeTown          2465.594
       203   03 Jun 2027 02:50:37.560   03 Jun 2027 02:53:22.016           164.456               Magadan2          5139.250
       204   03 Jun 2027 04:32:45.477   03 Jun 2027 04:33:37.548            52.071                Irkutsk          1627.219
       205   03 Jun 2027 04:34:11.848   03 Jun 2027 04:35:12.195            60.347                Irkutsk          1885.844
       206   03 Jun 2027 04:35:52.639   03 Jun 2027 04:37:39.733           107.094               Magadan2          3346.687
       207   03 Jun 2027 05:15:45.924   03 Jun 2027 05:16:15.521            29.597            RioGallegos           924.906
       208   03 Jun 2027 06:08:48.245   03 Jun 2027 06:10:32.551           104.306                Irkutsk          3259.562
       209   03 Jun 2027 06:10:53.739   03 Jun 2027 06:12:53.778           120.039                Irkutsk          3751.219
       210   03 Jun 2027 06:13:04.047   03 Jun 2027 06:13:56.103            52.056              Murmansk1          1626.750
       211   03 Jun 2027 06:13:57.416   03 Jun 2027 06:14:41.244            43.828              Murmansk2          1369.625
       212   03 Jun 2027 06:15:18.002   03 Jun 2027 06:15:23.756             5.754                Norilsk           179.813
       213   03 Jun 2027 06:15:25.979   03 Jun 2027 06:15:32.941             6.962              Murmansk1           217.563
       214   03 Jun 2027 06:15:49.527   03 Jun 2027 06:16:07.270            17.743              Murmansk2           554.469
       215   03 Jun 2027 06:18:24.002   03 Jun 2027 06:19:00.055            36.053              Murmansk2          1126.656
       216   03 Jun 2027 06:49:18.754   03 Jun 2027 06:50:39.103            80.349            RioGallegos          2510.906
       217   03 Jun 2027 06:52:36.651   03 Jun 2027 06:53:47.229            70.578            RioGallegos          2205.562
       218   03 Jun 2027 07:24:35.816   03 Jun 2027 07:27:03.963           148.147                Sumatra          4629.594
       219   03 Jun 2027 07:37:04.395   03 Jun 2027 07:38:21.094            76.699                  Delhi          2396.844
       220   03 Jun 2027 07:46:27.889   03 Jun 2027 07:47:37.233            69.344                Irkutsk          2167.000
       221   03 Jun 2027 07:47:51.986   03 Jun 2027 07:49:20.030            88.044                Irkutsk          2751.375
       222   03 Jun 2027 07:49:32.199   03 Jun 2027 07:52:01.157           148.958                Norilsk          4654.938
       223   03 Jun 2027 07:52:30.514   03 Jun 2027 07:52:44.353            13.839              Murmansk2           432.469
       224   03 Jun 2027 07:52:56.025   03 Jun 2027 07:53:03.162             7.137              Murmansk2           223.031
       225   03 Jun 2027 07:55:52.342   03 Jun 2027 07:56:32.346            40.004              Murmansk2          1250.125
       226   03 Jun 2027 08:27:25.734   03 Jun 2027 08:28:18.719            52.985            RioGallegos          1655.781
       227   03 Jun 2027 08:29:46.372   03 Jun 2027 08:30:27.595            41.223            RioGallegos          1288.219
       228   03 Jun 2027 09:01:57.104   03 Jun 2027 09:04:04.725           127.621                Sumatra          3988.156
       229   03 Jun 2027 09:08:28.277   03 Jun 2027 09:09:54.292            86.015                  Delhi          2687.969
       230   03 Jun 2027 09:24:34.473   03 Jun 2027 09:27:23.574           169.101                Norilsk          5284.406
       231   03 Jun 2027 09:27:32.449   03 Jun 2027 09:28:09.463            37.014                 Moscow          1156.687
       232   03 Jun 2027 09:28:48.629   03 Jun 2027 09:28:59.270            10.641                 Moscow           332.531
       233   03 Jun 2027 10:47:08.953   03 Jun 2027 10:50:04.509           175.556                  Delhi          5486.125
       234   03 Jun 2027 10:50:26.514   03 Jun 2027 10:50:53.368            26.854                  Delhi           839.187
       235   03 Jun 2027 10:58:39.625   03 Jun 2027 10:59:31.002            51.377                Norilsk          1605.531
       236   03 Jun 2027 10:59:33.013   03 Jun 2027 11:01:17.851           104.838                 Moscow          3276.188
       237   03 Jun 2027 11:01:24.337   03 Jun 2027 11:02:10.827            46.490                Novosib          1452.813
       238   03 Jun 2027 11:02:33.706   03 Jun 2027 11:03:55.667            81.961                 Moscow          2561.281
       239   03 Jun 2027 12:09:19.577   03 Jun 2027 12:11:33.288           133.711               CapeTown          4178.469
       240   03 Jun 2027 12:14:55.246   03 Jun 2027 12:15:26.112            30.866               CapeTown           964.563
       241   03 Jun 2027 12:29:18.148   03 Jun 2027 12:30:04.697            46.549                 Moscow          1454.656
       242   03 Jun 2027 12:32:44.780   03 Jun 2027 12:34:22.865            98.085              Murmansk1          3065.156
       243   03 Jun 2027 12:34:22.865   03 Jun 2027 12:36:14.379           111.514              Murmansk2          3484.812
       244   03 Jun 2027 12:37:17.975   03 Jun 2027 12:37:45.910            27.935              Murmansk2           872.969
       245   03 Jun 2027 12:47:48.495   03 Jun 2027 12:55:04.316           435.821                Anadyr1         13619.406
       246   03 Jun 2027 14:22:56.847   03 Jun 2027 14:26:17.041           200.194                Anadyr1          6256.063
       247   03 Jun 2027 14:28:05.872   03 Jun 2027 14:30:29.109           143.237               Magadan2          4476.156
       248   03 Jun 2027 15:58:47.837   03 Jun 2027 15:58:56.997             9.160                Anadyr2           286.250
       249   03 Jun 2027 15:58:56.997   03 Jun 2027 16:00:48.409           111.412                Anadyr1          3481.625
       250   03 Jun 2027 16:01:19.739   03 Jun 2027 16:02:46.105            86.366               Magadan2          2698.938
       251   03 Jun 2027 16:02:46.105   03 Jun 2027 16:04:36.342           110.237               Magadan1          3444.906
       252   03 Jun 2027 16:04:43.276   03 Jun 2027 16:05:26.353            43.077               Magadan1          1346.156
       253   03 Jun 2027 16:09:23.178   03 Jun 2027 16:09:46.477            23.299               Magadan2           728.094
       254   03 Jun 2027 17:34:41.989   03 Jun 2027 17:36:03.427            81.438                Anadyr2          2544.937
       255   03 Jun 2027 17:36:59.557   03 Jun 2027 17:38:24.312            84.755               Magadan2          2648.594
       256   03 Jun 2027 17:38:31.497   03 Jun 2027 17:38:33.811             2.314                Norilsk            72.312
       257   03 Jun 2027 17:40:19.367   03 Jun 2027 17:40:25.481             6.114               Magadan2           191.062
       258   03 Jun 2027 17:40:41.807   03 Jun 2027 17:40:57.858            16.051               Magadan1           501.594
       259   03 Jun 2027 17:41:10.220   03 Jun 2027 17:41:37.192            26.972                Norilsk           842.875
       260   03 Jun 2027 17:46:14.033   03 Jun 2027 17:46:25.100            11.067               Magadan1           345.844
       261   03 Jun 2027 18:29:10.309   03 Jun 2027 18:32:21.811           191.502            RioGallegos          5984.438
       262   03 Jun 2027 18:33:00.137   03 Jun 2027 18:33:17.998            17.861            RioGallegos           558.156
       263   03 Jun 2027 18:38:36.534   03 Jun 2027 18:39:26.212            49.678            RioGallegos          1552.438
       264   03 Jun 2027 19:12:34.037   03 Jun 2027 19:14:32.828           118.791                Norilsk          3712.219
       265   03 Jun 2027 19:15:13.189   03 Jun 2027 19:16:13.612            60.423                Norilsk          1888.219
       266   03 Jun 2027 19:16:44.378   03 Jun 2027 19:20:06.575           202.197                Irkutsk          6318.656
       267   03 Jun 2027 19:20:08.887   03 Jun 2027 19:23:59.036           230.149                Novosib          7192.156
       268   03 Jun 2027 19:31:54.200   03 Jun 2027 19:33:11.542            77.342                Sumatra          2416.938
       269   03 Jun 2027 19:34:10.454   03 Jun 2027 19:34:47.996            37.542                Sumatra          1173.187
       270   03 Jun 2027 20:54:44.983   03 Jun 2027 20:56:12.177            87.194                Novosib          2724.812
       271   03 Jun 2027 20:58:57.121   03 Jun 2027 20:59:21.064            23.943                Novosib           748.219
       272   03 Jun 2027 21:00:17.581   03 Jun 2027 21:03:53.004           215.423                  Delhi          6731.969
       273   03 Jun 2027 21:05:54.740   03 Jun 2027 21:06:38.202            43.462                  Delhi          1358.187
       274   03 Jun 2027 22:26:52.527   03 Jun 2027 22:31:02.288           249.761              Murmansk2          7805.031
       275   03 Jun 2027 22:31:42.861   03 Jun 2027 22:36:27.133           284.272                 Moscow          8883.500
       276   03 Jun 2027 22:38:12.253   03 Jun 2027 22:38:26.646            14.393                 Moscow           449.781
       277   04 Jun 2027 00:03:37.872   04 Jun 2027 00:03:59.991            22.119              Murmansk1           691.219
       278   04 Jun 2027 00:05:59.159   04 Jun 2027 00:07:53.757           114.598                 Moscow          3581.188
       279   04 Jun 2027 00:30:17.667   04 Jun 2027 00:32:32.466           134.799               CapeTown          4212.469
       280   04 Jun 2027 00:34:02.817   04 Jun 2027 00:34:36.243            33.426               CapeTown          1044.562
       281   04 Jun 2027 00:38:46.411   04 Jun 2027 00:39:40.201            53.790               CapeTown          1680.937
       282   04 Jun 2027 01:31:26.878   04 Jun 2027 01:32:02.369            35.491               Magadan1          1109.094
       283   04 Jun 2027 01:38:35.657   04 Jun 2027 01:39:43.347            67.690              Murmansk1          2115.313
       284   04 Jun 2027 01:41:33.188   04 Jun 2027 01:41:34.723             1.535              Murmansk2            47.969
       285   04 Jun 2027 01:41:50.006   04 Jun 2027 01:43:07.669            77.663                 Moscow          2426.969
       286   04 Jun 2027 01:44:49.097   04 Jun 2027 01:45:02.887            13.790                 Moscow           430.938
       287   04 Jun 2027 01:46:15.343   04 Jun 2027 01:47:06.863            51.520                 Moscow          1610.000
       288   04 Jun 2027 02:06:31.773   04 Jun 2027 02:07:00.985            29.212               CapeTown           912.875
       289   04 Jun 2027 02:10:13.515   04 Jun 2027 02:10:58.708            45.193               CapeTown          1412.281
       290   04 Jun 2027 03:02:27.979   04 Jun 2027 03:02:34.616             6.637               Magadan1           207.406
       291   04 Jun 2027 03:02:34.616   04 Jun 2027 03:04:20.360           105.744               Magadan2          3304.500
       292   04 Jun 2027 03:04:37.102   04 Jun 2027 03:04:39.652             2.550                Anadyr2            79.687
       293   04 Jun 2027 03:05:20.560   04 Jun 2027 03:05:33.776            13.216                Anadyr1           413.000
       294   04 Jun 2027 03:07:42.156   04 Jun 2027 03:12:19.789           277.633               Magadan2          8676.031
       295   04 Jun 2027 03:12:19.789   04 Jun 2027 03:13:56.484            96.695               Magadan1          3021.719
       296   04 Jun 2027 04:44:51.868   04 Jun 2027 04:46:05.499            73.631                Anadyr2          2300.969
       297   04 Jun 2027 04:46:15.514   04 Jun 2027 04:47:37.199            81.685                Irkutsk          2552.656
       298   04 Jun 2027 04:47:42.779   04 Jun 2027 04:47:52.194             9.415               Magadan2           294.219
       299   04 Jun 2027 04:48:04.637   04 Jun 2027 04:48:17.029            12.392               Magadan2           387.250
       300   04 Jun 2027 04:48:20.151   04 Jun 2027 04:49:03.884            43.733                Anadyr2          1366.656
       301   04 Jun 2027 04:49:41.395   04 Jun 2027 04:49:49.453             8.058                Irkutsk           251.812
       302   04 Jun 2027 05:27:48.517   04 Jun 2027 05:29:11.080            82.563            RioGallegos          2580.094
       303   04 Jun 2027 06:20:26.966   04 Jun 2027 06:20:36.850             9.884                Irkutsk           308.875
       304   04 Jun 2027 06:21:00.905   04 Jun 2027 06:21:13.234            12.329                Norilsk           385.281
       305   04 Jun 2027 06:21:24.723   04 Jun 2027 06:24:53.341           208.618               Magadan1          6519.313
       306   04 Jun 2027 06:24:53.341   04 Jun 2027 06:25:52.554            59.213               Magadan2          1850.406
       307   04 Jun 2027 06:26:21.249   04 Jun 2027 06:27:22.967            61.718                Novosib          1928.687
       308   04 Jun 2027 06:27:24.845   04 Jun 2027 06:29:04.090            99.245              Murmansk1          3101.406
       309   04 Jun 2027 06:29:18.717   04 Jun 2027 06:29:28.891            10.174              Murmansk1           317.937
       310   04 Jun 2027 06:31:07.714   04 Jun 2027 06:31:13.762             6.048              Murmansk2           189.000
       311   04 Jun 2027 06:31:13.762   04 Jun 2027 06:31:38.470            24.708              Murmansk1           772.125
       312   04 Jun 2027 07:01:22.392   04 Jun 2027 07:03:03.019           100.627            RioGallegos          3144.594
       313   04 Jun 2027 07:05:52.131   04 Jun 2027 07:06:10.455            18.324            RioGallegos           572.625
       314   04 Jun 2027 07:36:23.855   04 Jun 2027 07:40:13.882           230.027                Sumatra          7188.344
       315   04 Jun 2027 07:47:50.538   04 Jun 2027 07:49:55.077           124.539                  Delhi          3891.844
       316   04 Jun 2027 07:57:55.369   04 Jun 2027 07:58:01.508             6.139                Novosib           191.844
       317   04 Jun 2027 07:58:15.781   04 Jun 2027 07:58:44.385            28.604                Norilsk           893.875
       318   04 Jun 2027 07:58:55.215   04 Jun 2027 07:58:58.322             3.107              Murmansk1            97.094
       319   04 Jun 2027 07:59:21.844   04 Jun 2027 07:59:41.548            19.704                Norilsk           615.750
       320   04 Jun 2027 07:59:51.227   04 Jun 2027 07:59:56.350             5.123                Irkutsk           160.094
       321   04 Jun 2027 08:00:04.429   04 Jun 2027 08:00:35.521            31.092                Norilsk           971.625
       322   04 Jun 2027 08:00:39.648   04 Jun 2027 08:00:42.889             3.241                Irkutsk           101.281
       323   04 Jun 2027 08:00:58.318   04 Jun 2027 08:02:27.688            89.370              Murmansk1          2792.812
       324   04 Jun 2027 08:02:27.688   04 Jun 2027 08:02:29.267             1.579              Murmansk2            49.344
       325   04 Jun 2027 08:03:02.447   04 Jun 2027 08:03:12.399             9.952              Murmansk2           311.000
       326   04 Jun 2027 08:03:12.399   04 Jun 2027 08:03:48.793            36.394              Murmansk1          1137.313
       327   04 Jun 2027 08:05:26.062   04 Jun 2027 08:06:06.778            40.716              Murmansk1          1272.375
       328   04 Jun 2027 08:40:08.407   04 Jun 2027 08:40:17.562             9.155            RioGallegos           286.094
       329   04 Jun 2027 08:41:28.539   04 Jun 2027 08:42:01.746            33.207            RioGallegos          1037.719
       330   04 Jun 2027 08:43:35.467   04 Jun 2027 08:43:40.412             4.945            RioGallegos           154.531
       331   04 Jun 2027 08:48:26.175   04 Jun 2027 08:48:49.991            23.816            RioGallegos           744.250
       332   04 Jun 2027 09:14:33.245   04 Jun 2027 09:15:42.772            69.527                Sumatra          2172.719
       333   04 Jun 2027 09:20:26.561   04 Jun 2027 09:21:09.201            42.640                  Delhi          1332.500
       334   04 Jun 2027 09:21:41.497   04 Jun 2027 09:22:56.343            74.846                  Delhi          2338.938
       335   04 Jun 2027 09:34:49.440   04 Jun 2027 09:35:20.585            31.145              Murmansk2           973.281
       336   04 Jun 2027 09:35:28.820   04 Jun 2027 09:35:51.479            22.659                 Moscow           708.094
       337   04 Jun 2027 09:36:06.613   04 Jun 2027 09:36:47.533            40.920                Norilsk          1278.750
       338   04 Jun 2027 09:36:51.656   04 Jun 2027 09:37:14.699            23.043                Norilsk           720.094
       339   04 Jun 2027 09:37:19.382   04 Jun 2027 09:37:50.716            31.334                 Moscow           979.188
       340   04 Jun 2027 09:37:55.449   04 Jun 2027 09:38:00.773             5.324                Novosib           166.375
       341   04 Jun 2027 09:38:05.124   04 Jun 2027 09:38:34.509            29.385              Murmansk1           918.281
       342   04 Jun 2027 09:38:34.509   04 Jun 2027 09:38:49.765            15.256              Murmansk2           476.750
       343   04 Jun 2027 09:39:10.716   04 Jun 2027 09:39:20.602             9.886              Murmansk1           308.937
       344   04 Jun 2027 09:40:28.229   04 Jun 2027 09:40:33.607             5.378                 Moscow           168.063
       345   04 Jun 2027 11:00:37.269   04 Jun 2027 11:02:49.705           132.436                  Delhi          4138.625
       346   04 Jun 2027 11:08:16.748   04 Jun 2027 11:08:47.996            31.248              Murmansk2           976.500
       347   04 Jun 2027 11:09:04.824   04 Jun 2027 11:09:57.278            52.454              Murmansk2          1639.187
       348   04 Jun 2027 11:10:02.946   04 Jun 2027 11:10:06.228             3.282              Murmansk1           102.562
       349   04 Jun 2027 11:10:21.205   04 Jun 2027 11:10:46.131            24.926              Murmansk2           778.938
       350   04 Jun 2027 11:10:46.131   04 Jun 2027 11:10:56.607            10.476              Murmansk1           327.375
       351   04 Jun 2027 11:11:00.916   04 Jun 2027 11:11:28.567            27.651                 Moscow           864.094
       352   04 Jun 2027 11:11:38.076   04 Jun 2027 11:11:47.243             9.167              Murmansk1           286.469
       353   04 Jun 2027 11:11:50.685   04 Jun 2027 11:12:26.707            36.022                 Moscow          1125.687
       354   04 Jun 2027 11:12:39.394   04 Jun 2027 11:12:45.178             5.784              Murmansk1           180.750
       355   04 Jun 2027 11:12:45.178   04 Jun 2027 11:12:55.020             9.842              Murmansk2           307.562
       356   04 Jun 2027 11:12:59.002   04 Jun 2027 11:13:13.695            14.693                Norilsk           459.156
       357   04 Jun 2027 11:13:28.940   04 Jun 2027 11:13:42.201            13.261                 Moscow           414.406
       358   04 Jun 2027 11:13:46.317   04 Jun 2027 11:14:50.045            63.728              Murmansk1          1991.500
       359   04 Jun 2027 11:14:55.589   04 Jun 2027 11:15:28.953            33.364                 Moscow          1042.625
       360   04 Jun 2027 12:20:24.290   04 Jun 2027 12:23:15.165           170.875               CapeTown          5339.844
       361   04 Jun 2027 12:27:06.756   04 Jun 2027 12:28:37.323            90.567               CapeTown          2830.219
       362   04 Jun 2027 12:41:36.243   04 Jun 2027 12:42:06.530            30.287                 Moscow           946.469
       363   04 Jun 2027 12:44:57.926   04 Jun 2027 12:46:27.603            89.677              Murmansk1          2802.406
       364   04 Jun 2027 12:48:47.597   04 Jun 2027 12:48:54.113             6.516              Murmansk2           203.625
       365   04 Jun 2027 12:49:59.517   04 Jun 2027 12:50:05.386             5.869              Murmansk2           183.406
       366   04 Jun 2027 12:59:37.233   04 Jun 2027 13:03:32.085           234.852                Anadyr1          7339.125
       367   04 Jun 2027 13:03:53.546   04 Jun 2027 13:05:44.457           110.911                Anadyr2          3465.969
       368   04 Jun 2027 14:24:43.678   04 Jun 2027 14:25:10.264            26.586              Murmansk1           830.813
       369   04 Jun 2027 14:26:16.492   04 Jun 2027 14:26:33.253            16.761              Murmansk2           523.781
       370   04 Jun 2027 14:27:30.560   04 Jun 2027 14:28:05.051            34.491              Murmansk2          1077.844
       371   04 Jun 2027 14:34:56.594   04 Jun 2027 14:36:30.201            93.607                Anadyr2          2925.219
       372   04 Jun 2027 14:38:17.507   04 Jun 2027 14:39:11.642            54.135                Anadyr2          1691.719
       373   04 Jun 2027 14:40:35.659   04 Jun 2027 14:44:25.777           230.118               Magadan1          7191.188
       374   04 Jun 2027 16:10:49.188   04 Jun 2027 16:12:09.453            80.265                Anadyr1          2508.281
       375   04 Jun 2027 16:12:39.480   04 Jun 2027 16:13:50.588            71.108                Anadyr2          2222.125
       376   04 Jun 2027 16:14:09.510   04 Jun 2027 16:15:29.571            80.061               Magadan2          2501.906
       377   04 Jun 2027 16:15:29.571   04 Jun 2027 16:16:39.041            69.470               Magadan1          2170.938
       378   04 Jun 2027 16:18:04.679   04 Jun 2027 16:19:54.343           109.664               Magadan1          3427.000
       379   04 Jun 2027 17:46:42.329   04 Jun 2027 17:47:24.876            42.547                Anadyr1          1329.594
       380   04 Jun 2027 17:49:01.006   04 Jun 2027 17:50:23.646            82.640               Magadan1          2582.500
       381   04 Jun 2027 17:50:35.485   04 Jun 2027 17:52:19.188           103.703               Magadan2          3240.719
       382   04 Jun 2027 17:53:06.139   04 Jun 2027 17:54:34.430            88.291                Norilsk          2759.094
       383   04 Jun 2027 17:55:39.561   04 Jun 2027 17:57:55.902           136.341                Irkutsk          4260.656
       384   04 Jun 2027 18:42:23.239   04 Jun 2027 18:44:09.055           105.816            RioGallegos          3306.750
       385   04 Jun 2027 19:25:04.735   04 Jun 2027 19:25:34.482            29.747               Magadan1           929.594
       386   04 Jun 2027 19:28:39.223   04 Jun 2027 19:29:10.960            31.737                Irkutsk           991.781
       387   04 Jun 2027 19:29:38.286   04 Jun 2027 19:30:01.279            22.993                Norilsk           718.531
       388   04 Jun 2027 19:30:05.801   04 Jun 2027 19:37:08.614           422.813                Novosib         13212.906
       389   04 Jun 2027 19:45:21.894   04 Jun 2027 19:45:46.109            24.215                Sumatra           756.719
       390   04 Jun 2027 19:52:38.774   04 Jun 2027 19:53:58.496            79.722                Sumatra          2491.313
       391   04 Jun 2027 21:06:31.136   04 Jun 2027 21:08:04.496            93.360                Novosib          2917.500
       392   04 Jun 2027 21:12:03.241   04 Jun 2027 21:15:58.964           235.723                  Delhi          7366.344
       393   04 Jun 2027 22:38:50.409   04 Jun 2027 22:40:44.831           114.422              Murmansk1          3575.687
       394   04 Jun 2027 22:42:11.797   04 Jun 2027 22:44:23.786           131.989              Murmansk2          4124.656
       395   04 Jun 2027 22:45:27.289   04 Jun 2027 22:50:30.384           303.095                 Moscow          9471.719
       396   04 Jun 2027 23:12:48.254   04 Jun 2027 23:14:27.343            99.089               CapeTown          3096.531
       397   05 Jun 2027 00:17:57.286   05 Jun 2027 00:20:12.039           134.753                 Moscow          4211.031
       398   05 Jun 2027 00:42:03.179   05 Jun 2027 00:44:45.544           162.365               CapeTown          5073.906
       399   05 Jun 2027 01:40:32.088   05 Jun 2027 01:40:35.119             3.031               Magadan1            94.719
       400   05 Jun 2027 01:40:43.776   05 Jun 2027 01:41:12.576            28.800               Magadan1           900.000
       401   05 Jun 2027 01:42:35.372   05 Jun 2027 01:42:57.218            21.846               Magadan1           682.688
       402   05 Jun 2027 01:45:09.695   05 Jun 2027 01:45:26.619            16.924               Magadan2           528.875
       403   05 Jun 2027 01:45:43.001   05 Jun 2027 01:45:48.733             5.732               Magadan1           179.125
       404   05 Jun 2027 01:49:31.783   05 Jun 2027 01:49:33.082             1.299               Magadan1            40.594
       405   05 Jun 2027 01:49:37.395   05 Jun 2027 01:49:48.431            11.036                Norilsk           344.875
       406   05 Jun 2027 01:50:37.094   05 Jun 2027 01:51:07.548            30.454              Murmansk2           951.687
       407   05 Jun 2027 01:51:07.787   05 Jun 2027 01:51:55.411            47.624              Murmansk1          1488.250
       408   05 Jun 2027 01:53:28.900   05 Jun 2027 01:53:36.053             7.153              Murmansk2           223.531
       409   05 Jun 2027 01:53:53.282   05 Jun 2027 01:56:18.539           145.257                 Moscow          4539.281
       410   05 Jun 2027 02:19:03.059   05 Jun 2027 02:20:05.636            62.577               CapeTown          1955.531
       411   05 Jun 2027 03:19:57.230   05 Jun 2027 03:22:48.990           171.760               Magadan2          5367.500
       412   05 Jun 2027 03:22:58.997   05 Jun 2027 03:23:14.752            15.755               Magadan2           492.344
       413   05 Jun 2027 03:23:19.658   05 Jun 2027 03:27:17.695           238.037                Anadyr1          7438.656
       414   05 Jun 2027 04:55:37.124   05 Jun 2027 04:56:22.517            45.393               Magadan2          1418.531
       415   05 Jun 2027 04:56:26.433   05 Jun 2027 04:57:25.368            58.935               Magadan2          1841.719
       416   05 Jun 2027 04:57:32.957   05 Jun 2027 05:00:46.869           193.912                Anadyr2          6059.750
       417   05 Jun 2027 05:00:59.456   05 Jun 2027 05:01:24.739            25.283               Magadan2           790.094
       418   05 Jun 2027 05:01:24.739   05 Jun 2027 05:01:51.150            26.411               Magadan1           825.344
       419   05 Jun 2027 05:01:51.150   05 Jun 2027 05:02:05.628            14.478               Magadan2           452.437
       420   05 Jun 2027 05:02:14.474   05 Jun 2027 05:02:52.315            37.841               Magadan1          1182.531
       421   05 Jun 2027 05:05:09.229   05 Jun 2027 05:05:25.560            16.331                Norilsk           510.344
       422   05 Jun 2027 05:38:19.502   05 Jun 2027 05:41:22.026           182.524            RioGallegos          5703.875
       423   05 Jun 2027 06:32:48.903   05 Jun 2027 06:33:27.650            38.747                Novosib          1210.844
       424   05 Jun 2027 06:33:57.356   05 Jun 2027 06:38:14.497           257.141                Novosib          8035.656
       425   05 Jun 2027 06:38:22.202   05 Jun 2027 06:38:43.126            20.924                Irkutsk           653.875
       426   05 Jun 2027 06:38:52.536   05 Jun 2027 06:39:04.062            11.526              Murmansk1           360.188
       427   05 Jun 2027 06:39:24.120   05 Jun 2027 06:39:27.690             3.570              Murmansk2           111.563
       428   05 Jun 2027 06:39:32.914   05 Jun 2027 06:39:58.234            25.320              Murmansk1           791.250
       429   05 Jun 2027 06:40:59.366   05 Jun 2027 06:41:18.271            18.905              Murmansk2           590.781
       430   05 Jun 2027 06:42:44.724   05 Jun 2027 06:43:13.662            28.938              Murmansk1           904.312
       431   05 Jun 2027 07:13:29.491   05 Jun 2027 07:14:25.471            55.980            RioGallegos          1749.375
       432   05 Jun 2027 07:16:36.511   05 Jun 2027 07:17:47.880            71.369            RioGallegos          2230.281
       433   05 Jun 2027 07:48:17.820   05 Jun 2027 07:48:37.338            19.518                Sumatra           609.937
       434   05 Jun 2027 07:49:14.682   05 Jun 2027 07:51:22.910           128.228                Sumatra          4007.125
       435   05 Jun 2027 07:58:57.379   05 Jun 2027 08:00:21.109            83.730                  Delhi          2616.562
       436   05 Jun 2027 08:09:22.701   05 Jun 2027 08:09:46.942            24.241                Norilsk           757.531
       437   05 Jun 2027 08:09:56.662   05 Jun 2027 08:10:56.055            59.393                Novosib          1856.031
       438   05 Jun 2027 08:11:04.903   05 Jun 2027 08:12:21.574            76.671              Murmansk2          2395.969
       439   05 Jun 2027 08:12:30.012   05 Jun 2027 08:12:57.973            27.961                Novosib           873.781
       440   05 Jun 2027 08:13:08.410   05 Jun 2027 08:13:12.631             4.221                Norilsk           131.906
       441   05 Jun 2027 08:13:14.773   05 Jun 2027 08:14:38.466            83.693                Novosib          2615.406
       442   05 Jun 2027 08:15:10.229   05 Jun 2027 08:15:14.159             3.930              Murmansk1           122.813
       443   05 Jun 2027 08:15:15.236   05 Jun 2027 08:15:16.755             1.519                Norilsk            47.469
       444   05 Jun 2027 08:15:23.505   05 Jun 2027 08:16:23.861            60.356                 Moscow          1886.125
       445   05 Jun 2027 08:53:01.669   05 Jun 2027 08:54:35.070            93.401            RioGallegos          2918.781
       446   05 Jun 2027 09:28:09.230   05 Jun 2027 09:30:02.029           112.799                Sumatra          3524.969
       447   05 Jun 2027 09:35:47.783   05 Jun 2027 09:36:35.358            47.575                  Delhi          1486.719
       448   05 Jun 2027 09:46:32.007   05 Jun 2027 09:46:41.264             9.257                Irkutsk           289.281
       449   05 Jun 2027 09:46:44.601   05 Jun 2027 09:47:14.634            30.033                Norilsk           938.531
       450   05 Jun 2027 09:47:19.123   05 Jun 2027 09:47:54.031            34.908                Novosib          1090.875
       451   05 Jun 2027 09:47:56.614   05 Jun 2027 09:48:53.281            56.667              Murmansk2          1770.844
       452   05 Jun 2027 09:49:00.768   05 Jun 2027 09:49:02.416             1.648                Norilsk            51.500
       453   05 Jun 2027 09:49:04.444   05 Jun 2027 09:49:23.861            19.417                Novosib           606.781
       454   05 Jun 2027 09:49:29.317   05 Jun 2027 09:49:49.336            20.019                 Moscow           625.594
       455   05 Jun 2027 09:49:54.595   05 Jun 2027 09:50:21.747            27.152              Murmansk2           848.500
       456   05 Jun 2027 09:50:21.747   05 Jun 2027 09:50:39.335            17.588              Murmansk1           549.625
       457   05 Jun 2027 11:19:58.071   05 Jun 2027 11:20:02.595             4.524                 Moscow           141.375
       458   05 Jun 2027 11:20:10.298   05 Jun 2027 11:21:14.065            63.767                 Moscow          1992.719
       459   05 Jun 2027 11:21:20.560   05 Jun 2027 11:22:07.593            47.033                 Moscow          1469.781
       460   05 Jun 2027 11:22:21.888   05 Jun 2027 11:23:05.461            43.573              Murmansk1          1361.656
       461   05 Jun 2027 11:23:39.452   05 Jun 2027 11:23:59.678            20.226              Murmansk1           632.063
       462   05 Jun 2027 11:23:59.678   05 Jun 2027 11:24:12.245            12.567              Murmansk2           392.719
       463   05 Jun 2027 11:24:27.053   05 Jun 2027 11:25:32.252            65.199                 Moscow          2037.469
       464   05 Jun 2027 11:25:39.837   05 Jun 2027 11:25:43.831             3.994                Norilsk           124.812
       465   05 Jun 2027 11:25:44.516   05 Jun 2027 11:26:48.968            64.452              Murmansk2          2014.125
       466   05 Jun 2027 11:26:50.032   05 Jun 2027 11:26:54.111             4.079                 Moscow           127.469
       467   05 Jun 2027 11:27:00.554   05 Jun 2027 11:27:19.994            19.440              Murmansk1           607.500
       468   05 Jun 2027 11:27:41.940   05 Jun 2027 11:27:42.550             0.610              Murmansk1            19.062
       469   05 Jun 2027 11:27:57.907   05 Jun 2027 11:27:59.741             1.834              Murmansk1            57.312
       470   05 Jun 2027 11:29:38.521   05 Jun 2027 11:30:00.951            22.430              Murmansk1           700.937
       471   05 Jun 2027 12:31:48.036   05 Jun 2027 12:35:02.085           194.049               CapeTown          6064.031
       472   05 Jun 2027 12:36:17.848   05 Jun 2027 12:37:18.638            60.790               CapeTown          1899.688
       473   05 Jun 2027 12:57:13.020   05 Jun 2027 12:59:33.013           139.993              Murmansk2          4374.781
       474   05 Jun 2027 13:11:29.122   05 Jun 2027 13:14:46.230           197.108                Anadyr2          6159.625
       475   05 Jun 2027 13:17:02.996   05 Jun 2027 13:17:32.116            29.120                Anadyr2           910.000
       476   05 Jun 2027 13:19:15.651   05 Jun 2027 13:19:45.258            29.607                Anadyr2           925.219
       477   05 Jun 2027 14:11:44.529   05 Jun 2027 14:11:45.091             0.562               CapeTown            17.563
       478   05 Jun 2027 14:36:20.397   05 Jun 2027 14:37:11.250            50.853              Murmansk1          1589.156
       479   05 Jun 2027 14:37:11.250   05 Jun 2027 14:38:35.011            83.761              Murmansk2          2617.531
       480   05 Jun 2027 14:46:56.738   05 Jun 2027 14:49:18.404           141.666                Anadyr1          4427.063
       481   05 Jun 2027 14:50:37.308   05 Jun 2027 14:57:30.851           413.543               Magadan1         12923.219
       482   05 Jun 2027 16:25:14.295   05 Jun 2027 16:27:32.787           138.492               Magadan2          4327.875
