uniorb/output/strategy_1/Drop/Drop_KinoSat_111809.txt

KinoSat_111809
-------------------------
    Access    *     Start Time (UTCG)     *     Stop Time (UTCG)  *   Duration (s)        *       Station  *  Data (Mbytes)
         1   01 Jun 2027 04:06:50.988   01 Jun 2027 04:07:16.458            25.470              Murmansk2           795.937
         2   01 Jun 2027 04:07:19.259   01 Jun 2027 04:07:52.285            33.026                Norilsk          1032.062
         3   01 Jun 2027 04:07:54.607   01 Jun 2027 04:10:10.353           135.746                Novosib          4242.063
         4   01 Jun 2027 04:10:11.828   01 Jun 2027 04:10:50.835            39.007                Norilsk          1218.969
         5   01 Jun 2027 04:10:57.540   01 Jun 2027 04:11:13.908            16.368              Murmansk1           511.500
         6   01 Jun 2027 05:44:28.535   01 Jun 2027 05:45:41.945            73.410                Novosib          2294.063
         7   01 Jun 2027 05:46:02.863   01 Jun 2027 05:46:36.279            33.416              Murmansk2          1044.250
         8   01 Jun 2027 05:46:36.279   01 Jun 2027 05:48:41.870           125.591              Murmansk1          3924.719
         9   01 Jun 2027 05:49:53.605   01 Jun 2027 05:50:12.439            18.834                 Moscow           588.563
        10   01 Jun 2027 06:13:52.767   01 Jun 2027 06:15:29.639            96.872               CapeTown          3027.250
        11   01 Jun 2027 07:07:45.395   01 Jun 2027 07:07:52.272             6.877               Magadan1           214.906
        12   01 Jun 2027 07:08:11.282   01 Jun 2027 07:10:26.195           134.913               Magadan1          4216.031
        13   01 Jun 2027 07:10:26.195   01 Jun 2027 07:10:47.050            20.855               Magadan2           651.719
        14   01 Jun 2027 07:11:10.920   01 Jun 2027 07:11:45.918            34.998                Anadyr2          1093.687
        15   01 Jun 2027 07:11:45.918   01 Jun 2027 07:12:26.336            40.418                Anadyr1          1263.063
        16   01 Jun 2027 07:12:33.588   01 Jun 2027 07:13:13.970            40.382                Anadyr1          1261.937
        17   01 Jun 2027 08:44:27.937   01 Jun 2027 08:47:41.067           193.130               Magadan1          6035.313
        18   01 Jun 2027 08:47:41.186   01 Jun 2027 08:48:12.554            31.368                Anadyr2           980.250
        19   01 Jun 2027 08:48:12.554   01 Jun 2027 08:49:01.574            49.020                Anadyr1          1531.875
        20   01 Jun 2027 10:17:37.753   01 Jun 2027 10:23:34.345           356.592               Magadan1         11143.500
        21   01 Jun 2027 10:24:24.652   01 Jun 2027 10:25:47.226            82.574              Murmansk2          2580.438
        22   01 Jun 2027 10:59:30.521   01 Jun 2027 11:01:13.101           102.580            RioGallegos          3205.625
        23   01 Jun 2027 11:03:54.837   01 Jun 2027 11:04:09.631            14.794            RioGallegos           462.312
        24   01 Jun 2027 11:04:50.587   01 Jun 2027 11:05:34.421            43.834            RioGallegos          1369.812
        25   01 Jun 2027 11:38:12.052   01 Jun 2027 11:39:53.408           101.356                Sumatra          3167.375
        26   01 Jun 2027 11:55:23.936   01 Jun 2027 11:57:32.669           128.733               Magadan1          4022.906
        27   01 Jun 2027 11:57:34.446   01 Jun 2027 12:01:25.920           231.474                Norilsk          7233.563
        28   01 Jun 2027 12:01:55.234   01 Jun 2027 12:03:13.979            78.745              Murmansk1          2460.781
        29   01 Jun 2027 12:04:08.507   01 Jun 2027 12:04:41.341            32.834                Norilsk          1026.063
        30   01 Jun 2027 12:04:58.235   01 Jun 2027 12:04:59.026             0.791              Murmansk1            24.719
        31   01 Jun 2027 12:05:12.837   01 Jun 2027 12:05:30.538            17.701                Norilsk           553.156
        32   01 Jun 2027 12:05:33.556   01 Jun 2027 12:05:50.268            16.712              Murmansk1           522.250
        33   01 Jun 2027 12:06:13.997   01 Jun 2027 12:07:03.129            49.132              Murmansk1          1535.375
        34   01 Jun 2027 12:07:16.710   01 Jun 2027 12:08:03.765            47.055              Murmansk1          1470.469
        35   01 Jun 2027 12:08:16.181   01 Jun 2027 12:08:21.913             5.732              Murmansk1           179.125
        36   01 Jun 2027 12:40:15.982   01 Jun 2027 12:41:09.467            53.485            RioGallegos          1671.406
        37   01 Jun 2027 12:41:36.668   01 Jun 2027 12:41:43.516             6.848            RioGallegos           214.000
        38   01 Jun 2027 12:44:06.781   01 Jun 2027 12:46:36.243           149.462            RioGallegos          4670.687
        39   01 Jun 2027 12:47:24.324   01 Jun 2027 12:47:45.442            21.118            RioGallegos           659.937
        40   01 Jun 2027 13:14:47.262   01 Jun 2027 13:15:48.156            60.894                Sumatra          1902.937
        41   01 Jun 2027 13:18:08.517   01 Jun 2027 13:22:27.026           258.509                Sumatra          8078.406
        42   01 Jun 2027 13:29:44.830   01 Jun 2027 13:30:06.851            22.021                Irkutsk           688.156
        43   01 Jun 2027 13:32:24.600   01 Jun 2027 13:35:55.083           210.483                Irkutsk          6577.594
        44   01 Jun 2027 13:41:07.284   01 Jun 2027 13:41:29.941            22.657                Norilsk           708.031
        45   01 Jun 2027 13:42:49.118   01 Jun 2027 13:43:15.201            26.083              Murmansk2           815.094
        46   01 Jun 2027 13:43:15.201   01 Jun 2027 13:43:17.088             1.887              Murmansk1            58.969
        47   01 Jun 2027 13:43:17.088   01 Jun 2027 13:43:27.572            10.484              Murmansk2           327.625
        48   01 Jun 2027 14:59:16.757   01 Jun 2027 15:06:27.741           430.984                  Delhi         13468.250
        49   01 Jun 2027 15:09:45.333   01 Jun 2027 15:13:05.361           200.028                Novosib          6250.875
        50   01 Jun 2027 16:44:24.233   01 Jun 2027 16:45:42.394            78.161                 Moscow          2442.531
        51   01 Jun 2027 16:46:59.320   01 Jun 2027 16:47:10.591            11.271                 Moscow           352.219
        52   01 Jun 2027 16:47:34.004   01 Jun 2027 16:52:53.465           319.461                Norilsk          9983.156
        53   01 Jun 2027 17:59:28.161   01 Jun 2027 17:59:44.642            16.481               CapeTown           515.031
        54   01 Jun 2027 18:00:00.865   01 Jun 2027 18:02:03.989           123.124               CapeTown          3847.625
        55   01 Jun 2027 18:04:09.513   01 Jun 2027 18:04:29.904            20.391               CapeTown           637.219
        56   01 Jun 2027 18:17:14.836   01 Jun 2027 18:18:58.917           104.081                 Moscow          3252.531
        57   01 Jun 2027 18:22:28.495   01 Jun 2027 18:22:41.542            13.047                 Moscow           407.719
        58   01 Jun 2027 18:23:15.513   01 Jun 2027 18:26:39.968           204.455                 Moscow          6389.219
        59   01 Jun 2027 18:43:11.426   01 Jun 2027 18:43:15.780             4.354                Anadyr1           136.062
        60   01 Jun 2027 19:33:08.222   01 Jun 2027 19:33:55.719            47.497               CapeTown          1484.281
        61   01 Jun 2027 19:35:22.440   01 Jun 2027 19:36:52.716            90.276               CapeTown          2821.125
        62   01 Jun 2027 19:37:57.761   01 Jun 2027 19:38:10.489            12.728               CapeTown           397.750
        63   01 Jun 2027 19:39:30.515   01 Jun 2027 19:40:01.231            30.716               CapeTown           959.875
        64   01 Jun 2027 19:59:46.956   01 Jun 2027 20:06:32.931           405.975              Murmansk2         12686.719
        65   01 Jun 2027 21:44:39.071   01 Jun 2027 21:44:48.552             9.481                Anadyr2           296.281
        66   01 Jun 2027 21:44:48.552   01 Jun 2027 21:46:17.349            88.797                Anadyr1          2774.906
        67   01 Jun 2027 21:46:27.319   01 Jun 2027 21:48:04.906            97.587                Anadyr2          3049.594
        68   01 Jun 2027 21:48:12.122   01 Jun 2027 21:49:12.068            59.946               Magadan2          1873.313
        69   01 Jun 2027 21:49:48.035   01 Jun 2027 21:50:28.606            40.571               Magadan1          1267.844
        70   01 Jun 2027 21:51:24.932   01 Jun 2027 21:51:46.323            21.391               Magadan2           668.469
        71   01 Jun 2027 21:53:42.742   01 Jun 2027 21:54:22.504            39.762               Magadan2          1242.562
        72   01 Jun 2027 21:54:55.645   01 Jun 2027 21:55:08.139            12.494               Magadan1           390.437
        73   01 Jun 2027 21:55:26.762   01 Jun 2027 21:56:15.907            49.145               Magadan1          1535.781
        74   01 Jun 2027 22:40:14.817   01 Jun 2027 22:40:53.478            38.661            RioGallegos          1208.156
        75   01 Jun 2027 22:41:50.528   01 Jun 2027 22:42:24.664            34.136            RioGallegos          1066.750
        76   01 Jun 2027 22:43:05.662   01 Jun 2027 22:43:55.747            50.085            RioGallegos          1565.156
        77   01 Jun 2027 23:20:27.017   01 Jun 2027 23:22:33.599           126.582                Anadyr1          3955.687
        78   01 Jun 2027 23:22:53.636   01 Jun 2027 23:24:22.132            88.496               Magadan1          2765.500
        79   01 Jun 2027 23:24:36.800   01 Jun 2027 23:24:38.912             2.112                Norilsk            66.000
        80   01 Jun 2027 23:24:39.110   01 Jun 2027 23:24:55.222            16.112               Magadan2           503.500
        81   01 Jun 2027 23:25:29.946   01 Jun 2027 23:25:51.441            21.495                Norilsk           671.719
        82   01 Jun 2027 23:26:51.162   01 Jun 2027 23:27:31.146            39.984               Magadan2          1249.500
        83   01 Jun 2027 23:28:12.746   01 Jun 2027 23:28:22.967            10.221               Magadan2           319.406
        84   01 Jun 2027 23:29:43.530   01 Jun 2027 23:29:49.045             5.515                Irkutsk           172.344
        85   01 Jun 2027 23:30:34.154   01 Jun 2027 23:31:02.535            28.381                Irkutsk           886.906
        86   01 Jun 2027 23:31:06.755   01 Jun 2027 23:31:47.849            41.094                Irkutsk          1284.187
        87   01 Jun 2027 23:34:15.010   01 Jun 2027 23:34:38.886            23.876               Magadan2           746.125
        88   01 Jun 2027 23:35:56.430   01 Jun 2027 23:36:37.653            41.223                Irkutsk          1288.219
        89   01 Jun 2027 23:46:59.020   01 Jun 2027 23:47:45.323            46.303                Sumatra          1446.969
        90   01 Jun 2027 23:49:15.313   01 Jun 2027 23:50:51.352            96.039                Sumatra          3001.219
        91   02 Jun 2027 00:25:12.648   02 Jun 2027 00:25:45.722            33.074            RioGallegos          1033.563
        92   02 Jun 2027 00:55:38.768   02 Jun 2027 00:56:44.780            66.012                Anadyr2          2062.875
        93   02 Jun 2027 00:57:34.286   02 Jun 2027 00:57:58.479            24.193                Anadyr1           756.031
        94   02 Jun 2027 00:58:22.307   02 Jun 2027 00:59:49.494            87.187                Norilsk          2724.594
        95   02 Jun 2027 00:59:58.324   02 Jun 2027 01:00:05.975             7.651               Magadan1           239.094
        96   02 Jun 2027 01:00:43.766   02 Jun 2027 01:01:16.094            32.328               Magadan2          1010.250
        97   02 Jun 2027 01:02:16.393   02 Jun 2027 01:04:20.193           123.800                Irkutsk          3868.750
        98   02 Jun 2027 01:08:05.736   02 Jun 2027 01:08:17.951            12.215                Novosib           381.719
        99   02 Jun 2027 01:08:36.863   02 Jun 2027 01:08:53.890            17.027                Novosib           532.094
       100   02 Jun 2027 01:09:37.758   02 Jun 2027 01:11:03.493            85.735                Irkutsk          2679.219
       101   02 Jun 2027 01:18:56.814   02 Jun 2027 01:20:54.197           117.383                Sumatra          3668.219
       102   02 Jun 2027 01:27:21.138   02 Jun 2027 01:27:32.984            11.846                Sumatra           370.187
       103   02 Jun 2027 01:56:04.788   02 Jun 2027 01:57:29.906            85.118            RioGallegos          2659.937
       104   02 Jun 2027 02:31:41.803   02 Jun 2027 02:31:55.531            13.728                Anadyr1           429.000
       105   02 Jun 2027 02:32:06.290   02 Jun 2027 02:32:20.768            14.478                Anadyr2           452.437
       106   02 Jun 2027 02:34:23.410   02 Jun 2027 02:35:39.329            75.919                Norilsk          2372.469
       107   02 Jun 2027 02:36:47.354   02 Jun 2027 02:37:30.473            43.119                Norilsk          1347.469
       108   02 Jun 2027 02:37:58.321   02 Jun 2027 02:38:12.779            14.458              Murmansk2           451.813
       109   02 Jun 2027 02:38:15.896   02 Jun 2027 02:39:03.254            47.358                Novosib          1479.937
       110   02 Jun 2027 02:39:51.357   02 Jun 2027 02:40:02.721            11.364                Irkutsk           355.125
       111   02 Jun 2027 02:40:18.916   02 Jun 2027 02:42:38.749           139.833                Irkutsk          4369.781
       112   02 Jun 2027 02:54:21.856   02 Jun 2027 02:54:34.776            12.920                  Delhi           403.750
       113   02 Jun 2027 02:57:14.674   02 Jun 2027 02:57:20.275             5.601                  Delhi           175.031
       114   02 Jun 2027 02:57:52.926   02 Jun 2027 02:58:15.752            22.826                  Delhi           713.313
       115   02 Jun 2027 03:27:43.460   02 Jun 2027 03:28:34.166            50.706            RioGallegos          1584.563
       116   02 Jun 2027 03:28:54.354   02 Jun 2027 03:29:20.781            26.427            RioGallegos           825.844
       117   02 Jun 2027 03:31:13.200   02 Jun 2027 03:32:57.903           104.703            RioGallegos          3271.969
       118   02 Jun 2027 04:18:18.872   02 Jun 2027 04:20:10.026           111.154                Irkutsk          3473.563
       119   02 Jun 2027 04:20:12.677   02 Jun 2027 04:20:34.056            21.379              Murmansk2           668.094
       120   02 Jun 2027 04:20:37.372   02 Jun 2027 04:22:52.522           135.150                Norilsk          4223.437
       121   02 Jun 2027 04:23:05.865   02 Jun 2027 04:23:38.236            32.371              Murmansk1          1011.594
       122   02 Jun 2027 04:23:45.539   02 Jun 2027 04:23:59.220            13.681                Novosib           427.531
       123   02 Jun 2027 04:23:59.784   02 Jun 2027 04:25:30.403            90.619                Novosib          2831.844
       124   02 Jun 2027 04:25:45.276   02 Jun 2027 04:27:16.557            91.281                  Delhi          2852.531
       125   02 Jun 2027 04:28:00.862   02 Jun 2027 04:28:19.748            18.886                  Delhi           590.188
       126   02 Jun 2027 05:56:22.433   02 Jun 2027 05:57:23.563            61.130                Norilsk          1910.312
       127   02 Jun 2027 05:57:40.532   02 Jun 2027 06:01:16.395           215.863              Murmansk1          6745.719
       128   02 Jun 2027 06:01:17.939   02 Jun 2027 06:03:03.288           105.349                 Moscow          3292.156
       129   02 Jun 2027 07:20:02.190   02 Jun 2027 07:25:02.072           299.882                Anadyr1          9371.312
       130   02 Jun 2027 08:55:04.867   02 Jun 2027 09:00:08.808           303.941                Anadyr2          9498.156
       131   02 Jun 2027 10:30:26.785   02 Jun 2027 10:32:48.370           141.585               Magadan2          4424.531
       132   02 Jun 2027 10:33:40.365   02 Jun 2027 10:35:25.097           104.732               Magadan2          3272.875
       133   02 Jun 2027 10:35:47.625   02 Jun 2027 10:36:02.049            14.424               Magadan1           450.750
       134   02 Jun 2027 10:36:11.609   02 Jun 2027 10:36:27.386            15.777               Magadan1           493.031
       135   02 Jun 2027 13:24:49.535   02 Jun 2027 13:26:59.528           129.993                Sumatra          4062.281
       136   02 Jun 2027 13:28:49.705   02 Jun 2027 13:30:54.783           125.078                Sumatra          3908.687
       137   02 Jun 2027 13:41:26.353   02 Jun 2027 13:43:06.702           100.349                Irkutsk          3135.906
       138   02 Jun 2027 13:47:35.154   02 Jun 2027 13:47:38.374             3.220                Irkutsk           100.625
       139   02 Jun 2027 15:11:18.830   02 Jun 2027 15:14:59.102           220.272                  Delhi          6883.500
       140   02 Jun 2027 15:20:27.356   02 Jun 2027 15:21:43.641            76.285                Novosib          2383.906
       141   02 Jun 2027 16:58:22.143   02 Jun 2027 16:59:34.588            72.445                 Moscow          2263.906
       142   02 Jun 2027 17:00:32.417   02 Jun 2027 17:01:02.713            30.296                Norilsk           946.750
       143   02 Jun 2027 17:05:06.454   02 Jun 2027 17:05:32.136            25.682              Murmansk1           802.562
       144   02 Jun 2027 17:06:40.721   02 Jun 2027 17:07:06.618            25.897              Murmansk1           809.281
       145   02 Jun 2027 17:14:26.433   02 Jun 2027 17:14:44.146            17.713                Anadyr1           553.531
       146   02 Jun 2027 18:10:21.534   02 Jun 2027 18:10:55.562            34.028               CapeTown          1063.375
       147   02 Jun 2027 18:11:12.584   02 Jun 2027 18:11:35.843            23.259               CapeTown           726.844
       148   02 Jun 2027 18:12:04.811   02 Jun 2027 18:13:49.356           104.545               CapeTown          3267.031
       149   02 Jun 2027 18:16:35.014   02 Jun 2027 18:16:47.179            12.165               CapeTown           380.156
       150   02 Jun 2027 18:31:32.007   02 Jun 2027 18:35:08.355           216.348                 Moscow          6760.875
       151   02 Jun 2027 18:40:53.617   02 Jun 2027 18:41:59.622            66.005              Murmansk2          2062.656
       152   02 Jun 2027 18:55:45.000   02 Jun 2027 18:55:57.501            12.501                Anadyr2           390.656
       153   02 Jun 2027 19:42:22.122   02 Jun 2027 19:44:48.362           146.240               CapeTown          4570.000
       154   02 Jun 2027 19:50:28.421   02 Jun 2027 19:51:01.266            32.845               CapeTown          1026.406
       155   02 Jun 2027 20:12:36.746   02 Jun 2027 20:18:23.687           346.941              Murmansk2         10841.906
       156   02 Jun 2027 21:56:40.643   02 Jun 2027 22:00:47.801           247.158                Anadyr2          7723.687
       157   02 Jun 2027 22:00:53.661   02 Jun 2027 22:01:23.619            29.958               Magadan1           936.187
       158   02 Jun 2027 22:02:09.670   02 Jun 2027 22:02:31.522            21.852               Magadan1           682.875
       159   02 Jun 2027 22:03:03.024   02 Jun 2027 22:03:13.633            10.609               Magadan2           331.531
       160   02 Jun 2027 22:03:32.581   02 Jun 2027 22:03:41.059             8.478               Magadan1           264.937
       161   02 Jun 2027 22:04:02.798   02 Jun 2027 22:04:46.289            43.491               Magadan1          1359.094
       162   02 Jun 2027 22:07:40.429   02 Jun 2027 22:08:47.716            67.287               Magadan1          2102.719
       163   02 Jun 2027 22:11:48.200   02 Jun 2027 22:11:48.964             0.764               Magadan1            23.875
       164   02 Jun 2027 22:51:57.588   02 Jun 2027 22:52:17.348            19.760            RioGallegos           617.500
       165   02 Jun 2027 22:53:53.568   02 Jun 2027 22:54:06.063            12.495            RioGallegos           390.469
       166   02 Jun 2027 22:54:52.887   02 Jun 2027 22:55:01.812             8.925            RioGallegos           278.906
       167   02 Jun 2027 22:55:37.512   02 Jun 2027 22:56:38.793            61.281            RioGallegos          1915.031
       168   02 Jun 2027 22:59:08.159   02 Jun 2027 22:59:39.570            31.411            RioGallegos           981.594
       169   02 Jun 2027 23:32:25.893   02 Jun 2027 23:34:03.276            97.383                Anadyr2          3043.219
       170   02 Jun 2027 23:34:20.107   02 Jun 2027 23:35:42.149            82.042                Anadyr2          2563.812
       171   02 Jun 2027 23:35:50.889   02 Jun 2027 23:37:14.720            83.831               Magadan1          2619.719
       172   02 Jun 2027 23:37:33.283   02 Jun 2027 23:37:36.443             3.160               Magadan1            98.750
       173   02 Jun 2027 23:38:19.033   02 Jun 2027 23:38:33.930            14.897               Magadan1           465.531
       174   02 Jun 2027 23:39:02.880   02 Jun 2027 23:39:31.000            28.120                Irkutsk           878.750
       175   02 Jun 2027 23:41:11.375   02 Jun 2027 23:42:27.676            76.301                Irkutsk          2384.406
       176   02 Jun 2027 23:48:29.071   02 Jun 2027 23:48:53.381            24.310                Irkutsk           759.688
       177   02 Jun 2027 23:56:13.206   02 Jun 2027 23:56:53.883            40.677                Sumatra          1271.156
       178   02 Jun 2027 23:58:42.430   02 Jun 2027 23:59:44.626            62.196                Sumatra          1943.625
       179   03 Jun 2027 00:02:08.497   03 Jun 2027 00:02:30.277            21.780                Sumatra           680.625
       180   03 Jun 2027 00:33:28.142   03 Jun 2027 00:33:58.977            30.835            RioGallegos           963.594
       181   03 Jun 2027 00:36:09.697   03 Jun 2027 00:36:46.764            37.067            RioGallegos          1158.344
       182   03 Jun 2027 01:07:30.218   03 Jun 2027 01:07:56.313            26.095                Anadyr2           815.469
       183   03 Jun 2027 01:08:12.071   03 Jun 2027 01:08:55.582            43.511                Anadyr2          1359.719
       184   03 Jun 2027 01:09:09.624   03 Jun 2027 01:09:34.330            24.706                Anadyr1           772.062
       185   03 Jun 2027 01:10:01.483   03 Jun 2027 01:10:13.259            11.776                Anadyr1           368.000
       186   03 Jun 2027 01:10:24.542   03 Jun 2027 01:12:11.840           107.298                Norilsk          3353.063
       187   03 Jun 2027 01:12:47.150   03 Jun 2027 01:12:53.092             5.942               Magadan1           185.688
       188   03 Jun 2027 01:13:02.168   03 Jun 2027 01:13:19.312            17.144               Magadan1           535.750
       189   03 Jun 2027 01:14:17.377   03 Jun 2027 01:14:39.836            22.459                Irkutsk           701.844
       190   03 Jun 2027 01:14:47.093   03 Jun 2027 01:15:10.800            23.707                Novosib           740.844
       191   03 Jun 2027 01:17:00.124   03 Jun 2027 01:17:35.520            35.396                Irkutsk          1106.125
       192   03 Jun 2027 01:19:43.923   03 Jun 2027 01:19:57.074            13.151                Novosib           410.969
       193   03 Jun 2027 01:20:40.417   03 Jun 2027 01:20:48.924             8.507                Novosib           265.844
       194   03 Jun 2027 01:21:14.711   03 Jun 2027 01:21:16.527             1.816                Irkutsk            56.750
       195   03 Jun 2027 01:21:17.218   03 Jun 2027 01:21:45.227            28.009                Novosib           875.281
       196   03 Jun 2027 01:23:53.840   03 Jun 2027 01:25:00.611            66.771                  Delhi          2086.594
       197   03 Jun 2027 01:29:57.874   03 Jun 2027 01:30:17.763            19.889                Sumatra           621.531
       198   03 Jun 2027 01:30:40.530   03 Jun 2027 01:33:03.334           142.804                Sumatra          4462.625
       199   03 Jun 2027 02:13:10.424   03 Jun 2027 02:13:30.577            20.153            RioGallegos           629.781
       200   03 Jun 2027 02:43:06.343   03 Jun 2027 02:43:20.212            13.869                Anadyr2           433.406
       201   03 Jun 2027 02:44:14.926   03 Jun 2027 02:44:15.246             0.320                Anadyr1            10.000
       202   03 Jun 2027 02:44:44.625   03 Jun 2027 02:45:27.482            42.857                Anadyr2          1339.281
       203   03 Jun 2027 02:46:25.562   03 Jun 2027 02:47:21.483            55.921                Norilsk          1747.531
       204   03 Jun 2027 02:48:58.410   03 Jun 2027 02:49:22.155            23.745              Murmansk2           742.031
       205   03 Jun 2027 02:49:22.155   03 Jun 2027 02:49:48.078            25.923              Murmansk1           810.094
       206   03 Jun 2027 02:50:11.930   03 Jun 2027 02:50:37.579            25.649                Novosib           801.531
       207   03 Jun 2027 02:50:50.760   03 Jun 2027 02:51:07.051            16.291                Irkutsk           509.094
       208   03 Jun 2027 02:51:55.200   03 Jun 2027 02:51:59.074             3.874                Irkutsk           121.063
       209   03 Jun 2027 02:52:06.820   03 Jun 2027 02:54:20.003           133.183                Irkutsk          4161.969
       210   03 Jun 2027 03:40:13.149   03 Jun 2027 03:40:53.462            40.313            RioGallegos          1259.781
       211   03 Jun 2027 03:43:39.055   03 Jun 2027 03:44:47.267            68.212            RioGallegos          2131.625
       212   03 Jun 2027 04:29:50.989   03 Jun 2027 04:30:20.761            29.772                Irkutsk           930.375
       213   03 Jun 2027 04:30:37.821   03 Jun 2027 04:33:07.168           149.347                Novosib          4667.094
       214   03 Jun 2027 04:33:26.148   03 Jun 2027 04:34:05.981            39.833                Novosib          1244.781
       215   03 Jun 2027 04:34:10.301   03 Jun 2027 04:35:18.653            68.352                Novosib          2136.000
       216   03 Jun 2027 06:09:01.897   03 Jun 2027 06:09:12.073            10.176              Murmansk2           318.000
       217   03 Jun 2027 06:09:18.519   03 Jun 2027 06:10:54.536            96.017              Murmansk1          3000.531
       218   03 Jun 2027 06:11:12.394   03 Jun 2027 06:11:27.046            14.652                 Moscow           457.875
       219   03 Jun 2027 06:27:46.539   03 Jun 2027 06:29:39.424           112.885               CapeTown          3527.656
       220   03 Jun 2027 07:32:32.675   03 Jun 2027 07:35:11.589           158.914                Anadyr1          4966.063
       221   03 Jun 2027 07:35:45.117   03 Jun 2027 07:36:22.866            37.749                Anadyr1          1179.656
       222   03 Jun 2027 07:36:32.530   03 Jun 2027 07:36:53.964            21.434               Magadan2           669.813
       223   03 Jun 2027 09:07:00.067   03 Jun 2027 09:07:42.074            42.007                Anadyr1          1312.719
       224   03 Jun 2027 09:08:54.009   03 Jun 2027 09:09:03.270             9.261               Magadan1           289.406
       225   03 Jun 2027 09:09:15.039   03 Jun 2027 09:11:55.494           160.455                Anadyr2          5014.219
       226   03 Jun 2027 10:42:58.022   03 Jun 2027 10:48:21.614           323.592               Magadan2         10112.250
       227   03 Jun 2027 13:00:38.016   03 Jun 2027 13:01:30.899            52.883            RioGallegos          1652.594
       228   03 Jun 2027 13:04:16.507   03 Jun 2027 13:05:42.846            86.339            RioGallegos          2698.094
       229   03 Jun 2027 13:34:51.828   03 Jun 2027 13:38:46.341           234.513                Sumatra          7328.531
       230   03 Jun 2027 13:50:12.861   03 Jun 2027 13:52:35.802           142.941                Irkutsk          4466.906
       231   03 Jun 2027 15:19:54.782   03 Jun 2027 15:24:45.892           291.110                  Delhi          9097.188
       232   03 Jun 2027 15:28:22.103   03 Jun 2027 15:30:00.716            98.613                Novosib          3081.656
       233   03 Jun 2027 15:31:46.968   03 Jun 2027 15:34:42.948           175.980                Novosib          5499.375
       234   03 Jun 2027 17:05:58.639   03 Jun 2027 17:07:00.306            61.667                 Moscow          1927.094
       235   03 Jun 2027 17:13:21.922   03 Jun 2027 17:14:23.069            61.147              Murmansk1          1910.844
       236   03 Jun 2027 17:14:32.404   03 Jun 2027 17:16:09.008            96.604                Norilsk          3018.875
       237   03 Jun 2027 18:16:21.115   03 Jun 2027 18:17:17.383            56.268               CapeTown          1758.375
       238   03 Jun 2027 18:27:57.483   03 Jun 2027 18:28:05.588             8.105               CapeTown           253.281
       239   03 Jun 2027 18:42:33.638   03 Jun 2027 18:46:25.203           231.565                 Moscow          7236.406
       240   03 Jun 2027 18:46:58.674   03 Jun 2027 18:47:00.365             1.691                 Moscow            52.844
       241   03 Jun 2027 18:49:13.543   03 Jun 2027 18:49:29.620            16.077              Murmansk2           502.406
       242   03 Jun 2027 18:49:35.488   03 Jun 2027 18:50:03.564            28.076                 Moscow           877.375
       243   03 Jun 2027 18:53:56.357   03 Jun 2027 18:54:27.702            31.345              Murmansk1           979.531
       244   03 Jun 2027 19:01:29.681   03 Jun 2027 19:01:44.306            14.625                Anadyr2           457.031
       245   03 Jun 2027 19:02:13.555   03 Jun 2027 19:02:17.622             4.067                Anadyr2           127.094
       246   03 Jun 2027 19:52:58.536   03 Jun 2027 19:54:01.121            62.585               CapeTown          1955.781
       247   03 Jun 2027 19:55:51.775   03 Jun 2027 19:57:05.982            74.207               CapeTown          2318.969
       248   03 Jun 2027 20:02:12.912   03 Jun 2027 20:02:51.931            39.019               CapeTown          1219.344
       249   03 Jun 2027 20:25:34.324   03 Jun 2027 20:29:49.105           254.781              Murmansk1          7961.906
       250   03 Jun 2027 20:35:24.260   03 Jun 2027 20:35:37.776            13.516               Magadan2           422.375
       251   03 Jun 2027 20:38:26.638   03 Jun 2027 20:38:32.542             5.904               Magadan2           184.500
       252   03 Jun 2027 20:41:06.147   03 Jun 2027 20:41:07.587             1.440               Magadan2            45.000
       253   03 Jun 2027 20:41:10.274   03 Jun 2027 20:41:22.388            12.114               Magadan2           378.562
       254   03 Jun 2027 20:41:56.446   03 Jun 2027 20:42:22.970            26.524               Magadan2           828.875
       255   03 Jun 2027 22:08:42.053   03 Jun 2027 22:12:28.435           226.382                Anadyr2          7074.437
       256   03 Jun 2027 22:12:28.952   03 Jun 2027 22:13:52.212            83.260                Anadyr1          2601.875
       257   03 Jun 2027 22:13:57.613   03 Jun 2027 22:14:02.705             5.092                Norilsk           159.125
       258   03 Jun 2027 22:14:07.354   03 Jun 2027 22:16:04.204           116.850               Magadan1          3651.563
       259   03 Jun 2027 22:16:38.816   03 Jun 2027 22:16:47.268             8.452               Magadan2           264.125
       260   03 Jun 2027 22:21:31.211   03 Jun 2027 22:21:36.686             5.475               Magadan1           171.094
       261   03 Jun 2027 23:03:27.450   03 Jun 2027 23:06:43.406           195.956            RioGallegos          6123.625
       262   03 Jun 2027 23:12:46.447   03 Jun 2027 23:12:50.031             3.584            RioGallegos           112.000
       263   03 Jun 2027 23:44:24.151   03 Jun 2027 23:45:24.977            60.826                Anadyr1          1900.813
       264   03 Jun 2027 23:45:29.376   03 Jun 2027 23:45:37.823             8.447                Anadyr2           263.969
       265   03 Jun 2027 23:45:59.224   03 Jun 2027 23:47:43.013           103.789                Anadyr1          3243.406
       266   03 Jun 2027 23:47:50.773   03 Jun 2027 23:48:10.082            19.309                Norilsk           603.406
       267   03 Jun 2027 23:48:50.152   03 Jun 2027 23:50:15.944            85.792               Magadan1          2681.000
       268   03 Jun 2027 23:50:53.002   03 Jun 2027 23:52:06.632            73.630                Irkutsk          2300.938
       269   04 Jun 2027 00:01:01.371   04 Jun 2027 00:01:41.784            40.413                Irkutsk          1262.906
       270   04 Jun 2027 00:04:51.468   04 Jun 2027 00:06:15.520            84.052                Sumatra          2626.625
       271   04 Jun 2027 00:06:45.684   04 Jun 2027 00:08:04.781            79.097                Sumatra          2471.781
       272   04 Jun 2027 00:41:30.619   04 Jun 2027 00:41:39.640             9.021            RioGallegos           281.906
       273   04 Jun 2027 00:42:41.783   04 Jun 2027 00:42:52.573            10.790            RioGallegos           337.188
       274   04 Jun 2027 00:48:12.244   04 Jun 2027 00:48:17.130             4.886            RioGallegos           152.687
       275   04 Jun 2027 00:49:21.718   04 Jun 2027 00:49:57.429            35.711            RioGallegos          1115.969
       276   04 Jun 2027 01:19:20.366   04 Jun 2027 01:19:41.188            20.822                Anadyr1           650.687
       277   04 Jun 2027 01:20:13.321   04 Jun 2027 01:20:44.510            31.189                Anadyr2           974.656
       278   04 Jun 2027 01:20:44.510   04 Jun 2027 01:21:08.715            24.205                Anadyr1           756.406
       279   04 Jun 2027 01:21:34.700   04 Jun 2027 01:21:42.525             7.825                Anadyr2           244.531
       280   04 Jun 2027 01:22:26.873   04 Jun 2027 01:24:13.558           106.685                Norilsk          3333.906
       281   04 Jun 2027 01:24:48.992   04 Jun 2027 01:25:03.145            14.153               Magadan2           442.281
       282   04 Jun 2027 01:26:19.232   04 Jun 2027 01:28:13.729           114.497                Irkutsk          3578.031
       283   04 Jun 2027 01:28:26.064   04 Jun 2027 01:28:56.445            30.381                Novosib           949.406
       284   04 Jun 2027 01:29:36.444   04 Jun 2027 01:29:41.078             4.634                Irkutsk           144.813
       285   04 Jun 2027 01:30:03.449   04 Jun 2027 01:30:10.975             7.526                Irkutsk           235.188
       286   04 Jun 2027 01:33:25.101   04 Jun 2027 01:33:37.389            12.288                Novosib           384.000
       287   04 Jun 2027 01:33:58.397   04 Jun 2027 01:35:13.771            75.374                Irkutsk          2355.437
       288   04 Jun 2027 01:41:06.859   04 Jun 2027 01:41:57.021            50.162                Sumatra          1567.563
       289   04 Jun 2027 01:45:06.600   04 Jun 2027 01:47:01.276           114.676                Sumatra          3583.625
       290   04 Jun 2027 02:22:38.951   04 Jun 2027 02:23:01.506            22.555            RioGallegos           704.844
       291   04 Jun 2027 02:53:02.574   04 Jun 2027 02:53:29.489            26.915                Anadyr1           841.094
       292   04 Jun 2027 02:53:48.670   04 Jun 2027 02:53:59.480            10.810                Anadyr1           337.812
       293   04 Jun 2027 02:58:27.588   04 Jun 2027 02:59:21.290            53.702                Norilsk          1678.188
       294   04 Jun 2027 02:59:34.283   04 Jun 2027 03:00:08.051            33.768                Norilsk          1055.250
       295   04 Jun 2027 03:02:34.616   04 Jun 2027 03:03:00.490            25.874               Magadan1           808.562
       296   04 Jun 2027 03:03:38.637   04 Jun 2027 03:04:05.268            26.631              Murmansk1           832.219
       297   04 Jun 2027 03:04:11.697   04 Jun 2027 03:07:19.963           188.266                Irkutsk          5883.312
       298   04 Jun 2027 03:07:30.334   04 Jun 2027 03:08:02.615            32.281                Norilsk          1008.781
       299   04 Jun 2027 03:08:03.341   04 Jun 2027 03:08:14.932            11.591                Norilsk           362.219
       300   04 Jun 2027 03:08:34.056   04 Jun 2027 03:08:51.666            17.610                 Moscow           550.312
       301   04 Jun 2027 03:08:56.979   04 Jun 2027 03:10:44.077           107.098                Norilsk          3346.813
       302   04 Jun 2027 03:10:54.605   04 Jun 2027 03:11:50.536            55.931                Novosib          1747.844
       303   04 Jun 2027 03:11:54.052   04 Jun 2027 03:12:16.017            21.965                Irkutsk           686.406
       304   04 Jun 2027 03:12:32.715   04 Jun 2027 03:13:57.649            84.934                  Delhi          2654.188
       305   04 Jun 2027 03:53:07.604   04 Jun 2027 03:55:19.871           132.267            RioGallegos          4133.344
       306   04 Jun 2027 04:42:08.712   04 Jun 2027 04:42:34.620            25.908                Novosib           809.625
       307   04 Jun 2027 04:42:56.946   04 Jun 2027 04:43:20.685            23.739              Murmansk1           741.844
       308   04 Jun 2027 04:43:40.134   04 Jun 2027 04:45:49.007           128.873              Murmansk1          4027.281
       309   04 Jun 2027 04:45:51.176   04 Jun 2027 04:46:42.530            51.354              Murmansk2          1604.813
       310   04 Jun 2027 04:46:42.530   04 Jun 2027 04:46:59.024            16.494              Murmansk1           515.438
       311   04 Jun 2027 04:49:09.267   04 Jun 2027 04:51:34.646           145.379                 Moscow          4543.094
       312   04 Jun 2027 04:51:54.909   04 Jun 2027 04:52:03.479             8.570                 Moscow           267.812
       313   04 Jun 2027 05:04:47.368   04 Jun 2027 05:05:37.526            50.158               CapeTown          1567.438
       314   04 Jun 2027 05:05:48.051   04 Jun 2027 05:06:21.827            33.776               CapeTown          1055.500
       315   04 Jun 2027 06:20:31.730   04 Jun 2027 06:21:00.905            29.175                Norilsk           911.719
       316   04 Jun 2027 06:21:27.568   04 Jun 2027 06:25:29.567           241.999              Murmansk2          7562.469
       317   04 Jun 2027 06:25:32.711   04 Jun 2027 06:26:34.253            61.542                 Moscow          1923.188
       318   04 Jun 2027 06:40:01.347   04 Jun 2027 06:41:31.947            90.600               CapeTown          2831.250
       319   04 Jun 2027 06:42:38.424   04 Jun 2027 06:44:39.473           121.049               CapeTown          3782.781
       320   04 Jun 2027 07:44:46.402   04 Jun 2027 07:44:59.240            12.838                Norilsk           401.188
       321   04 Jun 2027 07:45:02.124   04 Jun 2027 07:46:58.624           116.500               Magadan1          3640.625
       322   04 Jun 2027 07:52:08.640   04 Jun 2027 07:52:37.370            28.730                 Moscow           897.812
       323   04 Jun 2027 07:53:39.757   04 Jun 2027 07:54:42.910            63.153                 Moscow          1973.531
       324   04 Jun 2027 09:18:53.314   04 Jun 2027 09:24:53.569           360.255                Anadyr1         11257.969
       325   04 Jun 2027 10:54:04.291   04 Jun 2027 10:56:42.535           158.244               Magadan1          4945.125
       326   04 Jun 2027 10:56:46.899   04 Jun 2027 11:00:13.759           206.860               Magadan1          6464.375
       327   04 Jun 2027 11:00:34.118   04 Jun 2027 11:00:34.722             0.604              Murmansk1            18.875
       328   04 Jun 2027 11:00:43.473   04 Jun 2027 11:01:12.083            28.610                Norilsk           894.062
       329   04 Jun 2027 11:01:35.460   04 Jun 2027 11:02:02.544            27.084              Murmansk1           846.375
       330   04 Jun 2027 11:35:18.537   04 Jun 2027 11:36:27.175            68.638            RioGallegos          2144.938
       331   04 Jun 2027 12:10:41.877   04 Jun 2027 12:12:25.310           103.433                Sumatra          3232.281
       332   04 Jun 2027 12:23:51.061   04 Jun 2027 12:25:42.562           111.501                Irkutsk          3484.406
       333   04 Jun 2027 12:27:01.530   04 Jun 2027 12:28:04.235            62.705                Irkutsk          1959.531
       334   04 Jun 2027 12:31:42.774   04 Jun 2027 12:32:00.220            17.446                Norilsk           545.187
       335   04 Jun 2027 12:39:36.579   04 Jun 2027 12:40:08.468            31.889                Norilsk           996.531
       336   04 Jun 2027 13:13:10.759   04 Jun 2027 13:14:59.759           109.000            RioGallegos          3406.250
       337   04 Jun 2027 13:16:58.122   04 Jun 2027 13:18:06.306            68.184            RioGallegos          2130.750
       338   04 Jun 2027 13:47:24.754   04 Jun 2027 13:49:39.882           135.128                Sumatra          4222.750
       339   04 Jun 2027 14:03:00.454   04 Jun 2027 14:04:19.771            79.317                Irkutsk          2478.656
       340   04 Jun 2027 14:06:38.303   04 Jun 2027 14:11:07.615           269.312                Irkutsk          8416.000
       341   04 Jun 2027 15:35:12.629   04 Jun 2027 15:37:15.906           123.277                  Delhi          3852.406
       342   04 Jun 2027 15:41:15.411   04 Jun 2027 15:45:08.969           233.558                Novosib          7298.688
       343   04 Jun 2027 17:17:57.540   04 Jun 2027 17:18:46.865            49.325                 Moscow          1541.406
       344   04 Jun 2027 17:20:02.139   04 Jun 2027 17:21:04.989            62.850              Murmansk2          1964.062
       345   04 Jun 2027 17:26:59.268   04 Jun 2027 17:27:18.510            19.242              Murmansk2           601.312
       346   04 Jun 2027 17:33:49.380   04 Jun 2027 17:34:47.447            58.067                Anadyr1          1814.594
       347   04 Jun 2027 17:35:13.891   04 Jun 2027 17:35:55.663            41.772                Anadyr1          1305.375
       348   04 Jun 2027 17:40:40.186   04 Jun 2027 17:40:43.648             3.462                Anadyr1           108.187
       349   04 Jun 2027 18:28:17.619   04 Jun 2027 18:29:07.226            49.607               CapeTown          1550.219
       350   04 Jun 2027 18:30:53.701   04 Jun 2027 18:31:25.938            32.237               CapeTown          1007.406
       351   04 Jun 2027 18:35:13.056   04 Jun 2027 18:35:34.206            21.150               CapeTown           660.938
       352   04 Jun 2027 18:40:14.615   04 Jun 2027 18:40:24.928            10.313               CapeTown           322.281
       353   04 Jun 2027 18:55:38.088   04 Jun 2027 18:59:28.124           230.036                 Moscow          7188.625
       354   04 Jun 2027 19:01:36.813   04 Jun 2027 19:02:04.486            27.673              Murmansk2           864.781
       355   04 Jun 2027 19:06:26.670   04 Jun 2027 19:07:04.199            37.529              Murmansk2          1172.781
       356   04 Jun 2027 20:05:23.463   04 Jun 2027 20:06:08.258            44.795               CapeTown          1399.844
       357   04 Jun 2027 20:06:56.212   04 Jun 2027 20:08:57.254           121.042               CapeTown          3782.563
       358   04 Jun 2027 20:38:47.204   04 Jun 2027 20:41:40.571           173.367              Murmansk2          5417.719
       359   04 Jun 2027 20:47:19.896   04 Jun 2027 20:48:09.135            49.239               Magadan2          1538.719
       360   04 Jun 2027 20:49:38.809   04 Jun 2027 20:50:00.759            21.950                Anadyr1           685.937
       361   04 Jun 2027 20:50:29.238   04 Jun 2027 20:50:30.644             1.406               Magadan1            43.937
       362   04 Jun 2027 20:51:08.611   04 Jun 2027 20:51:32.925            24.314               Magadan1           759.813
       363   04 Jun 2027 20:52:01.799   04 Jun 2027 20:52:30.754            28.955               Magadan1           904.844
       364   04 Jun 2027 20:56:44.375   04 Jun 2027 20:57:34.288            49.913               Magadan1          1559.781
       365   04 Jun 2027 22:20:43.250   04 Jun 2027 22:22:33.096           109.846                Anadyr1          3432.688
       366   04 Jun 2027 22:22:51.458   04 Jun 2027 22:24:28.888            97.430                Anadyr2          3044.687
       367   04 Jun 2027 22:24:30.880   04 Jun 2027 22:26:01.026            90.146                Norilsk          2817.063
       368   04 Jun 2027 22:26:03.184   04 Jun 2027 22:27:04.057            60.873                Norilsk          1902.281
       369   04 Jun 2027 22:27:42.197   04 Jun 2027 22:28:15.156            32.959               Magadan1          1029.969
       370   04 Jun 2027 22:28:39.941   04 Jun 2027 22:28:47.505             7.564               Magadan2           236.375
       371   04 Jun 2027 22:29:38.424   04 Jun 2027 22:30:01.582            23.158               Magadan2           723.688
       372   04 Jun 2027 22:33:23.045   04 Jun 2027 22:34:11.365            48.320               Magadan1          1510.000
       373   04 Jun 2027 23:15:13.140   04 Jun 2027 23:18:02.223           169.083            RioGallegos          5283.844
       374   04 Jun 2027 23:56:21.693   04 Jun 2027 23:59:35.970           194.277                Anadyr1          6071.156
       375   04 Jun 2027 23:59:37.722   05 Jun 2027 00:00:15.548            37.826                Norilsk          1182.062
       376   05 Jun 2027 00:00:23.987   05 Jun 2027 00:00:46.368            22.381               Magadan2           699.406
       377   05 Jun 2027 00:02:45.711   05 Jun 2027 00:04:33.893           108.182                Irkutsk          3380.687
       378   05 Jun 2027 00:04:56.501   05 Jun 2027 00:05:01.795             5.294                Novosib           165.437
       379   05 Jun 2027 00:05:35.851   05 Jun 2027 00:07:01.817            85.966                Novosib          2686.438
       380   05 Jun 2027 00:17:15.509   05 Jun 2027 00:18:06.614            51.105                Sumatra          1597.031
       381   05 Jun 2027 00:19:06.084   05 Jun 2027 00:20:02.178            56.094                Sumatra          1752.938
       382   05 Jun 2027 00:57:14.154   05 Jun 2027 00:57:23.044             8.890            RioGallegos           277.813
       383   05 Jun 2027 00:59:22.233   05 Jun 2027 00:59:43.409            21.176            RioGallegos           661.750
       384   05 Jun 2027 01:00:26.201   05 Jun 2027 01:00:32.137             5.936            RioGallegos           185.500
       385   05 Jun 2027 01:02:04.776   05 Jun 2027 01:02:40.025            35.249            RioGallegos          1101.531
       386   05 Jun 2027 01:31:09.182   05 Jun 2027 01:31:38.846            29.664                Anadyr2           927.000
       387   05 Jun 2027 01:32:14.638   05 Jun 2027 01:33:12.795            58.157                Anadyr2          1817.406
       388   05 Jun 2027 01:33:35.339   05 Jun 2027 01:34:00.754            25.415                Anadyr1           794.219
       389   05 Jun 2027 01:34:29.255   05 Jun 2027 01:36:10.900           101.645                Norilsk          3176.406
       390   05 Jun 2027 01:36:17.684   05 Jun 2027 01:36:44.024            26.340               Magadan2           823.125
       391   05 Jun 2027 01:38:21.912   05 Jun 2027 01:41:34.166           192.254                Irkutsk          6007.938
       392   05 Jun 2027 01:53:46.159   05 Jun 2027 01:54:01.888            15.729                Sumatra           491.531
       393   05 Jun 2027 01:54:50.545   05 Jun 2027 01:57:04.157           133.612                Sumatra          4175.375
       394   05 Jun 2027 02:00:20.861   05 Jun 2027 02:02:41.928           141.067                Sumatra          4408.344
       395   05 Jun 2027 03:16:17.388   05 Jun 2027 03:18:24.771           127.383                Irkutsk          3980.719
       396   05 Jun 2027 03:18:28.200   05 Jun 2027 03:19:52.474            84.274                Norilsk          2633.562
       397   05 Jun 2027 03:19:59.727   05 Jun 2027 03:20:13.896            14.169                Novosib           442.781
       398   05 Jun 2027 03:20:15.315   05 Jun 2027 03:20:30.971            15.656              Murmansk2           489.250
       399   05 Jun 2027 03:20:32.764   05 Jun 2027 03:21:38.600            65.836                Irkutsk          2057.375
       400   05 Jun 2027 03:21:51.701   05 Jun 2027 03:24:19.283           147.582                  Delhi          4611.938
       401   05 Jun 2027 04:54:28.107   05 Jun 2027 04:54:43.806            15.699                Novosib           490.594
       402   05 Jun 2027 04:55:03.388   05 Jun 2027 04:55:50.917            47.529                Novosib          1485.281
       403   05 Jun 2027 04:56:03.070   05 Jun 2027 04:56:45.901            42.831                Norilsk          1338.469
       404   05 Jun 2027 04:56:52.503   05 Jun 2027 04:57:08.741            16.238                Norilsk           507.438
       405   05 Jun 2027 04:57:12.568   05 Jun 2027 04:57:22.381             9.813                 Moscow           306.656
       406   05 Jun 2027 04:57:28.484   05 Jun 2027 04:58:12.024            43.540              Murmansk1          1360.625
       407   05 Jun 2027 04:58:12.024   05 Jun 2027 04:59:19.318            67.294              Murmansk2          2102.938
       408   05 Jun 2027 04:59:57.047   05 Jun 2027 05:00:01.274             4.227              Murmansk2           132.094
       409   05 Jun 2027 05:00:03.053   05 Jun 2027 05:01:13.606            70.553                 Moscow          2204.781
       410   05 Jun 2027 05:01:32.408   05 Jun 2027 05:02:44.092            71.684                 Moscow          2240.125
       411   05 Jun 2027 05:03:11.123   05 Jun 2027 05:03:30.926            19.803                 Moscow           618.844
       412   05 Jun 2027 05:03:43.259   05 Jun 2027 05:03:54.282            11.023                 Moscow           344.469
       413   05 Jun 2027 05:16:25.244   05 Jun 2027 05:17:40.701            75.457               CapeTown          2358.031
       414   05 Jun 2027 05:18:37.118   05 Jun 2027 05:19:35.064            57.946               CapeTown          1810.812
       415   05 Jun 2027 06:31:28.537   05 Jun 2027 06:31:44.456            15.919              Murmansk2           497.469
       416   05 Jun 2027 06:31:48.497   05 Jun 2027 06:32:20.181            31.684                Norilsk           990.125
       417   05 Jun 2027 06:32:26.506   05 Jun 2027 06:34:38.359           131.853                 Moscow          4120.406
       418   05 Jun 2027 06:52:22.524   05 Jun 2027 06:53:19.575            57.051               CapeTown          1782.844
       419   05 Jun 2027 06:56:43.062   05 Jun 2027 06:57:29.031            45.969               CapeTown          1436.531
       420   05 Jun 2027 07:54:59.257   05 Jun 2027 07:57:05.318           126.061               Magadan1          3939.406
       421   05 Jun 2027 07:57:29.317   05 Jun 2027 07:57:45.683            16.366                Anadyr1           511.438
       422   05 Jun 2027 07:58:30.430   05 Jun 2027 07:58:34.649             4.219                Norilsk           131.844
       423   05 Jun 2027 07:58:39.022   05 Jun 2027 07:59:10.225            31.203                Anadyr1           975.094
       424   05 Jun 2027 08:00:54.281   05 Jun 2027 08:01:18.085            23.804              Murmansk2           743.875
       425   05 Jun 2027 08:08:35.655   05 Jun 2027 08:09:19.916            44.261              Murmansk1          1383.156
       426   05 Jun 2027 08:12:36.861   05 Jun 2027 08:13:23.489            46.628                 Moscow          1457.125
       427   05 Jun 2027 09:29:24.551   05 Jun 2027 09:29:29.874             5.323                Anadyr2           166.344
       428   05 Jun 2027 09:30:39.368   05 Jun 2027 09:30:44.565             5.197                Irkutsk           162.406
       429   05 Jun 2027 09:30:50.312   05 Jun 2027 09:32:21.548            91.236                Irkutsk          2851.125
       430   05 Jun 2027 09:32:37.674   05 Jun 2027 09:33:40.464            62.790                Anadyr2          1962.188
       431   05 Jun 2027 09:33:59.965   05 Jun 2027 09:34:40.195            40.230               Magadan2          1257.188
       432   05 Jun 2027 09:34:40.195   05 Jun 2027 09:34:56.747            16.552               Magadan1           517.250
       433   05 Jun 2027 09:35:32.719   05 Jun 2027 09:35:40.424             7.705                Norilsk           240.781
       434   05 Jun 2027 09:36:00.051   05 Jun 2027 09:36:04.945             4.894              Murmansk1           152.938
       435   05 Jun 2027 10:12:47.775   05 Jun 2027 10:13:08.392            20.617            RioGallegos           644.281
       436   05 Jun 2027 10:14:19.528   05 Jun 2027 10:15:03.405            43.877            RioGallegos          1371.156
       437   05 Jun 2027 11:04:56.613   05 Jun 2027 11:12:03.088           426.475               Magadan1         13327.344
       438   05 Jun 2027 11:12:40.087   05 Jun 2027 11:12:58.261            18.174                Norilsk           567.938
       439   05 Jun 2027 11:13:08.250   05 Jun 2027 11:13:12.421             4.171                Novosib           130.344
       440   05 Jun 2027 11:13:32.777   05 Jun 2027 11:14:03.811            31.034              Murmansk1           969.812
       441   05 Jun 2027 11:47:21.173   05 Jun 2027 11:48:23.713            62.540            RioGallegos          1954.375
       442   05 Jun 2027 12:22:27.889   05 Jun 2027 12:23:11.262            43.373                Sumatra          1355.406
       443   05 Jun 2027 12:29:11.968   05 Jun 2027 12:30:08.495            56.527                Sumatra          1766.469
       444   05 Jun 2027 12:36:01.024   05 Jun 2027 12:37:38.449            97.425                Irkutsk          3044.531
       445   05 Jun 2027 12:39:50.752   05 Jun 2027 12:40:24.639            33.887                Irkutsk          1058.969
       446   05 Jun 2027 12:40:41.834   05 Jun 2027 12:41:44.412            62.578                Norilsk          1955.562
       447   05 Jun 2027 12:42:02.744   05 Jun 2027 12:42:09.773             7.029                Norilsk           219.656
       448   05 Jun 2027 12:48:20.129   05 Jun 2027 12:48:51.639            31.510              Murmansk1           984.687
       449   05 Jun 2027 13:25:50.586   05 Jun 2027 13:28:12.183           141.597            RioGallegos          4424.906
       450   05 Jun 2027 13:28:29.658   05 Jun 2027 13:30:35.038           125.380            RioGallegos          3918.125
       451   05 Jun 2027 14:03:00.767   05 Jun 2027 14:04:48.523           107.756                Sumatra          3367.375
       452   05 Jun 2027 14:16:00.552   05 Jun 2027 14:19:49.402           228.850                Irkutsk          7151.562
       453   05 Jun 2027 15:45:57.861   05 Jun 2027 15:47:03.779            65.918                  Delhi          2059.938
       454   05 Jun 2027 15:54:17.397   05 Jun 2027 15:55:05.791            48.394              Murmansk2          1512.312
       455   05 Jun 2027 15:56:59.638   05 Jun 2027 15:57:45.613            45.975                Norilsk          1436.719
       456   05 Jun 2027 15:58:08.577   05 Jun 2027 15:59:52.319           103.742                Novosib          3241.938
       457   05 Jun 2027 16:00:13.437   05 Jun 2027 16:01:43.532            90.095                Norilsk          2815.469
       458   05 Jun 2027 17:09:09.512   05 Jun 2027 17:09:48.500            38.988               CapeTown          1218.375
       459   05 Jun 2027 17:27:29.193   05 Jun 2027 17:28:36.776            67.583                 Moscow          2111.969
       460   05 Jun 2027 17:29:55.401   05 Jun 2027 17:31:54.178           118.777                 Moscow          3711.781
       461   05 Jun 2027 17:45:37.647   05 Jun 2027 17:46:31.306            53.659                Anadyr1          1676.844
       462   05 Jun 2027 17:48:00.850   05 Jun 2027 17:48:31.912            31.062                Anadyr2           970.688
       463   05 Jun 2027 18:40:17.086   05 Jun 2027 18:42:37.448           140.362               CapeTown          4386.313
       464   05 Jun 2027 19:09:11.884   05 Jun 2027 19:12:34.019           202.135                 Moscow          6316.719
       465   05 Jun 2027 19:13:10.441   05 Jun 2027 19:14:42.706            92.265              Murmansk1          2883.281
       466   05 Jun 2027 19:25:51.638   05 Jun 2027 19:25:58.457             6.819               Magadan2           213.094
       467   05 Jun 2027 19:26:13.089   05 Jun 2027 19:26:44.162            31.073               Magadan2           971.031
       468   05 Jun 2027 19:29:04.794   05 Jun 2027 19:29:45.047            40.253               Magadan2          1257.906
       469   05 Jun 2027 20:17:57.395   05 Jun 2027 20:18:18.474            21.079               CapeTown           658.719
       470   05 Jun 2027 20:19:23.030   05 Jun 2027 20:20:43.277            80.247               CapeTown          2507.719
       471   05 Jun 2027 20:56:49.470   05 Jun 2027 20:57:48.196            58.726                Anadyr1          1835.188
       472   05 Jun 2027 20:57:48.196   05 Jun 2027 20:59:10.498            82.302                Anadyr2          2571.937
       473   05 Jun 2027 20:59:16.839   05 Jun 2027 21:00:48.146            91.307               Magadan1          2853.344
       474   05 Jun 2027 21:01:51.506   05 Jun 2027 21:02:14.503            22.997               Magadan2           718.656
       475   05 Jun 2027 21:02:23.717   05 Jun 2027 21:02:36.592            12.875               Magadan2           402.344
       476   05 Jun 2027 21:04:02.432   05 Jun 2027 21:04:24.005            21.573               Magadan2           674.156
       477   05 Jun 2027 21:05:11.602   05 Jun 2027 21:05:15.695             4.093               Magadan1           127.906
       478   05 Jun 2027 21:05:23.164   05 Jun 2027 21:05:43.323            20.159               Magadan1           629.969
       479   05 Jun 2027 21:07:58.639   05 Jun 2027 21:08:29.429            30.790               Magadan1           962.187
       480   05 Jun 2027 22:32:44.188   05 Jun 2027 22:36:28.964           224.776                Anadyr2          7024.250
       481   05 Jun 2027 22:36:34.714   05 Jun 2027 22:38:40.017           125.303               Magadan1          3915.719
       482   05 Jun 2027 22:38:40.017   05 Jun 2027 22:38:43.718             3.701               Magadan2           115.656
