uniorb/output/strategy_1/Drop/Drop_KinoSat_111203.txt

KinoSat_111203
-------------------------
    Access    *     Start Time (UTCG)     *     Stop Time (UTCG)  *   Duration (s)        *       Station  *  Data (Mbytes)
         1   01 Jun 2027 03:54:19.558   01 Jun 2027 03:55:56.187            96.629                 Moscow          3019.656
         2   01 Jun 2027 03:56:09.370   01 Jun 2027 03:57:42.865            93.495              Murmansk1          2921.719
         3   01 Jun 2027 03:58:54.191   01 Jun 2027 04:00:41.255           107.064                 Moscow          3345.750
         4   01 Jun 2027 04:17:01.097   01 Jun 2027 04:18:42.455           101.358               CapeTown          3167.438
         5   01 Jun 2027 04:22:05.670   01 Jun 2027 04:22:51.699            46.029               CapeTown          1438.406
         6   01 Jun 2027 05:16:04.857   01 Jun 2027 05:17:38.990            94.133                Anadyr2          2941.656
         7   01 Jun 2027 05:17:44.524   01 Jun 2027 05:18:06.956            22.432                Anadyr1           701.000
         8   01 Jun 2027 05:19:49.888   01 Jun 2027 05:20:00.697            10.809                Anadyr1           337.781
         9   01 Jun 2027 05:20:15.256   01 Jun 2027 05:21:09.431            54.175                Anadyr1          1692.969
        10   01 Jun 2027 06:52:43.292   01 Jun 2027 06:53:14.406            31.114                Anadyr2           972.312
        11   01 Jun 2027 06:53:22.018   01 Jun 2027 06:55:05.473           103.455               Magadan1          3232.969
        12   01 Jun 2027 06:55:50.665   01 Jun 2027 06:56:27.167            36.502                Anadyr1          1140.687
        13   01 Jun 2027 08:27:37.747   01 Jun 2027 08:28:51.498            73.751               Magadan2          2304.719
        14   01 Jun 2027 08:28:51.498   01 Jun 2027 08:29:39.630            48.132               Magadan1          1504.125
        15   01 Jun 2027 08:29:57.779   01 Jun 2027 08:30:23.261            25.482                Novosib           796.313
        16   01 Jun 2027 08:30:26.266   01 Jun 2027 08:30:48.656            22.390                Norilsk           699.688
        17   01 Jun 2027 08:31:05.391   01 Jun 2027 08:33:53.646           168.255                Novosib          5257.969
        18   01 Jun 2027 08:33:59.727   01 Jun 2027 08:35:24.416            84.689                Norilsk          2646.531
        19   01 Jun 2027 08:35:34.616   01 Jun 2027 08:35:47.983            13.367              Murmansk1           417.719
        20   01 Jun 2027 09:07:31.790   01 Jun 2027 09:10:02.244           150.454            RioGallegos          4701.687
        21   01 Jun 2027 09:42:55.088   01 Jun 2027 09:44:15.299            80.211                Sumatra          2506.594
        22   01 Jun 2027 09:45:10.753   01 Jun 2027 09:45:18.911             8.158                Sumatra           254.937
        23   01 Jun 2027 10:03:26.665   01 Jun 2027 10:04:11.452            44.787                Irkutsk          1399.594
        24   01 Jun 2027 10:04:38.777   01 Jun 2027 10:07:25.046           166.269                Novosib          5195.906
        25   01 Jun 2027 10:07:36.050   01 Jun 2027 10:08:48.173            72.123                Irkutsk          2253.844
        26   01 Jun 2027 10:09:02.245   01 Jun 2027 10:10:26.367            84.122              Murmansk2          2628.813
        27   01 Jun 2027 10:11:56.407   01 Jun 2027 10:12:16.484            20.077              Murmansk1           627.406
        28   01 Jun 2027 10:45:25.401   01 Jun 2027 10:45:55.704            30.303            RioGallegos           946.969
        29   01 Jun 2027 10:46:55.334   01 Jun 2027 10:47:36.386            41.052            RioGallegos          1282.875
        30   01 Jun 2027 11:19:38.125   01 Jun 2027 11:20:15.375            37.250                Sumatra          1164.062
        31   01 Jun 2027 11:20:25.158   01 Jun 2027 11:20:26.821             1.663                Sumatra            51.969
        32   01 Jun 2027 11:21:47.728   01 Jun 2027 11:22:57.000            69.272                Sumatra          2164.750
        33   01 Jun 2027 11:41:21.176   01 Jun 2027 11:41:52.941            31.765                Irkutsk           992.656
        34   01 Jun 2027 11:42:36.073   01 Jun 2027 11:43:18.078            42.005                Irkutsk          1312.656
        35   01 Jun 2027 11:43:25.345   01 Jun 2027 11:44:30.550            65.205                 Moscow          2037.656
        36   01 Jun 2027 13:04:59.460   01 Jun 2027 13:05:49.220            49.760                  Delhi          1555.000
        37   01 Jun 2027 13:05:56.535   01 Jun 2027 13:06:47.398            50.863                  Delhi          1589.469
        38   01 Jun 2027 13:07:56.582   01 Jun 2027 13:09:36.259            99.677                  Delhi          3114.906
        39   01 Jun 2027 13:11:21.351   01 Jun 2027 13:13:26.778           125.427                 Moscow          3919.594
        40   01 Jun 2027 13:14:30.937   01 Jun 2027 13:17:08.066           157.129              Murmansk2          4910.281
        41   01 Jun 2027 14:28:00.832   01 Jun 2027 14:29:44.716           103.884               CapeTown          3246.375
        42   01 Jun 2027 14:31:22.039   01 Jun 2027 14:32:45.173            83.134               CapeTown          2597.938
        43   01 Jun 2027 14:47:25.907   01 Jun 2027 14:48:33.742            67.835                 Moscow          2119.844
        44   01 Jun 2027 14:50:53.843   01 Jun 2027 14:52:30.028            96.185              Murmansk1          3005.781
        45   01 Jun 2027 14:52:55.772   01 Jun 2027 14:53:47.686            51.914              Murmansk2          1622.312
        46   01 Jun 2027 14:54:21.283   01 Jun 2027 14:55:48.766            87.483              Murmansk2          2733.844
        47   01 Jun 2027 15:06:05.449   01 Jun 2027 15:07:13.389            67.940                Anadyr2          2123.125
        48   01 Jun 2027 15:10:16.184   01 Jun 2027 15:11:03.570            47.386                Anadyr1          1480.813
        49   01 Jun 2027 16:06:22.899   01 Jun 2027 16:07:28.217            65.318               CapeTown          2041.188
        50   01 Jun 2027 16:13:17.544   01 Jun 2027 16:13:17.681             0.137               CapeTown             4.281
        51   01 Jun 2027 16:27:55.188   01 Jun 2027 16:29:04.351            69.163                 Moscow          2161.344
        52   01 Jun 2027 16:29:16.550   01 Jun 2027 16:30:59.714           103.164              Murmansk2          3223.875
        53   01 Jun 2027 16:35:52.533   01 Jun 2027 16:36:35.326            42.793              Murmansk1          1337.281
        54   01 Jun 2027 16:39:15.110   01 Jun 2027 16:39:15.691             0.581              Murmansk2            18.156
        55   01 Jun 2027 16:41:10.085   01 Jun 2027 16:43:09.953           119.868                Anadyr1          3745.875
        56   01 Jun 2027 16:44:25.121   01 Jun 2027 16:44:38.353            13.232                Anadyr1           413.500
        57   01 Jun 2027 16:45:23.209   01 Jun 2027 16:46:05.849            42.640                Anadyr2          1332.500
        58   01 Jun 2027 16:47:12.877   01 Jun 2027 16:47:54.747            41.870               Magadan1          1308.438
        59   01 Jun 2027 16:50:15.629   01 Jun 2027 16:50:32.584            16.955                Anadyr1           529.844
        60   01 Jun 2027 16:51:59.506   01 Jun 2027 16:52:35.139            35.633                Anadyr2          1113.531
        61   01 Jun 2027 16:52:57.228   01 Jun 2027 16:52:59.977             2.749                Anadyr1            85.906
        62   01 Jun 2027 17:42:50.053   01 Jun 2027 17:43:15.669            25.616               CapeTown           800.500
        63   01 Jun 2027 18:11:10.435   01 Jun 2027 18:13:43.868           153.433              Murmansk1          4794.781
        64   01 Jun 2027 18:17:00.882   01 Jun 2027 18:19:22.743           141.861                Anadyr1          4433.156
        65   01 Jun 2027 18:19:34.120   01 Jun 2027 18:20:25.891            51.771               Magadan1          1617.844
        66   01 Jun 2027 18:20:49.613   01 Jun 2027 18:20:55.037             5.424               Magadan1           169.500
        67   01 Jun 2027 18:21:03.226   01 Jun 2027 18:22:12.347            69.121               Magadan1          2160.031
        68   01 Jun 2027 18:26:06.090   01 Jun 2027 18:26:36.903            30.813               Magadan1           962.906
        69   01 Jun 2027 18:29:43.945   01 Jun 2027 18:30:08.937            24.992               Magadan1           781.000
        70   01 Jun 2027 19:52:55.735   01 Jun 2027 19:54:59.635           123.900                Anadyr2          3871.875
        71   01 Jun 2027 19:55:12.647   01 Jun 2027 19:59:37.324           264.677               Magadan2          8271.156
        72   01 Jun 2027 20:02:09.667   01 Jun 2027 20:02:16.928             7.261               Magadan1           226.906
        73   01 Jun 2027 20:02:27.361   01 Jun 2027 20:03:00.483            33.122               Magadan1          1035.063
        74   01 Jun 2027 20:05:36.534   01 Jun 2027 20:05:50.007            13.473               Magadan1           421.031
        75   01 Jun 2027 20:05:50.007   01 Jun 2027 20:06:06.433            16.426               Magadan2           513.312
        76   01 Jun 2027 20:06:18.857   01 Jun 2027 20:06:34.094            15.237               Magadan1           476.156
        77   01 Jun 2027 20:07:29.081   01 Jun 2027 20:07:56.035            26.954               Magadan2           842.312
        78   01 Jun 2027 20:47:27.507   01 Jun 2027 20:48:52.446            84.939            RioGallegos          2654.344
        79   01 Jun 2027 20:49:51.879   01 Jun 2027 20:50:26.558            34.679            RioGallegos          1083.719
        80   01 Jun 2027 20:50:52.312   01 Jun 2027 20:51:19.144            26.832            RioGallegos           838.500
        81   01 Jun 2027 20:56:10.059   01 Jun 2027 20:56:52.949            42.890            RioGallegos          1340.312
        82   01 Jun 2027 20:57:29.603   01 Jun 2027 20:57:54.384            24.781            RioGallegos           774.406
        83   01 Jun 2027 21:30:46.596   01 Jun 2027 21:30:50.366             3.770                Norilsk           117.813
        84   01 Jun 2027 21:31:15.149   01 Jun 2027 21:33:13.109           117.960               Magadan1          3686.250
        85   01 Jun 2027 21:33:19.576   01 Jun 2027 21:33:32.532            12.956               Magadan2           404.875
        86   01 Jun 2027 21:34:05.684   01 Jun 2027 21:34:35.957            30.273                Norilsk           946.031
        87   01 Jun 2027 21:34:59.721   01 Jun 2027 21:35:59.216            59.495                Irkutsk          1859.219
        88   01 Jun 2027 21:37:13.562   01 Jun 2027 21:38:40.555            86.993                Novosib          2718.531
        89   01 Jun 2027 21:39:35.247   01 Jun 2027 21:39:39.127             3.880                Novosib           121.250
        90   01 Jun 2027 21:43:38.013   01 Jun 2027 21:44:29.555            51.542                Irkutsk          1610.688
        91   01 Jun 2027 21:49:36.846   01 Jun 2027 21:51:00.701            83.855                Sumatra          2620.469
        92   01 Jun 2027 21:55:09.278   01 Jun 2027 21:55:27.347            18.069                Sumatra           564.656
        93   01 Jun 2027 21:58:12.434   01 Jun 2027 21:58:27.524            15.090                Sumatra           471.563
        94   01 Jun 2027 21:59:02.222   01 Jun 2027 22:01:04.861           122.639                Sumatra          3832.469
        95   01 Jun 2027 23:06:43.057   01 Jun 2027 23:07:23.700            40.643                Norilsk          1270.094
        96   01 Jun 2027 23:08:33.071   01 Jun 2027 23:08:46.149            13.078               Magadan1           408.688
        97   01 Jun 2027 23:08:50.297   01 Jun 2027 23:09:00.034             9.737               Magadan2           304.281
        98   01 Jun 2027 23:09:12.167   01 Jun 2027 23:09:53.403            41.236               Magadan1          1288.625
        99   01 Jun 2027 23:10:34.879   01 Jun 2027 23:11:05.872            30.993                Irkutsk           968.531
       100   01 Jun 2027 23:11:58.099   01 Jun 2027 23:12:22.978            24.879                Novosib           777.469
       101   01 Jun 2027 23:12:58.435   01 Jun 2027 23:13:01.601             3.166                Novosib            98.938
       102   01 Jun 2027 23:13:13.410   01 Jun 2027 23:13:20.797             7.387                Novosib           230.844
       103   01 Jun 2027 23:15:46.590   01 Jun 2027 23:16:21.948            35.358                Irkutsk          1104.938
       104   01 Jun 2027 23:18:14.264   01 Jun 2027 23:19:41.587            87.323                Novosib          2728.844
       105   01 Jun 2027 23:19:59.669   01 Jun 2027 23:21:53.273           113.604                  Delhi          3550.125
       106   02 Jun 2027 00:07:49.172   02 Jun 2027 00:08:34.204            45.032            RioGallegos          1407.250
       107   02 Jun 2027 00:36:55.117   02 Jun 2027 00:37:10.637            15.520                Anadyr1           485.000
       108   02 Jun 2027 00:38:07.428   02 Jun 2027 00:38:54.281            46.853                Anadyr2          1464.156
       109   02 Jun 2027 00:39:41.204   02 Jun 2027 00:39:55.020            13.816                Anadyr1           431.750
       110   02 Jun 2027 00:42:21.078   02 Jun 2027 00:43:15.783            54.705                Anadyr2          1709.531
       111   02 Jun 2027 00:43:22.589   02 Jun 2027 00:44:43.831            81.242                Norilsk          2538.812
       112   02 Jun 2027 00:45:05.896   02 Jun 2027 00:47:03.599           117.703              Murmansk2          3678.219
       113   02 Jun 2027 00:47:20.523   02 Jun 2027 00:48:14.614            54.091              Murmansk1          1690.344
       114   02 Jun 2027 00:48:44.997   02 Jun 2027 00:48:51.487             6.490              Murmansk1           202.813
       115   02 Jun 2027 00:49:23.817   02 Jun 2027 00:50:03.685            39.868              Murmansk1          1245.875
       116   02 Jun 2027 00:50:52.905   02 Jun 2027 00:52:05.392            72.487                 Moscow          2265.219
       117   02 Jun 2027 01:02:41.844   02 Jun 2027 01:03:22.200            40.356                  Delhi          1261.125
       118   02 Jun 2027 01:05:26.748   02 Jun 2027 01:05:51.619            24.871                  Delhi           777.219
       119   02 Jun 2027 02:10:18.417   02 Jun 2027 02:12:55.375           156.958                Anadyr2          4904.937
       120   02 Jun 2027 02:13:23.827   02 Jun 2027 02:13:33.013             9.186                Anadyr2           287.062
       121   02 Jun 2027 02:15:29.451   02 Jun 2027 02:16:42.107            72.656               Magadan1          2270.500
       122   02 Jun 2027 02:17:54.583   02 Jun 2027 02:17:56.836             2.253               Magadan1            70.406
       123   02 Jun 2027 02:18:30.887   02 Jun 2027 02:19:00.816            29.929                Norilsk           935.281
       124   02 Jun 2027 02:20:50.249   02 Jun 2027 02:21:41.844            51.595              Murmansk2          1612.344
       125   02 Jun 2027 02:22:46.062   02 Jun 2027 02:22:54.138             8.076              Murmansk2           252.375
       126   02 Jun 2027 02:22:58.425   02 Jun 2027 02:24:37.326            98.901                Novosib          3090.656
       127   02 Jun 2027 02:30:09.030   02 Jun 2027 02:31:05.507            56.477                 Moscow          1764.906
       128   02 Jun 2027 02:36:10.852   02 Jun 2027 02:36:23.316            12.464                 Moscow           389.500
       129   02 Jun 2027 02:50:51.049   02 Jun 2027 02:51:26.147            35.098               CapeTown          1096.812
       130   02 Jun 2027 02:55:48.247   02 Jun 2027 02:56:15.581            27.334               CapeTown           854.187
       131   02 Jun 2027 03:00:19.336   02 Jun 2027 03:00:27.477             8.141               CapeTown           254.406
       132   02 Jun 2027 03:52:32.434   02 Jun 2027 03:52:47.871            15.437                Anadyr1           482.406
       133   02 Jun 2027 03:52:47.871   02 Jun 2027 03:53:49.974            62.103                Anadyr2          1940.719
       134   02 Jun 2027 03:53:50.552   02 Jun 2027 03:53:56.443             5.891               Magadan2           184.094
       135   02 Jun 2027 03:53:56.443   02 Jun 2027 03:54:38.837            42.394               Magadan1          1324.813
       136   02 Jun 2027 03:55:58.047   02 Jun 2027 03:56:33.616            35.569               Magadan2          1111.531
       137   02 Jun 2027 04:04:08.779   02 Jun 2027 04:04:39.937            31.158              Murmansk1           973.687
       138   02 Jun 2027 04:05:14.552   02 Jun 2027 04:08:11.748           177.196              Murmansk2          5537.375
       139   02 Jun 2027 04:08:11.748   02 Jun 2027 04:09:45.848            94.100              Murmansk1          2940.625
       140   02 Jun 2027 04:11:04.550   02 Jun 2027 04:11:38.418            33.868                 Moscow          1058.375
       141   02 Jun 2027 05:26:53.033   02 Jun 2027 05:27:20.187            27.154               Magadan1           848.562
       142   02 Jun 2027 05:27:20.187   02 Jun 2027 05:27:34.037            13.850               Magadan2           432.813
       143   02 Jun 2027 05:28:05.021   02 Jun 2027 05:33:13.265           308.244               Magadan2          9632.625
       144   02 Jun 2027 05:33:29.090   02 Jun 2027 05:33:31.648             2.558                Anadyr1            79.938
       145   02 Jun 2027 06:14:38.161   02 Jun 2027 06:16:00.306            82.145            RioGallegos          2567.031
       146   02 Jun 2027 06:17:01.642   02 Jun 2027 06:17:30.558            28.916            RioGallegos           903.625
       147   02 Jun 2027 06:18:11.830   02 Jun 2027 06:18:15.648             3.818            RioGallegos           119.313
       148   02 Jun 2027 07:04:14.914   02 Jun 2027 07:04:38.404            23.490               Magadan1           734.062
       149   02 Jun 2027 07:04:38.404   02 Jun 2027 07:05:23.084            44.680               Magadan2          1396.250
       150   02 Jun 2027 07:05:26.785   02 Jun 2027 07:06:47.402            80.617                Anadyr2          2519.281
       151   02 Jun 2027 07:06:47.402   02 Jun 2027 07:07:43.807            56.405                Anadyr1          1762.656
       152   02 Jun 2027 08:39:38.217   02 Jun 2027 08:44:12.023           273.806               Magadan2          8556.437
       153   02 Jun 2027 08:44:12.023   02 Jun 2027 08:44:13.858             1.835               Magadan1            57.344
       154   02 Jun 2027 08:44:41.856   02 Jun 2027 08:47:24.799           162.943              Murmansk1          5091.969
       155   02 Jun 2027 08:47:24.799   02 Jun 2027 08:48:24.254            59.455              Murmansk2          1857.969
       156   02 Jun 2027 08:50:53.894   02 Jun 2027 08:51:09.664            15.770              Murmansk1           492.812
       157   02 Jun 2027 09:19:34.302   02 Jun 2027 09:20:45.376            71.074            RioGallegos          2221.063
       158   02 Jun 2027 09:22:33.678   02 Jun 2027 09:22:50.771            17.093            RioGallegos           534.156
       159   02 Jun 2027 09:23:20.518   02 Jun 2027 09:23:38.823            18.305            RioGallegos           572.031
       160   02 Jun 2027 09:54:40.971   02 Jun 2027 09:55:31.598            50.627                Sumatra          1582.094
       161   02 Jun 2027 09:57:26.924   02 Jun 2027 09:57:50.934            24.010                Sumatra           750.312
       162   02 Jun 2027 10:16:03.487   02 Jun 2027 10:17:05.065            61.578                Irkutsk          1924.313
       163   02 Jun 2027 10:17:20.298   02 Jun 2027 10:17:48.455            28.157                Novosib           879.906
       164   02 Jun 2027 10:17:55.482   02 Jun 2027 10:20:18.664           143.182              Murmansk1          4474.437
       165   02 Jun 2027 10:20:24.683   02 Jun 2027 10:20:50.014            25.331              Murmansk2           791.594
       166   02 Jun 2027 10:21:12.929   02 Jun 2027 10:21:40.509            27.580                 Moscow           861.875
       167   02 Jun 2027 10:22:17.262   02 Jun 2027 10:23:06.530            49.268              Murmansk2          1539.625
       168   02 Jun 2027 10:58:05.165   02 Jun 2027 10:58:37.451            32.286            RioGallegos          1008.937
       169   02 Jun 2027 10:59:09.299   02 Jun 2027 10:59:39.492            30.193            RioGallegos           943.531
       170   02 Jun 2027 11:00:36.407   02 Jun 2027 11:01:54.493            78.086            RioGallegos          2440.187
       171   02 Jun 2027 11:32:25.152   02 Jun 2027 11:34:43.948           138.796                Sumatra          4337.375
       172   02 Jun 2027 11:53:57.980   02 Jun 2027 11:54:46.630            48.650                Irkutsk          1520.313
       173   02 Jun 2027 11:55:16.151   02 Jun 2027 11:56:04.270            48.119              Murmansk2          1503.719
       174   02 Jun 2027 11:56:04.270   02 Jun 2027 11:57:49.214           104.944              Murmansk1          3279.500
       175   02 Jun 2027 11:58:02.796   02 Jun 2027 11:58:17.429            14.633                Norilsk           457.281
       176   02 Jun 2027 11:58:47.563   02 Jun 2027 11:59:34.469            46.906                Norilsk          1465.812
       177   02 Jun 2027 13:18:12.783   02 Jun 2027 13:21:57.295           224.512                  Delhi          7016.000
       178   02 Jun 2027 13:24:19.515   02 Jun 2027 13:25:39.856            80.341                 Moscow          2510.656
       179   02 Jun 2027 13:26:30.337   02 Jun 2027 13:29:07.936           157.599              Murmansk2          4924.969
       180   02 Jun 2027 13:29:14.920   02 Jun 2027 13:30:29.765            74.845                Norilsk          2338.906
       181   02 Jun 2027 13:31:20.108   02 Jun 2027 13:31:47.442            27.334                Norilsk           854.187
       182   02 Jun 2027 13:32:20.944   02 Jun 2027 13:32:45.593            24.649                Norilsk           770.281
       183   02 Jun 2027 13:33:42.070   02 Jun 2027 13:33:48.849             6.779              Murmansk2           211.844
       184   02 Jun 2027 13:33:58.477   02 Jun 2027 13:34:20.019            21.542                Norilsk           673.187
       185   02 Jun 2027 13:34:55.606   02 Jun 2027 13:35:34.997            39.391                Norilsk          1230.969
       186   02 Jun 2027 13:36:00.648   02 Jun 2027 13:36:06.285             5.637                Norilsk           176.156
       187   02 Jun 2027 13:36:51.602   02 Jun 2027 13:37:40.365            48.763                Norilsk          1523.844
       188   02 Jun 2027 13:38:19.771   02 Jun 2027 13:39:11.939            52.168              Murmansk2          1630.250
       189   02 Jun 2027 13:39:11.939   02 Jun 2027 13:39:26.857            14.918              Murmansk1           466.188
       190   02 Jun 2027 14:38:53.691   02 Jun 2027 14:41:20.056           146.365               CapeTown          4573.906
       191   02 Jun 2027 14:42:06.867   02 Jun 2027 14:42:46.776            39.909               CapeTown          1247.156
       192   02 Jun 2027 14:43:32.685   02 Jun 2027 14:44:34.646            61.961               CapeTown          1936.281
       193   02 Jun 2027 15:03:58.661   02 Jun 2027 15:04:19.751            21.090              Murmansk2           659.063
       194   02 Jun 2027 15:05:20.411   02 Jun 2027 15:05:49.484            29.073              Murmansk2           908.531
       195   02 Jun 2027 15:06:07.941   02 Jun 2027 15:06:25.486            17.545                 Moscow           548.281
       196   02 Jun 2027 15:06:53.157   02 Jun 2027 15:08:01.640            68.483                 Moscow          2140.094
       197   02 Jun 2027 15:09:06.006   02 Jun 2027 15:09:33.396            27.390                 Moscow           855.937
       198   02 Jun 2027 15:10:12.042   02 Jun 2027 15:11:39.168            87.126                 Moscow          2722.687
       199   02 Jun 2027 15:11:52.697   02 Jun 2027 15:11:58.738             6.041              Murmansk1           188.781
       200   02 Jun 2027 15:12:18.839   02 Jun 2027 15:12:52.252            33.413              Murmansk1          1044.156
       201   02 Jun 2027 15:13:41.184   02 Jun 2027 15:13:53.451            12.267              Murmansk2           383.344
       202   02 Jun 2027 15:14:15.686   02 Jun 2027 15:15:25.296            69.610              Murmansk1          2175.313
       203   02 Jun 2027 15:19:24.835   02 Jun 2027 15:19:56.065            31.230                Anadyr2           975.937
       204   02 Jun 2027 15:21:07.888   02 Jun 2027 15:22:17.468            69.580                Anadyr2          2174.375
       205   02 Jun 2027 15:22:17.468   02 Jun 2027 15:22:47.640            30.172                Anadyr1           942.875
       206   02 Jun 2027 15:23:25.930   02 Jun 2027 15:24:05.411            39.481                Anadyr2          1233.781
       207   02 Jun 2027 15:24:31.492   02 Jun 2027 15:25:05.848            34.356                Anadyr2          1073.625
       208   02 Jun 2027 15:25:38.164   02 Jun 2027 15:25:48.799            10.635                Anadyr2           332.344
       209   02 Jun 2027 16:24:50.098   02 Jun 2027 16:25:13.668            23.570               CapeTown           736.562
       210   02 Jun 2027 16:42:39.906   02 Jun 2027 16:44:24.191           104.285                 Moscow          3258.906
       211   02 Jun 2027 16:47:03.269   02 Jun 2027 16:47:31.614            28.345              Murmansk1           885.781
       212   02 Jun 2027 16:48:45.455   02 Jun 2027 16:49:39.917            54.462              Murmansk1          1701.938
       213   02 Jun 2027 16:50:17.925   02 Jun 2027 16:51:14.761            56.836              Murmansk1          1776.125
       214   02 Jun 2027 16:56:04.442   02 Jun 2027 16:56:31.100            26.658                Anadyr2           833.063
       215   02 Jun 2027 16:56:57.974   02 Jun 2027 16:57:21.559            23.585                Anadyr2           737.031
       216   02 Jun 2027 16:57:33.887   02 Jun 2027 16:57:49.061            15.174               Magadan1           474.187
       217   02 Jun 2027 16:58:11.817   02 Jun 2027 16:58:29.468            17.651                Anadyr1           551.594
       218   02 Jun 2027 16:58:31.575   02 Jun 2027 16:59:16.346            44.771               Magadan1          1399.094
       219   02 Jun 2027 16:59:50.352   02 Jun 2027 16:59:53.492             3.140               Magadan1            98.125
       220   02 Jun 2027 16:59:53.492   02 Jun 2027 17:00:10.987            17.495               Magadan2           546.719
       221   02 Jun 2027 17:00:29.206   02 Jun 2027 17:01:42.623            73.417               Magadan1          2294.281
       222   02 Jun 2027 17:03:30.909   02 Jun 2027 17:04:05.816            34.907                Anadyr1          1090.844
       223   02 Jun 2027 17:04:06.721   02 Jun 2027 17:04:20.454            13.733                Anadyr1           429.156
       224   02 Jun 2027 17:04:50.809   02 Jun 2027 17:05:17.184            26.375                Anadyr2           824.219
       225   02 Jun 2027 18:29:02.402   02 Jun 2027 18:32:53.019           230.617                Anadyr2          7206.781
       226   02 Jun 2027 18:33:34.256   02 Jun 2027 18:34:01.164            26.908               Magadan1           840.875
       227   02 Jun 2027 18:34:24.578   02 Jun 2027 18:34:50.405            25.827                Anadyr1           807.094
       228   02 Jun 2027 18:34:50.443   02 Jun 2027 18:35:41.034            50.591               Magadan2          1580.969
       229   02 Jun 2027 18:37:07.815   02 Jun 2027 18:37:42.304            34.489                Anadyr2          1077.781
       230   02 Jun 2027 18:37:59.426   02 Jun 2027 18:38:16.393            16.967               Magadan1           530.219
       231   02 Jun 2027 18:38:35.022   02 Jun 2027 18:39:04.104            29.082               Magadan2           908.813
       232   02 Jun 2027 18:40:11.208   02 Jun 2027 18:40:43.924            32.716               Magadan2          1022.375
       233   02 Jun 2027 18:40:44.709   02 Jun 2027 18:40:58.281            13.572                Anadyr2           424.125
       234   02 Jun 2027 18:41:11.995   02 Jun 2027 18:41:46.318            34.323               Magadan1          1072.594
       235   02 Jun 2027 18:42:32.063   02 Jun 2027 18:43:02.541            30.478               Magadan2           952.437
       236   02 Jun 2027 20:04:56.353   02 Jun 2027 20:07:01.115           124.762                Anadyr2          3898.812
       237   02 Jun 2027 20:07:14.178   02 Jun 2027 20:08:01.074            46.896               Magadan2          1465.500
       238   02 Jun 2027 20:08:06.358   02 Jun 2027 20:09:08.514            62.156                Norilsk          1942.375
       239   02 Jun 2027 20:09:38.928   02 Jun 2027 20:10:55.782            76.854                Norilsk          2401.688
       240   02 Jun 2027 20:12:31.019   02 Jun 2027 20:13:00.066            29.047                Anadyr2           907.719
       241   02 Jun 2027 20:14:19.103   02 Jun 2027 20:14:26.345             7.242                Anadyr2           226.313
       242   02 Jun 2027 20:14:30.047   02 Jun 2027 20:14:48.184            18.137                Irkutsk           566.781
       243   02 Jun 2027 20:15:00.103   02 Jun 2027 20:15:33.128            33.025                Irkutsk          1032.031
       244   02 Jun 2027 20:16:45.452   02 Jun 2027 20:16:48.872             3.420                Irkutsk           106.875
       245   02 Jun 2027 20:17:24.865   02 Jun 2027 20:17:39.526            14.661               Magadan1           458.156
       246   02 Jun 2027 20:17:52.504   02 Jun 2027 20:17:58.705             6.201               Magadan2           193.781
       247   02 Jun 2027 20:18:13.572   02 Jun 2027 20:18:33.337            19.765               Magadan1           617.656
       248   02 Jun 2027 20:18:49.220   02 Jun 2027 20:19:01.006            11.786               Magadan1           368.313
       249   02 Jun 2027 20:19:34.420   02 Jun 2027 20:20:06.520            32.100               Magadan2          1003.125
       250   02 Jun 2027 21:00:52.953   02 Jun 2027 21:02:14.089            81.136            RioGallegos          2535.500
       251   02 Jun 2027 21:05:00.342   02 Jun 2027 21:05:26.054            25.712            RioGallegos           803.500
       252   02 Jun 2027 21:06:31.661   02 Jun 2027 21:08:04.463            92.802            RioGallegos          2900.062
       253   02 Jun 2027 21:42:47.225   02 Jun 2027 21:43:17.456            30.231                Norilsk           944.719
       254   02 Jun 2027 21:43:18.026   02 Jun 2027 21:43:23.017             4.991               Magadan2           155.969
       255   02 Jun 2027 21:43:31.528   02 Jun 2027 21:43:40.719             9.191                Norilsk           287.219
       256   02 Jun 2027 21:44:29.805   02 Jun 2027 21:44:40.571            10.766               Magadan1           336.437
       257   02 Jun 2027 21:44:52.728   02 Jun 2027 21:45:02.839            10.111               Magadan2           315.969
       258   02 Jun 2027 21:45:13.327   02 Jun 2027 21:45:15.682             2.355               Magadan1            73.594
       259   02 Jun 2027 21:45:26.852   02 Jun 2027 21:46:10.082            43.230                Anadyr2          1350.938
       260   02 Jun 2027 21:46:44.841   02 Jun 2027 21:46:58.335            13.494                Norilsk           421.687
       261   02 Jun 2027 21:47:59.069   02 Jun 2027 21:48:07.299             8.230                Norilsk           257.187
       262   02 Jun 2027 21:48:08.921   02 Jun 2027 21:49:25.515            76.594               Magadan2          2393.563
       263   02 Jun 2027 21:50:44.274   02 Jun 2027 21:51:15.021            30.747                Novosib           960.844
       264   02 Jun 2027 21:53:35.544   02 Jun 2027 21:53:45.387             9.843                Irkutsk           307.594
       265   02 Jun 2027 21:54:10.875   02 Jun 2027 21:54:56.633            45.758                Irkutsk          1429.938
       266   02 Jun 2027 21:55:36.171   02 Jun 2027 21:55:39.580             3.409                Irkutsk           106.531
       267   02 Jun 2027 21:56:01.609   02 Jun 2027 21:57:21.689            80.080                Irkutsk          2502.500
       268   02 Jun 2027 22:08:59.049   02 Jun 2027 22:10:06.204            67.155                Sumatra          2098.594
       269   02 Jun 2027 22:10:44.928   02 Jun 2027 22:11:26.829            41.901                Sumatra          1309.406
       270   02 Jun 2027 23:16:31.357   02 Jun 2027 23:16:59.923            28.566                Anadyr2           892.688
       271   02 Jun 2027 23:17:27.172   02 Jun 2027 23:17:59.076            31.904                Anadyr1           997.000
       272   02 Jun 2027 23:18:45.138   02 Jun 2027 23:19:07.097            21.959                Norilsk           686.219
       273   02 Jun 2027 23:19:12.065   02 Jun 2027 23:20:15.619            63.554                Norilsk          1986.062
       274   02 Jun 2027 23:20:41.184   02 Jun 2027 23:21:13.079            31.895               Magadan1           996.719
       275   02 Jun 2027 23:22:22.812   02 Jun 2027 23:22:30.472             7.660               Magadan2           239.375
       276   02 Jun 2027 23:22:37.986   02 Jun 2027 23:22:47.188             9.202                Irkutsk           287.563
       277   02 Jun 2027 23:23:09.308   02 Jun 2027 23:23:30.443            21.135                Irkutsk           660.469
       278   02 Jun 2027 23:24:02.107   02 Jun 2027 23:24:13.850            11.743                Novosib           366.969
       279   02 Jun 2027 23:24:34.874   02 Jun 2027 23:25:36.637            61.763                Irkutsk          1930.094
       280   02 Jun 2027 23:28:16.368   02 Jun 2027 23:28:21.229             4.861                Norilsk           151.906
       281   02 Jun 2027 23:28:32.797   02 Jun 2027 23:28:37.749             4.952                Novosib           154.750
       282   02 Jun 2027 23:29:17.883   02 Jun 2027 23:29:24.414             6.531                Irkutsk           204.094
       283   02 Jun 2027 23:29:34.022   02 Jun 2027 23:30:32.690            58.668                Irkutsk          1833.375
       284   02 Jun 2027 23:31:30.268   02 Jun 2027 23:32:54.843            84.575                Novosib          2642.969
       285   02 Jun 2027 23:37:12.272   02 Jun 2027 23:37:28.430            16.158                  Delhi           504.937
       286   02 Jun 2027 23:37:36.346   02 Jun 2027 23:38:57.570            81.224                  Delhi          2538.250
       287   03 Jun 2027 00:20:10.248   03 Jun 2027 00:20:34.777            24.529            RioGallegos           766.531
       288   03 Jun 2027 00:48:36.150   03 Jun 2027 00:49:01.264            25.114                Anadyr2           784.813
       289   03 Jun 2027 00:50:03.373   03 Jun 2027 00:50:25.439            22.066                Anadyr1           689.563
       290   03 Jun 2027 00:51:09.348   03 Jun 2027 00:51:17.805             8.457                Anadyr1           264.281
       291   03 Jun 2027 00:51:17.805   03 Jun 2027 00:51:22.827             5.022                Anadyr2           156.938
       292   03 Jun 2027 00:51:56.756   03 Jun 2027 00:51:57.627             0.871                Anadyr2            27.219
       293   03 Jun 2027 00:52:17.940   03 Jun 2027 00:52:38.771            20.831                Anadyr2           650.969
       294   03 Jun 2027 00:54:15.133   03 Jun 2027 00:54:32.409            17.276                Anadyr1           539.875
       295   03 Jun 2027 00:54:41.429   03 Jun 2027 00:54:49.075             7.646                Anadyr2           238.937
       296   03 Jun 2027 00:54:56.331   03 Jun 2027 00:57:16.720           140.389               Magadan2          4387.156
       297   03 Jun 2027 00:57:46.590   03 Jun 2027 00:57:51.200             4.610              Murmansk2           144.063
       298   03 Jun 2027 00:57:51.200   03 Jun 2027 00:59:12.966            81.766              Murmansk1          2555.187
       299   03 Jun 2027 01:04:17.986   03 Jun 2027 01:04:43.552            25.566                 Moscow           798.937
       300   03 Jun 2027 01:04:57.677   03 Jun 2027 01:05:19.157            21.480                 Moscow           671.250
       301   03 Jun 2027 01:06:16.852   03 Jun 2027 01:06:17.362             0.510              Murmansk2            15.938
       302   03 Jun 2027 01:06:25.218   03 Jun 2027 01:08:21.290           116.072                 Moscow          3627.250
       303   03 Jun 2027 02:22:04.167   03 Jun 2027 02:24:42.189           158.022                Anadyr1          4938.187
       304   03 Jun 2027 02:24:56.576   03 Jun 2027 02:25:15.197            18.621                Anadyr2           581.906
       305   03 Jun 2027 02:25:16.148   03 Jun 2027 02:25:38.624            22.476                Anadyr1           702.375
       306   03 Jun 2027 02:26:49.148   03 Jun 2027 02:27:41.519            52.371                Anadyr1          1636.594
       307   03 Jun 2027 02:29:25.302   03 Jun 2027 02:29:25.792             0.490               Magadan1            15.312
       308   03 Jun 2027 02:29:41.349   03 Jun 2027 02:29:53.842            12.493               Magadan2           390.406
       309   03 Jun 2027 02:30:07.952   03 Jun 2027 02:30:45.491            37.539               Magadan1          1173.094
       310   03 Jun 2027 02:32:51.827   03 Jun 2027 02:33:30.369            38.542              Murmansk2          1204.438
       311   03 Jun 2027 02:35:16.596   03 Jun 2027 02:35:19.233             2.637              Murmansk1            82.406
       312   03 Jun 2027 02:35:19.233   03 Jun 2027 02:35:44.531            25.298              Murmansk2           790.563
       313   03 Jun 2027 02:37:02.023   03 Jun 2027 02:37:06.776             4.753              Murmansk1           148.531
       314   03 Jun 2027 02:37:33.932   03 Jun 2027 02:38:16.808            42.876                 Moscow          1339.875
       315   03 Jun 2027 02:40:36.341   03 Jun 2027 02:40:37.933             1.592                Novosib            49.750
       316   03 Jun 2027 02:41:23.826   03 Jun 2027 02:41:36.479            12.653                Novosib           395.406
       317   03 Jun 2027 02:42:16.670   03 Jun 2027 02:42:28.394            11.724                Novosib           366.375
       318   03 Jun 2027 02:43:29.520   03 Jun 2027 02:43:54.964            25.444                Novosib           795.125
       319   03 Jun 2027 02:45:44.775   03 Jun 2027 02:45:54.571             9.796                 Moscow           306.125
       320   03 Jun 2027 02:46:34.425   03 Jun 2027 02:46:49.661            15.236                 Moscow           476.125
       321   03 Jun 2027 02:48:02.074   03 Jun 2027 02:48:46.450            44.376                 Moscow          1386.750
       322   03 Jun 2027 03:08:32.988   03 Jun 2027 03:08:35.375             2.387               CapeTown            74.594
       323   03 Jun 2027 03:08:54.524   03 Jun 2027 03:09:46.719            52.195               CapeTown          1631.094
       324   03 Jun 2027 04:03:47.261   03 Jun 2027 04:04:49.449            62.188               Magadan1          1943.375
       325   03 Jun 2027 04:05:51.437   03 Jun 2027 04:06:24.047            32.610                Anadyr2          1019.063
       326   03 Jun 2027 04:15:58.940   03 Jun 2027 04:19:59.374           240.434              Murmansk1          7513.563
       327   03 Jun 2027 04:19:59.374   03 Jun 2027 04:21:47.301           107.927              Murmansk2          3372.719
       328   03 Jun 2027 05:39:31.376   03 Jun 2027 05:40:15.929            44.553               Magadan2          1392.281
       329   03 Jun 2027 05:40:33.094   03 Jun 2027 05:43:08.861           155.767                Anadyr1          4867.719
       330   03 Jun 2027 05:43:08.861   03 Jun 2027 05:45:31.932           143.071                Anadyr2          4470.969
       331   03 Jun 2027 06:25:29.880   03 Jun 2027 06:25:37.959             8.079            RioGallegos           252.469
       332   03 Jun 2027 06:26:27.315   03 Jun 2027 06:26:58.366            31.051            RioGallegos           970.344
       333   03 Jun 2027 06:30:09.834   03 Jun 2027 06:30:10.780             0.946            RioGallegos            29.562
       334   03 Jun 2027 07:15:09.820   03 Jun 2027 07:16:54.661           104.841                Norilsk          3276.281
       335   03 Jun 2027 07:17:08.803   03 Jun 2027 07:17:39.591            30.788                Irkutsk           962.125
       336   03 Jun 2027 07:17:40.506   03 Jun 2027 07:19:22.163           101.657               Magadan1          3176.781
       337   03 Jun 2027 07:19:43.514   03 Jun 2027 07:20:50.792            67.278                Anadyr1          2102.438
       338   03 Jun 2027 07:56:39.863   03 Jun 2027 07:57:28.668            48.805            RioGallegos          1525.156
       339   03 Jun 2027 07:58:41.086   03 Jun 2027 07:59:25.421            44.335            RioGallegos          1385.469
       340   03 Jun 2027 08:51:38.139   03 Jun 2027 08:54:48.739           190.600               Magadan1          5956.250
       341   03 Jun 2027 08:54:58.778   03 Jun 2027 08:55:09.676            10.898              Murmansk1           340.563
       342   03 Jun 2027 08:55:09.720   03 Jun 2027 08:55:28.966            19.246                Novosib           601.437
       343   03 Jun 2027 08:55:29.931   03 Jun 2027 08:55:58.517            28.586               Magadan1           893.313
       344   03 Jun 2027 08:56:09.475   03 Jun 2027 08:56:33.917            24.442                Novosib           763.812
       345   03 Jun 2027 08:56:40.851   03 Jun 2027 08:59:19.610           158.759              Murmansk1          4961.219
       346   03 Jun 2027 08:59:49.855   03 Jun 2027 09:00:35.907            46.052              Murmansk2          1439.125
       347   03 Jun 2027 09:04:42.901   03 Jun 2027 09:04:43.821             0.920              Murmansk1            28.750
       348   03 Jun 2027 09:31:40.256   03 Jun 2027 09:32:37.361            57.105            RioGallegos          1784.531
       349   03 Jun 2027 09:34:44.408   03 Jun 2027 09:35:47.091            62.683            RioGallegos          1958.844
       350   03 Jun 2027 10:06:33.020   03 Jun 2027 10:08:15.349           102.329                Sumatra          3197.781
       351   03 Jun 2027 10:27:22.739   03 Jun 2027 10:27:47.759            25.020                Irkutsk           781.875
       352   03 Jun 2027 10:27:58.619   03 Jun 2027 10:29:04.717            66.098                Irkutsk          2065.563
       353   03 Jun 2027 10:29:12.786   03 Jun 2027 10:29:27.887            15.101                Novosib           471.906
       354   03 Jun 2027 10:29:27.976   03 Jun 2027 10:29:39.998            12.022              Murmansk1           375.688
       355   03 Jun 2027 10:29:56.979   03 Jun 2027 10:30:36.422            39.443              Murmansk2          1232.594
       356   03 Jun 2027 10:30:42.602   03 Jun 2027 10:30:54.934            12.332                Novosib           385.375
       357   03 Jun 2027 10:30:55.369   03 Jun 2027 10:31:37.382            42.013                 Moscow          1312.906
       358   03 Jun 2027 10:31:40.422   03 Jun 2027 10:31:54.702            14.280                Irkutsk           446.250
       359   03 Jun 2027 10:31:56.245   03 Jun 2027 10:32:08.773            12.528                Norilsk           391.500
       360   03 Jun 2027 10:32:12.345   03 Jun 2027 10:32:17.545             5.200              Murmansk1           162.500
       361   03 Jun 2027 10:32:25.368   03 Jun 2027 10:32:29.258             3.890                Novosib           121.563
       362   03 Jun 2027 10:32:34.603   03 Jun 2027 10:33:55.983            81.380                Novosib          2543.125
       363   03 Jun 2027 11:10:54.236   03 Jun 2027 11:11:46.083            51.847            RioGallegos          1620.219
       364   03 Jun 2027 11:13:47.913   03 Jun 2027 11:14:55.623            67.710            RioGallegos          2115.938
       365   03 Jun 2027 11:45:40.341   03 Jun 2027 11:46:37.025            56.684                Sumatra          1771.375
       366   03 Jun 2027 11:53:44.446   03 Jun 2027 11:53:52.895             8.449                  Delhi           264.031
       367   03 Jun 2027 12:05:05.107   03 Jun 2027 12:05:25.954            20.847                Irkutsk           651.469
       368   03 Jun 2027 12:06:47.769   03 Jun 2027 12:07:32.073            44.304                Novosib          1384.500
       369   03 Jun 2027 12:10:50.207   03 Jun 2027 12:12:00.505            70.298                Norilsk          2196.812
       370   03 Jun 2027 13:35:09.126   03 Jun 2027 13:38:56.364           227.238                 Moscow          7101.187
       371   03 Jun 2027 13:39:31.259   03 Jun 2027 13:40:03.264            32.005              Murmansk1          1000.156
       372   03 Jun 2027 13:40:13.647   03 Jun 2027 13:40:19.729             6.082              Murmansk1           190.063
       373   03 Jun 2027 13:40:34.566   03 Jun 2027 13:41:34.348            59.782                Novosib          1868.187
       374   03 Jun 2027 13:41:52.893   03 Jun 2027 13:42:16.086            23.193                Norilsk           724.781
       375   03 Jun 2027 13:43:31.671   03 Jun 2027 13:43:33.833             2.162                Norilsk            67.563
       376   03 Jun 2027 13:43:41.860   03 Jun 2027 13:44:23.026            41.166                Norilsk          1286.438
       377   03 Jun 2027 13:46:43.707   03 Jun 2027 13:46:55.623            11.916                Norilsk           372.375
       378   03 Jun 2027 13:48:07.930   03 Jun 2027 13:49:00.322            52.392                Norilsk          1637.250
       379   03 Jun 2027 14:50:12.413   03 Jun 2027 14:51:39.296            86.883               CapeTown          2715.094
       380   03 Jun 2027 14:54:40.877   03 Jun 2027 14:54:57.118            16.241               CapeTown           507.531
       381   03 Jun 2027 14:55:27.171   03 Jun 2027 14:56:27.788            60.617               CapeTown          1894.281
       382   03 Jun 2027 15:12:38.035   03 Jun 2027 15:13:11.477            33.442                 Moscow          1045.062
       383   03 Jun 2027 15:16:19.156   03 Jun 2027 15:16:42.955            23.799              Murmansk2           743.719
       384   03 Jun 2027 15:18:08.427   03 Jun 2027 15:18:36.195            27.768              Murmansk2           867.750
       385   03 Jun 2027 15:21:41.587   03 Jun 2027 15:21:57.768            16.181              Murmansk2           505.656
       386   03 Jun 2027 15:23:38.973   03 Jun 2027 15:23:59.791            20.818              Murmansk1           650.562
       387   03 Jun 2027 15:25:34.258   03 Jun 2027 15:25:43.109             8.851              Murmansk1           276.594
       388   03 Jun 2027 15:25:43.109   03 Jun 2027 15:25:44.467             1.358              Murmansk2            42.437
       389   03 Jun 2027 15:25:53.193   03 Jun 2027 15:26:42.780            49.587              Murmansk1          1549.594
       390   03 Jun 2027 15:29:44.302   03 Jun 2027 15:30:01.253            16.951                Anadyr1           529.719
       391   03 Jun 2027 15:30:48.953   03 Jun 2027 15:32:19.809            90.856                Anadyr2          2839.250
       392   03 Jun 2027 15:37:39.256   03 Jun 2027 15:37:51.108            11.852                Anadyr1           370.375
       393   03 Jun 2027 15:38:05.381   03 Jun 2027 15:38:13.544             8.163                Anadyr1           255.094
       394   03 Jun 2027 15:38:24.396   03 Jun 2027 15:38:30.306             5.910                Anadyr1           184.687
       395   03 Jun 2027 16:28:20.840   03 Jun 2027 16:28:35.629            14.789               CapeTown           462.156
       396   03 Jun 2027 16:31:07.379   03 Jun 2027 16:33:00.694           113.315               CapeTown          3541.094
       397   03 Jun 2027 16:54:20.669   03 Jun 2027 16:55:27.669            67.000              Murmansk2          2093.750
       398   03 Jun 2027 16:57:56.744   03 Jun 2027 16:58:22.514            25.770              Murmansk1           805.313
       399   03 Jun 2027 17:00:46.624   03 Jun 2027 17:00:57.436            10.812              Murmansk2           337.875
       400   03 Jun 2027 17:05:10.065   03 Jun 2027 17:06:28.233            78.168                Anadyr1          2442.750
       401   03 Jun 2027 17:08:35.560   03 Jun 2027 17:08:50.863            15.303                Anadyr1           478.219
       402   03 Jun 2027 17:08:58.396   03 Jun 2027 17:10:26.259            87.863               Magadan2          2745.719
       403   03 Jun 2027 17:11:26.121   03 Jun 2027 17:11:40.712            14.591               Magadan1           455.969
       404   03 Jun 2027 17:11:46.006   03 Jun 2027 17:11:52.902             6.896               Magadan1           215.500
       405   03 Jun 2027 18:41:03.935   03 Jun 2027 18:44:54.397           230.462                Anadyr1          7201.937
       406   03 Jun 2027 18:45:13.542   03 Jun 2027 18:47:44.016           150.474               Magadan2          4702.313
       407   03 Jun 2027 18:50:12.147   03 Jun 2027 18:50:18.106             5.959               Magadan1           186.219
       408   03 Jun 2027 18:51:03.909   03 Jun 2027 18:51:04.857             0.948               Magadan2            29.625
       409   03 Jun 2027 18:51:57.885   03 Jun 2027 18:51:59.728             1.843               Magadan1            57.594
       410   03 Jun 2027 18:52:38.125   03 Jun 2027 18:53:02.958            24.833               Magadan1           776.031
       411   03 Jun 2027 18:54:22.765   03 Jun 2027 18:55:04.164            41.399               Magadan2          1293.719
       412   03 Jun 2027 20:16:56.675   03 Jun 2027 20:19:02.456           125.781                Anadyr1          3930.656
       413   03 Jun 2027 20:19:03.264   03 Jun 2027 20:21:09.060           125.796                Anadyr2          3931.125
       414   03 Jun 2027 20:21:20.557   03 Jun 2027 20:21:56.034            35.477               Magadan2          1108.656
       415   03 Jun 2027 20:21:56.034   03 Jun 2027 20:22:31.358            35.324               Magadan1          1103.875
       416   03 Jun 2027 20:22:46.473   03 Jun 2027 20:23:18.041            31.568               Magadan2           986.500
       417   03 Jun 2027 20:25:06.340   03 Jun 2027 20:25:22.705            16.365                Norilsk           511.406
       418   03 Jun 2027 20:26:21.540   03 Jun 2027 20:27:30.341            68.801               Magadan1          2150.031
       419   03 Jun 2027 20:27:41.137   03 Jun 2027 20:27:42.385             1.248                Irkutsk            39.000
       420   03 Jun 2027 20:28:32.392   03 Jun 2027 20:30:43.607           131.215                Irkutsk          4100.469
       421   03 Jun 2027 21:19:55.692   03 Jun 2027 21:20:25.662            29.970            RioGallegos           936.563
       422   03 Jun 2027 21:52:25.333   03 Jun 2027 21:52:49.926            24.593                Anadyr1           768.531
       423   03 Jun 2027 21:52:49.926   03 Jun 2027 21:53:21.463            31.537                Anadyr2           985.531
       424   03 Jun 2027 21:53:50.072   03 Jun 2027 21:54:46.965            56.893                Anadyr2          1777.906
       425   03 Jun 2027 21:54:48.247   03 Jun 2027 21:55:42.390            54.143                Norilsk          1691.969
       426   03 Jun 2027 21:55:47.297   03 Jun 2027 21:56:06.862            19.565               Magadan2           611.406
       427   03 Jun 2027 21:56:42.411   03 Jun 2027 21:56:53.150            10.739               Magadan2           335.594
       428   03 Jun 2027 21:56:59.001   03 Jun 2027 21:57:36.425            37.424               Magadan1          1169.500
       429   03 Jun 2027 21:58:50.215   03 Jun 2027 21:59:58.659            68.444                Irkutsk          2138.875
       430   03 Jun 2027 22:01:06.290   03 Jun 2027 22:02:47.370           101.080                Novosib          3158.750
       431   03 Jun 2027 22:12:31.205   03 Jun 2027 22:13:06.070            34.865                Sumatra          1089.531
       432   03 Jun 2027 22:21:16.019   03 Jun 2027 22:21:25.951             9.932                Sumatra           310.375
       433   03 Jun 2027 22:22:20.033   03 Jun 2027 22:22:27.977             7.944                Sumatra           248.250
       434   03 Jun 2027 23:26:53.537   03 Jun 2027 23:28:32.501            98.964                Anadyr1          3092.625
       435   03 Jun 2027 23:29:09.363   03 Jun 2027 23:29:58.690            49.327                Anadyr2          1541.469
       436   03 Jun 2027 23:30:47.224   03 Jun 2027 23:32:19.517            92.293                Norilsk          2884.156
       437   03 Jun 2027 23:32:50.216   03 Jun 2027 23:32:55.641             5.425               Magadan2           169.531
       438   03 Jun 2027 23:34:40.286   03 Jun 2027 23:36:03.181            82.895                Novosib          2590.469
       439   03 Jun 2027 23:37:54.952   03 Jun 2027 23:38:22.653            27.701                Novosib           865.656
       440   03 Jun 2027 23:40:04.736   03 Jun 2027 23:40:14.516             9.780                Novosib           305.625
       441   03 Jun 2027 23:42:10.055   03 Jun 2027 23:44:29.580           139.525                  Delhi          4360.156
       442   03 Jun 2027 23:52:38.321   03 Jun 2027 23:52:46.420             8.099                  Delhi           253.094
       443   04 Jun 2027 00:26:18.557   04 Jun 2027 00:26:48.238            29.681            RioGallegos           927.531
       444   04 Jun 2027 00:29:53.698   04 Jun 2027 00:29:57.810             4.112            RioGallegos           128.500
       445   04 Jun 2027 00:30:39.148   04 Jun 2027 00:30:59.523            20.375            RioGallegos           636.719
       446   04 Jun 2027 01:00:17.190   04 Jun 2027 01:01:02.324            45.134                Anadyr2          1410.438
       447   04 Jun 2027 01:01:39.782   04 Jun 2027 01:02:25.269            45.487                Anadyr1          1421.469
       448   04 Jun 2027 01:02:48.587   04 Jun 2027 01:02:53.032             4.445                Anadyr2           138.906
       449   04 Jun 2027 01:03:04.072   04 Jun 2027 01:03:18.284            14.212                Anadyr2           444.125
       450   04 Jun 2027 01:03:23.244   04 Jun 2027 01:03:40.506            17.262                Anadyr1           539.437
       451   04 Jun 2027 01:06:27.880   04 Jun 2027 01:08:56.549           148.669               Magadan1          4645.906
       452   04 Jun 2027 01:09:02.410   04 Jun 2027 01:11:04.431           122.021              Murmansk2          3813.156
       453   04 Jun 2027 01:16:04.241   04 Jun 2027 01:16:17.633            13.392                 Moscow           418.500
       454   04 Jun 2027 01:17:15.930   04 Jun 2027 01:17:22.294             6.364                 Moscow           198.875
       455   04 Jun 2027 01:17:38.138   04 Jun 2027 01:17:56.944            18.806                 Moscow           587.688
       456   04 Jun 2027 01:21:42.147   04 Jun 2027 01:21:56.210            14.063                 Moscow           439.469
       457   04 Jun 2027 01:25:35.052   04 Jun 2027 01:25:45.560            10.508                  Delhi           328.375
       458   04 Jun 2027 01:28:08.172   04 Jun 2027 01:28:23.287            15.115                  Delhi           472.344
       459   04 Jun 2027 01:41:24.496   04 Jun 2027 01:42:18.167            53.671               CapeTown          1677.219
       460   04 Jun 2027 02:33:51.105   04 Jun 2027 02:34:59.238            68.133                Anadyr1          2129.156
       461   04 Jun 2027 02:35:34.119   04 Jun 2027 02:36:27.306            53.187                Anadyr2          1662.094
       462   04 Jun 2027 02:36:27.306   04 Jun 2027 02:36:57.646            30.340                Anadyr1           948.125
       463   04 Jun 2027 02:38:25.248   04 Jun 2027 02:39:24.454            59.206               Magadan2          1850.187
       464   04 Jun 2027 02:42:13.203   04 Jun 2027 02:42:24.396            11.193               Magadan2           349.781
       465   04 Jun 2027 02:42:28.462   04 Jun 2027 02:42:35.146             6.684                Norilsk           208.875
       466   04 Jun 2027 02:44:53.529   04 Jun 2027 02:45:43.306            49.777              Murmansk1          1555.531
       467   04 Jun 2027 02:46:19.647   04 Jun 2027 02:46:55.830            36.183              Murmansk1          1130.719
       468   04 Jun 2027 02:47:06.957   04 Jun 2027 02:48:37.149            90.192                Novosib          2818.500
       469   04 Jun 2027 02:56:44.081   04 Jun 2027 02:57:24.073            39.992                 Moscow          1249.750
       470   04 Jun 2027 03:15:09.916   04 Jun 2027 03:15:17.546             7.630               CapeTown           238.438
       471   04 Jun 2027 04:15:30.089   04 Jun 2027 04:16:47.553            77.464               Magadan2          2420.750
       472   04 Jun 2027 04:16:48.968   04 Jun 2027 04:18:00.030            71.062               Magadan1          2220.688
       473   04 Jun 2027 04:27:34.675   04 Jun 2027 04:28:18.941            44.266                Norilsk          1383.313
       474   04 Jun 2027 04:28:27.717   04 Jun 2027 04:28:40.446            12.729                Norilsk           397.781
       475   04 Jun 2027 04:28:43.943   04 Jun 2027 04:28:51.858             7.915              Murmansk1           247.344
       476   04 Jun 2027 04:30:00.912   04 Jun 2027 04:30:27.375            26.463              Murmansk1           826.969
       477   04 Jun 2027 05:50:17.873   04 Jun 2027 05:51:08.618            50.745                Anadyr1          1585.781
       478   04 Jun 2027 05:51:15.143   04 Jun 2027 05:51:32.976            17.833               Magadan1           557.281
       479   04 Jun 2027 05:51:40.339   04 Jun 2027 05:53:28.295           107.956               Magadan2          3373.625
       480   04 Jun 2027 05:53:31.949   04 Jun 2027 05:56:40.146           188.197               Magadan2          5881.156
       481   04 Jun 2027 07:26:16.498   04 Jun 2027 07:31:42.640           326.142                Anadyr1         10191.937
       482   04 Jun 2027 07:31:42.640   04 Jun 2027 07:31:56.405            13.765                Anadyr2           430.156
