uniorb/output/strategy_1/Drop/Drop_KinoSat_111605.txt

KinoSat_111605
-------------------------
    Access    *     Start Time (UTCG)     *     Stop Time (UTCG)  *   Duration (s)        *       Station  *  Data (Mbytes)
         1   01 Jun 2027 03:16:04.417   01 Jun 2027 03:16:13.615             9.198                Norilsk           287.438
         2   01 Jun 2027 03:16:23.561   01 Jun 2027 03:19:04.748           161.187              Murmansk2          5037.094
         3   01 Jun 2027 03:19:08.447   01 Jun 2027 03:19:50.787            42.340                Novosib          1323.125
         4   01 Jun 2027 03:19:56.090   01 Jun 2027 03:20:38.112            42.022                Norilsk          1313.187
         5   01 Jun 2027 03:21:08.849   01 Jun 2027 03:24:11.223           182.374                  Delhi          5699.188
         6   01 Jun 2027 04:54:11.507   01 Jun 2027 04:54:20.563             9.056              Murmansk1           283.000
         7   01 Jun 2027 04:54:22.449   01 Jun 2027 04:54:30.903             8.454                Norilsk           264.187
         8   01 Jun 2027 04:54:34.886   01 Jun 2027 04:54:56.023            21.137                Novosib           660.531
         9   01 Jun 2027 04:55:02.198   01 Jun 2027 04:55:32.250            30.052              Murmansk1           939.125
        10   01 Jun 2027 04:55:44.599   01 Jun 2027 04:57:20.278            95.679              Murmansk2          2989.969
        11   01 Jun 2027 04:57:28.891   01 Jun 2027 04:58:03.210            34.319              Murmansk1          1072.469
        12   01 Jun 2027 05:13:34.234   01 Jun 2027 05:16:17.308           163.074               CapeTown          5096.063
        13   01 Jun 2027 06:17:23.410   01 Jun 2027 06:18:24.744            61.334                Anadyr2          1916.688
        14   01 Jun 2027 06:18:40.806   01 Jun 2027 06:20:44.539           123.733               Magadan1          3866.656
        15   01 Jun 2027 06:20:44.539   01 Jun 2027 06:21:18.826            34.287               Magadan2          1071.469
        16   01 Jun 2027 06:22:36.700   01 Jun 2027 06:22:48.587            11.887               Magadan2           371.469
        17   01 Jun 2027 07:54:37.646   01 Jun 2027 07:54:57.863            20.217                Norilsk           631.781
        18   01 Jun 2027 07:55:05.014   01 Jun 2027 07:57:52.808           167.794               Magadan2          5243.562
        19   01 Jun 2027 07:58:09.942   01 Jun 2027 07:58:54.564            44.622              Murmansk1          1394.438
        20   01 Jun 2027 09:26:39.292   01 Jun 2027 09:27:11.738            32.446                Irkutsk          1013.937
        21   01 Jun 2027 09:27:36.622   01 Jun 2027 09:28:24.781            48.159               Magadan1          1504.969
        22   01 Jun 2027 09:28:52.152   01 Jun 2027 09:33:08.933           256.781                Anadyr1          8024.406
        23   01 Jun 2027 09:33:27.159   01 Jun 2027 09:33:34.295             7.136                Novosib           223.000
        24   01 Jun 2027 09:33:50.726   01 Jun 2027 09:34:31.888            41.162               Magadan2          1286.313
        25   01 Jun 2027 10:09:31.187   01 Jun 2027 10:10:25.566            54.379            RioGallegos          1699.344
        26   01 Jun 2027 10:46:15.792   01 Jun 2027 10:48:06.844           111.052                Sumatra          3470.375
        27   01 Jun 2027 11:05:25.908   01 Jun 2027 11:07:31.222           125.314               Magadan2          3916.063
        28   01 Jun 2027 11:08:21.722   01 Jun 2027 11:10:34.361           132.639                Irkutsk          4144.969
        29   01 Jun 2027 11:10:34.992   01 Jun 2027 11:12:39.477           124.485              Murmansk1          3890.156
        30   01 Jun 2027 11:13:04.607   01 Jun 2027 11:13:24.964            20.357              Murmansk1           636.156
        31   01 Jun 2027 11:14:26.988   01 Jun 2027 11:14:37.971            10.983              Murmansk1           343.219
        32   01 Jun 2027 11:15:47.198   01 Jun 2027 11:16:03.929            16.731              Murmansk1           522.844
        33   01 Jun 2027 11:17:27.892   01 Jun 2027 11:17:37.067             9.175              Murmansk1           286.719
        34   01 Jun 2027 11:45:49.783   01 Jun 2027 11:48:15.424           145.641            RioGallegos          4551.281
        35   01 Jun 2027 11:49:20.383   01 Jun 2027 11:50:29.117            68.734            RioGallegos          2147.938
        36   01 Jun 2027 12:22:19.613   01 Jun 2027 12:24:34.946           135.333                Sumatra          4229.156
        37   01 Jun 2027 12:35:02.214   01 Jun 2027 12:36:28.007            85.793                Irkutsk          2681.031
        38   01 Jun 2027 12:37:27.817   01 Jun 2027 12:37:58.707            30.890                Novosib           965.312
        39   01 Jun 2027 12:38:52.797   01 Jun 2027 12:39:39.535            46.738                Norilsk          1460.562
        40   01 Jun 2027 12:41:36.706   01 Jun 2027 12:41:54.232            17.526                Norilsk           547.688
        41   01 Jun 2027 12:42:27.653   01 Jun 2027 12:42:46.432            18.779              Murmansk2           586.844
        42   01 Jun 2027 14:04:51.323   01 Jun 2027 14:05:31.388            40.065                  Delhi          1252.031
        43   01 Jun 2027 14:06:18.537   01 Jun 2027 14:07:05.327            46.790                  Delhi          1462.188
        44   01 Jun 2027 14:09:30.528   01 Jun 2027 14:09:50.029            19.501                  Delhi           609.406
        45   01 Jun 2027 14:13:02.331   01 Jun 2027 14:18:08.861           306.530                Novosib          9579.062
        46   01 Jun 2027 14:18:55.567   01 Jun 2027 14:19:54.481            58.914                Norilsk          1841.062
        47   01 Jun 2027 14:21:36.733   01 Jun 2027 14:21:44.210             7.477                Norilsk           233.656
        48   01 Jun 2027 15:48:42.429   01 Jun 2027 15:51:50.188           187.759                 Moscow          5867.469
        49   01 Jun 2027 15:52:13.418   01 Jun 2027 15:53:38.404            84.986              Murmansk1          2655.812
        50   01 Jun 2027 15:54:08.668   01 Jun 2027 15:54:57.383            48.715              Murmansk1          1522.344
        51   01 Jun 2027 15:57:35.301   01 Jun 2027 16:02:10.712           275.411                Norilsk          8606.594
        52   01 Jun 2027 17:27:01.131   01 Jun 2027 17:28:42.829           101.698                 Moscow          3178.062
        53   01 Jun 2027 17:29:45.572   01 Jun 2027 17:31:58.170           132.598              Murmansk2          4143.687
        54   01 Jun 2027 17:33:28.322   01 Jun 2027 17:34:06.827            38.505              Murmansk2          1203.281
        55   01 Jun 2027 17:43:58.236   01 Jun 2027 17:44:24.477            26.241                Anadyr2           820.031
        56   01 Jun 2027 18:38:25.345   01 Jun 2027 18:40:08.330           102.985               CapeTown          3218.281
        57   01 Jun 2027 18:40:43.961   01 Jun 2027 18:42:29.126           105.165               CapeTown          3286.406
        58   01 Jun 2027 19:09:47.919   01 Jun 2027 19:14:32.603           284.684              Murmansk2          8896.375
        59   01 Jun 2027 19:21:39.773   01 Jun 2027 19:21:58.187            18.414               Magadan1           575.437
        60   01 Jun 2027 19:22:08.622   01 Jun 2027 19:22:48.127            39.505               Magadan1          1234.531
        61   01 Jun 2027 20:54:39.531   01 Jun 2027 20:56:13.743            94.212                Anadyr1          2944.125
        62   01 Jun 2027 20:56:28.422   01 Jun 2027 20:57:45.565            77.143                Anadyr2          2410.719
        63   01 Jun 2027 20:58:06.854   01 Jun 2027 20:59:14.579            67.725               Magadan1          2116.406
        64   01 Jun 2027 21:00:24.489   01 Jun 2027 21:00:39.815            15.326               Magadan2           478.938
        65   01 Jun 2027 21:00:45.310   01 Jun 2027 21:01:05.300            19.990               Magadan1           624.687
        66   01 Jun 2027 21:01:27.922   01 Jun 2027 21:01:43.639            15.717               Magadan1           491.156
        67   01 Jun 2027 21:02:07.149   01 Jun 2027 21:02:25.295            18.146               Magadan1           567.063
        68   01 Jun 2027 21:03:55.303   01 Jun 2027 21:03:58.507             3.204               Magadan1           100.125
        69   01 Jun 2027 21:04:04.611   01 Jun 2027 21:04:16.703            12.092               Magadan1           377.875
        70   01 Jun 2027 21:05:04.351   01 Jun 2027 21:05:08.043             3.692               Magadan2           115.375
        71   01 Jun 2027 21:05:15.956   01 Jun 2027 21:05:34.196            18.240               Magadan2           570.000
        72   01 Jun 2027 21:07:51.456   01 Jun 2027 21:08:21.959            30.503               Magadan2           953.219
        73   01 Jun 2027 21:50:16.729   01 Jun 2027 21:53:04.845           168.116            RioGallegos          5253.625
        74   01 Jun 2027 22:30:27.253   01 Jun 2027 22:32:44.686           137.433                Anadyr1          4294.781
        75   01 Jun 2027 22:32:54.040   01 Jun 2027 22:34:17.056            83.016               Magadan2          2594.250
        76   01 Jun 2027 22:34:59.272   01 Jun 2027 22:35:36.712            37.440               Magadan2          1170.000
        77   01 Jun 2027 22:35:36.712   01 Jun 2027 22:35:44.522             7.810               Magadan1           244.062
        78   01 Jun 2027 22:35:56.925   01 Jun 2027 22:36:07.040            10.115                Norilsk           316.094
        79   01 Jun 2027 22:36:27.437   01 Jun 2027 22:36:43.789            16.352               Magadan2           511.000
        80   01 Jun 2027 22:37:17.540   01 Jun 2027 22:38:04.301            46.761                Irkutsk          1461.281
        81   01 Jun 2027 22:39:56.665   01 Jun 2027 22:40:32.505            35.840                Irkutsk          1120.000
        82   01 Jun 2027 22:51:53.148   01 Jun 2027 22:53:30.610            97.462                Sumatra          3045.687
        83   01 Jun 2027 22:56:34.336   01 Jun 2027 22:57:41.777            67.441                Sumatra          2107.531
        84   02 Jun 2027 00:05:38.853   02 Jun 2027 00:08:07.626           148.773                Anadyr1          4649.156
        85   02 Jun 2027 00:09:01.553   02 Jun 2027 00:10:04.717            63.164               Magadan2          1973.875
        86   02 Jun 2027 00:10:07.500   02 Jun 2027 00:10:42.421            34.921               Magadan1          1091.281
        87   02 Jun 2027 00:11:19.438   02 Jun 2027 00:11:23.619             4.181               Magadan2           130.656
        88   02 Jun 2027 00:12:17.053   02 Jun 2027 00:13:10.203            53.150                Irkutsk          1660.937
        89   02 Jun 2027 00:13:17.846   02 Jun 2027 00:15:31.791           133.945                Irkutsk          4185.781
        90   02 Jun 2027 00:22:03.494   02 Jun 2027 00:23:54.837           111.343                  Delhi          3479.469
        91   02 Jun 2027 01:00:26.659   02 Jun 2027 01:00:57.294            30.635            RioGallegos           957.344
        92   02 Jun 2027 01:11:55.055   02 Jun 2027 01:12:08.027            12.972            RioGallegos           405.375
        93   02 Jun 2027 01:39:38.931   02 Jun 2027 01:40:16.050            37.119                Anadyr1          1159.969
        94   02 Jun 2027 01:40:16.050   02 Jun 2027 01:40:48.746            32.696                Anadyr2          1021.750
        95   02 Jun 2027 01:41:26.001   02 Jun 2027 01:41:40.058            14.057                Anadyr1           439.281
        96   02 Jun 2027 01:41:40.058   02 Jun 2027 01:41:51.001            10.943                Anadyr2           341.969
        97   02 Jun 2027 01:42:19.233   02 Jun 2027 01:42:37.711            18.478                Anadyr1           577.438
        98   02 Jun 2027 01:44:24.047   02 Jun 2027 01:46:20.407           116.360                Norilsk          3636.250
        99   02 Jun 2027 01:47:07.730   02 Jun 2027 01:48:43.806            96.076              Murmansk2          3002.375
       100   02 Jun 2027 01:49:05.499   02 Jun 2027 01:51:29.062           143.563                Novosib          4486.344
       101   02 Jun 2027 02:37:42.713   02 Jun 2027 02:40:12.058           149.345            RioGallegos          4667.031
       102   02 Jun 2027 02:41:37.167   02 Jun 2027 02:41:52.511            15.344            RioGallegos           479.500
       103   02 Jun 2027 02:42:47.520   02 Jun 2027 02:43:04.885            17.365            RioGallegos           542.656
       104   02 Jun 2027 03:27:57.122   02 Jun 2027 03:28:15.404            18.282                Novosib           571.313
       105   02 Jun 2027 03:28:23.628   02 Jun 2027 03:28:44.796            21.168              Murmansk1           661.500
       106   02 Jun 2027 03:28:55.372   02 Jun 2027 03:30:30.534            95.162              Murmansk1          2973.813
       107   02 Jun 2027 03:30:40.868   02 Jun 2027 03:31:13.597            32.729                 Moscow          1022.781
       108   02 Jun 2027 03:31:14.565   02 Jun 2027 03:32:13.646            59.081                Novosib          1846.281
       109   02 Jun 2027 03:32:19.409   02 Jun 2027 03:32:20.969             1.560                 Moscow            48.750
       110   02 Jun 2027 03:32:29.828   02 Jun 2027 03:35:31.479           181.651                Novosib          5676.594
       111   02 Jun 2027 03:35:52.058   02 Jun 2027 03:38:20.998           148.940                  Delhi          4654.375
       112   02 Jun 2027 05:05:42.586   02 Jun 2027 05:07:06.591            84.005              Murmansk2          2625.156
       113   02 Jun 2027 05:07:14.671   02 Jun 2027 05:08:03.415            48.744              Murmansk2          1523.250
       114   02 Jun 2027 05:08:09.655   02 Jun 2027 05:10:10.308           120.653              Murmansk1          3770.406
       115   02 Jun 2027 05:26:04.570   02 Jun 2027 05:26:48.736            44.166               CapeTown          1380.188
       116   02 Jun 2027 05:32:16.989   02 Jun 2027 05:34:18.870           121.881               CapeTown          3808.781
       117   02 Jun 2027 06:29:24.595   02 Jun 2027 06:32:04.974           160.379                Anadyr2          5011.844
       118   02 Jun 2027 06:32:04.974   02 Jun 2027 06:33:25.578            80.604                Anadyr1          2518.875
       119   02 Jun 2027 06:34:36.912   02 Jun 2027 06:34:51.662            14.750               Magadan1           460.937
       120   02 Jun 2027 06:35:10.002   02 Jun 2027 06:35:16.035             6.033                Anadyr2           188.531
       121   02 Jun 2027 08:06:17.858   02 Jun 2027 08:06:22.885             5.027               Magadan1           157.094
       122   02 Jun 2027 08:06:22.885   02 Jun 2027 08:07:07.253            44.368               Magadan2          1386.500
       123   02 Jun 2027 08:07:21.009   02 Jun 2027 08:10:20.251           179.242                Anadyr2          5601.313
       124   02 Jun 2027 08:10:45.924   02 Jun 2027 08:11:00.112            14.188                Anadyr1           443.375
       125   02 Jun 2027 08:14:57.404   02 Jun 2027 08:15:35.242            37.838                 Moscow          1182.438
       126   02 Jun 2027 09:39:12.111   02 Jun 2027 09:40:24.061            71.950               Magadan1          2248.438
       127   02 Jun 2027 09:41:33.605   02 Jun 2027 09:42:16.209            42.604                Irkutsk          1331.375
       128   02 Jun 2027 09:42:25.205   02 Jun 2027 09:44:42.641           137.436                Anadyr2          4294.875
       129   02 Jun 2027 09:44:44.038   02 Jun 2027 09:45:52.781            68.743                Irkutsk          2148.219
       130   02 Jun 2027 09:46:25.193   02 Jun 2027 09:46:48.089            22.896              Murmansk1           715.500
       131   02 Jun 2027 09:46:48.089   02 Jun 2027 09:47:14.146            26.057              Murmansk2           814.281
       132   02 Jun 2027 09:47:47.600   02 Jun 2027 09:47:52.926             5.326              Murmansk1           166.438
       133   02 Jun 2027 09:48:44.348   02 Jun 2027 09:49:08.783            24.435              Murmansk1           763.594
       134   02 Jun 2027 10:21:23.866   02 Jun 2027 10:23:05.408           101.542            RioGallegos          3173.188
       135   02 Jun 2027 11:17:29.011   02 Jun 2027 11:21:36.098           247.087                Irkutsk          7721.469
       136   02 Jun 2027 11:21:46.941   02 Jun 2027 11:22:14.661            27.720              Murmansk2           866.250
       137   02 Jun 2027 11:22:24.453   02 Jun 2027 11:22:35.739            11.286                Irkutsk           352.687
       138   02 Jun 2027 11:22:36.560   02 Jun 2027 11:24:13.024            96.464              Murmansk2          3014.500
       139   02 Jun 2027 11:25:22.821   02 Jun 2027 11:25:51.210            28.389              Murmansk2           887.156
       140   02 Jun 2027 11:58:11.510   02 Jun 2027 11:58:19.051             7.541            RioGallegos           235.656
       141   02 Jun 2027 11:59:39.816   02 Jun 2027 12:00:10.344            30.528            RioGallegos           954.000
       142   02 Jun 2027 12:02:29.521   02 Jun 2027 12:03:03.826            34.305            RioGallegos          1072.031
       143   02 Jun 2027 12:32:28.899   02 Jun 2027 12:34:11.622           102.723                Sumatra          3210.094
       144   02 Jun 2027 12:40:59.858   02 Jun 2027 12:42:20.663            80.805                Sumatra          2525.156
       145   02 Jun 2027 12:47:13.003   02 Jun 2027 12:48:12.021            59.018                Novosib          1844.312
       146   02 Jun 2027 12:48:44.843   02 Jun 2027 12:50:14.599            89.756                Novosib          2804.875
       147   02 Jun 2027 12:51:03.902   02 Jun 2027 12:51:33.061            29.159                Norilsk           911.219
       148   02 Jun 2027 12:53:36.495   02 Jun 2027 12:53:56.537            20.042                Norilsk           626.312
       149   02 Jun 2027 12:56:39.834   02 Jun 2027 12:57:44.048            64.214                Irkutsk          2006.687
       150   02 Jun 2027 14:17:18.251   02 Jun 2027 14:19:39.357           141.106                  Delhi          4409.562
       151   02 Jun 2027 14:22:08.726   02 Jun 2027 14:22:31.921            23.195                  Delhi           724.844
       152   02 Jun 2027 14:25:38.767   02 Jun 2027 14:28:45.514           186.747                Novosib          5835.844
       153   02 Jun 2027 14:29:23.401   02 Jun 2027 14:30:23.853            60.452                Norilsk          1889.125
       154   02 Jun 2027 14:33:36.805   02 Jun 2027 14:34:17.151            40.346                Norilsk          1260.812
       155   02 Jun 2027 16:00:49.172   02 Jun 2027 16:04:20.996           211.824                 Moscow          6619.500
       156   02 Jun 2027 16:05:11.097   02 Jun 2027 16:06:54.478           103.381              Murmansk2          3230.656
       157   02 Jun 2027 16:07:10.413   02 Jun 2027 16:07:31.040            20.627              Murmansk1           644.594
       158   02 Jun 2027 16:10:33.911   02 Jun 2027 16:14:37.763           243.852                Norilsk          7620.375
       159   02 Jun 2027 17:14:28.718   02 Jun 2027 17:14:50.999            22.281               CapeTown           696.281
       160   02 Jun 2027 17:39:43.033   02 Jun 2027 17:40:33.617            50.584                 Moscow          1580.750
       161   02 Jun 2027 17:41:43.483   02 Jun 2027 17:43:46.049           122.566                 Moscow          3830.187
       162   02 Jun 2027 17:45:30.381   02 Jun 2027 17:47:01.849            91.468              Murmansk2          2858.375
       163   02 Jun 2027 17:55:52.825   02 Jun 2027 17:56:01.651             8.826                Anadyr1           275.813
       164   02 Jun 2027 17:56:14.661   02 Jun 2027 17:56:28.589            13.928                Anadyr1           435.250
       165   02 Jun 2027 18:50:39.624   02 Jun 2027 18:52:10.502            90.878               CapeTown          2839.937
       166   02 Jun 2027 18:54:17.498   02 Jun 2027 18:55:13.144            55.646               CapeTown          1738.937
       167   02 Jun 2027 19:22:37.708   02 Jun 2027 19:27:14.529           276.821              Murmansk2          8650.656
       168   02 Jun 2027 19:27:16.558   02 Jun 2027 19:28:23.073            66.515              Murmansk1          2078.594
       169   02 Jun 2027 19:33:31.419   02 Jun 2027 19:34:24.321            52.902               Magadan2          1653.188
       170   02 Jun 2027 19:36:26.277   02 Jun 2027 19:36:34.799             8.522               Magadan1           266.313
       171   02 Jun 2027 21:06:41.000   02 Jun 2027 21:11:53.690           312.690                Anadyr1          9771.563
       172   02 Jun 2027 21:12:07.921   02 Jun 2027 21:14:48.782           160.861               Magadan1          5026.906
       173   02 Jun 2027 22:01:48.545   02 Jun 2027 22:04:51.573           183.028            RioGallegos          5719.625
       174   02 Jun 2027 22:08:13.731   02 Jun 2027 22:08:29.998            16.267            RioGallegos           508.344
       175   02 Jun 2027 22:42:26.034   02 Jun 2027 22:44:00.064            94.030                Anadyr1          2938.438
       176   02 Jun 2027 22:44:10.433   02 Jun 2027 22:44:40.582            30.149                Anadyr2           942.156
       177   02 Jun 2027 22:44:56.877   02 Jun 2027 22:47:14.045           137.168               Magadan1          4286.500
       178   02 Jun 2027 22:47:22.290   02 Jun 2027 22:47:34.112            11.822               Magadan2           369.438
       179   02 Jun 2027 22:48:07.469   02 Jun 2027 22:48:09.017             1.548                Norilsk            48.375
       180   02 Jun 2027 22:48:18.975   02 Jun 2027 22:48:43.631            24.656               Magadan1           770.500
       181   02 Jun 2027 22:49:04.034   02 Jun 2027 22:50:03.230            59.196                Irkutsk          1849.875
       182   02 Jun 2027 23:03:17.766   02 Jun 2027 23:06:11.557           173.791                Sumatra          5430.969
       183   03 Jun 2027 00:17:30.246   03 Jun 2027 00:19:20.802           110.556                Anadyr1          3454.875
       184   03 Jun 2027 00:19:51.792   03 Jun 2027 00:20:15.908            24.116                Anadyr2           753.625
       185   03 Jun 2027 00:20:25.315   03 Jun 2027 00:22:25.401           120.086                Norilsk          3752.687
       186   03 Jun 2027 00:23:19.905   03 Jun 2027 00:23:58.455            38.550               Magadan1          1204.688
       187   03 Jun 2027 00:24:17.909   03 Jun 2027 00:25:57.968           100.059                Irkutsk          3126.844
       188   03 Jun 2027 00:26:19.834   03 Jun 2027 00:26:45.264            25.430                Novosib           794.687
       189   03 Jun 2027 00:27:07.230   03 Jun 2027 00:27:26.505            19.275                Novosib           602.344
       190   03 Jun 2027 00:30:06.375   03 Jun 2027 00:30:33.958            27.583                Novosib           861.969
       191   03 Jun 2027 00:33:18.149   03 Jun 2027 00:35:30.210           132.061                  Delhi          4126.906
       192   03 Jun 2027 00:46:55.896   03 Jun 2027 00:48:34.504            98.608                Sumatra          3081.500
       193   03 Jun 2027 01:20:04.252   03 Jun 2027 01:20:05.510             1.258            RioGallegos            39.313
       194   03 Jun 2027 01:22:00.176   03 Jun 2027 01:22:12.902            12.726            RioGallegos           397.687
       195   03 Jun 2027 01:23:34.063   03 Jun 2027 01:23:58.613            24.550            RioGallegos           767.188
       196   03 Jun 2027 01:51:21.155   03 Jun 2027 01:51:58.830            37.675                Anadyr2          1177.344
       197   03 Jun 2027 01:52:28.122   03 Jun 2027 01:52:48.566            20.444                Anadyr1           638.875
       198   03 Jun 2027 01:53:31.632   03 Jun 2027 01:53:37.136             5.504                Anadyr1           172.000
       199   03 Jun 2027 01:54:13.201   03 Jun 2027 01:54:18.656             5.455                Anadyr1           170.469
       200   03 Jun 2027 01:55:28.192   03 Jun 2027 01:56:09.977            41.785                Anadyr2          1305.781
       201   03 Jun 2027 01:56:26.099   03 Jun 2027 01:57:52.187            86.088                Norilsk          2690.250
       202   03 Jun 2027 01:59:00.010   03 Jun 2027 02:00:18.846            78.836              Murmansk1          2463.625
       203   03 Jun 2027 02:00:36.856   03 Jun 2027 02:01:39.805            62.949                Irkutsk          1967.156
       204   03 Jun 2027 02:05:20.941   03 Jun 2027 02:05:37.947            17.006                Novosib           531.437
       205   03 Jun 2027 02:07:34.405   03 Jun 2027 02:09:37.208           122.803                  Delhi          3837.594
       206   03 Jun 2027 02:50:11.707   03 Jun 2027 02:53:12.002           180.295            RioGallegos          5634.219
       207   03 Jun 2027 02:53:23.551   03 Jun 2027 02:54:23.093            59.542            RioGallegos          1860.688
       208   03 Jun 2027 03:40:21.349   03 Jun 2027 03:41:33.190            71.841                 Moscow          2245.031
       209   03 Jun 2027 03:41:53.299   03 Jun 2027 03:43:26.460            93.161                Norilsk          2911.281
       210   03 Jun 2027 03:43:29.495   03 Jun 2027 03:43:33.428             3.933                Norilsk           122.906
       211   03 Jun 2027 03:43:59.157   03 Jun 2027 03:44:46.844            47.687                Norilsk          1490.219
       212   03 Jun 2027 03:44:51.938   03 Jun 2027 03:46:00.205            68.267              Murmansk1          2133.344
       213   03 Jun 2027 03:47:03.229   03 Jun 2027 03:47:05.896             2.667                Novosib            83.344
       214   03 Jun 2027 03:47:38.292   03 Jun 2027 03:49:44.495           126.203                 Moscow          3943.844
       215   03 Jun 2027 04:03:16.823   03 Jun 2027 04:04:02.428            45.605               CapeTown          1425.156
       216   03 Jun 2027 04:04:57.458   03 Jun 2027 04:06:00.940            63.482               CapeTown          1983.812
       217   03 Jun 2027 05:18:23.863   03 Jun 2027 05:19:31.265            67.402                 Moscow          2106.313
       218   03 Jun 2027 05:19:58.280   03 Jun 2027 05:21:46.899           108.619              Murmansk2          3394.344
       219   03 Jun 2027 05:24:17.228   03 Jun 2027 05:25:15.673            58.445                 Moscow          1826.406
       220   03 Jun 2027 06:41:25.534   03 Jun 2027 06:44:14.103           168.569                Anadyr1          5267.781
       221   03 Jun 2027 08:18:35.705   03 Jun 2027 08:21:22.973           167.268                Anadyr2          5227.125
       222   03 Jun 2027 08:21:22.973   03 Jun 2027 08:22:40.325            77.352                Anadyr1          2417.250
       223   03 Jun 2027 09:53:04.938   03 Jun 2027 09:56:59.217           234.279               Magadan1          7321.219
       224   03 Jun 2027 09:56:59.217   03 Jun 2027 09:58:21.723            82.506               Magadan2          2578.312
       225   03 Jun 2027 11:29:25.323   03 Jun 2027 11:30:51.571            86.248                Irkutsk          2695.250
       226   03 Jun 2027 11:31:13.644   03 Jun 2027 11:31:40.539            26.895                Norilsk           840.469
       227   03 Jun 2027 11:31:43.340   03 Jun 2027 11:32:22.753            39.413              Murmansk2          1231.656
       228   03 Jun 2027 11:32:29.527   03 Jun 2027 11:32:58.456            28.929                Norilsk           904.031
       229   03 Jun 2027 11:33:16.956   03 Jun 2027 11:33:21.403             4.447                Novosib           138.969
       230   03 Jun 2027 11:33:22.908   03 Jun 2027 11:33:46.368            23.460                Novosib           733.125
       231   03 Jun 2027 11:33:48.069   03 Jun 2027 11:34:22.850            34.781              Murmansk1          1086.906
       232   03 Jun 2027 11:34:27.424   03 Jun 2027 11:34:55.949            28.525              Murmansk1           891.406
       233   03 Jun 2027 11:35:20.099   03 Jun 2027 11:35:22.313             2.214              Murmansk1            69.188
       234   03 Jun 2027 11:35:29.403   03 Jun 2027 11:35:48.567            19.164                Norilsk           598.875
       235   03 Jun 2027 12:10:38.264   03 Jun 2027 12:11:18.986            40.722            RioGallegos          1272.562
       236   03 Jun 2027 12:13:07.352   03 Jun 2027 12:14:28.829            81.477            RioGallegos          2546.156
       237   03 Jun 2027 12:44:51.783   03 Jun 2027 12:45:10.008            18.225                Sumatra           569.531
       238   03 Jun 2027 12:46:30.386   03 Jun 2027 12:48:48.231           137.845                Sumatra          4307.656
       239   03 Jun 2027 13:00:13.051   03 Jun 2027 13:00:22.903             9.852                Irkutsk           307.875
       240   03 Jun 2027 13:00:36.202   03 Jun 2027 13:02:28.703           112.501                Novosib          3515.656
       241   03 Jun 2027 13:04:05.326   03 Jun 2027 13:05:35.552            90.226                Norilsk          2819.562
       242   03 Jun 2027 14:29:54.701   03 Jun 2027 14:32:30.239           155.538                  Delhi          4860.563
       243   03 Jun 2027 14:33:29.159   03 Jun 2027 14:34:54.523            85.364                  Delhi          2667.625
       244   03 Jun 2027 14:38:22.325   03 Jun 2027 14:39:04.797            42.472                Novosib          1327.250
       245   03 Jun 2027 14:40:12.051   03 Jun 2027 14:42:15.634           123.583                Novosib          3861.969
       246   03 Jun 2027 14:50:57.643   03 Jun 2027 14:51:30.484            32.841                Norilsk          1026.281
       247   03 Jun 2027 16:12:59.102   03 Jun 2027 16:14:45.957           106.855                 Moscow          3339.219
       248   03 Jun 2027 16:16:29.624   03 Jun 2027 16:17:18.484            48.860              Murmansk1          1526.875
       249   03 Jun 2027 16:17:27.841   03 Jun 2027 16:19:09.782           101.941              Murmansk2          3185.656
       250   03 Jun 2027 16:23:18.662   03 Jun 2027 16:23:21.897             3.235              Murmansk1           101.094
       251   03 Jun 2027 16:23:50.485   03 Jun 2027 16:25:34.719           104.234                Norilsk          3257.313
       252   03 Jun 2027 16:32:08.897   03 Jun 2027 16:32:47.896            38.999                Anadyr2          1218.719
       253   03 Jun 2027 16:37:30.172   03 Jun 2027 16:37:52.308            22.136                Anadyr1           691.750
       254   03 Jun 2027 17:26:21.796   03 Jun 2027 17:27:49.645            87.849               CapeTown          2745.281
       255   03 Jun 2027 17:33:04.427   03 Jun 2027 17:33:42.642            38.215               CapeTown          1194.219
       256   03 Jun 2027 17:52:33.835   03 Jun 2027 17:53:38.696            64.861                 Moscow          2026.906
       257   03 Jun 2027 17:54:34.024   03 Jun 2027 17:55:29.301            55.277              Murmansk1          1727.406
       258   03 Jun 2027 17:55:46.166   03 Jun 2027 17:57:02.634            76.468                 Moscow          2389.625
       259   03 Jun 2027 17:59:19.592   03 Jun 2027 17:59:47.517            27.925              Murmansk2           872.656
       260   03 Jun 2027 18:02:46.433   03 Jun 2027 18:05:03.805           137.372              Murmansk2          4292.875
       261   03 Jun 2027 19:02:58.319   03 Jun 2027 19:03:33.084            34.765               CapeTown          1086.406
       262   03 Jun 2027 19:03:54.265   03 Jun 2027 19:04:15.453            21.188               CapeTown           662.125
       263   03 Jun 2027 19:06:20.761   03 Jun 2027 19:07:16.770            56.009               CapeTown          1750.281
       264   03 Jun 2027 19:35:35.380   03 Jun 2027 19:39:19.803           224.423              Murmansk1          7013.219
       265   03 Jun 2027 19:40:04.447   03 Jun 2027 19:40:07.787             3.340              Murmansk2           104.375
       266   03 Jun 2027 19:45:25.240   03 Jun 2027 19:46:21.418            56.178               Magadan2          1755.563
       267   03 Jun 2027 19:47:27.537   03 Jun 2027 19:48:02.128            34.591               Magadan1          1080.969
       268   03 Jun 2027 19:49:19.622   03 Jun 2027 19:49:49.621            29.999               Magadan2           937.469
       269   03 Jun 2027 19:53:48.161   03 Jun 2027 19:54:08.507            20.346               Magadan1           635.813
       270   03 Jun 2027 21:18:42.308   03 Jun 2027 21:22:25.236           222.928                Anadyr1          6966.500
       271   03 Jun 2027 21:22:26.920   03 Jun 2027 21:26:52.406           265.486               Magadan2          8296.437
       272   03 Jun 2027 22:13:28.735   03 Jun 2027 22:15:56.079           147.344            RioGallegos          4604.500
       273   03 Jun 2027 22:18:28.557   03 Jun 2027 22:18:56.288            27.731            RioGallegos           866.594
       274   03 Jun 2027 22:22:39.966   03 Jun 2027 22:22:51.175            11.209            RioGallegos           350.281
       275   03 Jun 2027 22:54:24.201   03 Jun 2027 22:55:21.722            57.521                Anadyr2          1797.531
       276   03 Jun 2027 22:55:29.623   03 Jun 2027 22:55:44.005            14.382                Anadyr2           449.438
       277   03 Jun 2027 22:56:25.577   03 Jun 2027 22:56:37.298            11.721                Anadyr2           366.281
       278   03 Jun 2027 22:56:59.832   03 Jun 2027 22:58:42.887           103.055               Magadan2          3220.469
       279   03 Jun 2027 22:59:19.174   03 Jun 2027 22:59:53.195            34.021               Magadan2          1063.156
       280   03 Jun 2027 23:00:53.979   03 Jun 2027 23:02:03.193            69.214                Irkutsk          2162.938
       281   03 Jun 2027 23:03:08.760   03 Jun 2027 23:04:06.100            57.340                Irkutsk          1791.875
       282   03 Jun 2027 23:14:52.361   03 Jun 2027 23:15:15.536            23.175                Sumatra           724.219
       283   03 Jun 2027 23:16:10.278   03 Jun 2027 23:16:45.878            35.600                Sumatra          1112.500
       284   03 Jun 2027 23:18:39.804   03 Jun 2027 23:20:01.913            82.109                Sumatra          2565.906
       285   03 Jun 2027 23:58:51.482   03 Jun 2027 23:59:53.036            61.554            RioGallegos          1923.563
       286   04 Jun 2027 00:29:37.361   04 Jun 2027 00:29:51.882            14.521                Anadyr2           453.781
       287   04 Jun 2027 00:29:51.882   04 Jun 2027 00:30:12.307            20.425                Anadyr1           638.281
       288   04 Jun 2027 00:30:42.077   04 Jun 2027 00:30:55.601            13.524                Anadyr1           422.625
       289   04 Jun 2027 00:31:22.124   04 Jun 2027 00:32:00.678            38.554                Anadyr1          1204.812
       290   04 Jun 2027 00:32:16.494   04 Jun 2027 00:32:19.148             2.654                Anadyr2            82.938
       291   04 Jun 2027 00:32:27.531   04 Jun 2027 00:34:10.591           103.060                Norilsk          3220.625
       292   04 Jun 2027 00:34:49.762   04 Jun 2027 00:35:06.100            16.338               Magadan1           510.563
       293   04 Jun 2027 00:36:00.690   04 Jun 2027 00:36:24.028            23.338               Magadan1           729.312
       294   04 Jun 2027 00:36:35.923   04 Jun 2027 00:38:13.500            97.577                Novosib          3049.281
       295   04 Jun 2027 00:38:29.958   04 Jun 2027 00:39:19.001            49.043                Irkutsk          1532.594
       296   04 Jun 2027 00:43:34.156   04 Jun 2027 00:44:58.111            83.955                Novosib          2623.594
       297   04 Jun 2027 00:54:17.226   04 Jun 2027 00:54:47.644            30.418                  Delhi           950.562
       298   04 Jun 2027 01:01:00.363   04 Jun 2027 01:01:26.323            25.960                Sumatra           811.250
       299   04 Jun 2027 01:28:11.538   04 Jun 2027 01:28:42.463            30.925            RioGallegos           966.406
       300   04 Jun 2027 01:31:25.267   04 Jun 2027 01:32:06.559            41.292            RioGallegos          1290.375
       301   04 Jun 2027 01:35:05.826   04 Jun 2027 01:35:16.889            11.063            RioGallegos           345.719
       302   04 Jun 2027 01:35:21.772   04 Jun 2027 01:35:39.946            18.174            RioGallegos           567.937
       303   04 Jun 2027 02:03:02.784   04 Jun 2027 02:03:45.794            43.010                Anadyr2          1344.063
       304   04 Jun 2027 02:05:32.386   04 Jun 2027 02:05:40.960             8.574                Anadyr2           267.938
       305   04 Jun 2027 02:07:27.568   04 Jun 2027 02:08:11.293            43.725                Anadyr1          1366.406
       306   04 Jun 2027 02:08:28.023   04 Jun 2027 02:09:16.662            48.639                Norilsk          1519.969
       307   04 Jun 2027 02:09:23.303   04 Jun 2027 02:09:36.011            12.708                Norilsk           397.125
       308   04 Jun 2027 02:09:46.947   04 Jun 2027 02:09:57.246            10.299                Norilsk           321.844
       309   04 Jun 2027 02:10:54.964   04 Jun 2027 02:12:52.787           117.823              Murmansk2          3681.969
       310   04 Jun 2027 02:13:35.980   04 Jun 2027 02:13:37.158             1.178                Irkutsk            36.812
       311   04 Jun 2027 02:14:34.663   04 Jun 2027 02:15:28.288            53.625                Novosib          1675.781
       312   04 Jun 2027 02:20:05.537   04 Jun 2027 02:20:36.416            30.879                  Delhi           964.969
       313   04 Jun 2027 02:23:52.732   04 Jun 2027 02:24:06.108            13.376                  Delhi           418.000
       314   04 Jun 2027 02:25:24.334   04 Jun 2027 02:25:34.071             9.737                  Delhi           304.281
       315   04 Jun 2027 02:27:42.498   04 Jun 2027 02:27:56.336            13.838                  Delhi           432.437
       316   04 Jun 2027 02:29:59.913   04 Jun 2027 02:31:13.385            73.472                  Delhi          2296.000
       317   04 Jun 2027 03:03:03.595   04 Jun 2027 03:04:25.271            81.676            RioGallegos          2552.375
       318   04 Jun 2027 03:05:13.110   04 Jun 2027 03:05:25.163            12.053            RioGallegos           376.656
       319   04 Jun 2027 03:52:52.444   04 Jun 2027 03:53:31.181            38.737              Murmansk1          1210.531
       320   04 Jun 2027 03:53:31.181   04 Jun 2027 03:53:48.190            17.009              Murmansk2           531.531
       321   04 Jun 2027 03:53:51.613   04 Jun 2027 03:56:39.462           167.849                Norilsk          5245.281
       322   04 Jun 2027 03:56:44.456   04 Jun 2027 03:57:16.127            31.671              Murmansk1           989.719
       323   04 Jun 2027 04:00:35.940   04 Jun 2027 04:01:48.005            72.065                 Moscow          2252.031
       324   04 Jun 2027 04:25:07.696   04 Jun 2027 04:26:08.976            61.280               CapeTown          1915.000
       325   04 Jun 2027 05:30:27.853   04 Jun 2027 05:30:39.437            11.584                Norilsk           362.000
       326   04 Jun 2027 05:30:55.390   04 Jun 2027 05:33:44.567           169.177              Murmansk1          5286.781
       327   04 Jun 2027 05:58:25.987   04 Jun 2027 05:58:39.276            13.289               CapeTown           415.281
       328   04 Jun 2027 06:54:34.456   04 Jun 2027 06:55:53.429            78.973                Norilsk          2467.906
       329   04 Jun 2027 06:56:01.275   04 Jun 2027 06:56:30.876            29.601               Magadan2           925.031
       330   04 Jun 2027 06:57:06.725   04 Jun 2027 06:57:29.325            22.600                Anadyr2           706.250
       331   04 Jun 2027 06:58:01.336   04 Jun 2027 06:58:16.625            15.289                Anadyr1           477.781
       332   04 Jun 2027 06:58:16.625   04 Jun 2027 06:59:18.514            61.889                Anadyr2          1934.031
       333   04 Jun 2027 08:29:16.234   04 Jun 2027 08:29:34.124            17.890                Norilsk           559.062
       334   04 Jun 2027 08:29:43.192   04 Jun 2027 08:30:26.697            43.505                Norilsk          1359.531
       335   04 Jun 2027 08:30:27.475   04 Jun 2027 08:31:02.514            35.039                Irkutsk          1094.969
       336   04 Jun 2027 08:31:07.137   04 Jun 2027 08:31:18.947            11.810                Anadyr1           369.062
       337   04 Jun 2027 08:31:18.947   04 Jun 2027 08:33:23.835           124.888                Anadyr2          3902.750
       338   04 Jun 2027 08:34:25.063   04 Jun 2027 08:34:53.485            28.422                Anadyr1           888.187
       339   04 Jun 2027 10:04:02.010   04 Jun 2027 10:05:33.211            91.201               Magadan2          2850.031
       340   04 Jun 2027 10:05:53.174   04 Jun 2027 10:06:10.660            17.486               Magadan1           546.438
       341   04 Jun 2027 10:06:10.660   04 Jun 2027 10:06:46.186            35.526               Magadan2          1110.187
       342   04 Jun 2027 10:06:46.186   04 Jun 2027 10:10:13.761           207.575               Magadan1          6486.719
       343   04 Jun 2027 10:10:31.786   04 Jun 2027 10:11:02.660            30.874              Murmansk2           964.813
       344   04 Jun 2027 10:45:18.943   04 Jun 2027 10:46:23.085            64.142            RioGallegos          2004.437
       345   04 Jun 2027 10:54:25.303   04 Jun 2027 10:54:54.973            29.670            RioGallegos           927.187
       346   04 Jun 2027 11:20:42.680   04 Jun 2027 11:21:56.504            73.824                Sumatra          2307.000
       347   04 Jun 2027 11:33:57.664   04 Jun 2027 11:34:43.003            45.339                  Delhi          1416.844
       348   04 Jun 2027 11:40:18.628   04 Jun 2027 11:40:49.825            31.197                Novosib           974.906
       349   04 Jun 2027 11:40:53.061   04 Jun 2027 11:41:46.823            53.762                Norilsk          1680.062
       350   04 Jun 2027 11:41:53.354   04 Jun 2027 11:42:32.578            39.224                Irkutsk          1225.750
       351   04 Jun 2027 11:42:46.508   04 Jun 2027 11:43:56.474            69.966                Novosib          2186.437
       352   04 Jun 2027 11:44:02.423   04 Jun 2027 11:44:29.149            26.726                Norilsk           835.188
       353   04 Jun 2027 11:44:33.732   04 Jun 2027 11:44:43.843            10.111              Murmansk1           315.969
       354   04 Jun 2027 11:44:43.992   04 Jun 2027 11:46:35.665           111.673                Irkutsk          3489.781
       355   04 Jun 2027 12:26:56.680   04 Jun 2027 12:28:14.981            78.301            RioGallegos          2446.906
       356   04 Jun 2027 12:57:24.353   04 Jun 2027 12:58:02.193            37.840                Sumatra          1182.500
       357   04 Jun 2027 13:03:57.394   04 Jun 2027 13:04:34.561            37.167                Sumatra          1161.469
       358   04 Jun 2027 13:11:04.066   04 Jun 2027 13:11:20.912            16.846                  Delhi           526.437
       359   04 Jun 2027 13:11:31.031   04 Jun 2027 13:12:03.190            32.159                Novosib          1004.969
       360   04 Jun 2027 13:12:39.886   04 Jun 2027 13:14:28.217           108.331                Novosib          3385.344
       361   04 Jun 2027 13:15:31.495   04 Jun 2027 13:15:55.828            24.333                Norilsk           760.406
       362   04 Jun 2027 13:16:48.920   04 Jun 2027 13:17:57.677            68.757                Irkutsk          2148.656
       363   04 Jun 2027 14:42:44.402   04 Jun 2027 14:45:23.117           158.715                  Delhi          4959.844
       364   04 Jun 2027 14:47:20.608   04 Jun 2027 14:47:25.449             4.841                  Delhi           151.281
       365   04 Jun 2027 14:50:01.714   04 Jun 2027 14:50:34.753            33.039                 Moscow          1032.469
       366   04 Jun 2027 14:51:15.456   04 Jun 2027 14:54:15.580           180.124                Novosib          5628.875
       367   04 Jun 2027 14:54:25.027   04 Jun 2027 14:54:45.814            20.787                Norilsk           649.594
       368   04 Jun 2027 14:55:29.505   04 Jun 2027 14:55:46.856            17.351                Novosib           542.219
       369   04 Jun 2027 14:56:51.747   04 Jun 2027 14:57:11.917            20.170                Norilsk           630.312
       370   04 Jun 2027 14:57:34.575   04 Jun 2027 14:57:47.835            13.260                Norilsk           414.375
       371   04 Jun 2027 16:05:49.145   04 Jun 2027 16:07:30.687           101.542               CapeTown          3173.188
       372   04 Jun 2027 16:10:22.198   04 Jun 2027 16:10:49.388            27.190               CapeTown           849.688
       373   04 Jun 2027 16:25:12.405   04 Jun 2027 16:25:28.459            16.054                 Moscow           501.688
       374   04 Jun 2027 16:26:12.949   04 Jun 2027 16:26:46.888            33.939                 Moscow          1060.594
       375   04 Jun 2027 16:28:40.419   04 Jun 2027 16:29:29.427            49.008              Murmansk1          1531.500
       376   04 Jun 2027 16:29:43.186   04 Jun 2027 16:31:08.377            85.191              Murmansk1          2662.219
       377   04 Jun 2027 16:39:54.734   04 Jun 2027 16:40:41.008            46.274              Murmansk2          1446.062
       378   04 Jun 2027 16:43:51.046   04 Jun 2027 16:44:44.514            53.468                Anadyr1          1670.875
       379   04 Jun 2027 16:45:19.327   04 Jun 2027 16:45:46.976            27.649                Anadyr2           864.031
       380   04 Jun 2027 16:46:33.599   04 Jun 2027 16:46:38.146             4.547                Anadyr1           142.094
       381   04 Jun 2027 16:48:01.164   04 Jun 2027 16:48:14.458            13.294                Anadyr2           415.437
       382   04 Jun 2027 16:50:14.507   04 Jun 2027 16:50:31.168            16.661                Anadyr1           520.656
       383   04 Jun 2027 17:38:18.132   04 Jun 2027 17:39:04.547            46.415               CapeTown          1450.469
       384   04 Jun 2027 17:44:17.361   04 Jun 2027 17:44:24.524             7.163               CapeTown           223.844
       385   04 Jun 2027 17:45:10.579   04 Jun 2027 17:45:29.659            19.080               CapeTown           596.250
       386   04 Jun 2027 17:46:00.141   04 Jun 2027 17:46:50.517            50.376               CapeTown          1574.250
       387   04 Jun 2027 18:05:38.100   04 Jun 2027 18:08:48.966           190.866                 Moscow          5964.563
       388   04 Jun 2027 18:15:18.256   04 Jun 2027 18:16:06.034            47.778              Murmansk2          1493.063
       389   04 Jun 2027 18:19:58.729   04 Jun 2027 18:20:03.426             4.697                Anadyr1           146.781
       390   04 Jun 2027 18:20:28.392   04 Jun 2027 18:20:53.403            25.011                Anadyr1           781.594
       391   04 Jun 2027 18:24:53.681   04 Jun 2027 18:25:46.412            52.731               Magadan1          1647.844
       392   04 Jun 2027 19:15:22.905   04 Jun 2027 19:16:23.302            60.397               CapeTown          1887.406
       393   04 Jun 2027 19:19:06.567   04 Jun 2027 19:20:39.791            93.224               CapeTown          2913.250
       394   04 Jun 2027 19:48:48.752   04 Jun 2027 19:51:38.862           170.110              Murmansk2          5315.938
       395   04 Jun 2027 19:57:20.725   04 Jun 2027 19:58:50.071            89.346               Magadan2          2792.062
       396   04 Jun 2027 19:59:53.817   04 Jun 2027 19:59:57.790             3.973               Magadan2           124.156
       397   04 Jun 2027 20:00:49.717   04 Jun 2027 20:01:46.543            56.826               Magadan1          1775.812
       398   04 Jun 2027 20:08:05.286   04 Jun 2027 20:08:44.197            38.911               Magadan2          1215.969
       399   04 Jun 2027 21:30:43.400   04 Jun 2027 21:32:46.159           122.759                Anadyr2          3836.219
       400   04 Jun 2027 21:32:58.108   04 Jun 2027 21:34:34.443            96.335                Anadyr1          3010.469
       401   04 Jun 2027 21:34:43.810   04 Jun 2027 21:36:41.499           117.689                Norilsk          3677.781
       402   04 Jun 2027 21:36:48.485   04 Jun 2027 21:37:17.195            28.710               Magadan2           897.188
       403   04 Jun 2027 21:37:39.745   04 Jun 2027 21:37:58.498            18.753               Magadan2           586.031
       404   04 Jun 2027 21:38:22.704   04 Jun 2027 21:38:30.349             7.645               Magadan2           238.906
       405   04 Jun 2027 21:39:27.222   04 Jun 2027 21:39:45.064            17.842               Magadan1           557.562
       406   04 Jun 2027 21:40:09.199   04 Jun 2027 21:40:11.744             2.545               Magadan1            79.531
       407   04 Jun 2027 21:40:26.289   04 Jun 2027 21:40:41.598            15.309               Magadan2           478.406
       408   04 Jun 2027 21:43:22.339   04 Jun 2027 21:43:25.496             3.157               Magadan2            98.656
       409   04 Jun 2027 21:44:52.992   04 Jun 2027 21:44:55.396             2.404               Magadan1            75.125
       410   04 Jun 2027 22:25:14.209   04 Jun 2027 22:27:12.993           118.784            RioGallegos          3712.000
       411   04 Jun 2027 22:27:21.469   04 Jun 2027 22:27:28.059             6.590            RioGallegos           205.938
       412   04 Jun 2027 22:27:59.375   04 Jun 2027 22:28:34.382            35.007            RioGallegos          1093.969
       413   04 Jun 2027 22:33:13.859   04 Jun 2027 22:33:49.999            36.140            RioGallegos          1129.375
       414   04 Jun 2027 23:06:21.657   04 Jun 2027 23:07:27.009            65.352                Anadyr2          2042.250
       415   04 Jun 2027 23:08:29.149   04 Jun 2027 23:08:36.279             7.130                Anadyr1           222.812
       416   04 Jun 2027 23:08:37.553   04 Jun 2027 23:10:12.102            94.549                Norilsk          2954.656
       417   04 Jun 2027 23:10:23.693   04 Jun 2027 23:10:50.108            26.415               Magadan2           825.469
       418   04 Jun 2027 23:11:21.896   04 Jun 2027 23:12:10.117            48.221               Magadan2          1506.906
       419   04 Jun 2027 23:12:46.527   04 Jun 2027 23:13:25.762            39.235                Irkutsk          1226.094
       420   04 Jun 2027 23:14:59.211   04 Jun 2027 23:15:42.208            42.997                Irkutsk          1343.656
       421   04 Jun 2027 23:15:51.622   04 Jun 2027 23:17:25.406            93.784                Novosib          2930.750
       422   04 Jun 2027 23:29:06.260   04 Jun 2027 23:29:59.252            52.992                Sumatra          1656.000
       423   04 Jun 2027 23:36:39.462   04 Jun 2027 23:38:27.986           108.524                Sumatra          3391.375
       424   05 Jun 2027 00:41:09.126   05 Jun 2027 00:41:27.718            18.592                Anadyr1           581.000
       425   05 Jun 2027 00:41:49.631   05 Jun 2027 00:42:38.287            48.656                Anadyr2          1520.500
       426   05 Jun 2027 00:42:38.287   05 Jun 2027 00:42:45.180             6.893                Anadyr1           215.406
       427   05 Jun 2027 00:42:56.141   05 Jun 2027 00:43:23.463            27.322                Anadyr1           853.812
       428   05 Jun 2027 00:44:29.811   05 Jun 2027 00:46:12.455           102.644                Norilsk          3207.625
       429   05 Jun 2027 00:46:18.625   05 Jun 2027 00:46:39.328            20.703               Magadan1           646.969
       430   05 Jun 2027 00:48:22.179   05 Jun 2027 00:49:25.229            63.050                Irkutsk          1970.312
       431   05 Jun 2027 00:49:27.404   05 Jun 2027 00:50:30.306            62.902                Novosib          1965.687
       432   05 Jun 2027 00:55:36.596   05 Jun 2027 00:56:03.977            27.381                Novosib           855.656
       433   05 Jun 2027 00:56:24.501   05 Jun 2027 00:56:44.230            19.729                  Delhi           616.531
       434   05 Jun 2027 00:57:06.847   05 Jun 2027 00:57:21.489            14.642                  Delhi           457.563
       435   05 Jun 2027 00:59:01.220   05 Jun 2027 00:59:35.876            34.656                  Delhi          1083.000
       436   05 Jun 2027 01:03:37.741   05 Jun 2027 01:06:10.161           152.420                  Delhi          4763.125
       437   05 Jun 2027 02:14:44.020   05 Jun 2027 02:14:54.482            10.462                Anadyr2           326.937
       438   05 Jun 2027 02:15:44.493   05 Jun 2027 02:16:53.784            69.291                Anadyr1          2165.344
       439   05 Jun 2027 02:20:29.803   05 Jun 2027 02:22:04.546            94.743                Norilsk          2960.719
       440   05 Jun 2027 02:22:51.725   05 Jun 2027 02:24:00.099            68.374              Murmansk2          2136.687
       441   05 Jun 2027 02:24:17.143   05 Jun 2027 02:24:38.316            21.173                Novosib           661.656
       442   05 Jun 2027 02:24:55.238   05 Jun 2027 02:25:08.367            13.129                Irkutsk           410.281
       443   05 Jun 2027 02:25:21.868   05 Jun 2027 02:26:42.175            80.307                Irkutsk          2509.594
       444   05 Jun 2027 02:37:05.786   05 Jun 2027 02:37:23.932            18.146                  Delhi           567.063
       445   05 Jun 2027 02:39:33.016   05 Jun 2027 02:40:30.586            57.570                  Delhi          1799.062
       446   05 Jun 2027 04:05:26.145   05 Jun 2027 04:05:40.965            14.820                Norilsk           463.125
       447   05 Jun 2027 04:05:52.295   05 Jun 2027 04:08:31.238           158.943                Norilsk          4966.969
       448   05 Jun 2027 04:08:32.008   05 Jun 2027 04:09:09.938            37.930              Murmansk1          1185.313
       449   05 Jun 2027 04:09:18.676   05 Jun 2027 04:11:17.935           119.259                 Moscow          3726.844
       450   05 Jun 2027 04:11:32.987   05 Jun 2027 04:12:39.559            66.572                 Moscow          2080.375
       451   05 Jun 2027 04:27:24.334   05 Jun 2027 04:27:35.836            11.502               CapeTown           359.438
       452   05 Jun 2027 04:28:37.475   05 Jun 2027 04:29:09.647            32.172               CapeTown          1005.375
       453   05 Jun 2027 04:29:27.114   05 Jun 2027 04:29:36.670             9.556               CapeTown           298.625
       454   05 Jun 2027 04:30:29.332   05 Jun 2027 04:30:44.844            15.512               CapeTown           484.750
       455   05 Jun 2027 04:32:40.057   05 Jun 2027 04:33:14.779            34.722               CapeTown          1085.062
       456   05 Jun 2027 04:37:28.315   05 Jun 2027 04:37:41.451            13.136               CapeTown           410.500
       457   05 Jun 2027 05:41:34.753   05 Jun 2027 05:42:27.842            53.089                Norilsk          1659.031
       458   05 Jun 2027 05:42:44.484   05 Jun 2027 05:42:50.331             5.847                Norilsk           182.719
       459   05 Jun 2027 05:42:57.377   05 Jun 2027 05:46:11.678           194.301              Murmansk2          6071.906
       460   05 Jun 2027 05:46:59.150   05 Jun 2027 05:47:09.816            10.666              Murmansk2           333.312
       461   05 Jun 2027 05:47:23.694   05 Jun 2027 05:47:33.080             9.386              Murmansk2           293.313
       462   05 Jun 2027 05:48:42.924   05 Jun 2027 05:48:46.944             4.020                 Moscow           125.625
       463   05 Jun 2027 07:06:10.511   05 Jun 2027 07:09:05.690           175.179                Anadyr2          5474.344
       464   05 Jun 2027 07:09:31.232   05 Jun 2027 07:11:19.373           108.141                Anadyr1          3379.406
       465   05 Jun 2027 08:40:40.992   05 Jun 2027 08:42:47.003           126.011                Anadyr2          3937.844
       466   05 Jun 2027 08:42:59.674   05 Jun 2027 08:43:08.686             9.012               Magadan2           281.625
       467   05 Jun 2027 08:43:11.166   05 Jun 2027 08:43:55.808            44.642                Norilsk          1395.063
       468   05 Jun 2027 08:44:00.190   05 Jun 2027 08:44:57.031            56.841               Magadan1          1776.281
       469   05 Jun 2027 08:45:24.325   05 Jun 2027 08:46:47.934            83.609                Anadyr2          2612.781
       470   05 Jun 2027 10:15:21.243   05 Jun 2027 10:15:31.971            10.728                Irkutsk           335.250
       471   05 Jun 2027 10:15:38.911   05 Jun 2027 10:16:07.041            28.130                Irkutsk           879.063
       472   05 Jun 2027 10:17:08.045   05 Jun 2027 10:20:58.569           230.524               Magadan2          7203.875
       473   05 Jun 2027 10:20:58.569   05 Jun 2027 10:22:02.987            64.418               Magadan1          2013.063
       474   05 Jun 2027 10:22:24.775   05 Jun 2027 10:22:57.499            32.724              Murmansk2          1022.625
       475   05 Jun 2027 10:23:43.310   05 Jun 2027 10:24:22.867            39.557              Murmansk2          1236.156
       476   05 Jun 2027 10:57:21.465   05 Jun 2027 10:58:19.686            58.221            RioGallegos          1819.406
       477   05 Jun 2027 11:32:28.504   05 Jun 2027 11:33:08.104            39.600                Sumatra          1237.500
       478   05 Jun 2027 11:35:18.141   05 Jun 2027 11:35:59.745            41.604                Sumatra          1300.125
       479   05 Jun 2027 11:52:13.982   05 Jun 2027 11:52:16.199             2.217                Norilsk            69.281
       480   05 Jun 2027 11:52:24.544   05 Jun 2027 11:53:25.490            60.946                Novosib          1904.563
       481   05 Jun 2027 11:53:30.041   05 Jun 2027 11:53:50.386            20.345                Novosib           635.781
       482   05 Jun 2027 11:54:02.525   05 Jun 2027 11:54:36.245            33.720                Norilsk          1053.750
