uniorb/output/strategy_2/Camera/Camera_KinoSat_111210.txt

KinoSat_111210
-------------------------
    Access    *     Start Time (UTCG)     *     Stop Time (UTCG)  *   Duration (s) *   Data (Mbytes)
         1   01 Jun 2027 04:07:56.964   01 Jun 2027 04:09:25.399            88.435         44217.500
         2   01 Jun 2027 04:19:40.805   01 Jun 2027 04:20:40.578            59.773         29886.500
         3   01 Jun 2027 05:41:56.203   01 Jun 2027 05:43:02.104            65.901         32950.500
         4   01 Jun 2027 05:43:53.189   01 Jun 2027 05:44:51.892            58.703         29351.500
         5   01 Jun 2027 07:16:54.122   01 Jun 2027 07:18:48.652           114.530         57265.000
         6   01 Jun 2027 07:18:57.744   01 Jun 2027 07:20:28.016            90.272         45136.000
         7   01 Jun 2027 07:24:52.083   01 Jun 2027 07:25:14.175            22.092         11046.000
         8   01 Jun 2027 08:54:22.542   01 Jun 2027 08:56:20.886           118.344         59172.000
         9   01 Jun 2027 08:59:09.069   01 Jun 2027 08:59:27.660            18.591          9295.500
        10   01 Jun 2027 08:59:51.265   01 Jun 2027 08:59:58.120             6.855          3427.500
        11   01 Jun 2027 09:00:24.227   01 Jun 2027 09:00:24.227             0.000             0.000
        12   01 Jun 2027 09:00:34.298   01 Jun 2027 09:00:44.165             9.867          4933.500
        13   01 Jun 2027 09:01:02.590   01 Jun 2027 09:01:18.913            16.323          8161.500
        14   01 Jun 2027 10:31:07.389   01 Jun 2027 10:33:39.505           152.116         76058.000
        15   01 Jun 2027 10:34:00.918   01 Jun 2027 10:34:07.430             6.512          3256.000
        16   01 Jun 2027 10:35:55.046   01 Jun 2027 10:35:56.315             1.269           634.500
        17   01 Jun 2027 10:37:24.624   01 Jun 2027 10:37:30.385             5.761          2880.500
        18   02 Jun 2027 03:00:00.000   02 Jun 2027 03:00:37.789            37.789         18894.500
        19   02 Jun 2027 03:01:10.606   02 Jun 2027 03:01:11.758             1.152           576.000
        20   02 Jun 2027 03:01:39.095   02 Jun 2027 03:02:01.732            22.637         11318.500
        21   02 Jun 2027 03:02:07.023   02 Jun 2027 03:02:09.481             2.458          1229.000
        22   02 Jun 2027 04:19:30.296   02 Jun 2027 04:20:58.660            88.364         44182.000
        23   02 Jun 2027 04:21:17.702   02 Jun 2027 04:21:17.702             0.000             0.000
        24   02 Jun 2027 04:31:46.627   02 Jun 2027 04:32:13.963            27.336         13668.000
        25   02 Jun 2027 05:53:29.739   02 Jun 2027 05:54:49.004            79.265         39632.500
        26   02 Jun 2027 05:55:22.574   02 Jun 2027 05:55:49.176            26.602         13301.000
        27   02 Jun 2027 05:56:53.644   02 Jun 2027 05:56:53.644             0.000             0.000
        28   02 Jun 2027 05:57:36.309   02 Jun 2027 05:58:08.955            32.646         16323.000
        29   02 Jun 2027 07:28:22.081   02 Jun 2027 07:30:48.365           146.284         73142.000
        30   02 Jun 2027 07:32:45.917   02 Jun 2027 07:32:56.095            10.178          5089.000
        31   02 Jun 2027 07:35:02.514   02 Jun 2027 07:35:08.176             5.662          2831.000
        32   02 Jun 2027 07:36:45.451   02 Jun 2027 07:36:48.928             3.477          1738.500
        33   02 Jun 2027 09:06:15.691   02 Jun 2027 09:08:19.884           124.193         62096.500
        34   02 Jun 2027 09:11:20.815   02 Jun 2027 09:11:41.609            20.794         10397.000
        35   02 Jun 2027 09:11:57.966   02 Jun 2027 09:11:57.966             0.000             0.000
        36   02 Jun 2027 09:12:05.032   02 Jun 2027 09:12:10.585             5.553          2406.657
        37   02 Jun 2027 09:12:23.190   02 Jun 2027 09:12:24.883             1.693           185.438
        38   02 Jun 2027 09:12:56.223   02 Jun 2027 09:12:59.035             2.812           824.313
        39   02 Jun 2027 09:13:18.143   02 Jun 2027 09:13:19.758             1.615           491.562
        40   02 Jun 2027 09:13:20.890   02 Jun 2027 09:13:22.556             1.666             7.969
        41   02 Jun 2027 10:42:59.617   02 Jun 2027 10:43:21.102            21.485         10088.875
        42   02 Jun 2027 10:43:33.900   02 Jun 2027 10:43:39.982             6.082           339.562
        43   02 Jun 2027 10:43:45.733   02 Jun 2027 10:44:01.971            16.238           103.250
        44   02 Jun 2027 10:44:11.290   02 Jun 2027 10:44:13.134             1.844           291.219
        45   02 Jun 2027 10:45:25.384   02 Jun 2027 10:45:27.049             1.665           832.500
        46   02 Jun 2027 10:45:45.647   02 Jun 2027 10:45:48.698             3.051          1525.500
        47   02 Jun 2027 10:46:11.342   02 Jun 2027 10:46:16.421             5.079          1068.406
        48   02 Jun 2027 10:46:18.144   02 Jun 2027 10:46:19.017             0.873            53.844
        49   02 Jun 2027 10:46:57.684   02 Jun 2027 10:47:01.254             3.570          1208.344
        50   02 Jun 2027 10:47:12.554   02 Jun 2027 10:47:13.908             1.354           353.125
        51   02 Jun 2027 10:48:26.584   02 Jun 2027 10:48:31.640             5.056          2271.125
        52   02 Jun 2027 10:48:37.652   02 Jun 2027 10:48:39.003             1.351           180.969
        53   02 Jun 2027 10:49:11.265   02 Jun 2027 10:49:16.515             5.250           509.094
        54   03 Jun 2027 03:07:31.474   03 Jun 2027 03:09:52.591           141.117         70558.500
        55   03 Jun 2027 03:10:44.032   03 Jun 2027 03:10:50.655             6.623          3311.500
        56   03 Jun 2027 03:11:05.185   03 Jun 2027 03:11:07.533             2.348          1174.000
        57   03 Jun 2027 03:11:15.225   03 Jun 2027 03:11:29.992            14.767          7383.500
        58   03 Jun 2027 03:11:40.863   03 Jun 2027 03:12:00.539            19.676          9838.000
        59   03 Jun 2027 04:31:26.284   03 Jun 2027 04:32:10.348            44.064         22032.000
        60   03 Jun 2027 04:32:17.304   03 Jun 2027 04:32:21.691             4.387          2193.500
        61   03 Jun 2027 06:07:27.166   03 Jun 2027 06:09:08.878           101.712         50408.188
        62   03 Jun 2027 06:10:14.798   03 Jun 2027 06:10:20.378             5.580          1970.156
        63   03 Jun 2027 07:41:14.590   03 Jun 2027 07:41:30.463            15.873          6015.719
        64   03 Jun 2027 07:42:35.674   03 Jun 2027 07:42:37.462             1.788           331.844
        65   03 Jun 2027 07:43:26.567   03 Jun 2027 07:43:28.621             2.054           978.500
        66   03 Jun 2027 07:44:45.658   03 Jun 2027 07:44:54.466             8.808          2327.656
        67   03 Jun 2027 07:46:06.350   03 Jun 2027 07:46:11.603             5.253          2089.219
        68   03 Jun 2027 07:46:42.711   03 Jun 2027 07:46:44.127             1.416           379.062
        69   03 Jun 2027 07:47:37.551   03 Jun 2027 07:47:41.405             3.854          1414.406
        70   03 Jun 2027 07:48:45.783   03 Jun 2027 07:48:48.900             3.117          1558.500
        71   03 Jun 2027 07:49:04.554   03 Jun 2027 07:49:05.908             1.354           611.844
        72   03 Jun 2027 09:18:23.387   03 Jun 2027 09:18:38.953            15.566          7272.938
        73   03 Jun 2027 09:19:44.733   03 Jun 2027 09:19:47.207             2.474          1170.469
        74   03 Jun 2027 09:20:31.358   03 Jun 2027 09:20:34.980             3.622           733.719
        75   03 Jun 2027 09:22:53.879   03 Jun 2027 09:23:02.576             8.697          3509.281
        76   03 Jun 2027 09:23:17.111   03 Jun 2027 09:23:18.118             1.007            92.719
        77   03 Jun 2027 09:23:47.062   03 Jun 2027 09:23:47.266             0.204           102.000
        78   03 Jun 2027 09:23:50.360   03 Jun 2027 09:23:54.692             4.332           629.938
        79   03 Jun 2027 09:24:53.210   03 Jun 2027 09:24:57.571             4.361          1828.688
        80   03 Jun 2027 10:55:37.879   03 Jun 2027 10:55:51.439            13.560          6780.000
        81   03 Jun 2027 10:55:52.834   03 Jun 2027 10:55:55.847             3.013          1366.531
        82   03 Jun 2027 10:57:42.479   03 Jun 2027 10:57:46.321             3.842          1864.281
        83   03 Jun 2027 10:57:52.890   03 Jun 2027 10:57:53.473             0.583           205.281
        84   03 Jun 2027 10:59:05.923   03 Jun 2027 10:59:10.509             4.586          2195.031
        85   03 Jun 2027 10:59:34.692   03 Jun 2027 10:59:36.736             2.044           755.719
        86   03 Jun 2027 11:00:24.914   03 Jun 2027 11:00:25.708             0.794           397.000
        87   03 Jun 2027 11:01:17.851   03 Jun 2027 11:01:24.337             6.486          2734.750
        88   04 Jun 2027 03:19:57.664   04 Jun 2027 03:22:50.810           173.146         86573.000
        89   04 Jun 2027 03:22:54.919   04 Jun 2027 03:23:17.082            22.163         11081.500
        90   04 Jun 2027 04:43:19.310   04 Jun 2027 04:43:56.471            37.161         18580.500
        91   04 Jun 2027 04:44:23.889   04 Jun 2027 04:44:41.583            17.694          8847.000
        92   04 Jun 2027 06:19:40.375   04 Jun 2027 06:20:51.081            70.706         34880.000
        93   04 Jun 2027 06:21:44.269   04 Jun 2027 06:21:54.032             9.763          1476.969
        94   04 Jun 2027 06:22:16.939   04 Jun 2027 06:22:19.019             2.080           494.156
        95   04 Jun 2027 07:53:38.646   04 Jun 2027 07:53:50.370            11.724          4999.469
        96   04 Jun 2027 07:54:23.604   04 Jun 2027 07:54:25.252             1.648           462.125
        97   04 Jun 2027 07:55:13.263   04 Jun 2027 07:55:13.675             0.412            58.562
        98   04 Jun 2027 07:56:34.392   04 Jun 2027 07:56:41.466             7.074          2066.875
        99   04 Jun 2027 07:58:53.316   04 Jun 2027 07:59:01.751             8.435          3982.750
       100   04 Jun 2027 07:59:07.635   04 Jun 2027 07:59:10.188             2.553            63.719
       101   04 Jun 2027 08:00:07.404   04 Jun 2027 08:00:08.359             0.955           345.437
       102   04 Jun 2027 08:00:18.234   04 Jun 2027 08:00:18.234             0.000             0.000
       103   04 Jun 2027 08:00:22.973   04 Jun 2027 08:00:26.453             3.480           209.719
       104   04 Jun 2027 09:30:48.886   04 Jun 2027 09:31:07.396            18.510          6140.031
       105   04 Jun 2027 09:31:54.761   04 Jun 2027 09:32:00.319             5.558           662.594
       106   04 Jun 2027 09:33:29.606   04 Jun 2027 09:33:35.042             5.436          1313.750
       107   04 Jun 2027 09:34:29.101   04 Jun 2027 09:34:31.056             1.955           966.594
       108   04 Jun 2027 09:35:28.841   04 Jun 2027 09:35:32.154             3.313           960.281
       109   04 Jun 2027 09:36:04.255   04 Jun 2027 09:36:06.613             2.358           910.781
       110   04 Jun 2027 09:36:47.533   04 Jun 2027 09:36:51.656             4.123          1278.750
       111   04 Jun 2027 09:36:59.101   04 Jun 2027 09:37:00.424             1.323           232.656
       112   04 Jun 2027 09:37:28.114   04 Jun 2027 09:37:29.254             1.140           419.219
       113   04 Jun 2027 11:07:48.228   04 Jun 2027 11:08:06.506            18.278          8344.156
       114   04 Jun 2027 11:08:48.893   04 Jun 2027 11:08:53.624             4.731          1003.281
       115   04 Jun 2027 11:09:04.824   04 Jun 2027 11:09:06.373             1.549            72.875
       116   04 Jun 2027 11:09:51.698   04 Jun 2027 11:09:54.199             2.501          1250.500
       117   04 Jun 2027 11:10:29.557   04 Jun 2027 11:10:33.177             3.620          1246.531
       118   04 Jun 2027 11:10:43.104   04 Jun 2027 11:10:44.227             1.123           247.906
       119   04 Jun 2027 11:10:50.389   04 Jun 2027 11:10:54.029             3.640           173.469
       120   04 Jun 2027 11:11:36.394   04 Jun 2027 11:11:38.076             1.682           841.000
       121   04 Jun 2027 11:12:00.543   04 Jun 2027 11:12:01.223             0.680           340.000
       122   04 Jun 2027 11:12:28.506   04 Jun 2027 11:12:30.863             2.357          1178.500
       123   04 Jun 2027 11:12:57.711   04 Jun 2027 11:13:00.112             2.401          1200.500
       124   05 Jun 2027 03:32:15.217   05 Jun 2027 03:35:46.126           210.909        105454.500
       125   05 Jun 2027 04:55:12.802   05 Jun 2027 04:56:22.517            69.715         34857.500
       126   05 Jun 2027 06:31:45.902   05 Jun 2027 06:32:19.085            33.183         16591.500
       127   05 Jun 2027 06:32:33.895   05 Jun 2027 06:32:43.468             9.573          2352.563
       128   05 Jun 2027 06:32:48.178   05 Jun 2027 06:32:48.178             0.000             0.000
       129   05 Jun 2027 06:32:58.533   05 Jun 2027 06:33:03.648             5.115           400.688
       130   05 Jun 2027 06:33:38.238   05 Jun 2027 06:33:38.238             0.000             0.000
       131   05 Jun 2027 06:33:40.745   05 Jun 2027 06:33:42.595             1.850           297.875
       132   05 Jun 2027 06:35:00.024   05 Jun 2027 06:35:03.968             3.944          1972.000
       133   05 Jun 2027 08:06:54.759   05 Jun 2027 08:07:04.667             9.908          4109.219
       134   05 Jun 2027 08:07:35.174   05 Jun 2027 08:07:35.605             0.431           188.344
       135   05 Jun 2027 08:07:38.983   05 Jun 2027 08:07:45.988             7.005            96.625
       136   05 Jun 2027 08:08:15.171   05 Jun 2027 08:08:21.922             6.751           907.844
       137   05 Jun 2027 08:09:14.162   05 Jun 2027 08:09:19.916             5.754          1194.719
       138   05 Jun 2027 08:09:46.942   05 Jun 2027 08:09:50.755             3.813           757.531
       139   05 Jun 2027 08:10:09.012   05 Jun 2027 08:10:11.094             2.082           196.500
       140   05 Jun 2027 08:10:56.055   05 Jun 2027 08:11:01.560             5.505          1014.156
       141   05 Jun 2027 08:12:18.760   05 Jun 2027 08:12:24.048             5.288          2259.500
       142   05 Jun 2027 08:13:18.955   05 Jun 2027 08:13:23.489             4.534          1703.219
       143   05 Jun 2027 09:43:14.990   05 Jun 2027 09:43:30.949            15.959          6347.625
       144   05 Jun 2027 09:45:00.454   05 Jun 2027 09:45:07.043             6.589          2075.406
       145   05 Jun 2027 09:45:10.002   05 Jun 2027 09:45:10.387             0.385            92.469
       146   05 Jun 2027 09:45:27.187   05 Jun 2027 09:45:29.617             2.430           525.000
       147   05 Jun 2027 09:46:32.801   05 Jun 2027 09:46:41.264             8.463          1974.500
       148   05 Jun 2027 09:47:08.033   05 Jun 2027 09:47:14.634             6.601           695.219
       149   05 Jun 2027 09:47:20.972   05 Jun 2027 09:47:22.661             1.689           198.062
       150   05 Jun 2027 09:47:56.614   05 Jun 2027 09:48:00.299             3.685          1038.312
       151   05 Jun 2027 09:48:42.475   05 Jun 2027 09:48:45.481             3.006          1262.063
       152   05 Jun 2027 09:49:00.600   05 Jun 2027 09:49:02.416             1.816           472.469
       153   05 Jun 2027 09:49:26.631   05 Jun 2027 09:49:29.317             2.686           756.719
       154   05 Jun 2027 11:20:49.203   05 Jun 2027 11:21:04.421            15.218          6245.031
       155   05 Jun 2027 11:21:29.884   05 Jun 2027 11:21:31.234             1.350           645.344
       156   05 Jun 2027 11:22:15.537   05 Jun 2027 11:22:21.888             6.351          1384.469
       157   05 Jun 2027 11:22:47.781   05 Jun 2027 11:22:48.516             0.735           367.500
       158   05 Jun 2027 11:23:25.800   05 Jun 2027 11:23:29.964             4.164          1606.781
       159   05 Jun 2027 11:24:09.323   05 Jun 2027 11:24:12.245             2.922          1229.969
       160   05 Jun 2027 11:24:45.599   05 Jun 2027 11:24:48.367             2.768          1042.313
       161   05 Jun 2027 11:25:06.018   05 Jun 2027 11:25:07.643             1.625           235.937
       162   06 Jun 2027 03:44:00.485   06 Jun 2027 03:44:34.468            33.983         16991.500
       163   06 Jun 2027 03:44:48.992   06 Jun 2027 03:47:48.998           180.006         90003.000
       164   06 Jun 2027 05:07:20.938   06 Jun 2027 05:08:24.919            63.981         31990.500
       165   06 Jun 2027 05:08:59.933   06 Jun 2027 05:09:03.778             3.845          1922.500
       166   06 Jun 2027 06:43:56.364   06 Jun 2027 06:44:30.901            34.537         17029.781
       167   06 Jun 2027 06:45:17.169   06 Jun 2027 06:45:21.729             4.560          1258.750
       168   06 Jun 2027 06:46:00.029   06 Jun 2027 06:46:04.050             4.021          1159.250
       169   06 Jun 2027 06:47:01.884   06 Jun 2027 06:47:06.712             4.828          1774.625
       170   06 Jun 2027 08:19:06.580   06 Jun 2027 08:19:23.530            16.950          5693.281
       171   06 Jun 2027 08:20:28.329   06 Jun 2027 08:20:33.000             4.671          1988.438
       172   06 Jun 2027 08:21:41.149   06 Jun 2027 08:21:48.238             7.089          1630.312
       173   06 Jun 2027 08:21:59.431   06 Jun 2027 08:22:00.937             1.506           130.812
       174   06 Jun 2027 08:22:38.596   06 Jun 2027 08:22:52.672            14.076           687.906
       175   06 Jun 2027 08:23:07.835   06 Jun 2027 08:23:10.793             2.958           473.844
       176   06 Jun 2027 08:23:46.212   06 Jun 2027 08:23:52.680             6.468           564.281
       177   06 Jun 2027 08:24:31.675   06 Jun 2027 08:24:36.404             4.729           902.469
       178   06 Jun 2027 08:25:03.686   06 Jun 2027 08:25:05.162             1.476           719.938
       179   06 Jun 2027 08:25:20.201   06 Jun 2027 08:25:22.865             2.664           427.094
       180   06 Jun 2027 09:55:27.338   06 Jun 2027 09:55:39.036            11.698          5626.844
       181   06 Jun 2027 09:56:18.266   06 Jun 2027 09:56:23.459             5.193           485.969
       182   06 Jun 2027 09:57:06.148   06 Jun 2027 09:57:11.239             5.091           975.125
       183   06 Jun 2027 09:57:15.467   06 Jun 2027 09:57:16.842             1.375           132.125
       184   06 Jun 2027 09:57:36.090   06 Jun 2027 09:57:37.390             1.300           557.375
       185   06 Jun 2027 09:58:05.053   06 Jun 2027 09:58:06.525             1.472           582.063
       186   06 Jun 2027 09:59:35.733   06 Jun 2027 09:59:45.176             9.443          2738.344
       187   06 Jun 2027 10:00:02.375   06 Jun 2027 10:00:06.325             3.950           537.469
       188   06 Jun 2027 10:00:49.236   06 Jun 2027 10:00:53.834             4.598          1334.125
       189   06 Jun 2027 11:32:52.588   06 Jun 2027 11:33:06.692            14.104          6707.031
       190   06 Jun 2027 11:33:22.381   06 Jun 2027 11:33:23.351             0.970           332.156
       191   06 Jun 2027 11:34:05.314   06 Jun 2027 11:34:17.103            11.789          1266.781
       192   06 Jun 2027 11:34:49.384   06 Jun 2027 11:34:51.609             2.225           849.500
       193   06 Jun 2027 11:35:40.943   06 Jun 2027 11:35:47.411             6.468          1162.562
       194   06 Jun 2027 11:36:03.314   06 Jun 2027 11:36:05.229             1.915           496.969
       195   06 Jun 2027 11:37:02.770   06 Jun 2027 11:37:07.980             5.210          1798.156
       196   07 Jun 2027 03:45:13.655   07 Jun 2027 03:45:14.683             1.028           514.000
       197   07 Jun 2027 03:55:57.295   07 Jun 2027 03:56:37.302            40.007         20003.500
       198   07 Jun 2027 03:56:55.458   07 Jun 2027 03:59:32.727           157.269         78634.500
       199   07 Jun 2027 05:19:54.260   07 Jun 2027 05:21:02.654            68.394         34197.000
       200   07 Jun 2027 05:22:05.758   07 Jun 2027 05:22:05.758             0.000             0.000
       201   07 Jun 2027 06:55:43.681   07 Jun 2027 06:56:39.770            56.089         28044.500
       202   07 Jun 2027 06:56:57.989   07 Jun 2027 06:57:00.596             2.607           781.125
       203   07 Jun 2027 06:58:21.660   07 Jun 2027 06:58:27.509             5.849          2518.031
       204   07 Jun 2027 06:59:03.700   07 Jun 2027 06:59:03.700             0.000             0.000
       205   07 Jun 2027 06:59:07.034   07 Jun 2027 06:59:10.965             3.931          1235.156
       206   07 Jun 2027 08:30:36.515   07 Jun 2027 08:30:46.772            10.257          4511.000
       207   07 Jun 2027 08:31:22.603   07 Jun 2027 08:31:26.566             3.963          1087.719
       208   07 Jun 2027 08:31:58.419   07 Jun 2027 08:32:01.916             3.497           308.906
       209   07 Jun 2027 08:32:56.485   07 Jun 2027 08:32:58.002             1.517           582.969
       210   07 Jun 2027 08:33:48.905   07 Jun 2027 08:33:53.193             4.288          1334.688
       211   07 Jun 2027 08:34:40.826   07 Jun 2027 08:34:44.090             3.264          1437.156
       212   07 Jun 2027 08:35:13.235   07 Jun 2027 08:35:18.897             5.662           626.156
       213   07 Jun 2027 08:36:02.696   07 Jun 2027 08:36:07.483             4.787          1259.219
       214   07 Jun 2027 08:36:13.794   07 Jun 2027 08:36:14.349             0.555           197.219
       215   07 Jun 2027 08:36:27.898   07 Jun 2027 08:36:32.959             5.061           423.406
       216   07 Jun 2027 08:36:53.868   07 Jun 2027 08:36:53.868             0.000             0.000
       217   07 Jun 2027 08:37:43.023   07 Jun 2027 08:37:47.430             4.407          2174.281
       218   07 Jun 2027 10:07:06.462   07 Jun 2027 10:07:23.494            17.032          7862.938
       219   07 Jun 2027 10:08:49.050   07 Jun 2027 10:08:55.229             6.179          1107.688
       220   07 Jun 2027 10:09:04.350   07 Jun 2027 10:09:07.151             2.801           192.250
       221   07 Jun 2027 10:09:27.559   07 Jun 2027 10:09:31.767             4.208           637.750
       222   07 Jun 2027 10:09:34.169   07 Jun 2027 10:09:38.580             4.411            13.437
       223   07 Jun 2027 10:09:50.767   07 Jun 2027 10:09:51.496             0.729           167.719
       224   07 Jun 2027 10:10:04.013   07 Jun 2027 10:10:06.300             2.287           391.156
       225   07 Jun 2027 10:11:16.308   07 Jun 2027 10:11:24.868             8.560          2187.750
       226   07 Jun 2027 10:12:06.703   07 Jun 2027 10:12:09.766             3.063          1224.438
       227   07 Jun 2027 10:13:17.324   07 Jun 2027 10:13:23.652             6.328          2021.156
       228   07 Jun 2027 11:45:23.987   07 Jun 2027 11:45:37.879            13.892          6324.719
       229   07 Jun 2027 11:46:31.664   07 Jun 2027 11:46:35.097             3.433          1603.594
       230   07 Jun 2027 11:47:02.494   07 Jun 2027 11:47:03.326             0.832           362.219
       231   07 Jun 2027 11:47:17.491   07 Jun 2027 11:47:19.955             2.464           442.656
       232   07 Jun 2027 11:47:24.359   07 Jun 2027 11:47:27.079             2.720           137.625
       233   07 Jun 2027 11:47:33.392   07 Jun 2027 11:47:35.521             2.129            74.500
       234   07 Jun 2027 11:47:42.524   07 Jun 2027 11:47:42.524             0.000             0.000
       235   07 Jun 2027 11:47:55.318   07 Jun 2027 11:47:59.759             4.441           618.656
       236   07 Jun 2027 11:48:05.166   07 Jun 2027 11:48:05.970             0.804           168.969
       237   07 Jun 2027 11:48:59.407   07 Jun 2027 11:49:02.141             2.734          1301.625
       238   08 Jun 2027 03:56:32.373   08 Jun 2027 03:57:39.331            66.958         33479.000
       239   08 Jun 2027 04:07:53.492   08 Jun 2027 04:09:34.204           100.712         50356.000
       240   08 Jun 2027 05:30:28.914   08 Jun 2027 05:31:32.669            63.755         31877.500
       241   08 Jun 2027 05:32:03.746   08 Jun 2027 05:32:42.896            39.150         19575.000
       242   08 Jun 2027 07:06:00.152   08 Jun 2027 07:06:22.603            22.451         11225.500
       243   08 Jun 2027 07:07:32.908   08 Jun 2027 07:07:59.518            26.610         12205.156
       244   08 Jun 2027 07:08:29.006   08 Jun 2027 07:08:30.571             1.565           676.906
       245   08 Jun 2027 07:08:42.510   08 Jun 2027 07:08:42.510             0.000             0.000
       246   08 Jun 2027 07:09:13.151   08 Jun 2027 07:09:15.463             2.312          1011.844
       247   08 Jun 2027 07:10:22.603   08 Jun 2027 07:10:24.526             1.923           961.500
       248   08 Jun 2027 07:11:05.448   08 Jun 2027 07:11:09.721             4.273          2002.843
       249   08 Jun 2027 07:11:51.794   08 Jun 2027 07:11:52.131             0.337           168.500
       250   08 Jun 2027 08:42:19.980   08 Jun 2027 08:42:28.158             8.178          4037.031
       251   08 Jun 2027 08:42:51.287   08 Jun 2027 08:42:52.761             1.474           276.688
       252   08 Jun 2027 08:44:38.065   08 Jun 2027 08:44:46.927             8.862          2348.219
       253   08 Jun 2027 08:45:26.403   08 Jun 2027 08:45:29.186             2.783          1111.969
       254   08 Jun 2027 08:45:48.612   08 Jun 2027 08:45:52.995             4.383           452.406
       255   08 Jun 2027 08:45:59.436   08 Jun 2027 08:45:59.734             0.298           118.312
       256   08 Jun 2027 08:47:17.906   08 Jun 2027 08:47:21.801             3.895          1097.625
       257   08 Jun 2027 08:47:32.384   08 Jun 2027 08:47:34.421             2.037           172.000
       258   08 Jun 2027 08:47:36.347   08 Jun 2027 08:47:36.583             0.236            56.969
       259   08 Jun 2027 08:48:10.814   08 Jun 2027 08:48:12.355             1.541           403.750
       260   08 Jun 2027 08:48:28.940   08 Jun 2027 08:48:28.940             0.000             0.000
       261   08 Jun 2027 08:49:06.876   08 Jun 2027 08:49:10.901             4.025          1566.000
       262   08 Jun 2027 08:49:52.093   08 Jun 2027 08:49:52.200             0.107            53.500
       263   08 Jun 2027 10:19:26.309   08 Jun 2027 10:19:41.653            15.344          7400.875
       264   08 Jun 2027 10:20:50.105   08 Jun 2027 10:20:53.744             3.639          1791.687
       265   08 Jun 2027 10:22:01.100   08 Jun 2027 10:22:05.451             4.351          1892.063
       266   08 Jun 2027 10:22:08.738   08 Jun 2027 10:22:09.899             1.161            38.312
       267   08 Jun 2027 10:22:55.658   08 Jun 2027 10:22:58.404             2.746          1060.125
       268   08 Jun 2027 10:23:02.466   08 Jun 2027 10:23:02.647             0.181            74.875
       269   08 Jun 2027 10:23:54.876   08 Jun 2027 10:23:57.885             3.009          1196.875
       270   08 Jun 2027 10:24:14.213   08 Jun 2027 10:24:16.685             2.472           249.156
       271   08 Jun 2027 10:25:25.615   08 Jun 2027 10:25:33.403             7.788          2078.937
       272   08 Jun 2027 11:57:21.721   08 Jun 2027 11:57:35.557            13.836          6410.063
       273   08 Jun 2027 11:58:36.790   08 Jun 2027 11:58:42.753             5.963          1670.375
       274   08 Jun 2027 11:58:57.064   08 Jun 2027 11:58:59.660             2.596           257.063
       275   08 Jun 2027 11:59:27.001   08 Jun 2027 11:59:30.564             3.563           799.813
       276   09 Jun 2027 04:08:12.630   09 Jun 2027 04:09:39.950            87.320         43660.000
       277   09 Jun 2027 04:19:56.738   09 Jun 2027 04:20:55.823            59.085         29542.500
       278   09 Jun 2027 05:42:11.454   09 Jun 2027 05:43:17.480            66.026         33013.000
       279   09 Jun 2027 05:44:05.779   09 Jun 2027 05:44:56.589            50.810         25405.000
       280   09 Jun 2027 05:46:01.799   09 Jun 2027 05:46:10.975             9.176          4588.000
       281   09 Jun 2027 07:17:08.315   09 Jun 2027 07:17:56.505            48.190         24095.000
       282   09 Jun 2027 07:18:18.674   09 Jun 2027 07:18:20.878             2.204           929.281
       283   09 Jun 2027 07:18:53.317   09 Jun 2027 07:18:54.626             1.309           654.500
       284   09 Jun 2027 07:20:13.968   09 Jun 2027 07:20:22.466             8.498          2623.156
       285   09 Jun 2027 07:20:45.068   09 Jun 2027 07:20:47.382             2.314           609.125
       286   09 Jun 2027 07:21:26.762   09 Jun 2027 07:21:29.533             2.771          1038.000
       287   09 Jun 2027 07:22:20.268   09 Jun 2027 07:22:23.047             2.779          1359.687
       288   09 Jun 2027 07:22:42.180   09 Jun 2027 07:22:43.823             1.643           597.906
       289   09 Jun 2027 07:23:02.818   09 Jun 2027 07:23:07.073             4.255           509.719
       290   09 Jun 2027 07:24:04.202   09 Jun 2027 07:24:08.009             3.807          1785.281
       291   09 Jun 2027 07:25:07.269   09 Jun 2027 07:25:11.769             4.500          1074.469
       292   09 Jun 2027 08:54:37.803   09 Jun 2027 08:54:52.814            15.011          4085.281
       293   09 Jun 2027 08:55:25.741   09 Jun 2027 08:55:28.910             3.169          1028.969
       294   09 Jun 2027 08:55:36.934   09 Jun 2027 08:55:37.911             0.977            24.000
       295   09 Jun 2027 08:56:13.063   09 Jun 2027 08:56:16.250             3.187           605.344
       296   09 Jun 2027 08:56:49.893   09 Jun 2027 08:56:52.405             2.512           892.437
       297   09 Jun 2027 08:58:01.509   09 Jun 2027 08:58:06.059             4.550          2143.219
       298   09 Jun 2027 08:58:18.809   09 Jun 2027 08:58:25.844             7.035           362.750
       299   09 Jun 2027 08:58:51.911   09 Jun 2027 08:58:52.613             0.702           278.406
       300   09 Jun 2027 08:59:07.387   09 Jun 2027 08:59:08.538             1.151           461.688
       301   09 Jun 2027 08:59:30.233   09 Jun 2027 08:59:32.633             2.400           667.187
       302   09 Jun 2027 09:00:06.463   09 Jun 2027 09:00:08.399             1.936           675.406
       303   09 Jun 2027 09:00:11.182   09 Jun 2027 09:00:11.182             0.000             0.000
       304   09 Jun 2027 09:00:12.612   09 Jun 2027 09:00:12.946             0.334           131.656
       305   09 Jun 2027 09:00:46.977   09 Jun 2027 09:00:49.141             2.164          1027.625
       306   09 Jun 2027 09:01:17.939   09 Jun 2027 09:01:22.744             4.805           468.906
       307   09 Jun 2027 10:31:22.431   09 Jun 2027 10:31:37.269            14.838          7272.156
       308   09 Jun 2027 10:33:16.822   09 Jun 2027 10:33:18.567             1.745           632.187
       309   09 Jun 2027 10:33:41.913   09 Jun 2027 10:33:44.603             2.690           181.437
       310   09 Jun 2027 10:33:51.527   09 Jun 2027 10:33:53.467             1.940           216.375
       311   09 Jun 2027 10:34:17.374   09 Jun 2027 10:34:18.889             1.515           708.656
       312   09 Jun 2027 10:34:30.648   09 Jun 2027 10:34:32.364             1.716           245.750
       313   09 Jun 2027 10:34:39.581   09 Jun 2027 10:34:40.328             0.747           225.531
       314   09 Jun 2027 10:35:33.507   09 Jun 2027 10:35:36.596             3.089          1176.906
       315   09 Jun 2027 10:35:38.243   09 Jun 2027 10:35:39.418             1.175            51.469
       316   09 Jun 2027 10:35:42.991   09 Jun 2027 10:35:43.754             0.763           111.656
       317   09 Jun 2027 10:35:51.066   09 Jun 2027 10:35:53.035             1.969           220.563
       318   09 Jun 2027 10:37:08.084   09 Jun 2027 10:37:11.046             2.962          1481.000
       319   09 Jun 2027 10:37:31.050   09 Jun 2027 10:37:32.959             1.909           938.719
       320   09 Jun 2027 10:37:42.735   09 Jun 2027 10:37:45.056             2.321           305.500
       321   10 Jun 2027 03:00:00.000   10 Jun 2027 03:00:16.105            16.105          8052.500
       322   10 Jun 2027 03:00:53.059   10 Jun 2027 03:00:59.078             6.019          3009.500
       323   10 Jun 2027 03:01:26.243   10 Jun 2027 03:01:39.182            12.939          6469.500
       324   10 Jun 2027 03:02:18.689   10 Jun 2027 03:02:24.477             5.788          2894.000
       325   10 Jun 2027 04:19:46.132   10 Jun 2027 04:20:30.091            43.959         21979.500
       326   10 Jun 2027 04:21:41.676   10 Jun 2027 04:21:52.097            10.421          5210.500
       327   10 Jun 2027 04:31:59.016   10 Jun 2027 04:32:29.674            30.658         15329.000
       328   10 Jun 2027 05:53:43.408   10 Jun 2027 05:55:03.113            79.705         39852.500
       329   10 Jun 2027 05:55:51.901   10 Jun 2027 05:57:10.634            78.733         39366.500
       330   10 Jun 2027 05:57:39.632   10 Jun 2027 05:57:50.654            11.022          5511.000
       331   10 Jun 2027 07:28:37.120   10 Jun 2027 07:29:11.636            34.516         15238.437
       332   10 Jun 2027 07:30:50.380   10 Jun 2027 07:30:53.629             3.249          1624.500
       333   10 Jun 2027 07:31:17.716   10 Jun 2027 07:31:24.245             6.529          1237.656
       334   10 Jun 2027 07:31:40.409   10 Jun 2027 07:31:43.585             3.176           412.500
       335   10 Jun 2027 07:33:37.075   10 Jun 2027 07:33:42.130             5.055          2527.500
       336   10 Jun 2027 07:34:41.337   10 Jun 2027 07:34:46.377             5.040          2229.313
       337   10 Jun 2027 07:36:02.196   10 Jun 2027 07:36:09.094             6.898          2162.437
       338   10 Jun 2027 07:37:09.171   10 Jun 2027 07:37:12.830             3.659          1684.500
       339   10 Jun 2027 09:06:31.586   10 Jun 2027 09:06:46.462            14.876          5806.156
       340   10 Jun 2027 09:08:42.618   10 Jun 2027 09:08:45.244             2.626          1153.844
       341   10 Jun 2027 09:09:20.803   10 Jun 2027 09:09:21.951             1.148           216.594
       342   10 Jun 2027 09:09:29.002   10 Jun 2027 09:09:33.185             4.183           220.344
       343   10 Jun 2027 09:10:12.519   10 Jun 2027 09:10:25.893            13.374           662.281
       344   10 Jun 2027 09:10:46.912   10 Jun 2027 09:10:48.346             1.434           154.875
       345   10 Jun 2027 09:11:01.388   10 Jun 2027 09:11:02.255             0.867           407.563
       346   10 Jun 2027 09:11:42.293   10 Jun 2027 09:11:47.946             5.653           802.906
       347   10 Jun 2027 09:12:05.857   10 Jun 2027 09:12:06.496             0.639           319.500
       348   10 Jun 2027 09:12:15.589   10 Jun 2027 09:12:19.958             4.369           342.531
       349   10 Jun 2027 09:13:26.944   10 Jun 2027 09:13:31.374             4.430          2091.406
       350   10 Jun 2027 09:13:36.075   10 Jun 2027 09:13:37.095             1.020           110.500
       351   10 Jun 2027 09:13:47.156   10 Jun 2027 09:13:47.814             0.658           290.625
       352   10 Jun 2027 10:43:15.738   10 Jun 2027 10:43:32.629            16.891          7201.875
       353   10 Jun 2027 10:44:17.897   10 Jun 2027 10:44:22.904             5.007          1414.625
       354   10 Jun 2027 10:44:56.743   10 Jun 2027 10:45:01.523             4.780           885.406
       355   10 Jun 2027 10:45:40.612   10 Jun 2027 10:45:42.048             1.436           681.594
       356   10 Jun 2027 10:46:05.183   10 Jun 2027 10:46:07.436             2.253           722.969
       357   10 Jun 2027 10:46:15.060   10 Jun 2027 10:46:16.742             1.682           220.000
       358   10 Jun 2027 10:47:27.084   10 Jun 2027 10:47:33.434             6.350          2198.187
       359   10 Jun 2027 10:47:46.234   10 Jun 2027 10:47:47.047             0.813           400.000
       360   10 Jun 2027 10:47:49.617   10 Jun 2027 10:47:49.778             0.161            39.031
       361   10 Jun 2027 10:48:41.377   10 Jun 2027 10:48:44.886             3.509          1589.750
       362   10 Jun 2027 10:49:10.467   10 Jun 2027 10:49:15.166             4.699           799.406
       363   10 Jun 2027 10:49:21.941   10 Jun 2027 10:49:21.941             0.000             0.000
       364   10 Jun 2027 10:49:57.927   10 Jun 2027 10:49:59.472             1.545           772.500
       365   11 Jun 2027 03:07:48.425   11 Jun 2027 03:10:21.546           153.121         76560.500
       366   11 Jun 2027 03:10:48.284   11 Jun 2027 03:10:59.988            11.704          5852.000
       367   11 Jun 2027 03:11:37.907   11 Jun 2027 03:11:49.572            11.665          5832.500
       368   11 Jun 2027 04:31:41.887   11 Jun 2027 04:32:24.840            42.953         21476.500
       369   11 Jun 2027 04:32:32.842   11 Jun 2027 04:32:38.762             5.920          2960.000
       370   11 Jun 2027 06:07:42.125   11 Jun 2027 06:09:33.528           111.403         54796.219
       371   11 Jun 2027 06:11:13.937   11 Jun 2027 06:11:21.697             7.760          2716.875
       372   11 Jun 2027 07:41:30.245   11 Jun 2027 07:41:44.926            14.681          5850.063
       373   11 Jun 2027 07:42:53.667   11 Jun 2027 07:42:58.822             5.155           384.969
       374   11 Jun 2027 07:43:43.266   11 Jun 2027 07:43:45.379             2.113           986.688
       375   11 Jun 2027 07:44:15.267   11 Jun 2027 07:44:15.267             0.000             0.000
       376   11 Jun 2027 07:45:02.474   11 Jun 2027 07:45:10.986             8.512          2282.812
       377   11 Jun 2027 07:46:22.272   11 Jun 2027 07:46:26.618             4.346          2059.844
       378   11 Jun 2027 07:47:08.373   11 Jun 2027 07:47:08.649             0.276           138.000
       379   11 Jun 2027 07:47:23.633   11 Jun 2027 07:47:28.004             4.371          1087.969
       380   11 Jun 2027 07:47:34.395   11 Jun 2027 07:47:36.011             1.616           199.719
       381   11 Jun 2027 07:48:01.320   11 Jun 2027 07:48:05.962             4.642           298.781
       382   11 Jun 2027 07:49:00.688   11 Jun 2027 07:49:03.427             2.739          1369.500
       383   11 Jun 2027 07:49:58.508   11 Jun 2027 07:50:00.802             2.294          1147.000
       384   11 Jun 2027 09:18:40.339   11 Jun 2027 09:19:05.934            25.595          8905.906
       385   11 Jun 2027 09:19:24.053   11 Jun 2027 09:19:25.194             1.141           346.719
       386   11 Jun 2027 09:20:15.739   11 Jun 2027 09:20:21.061             5.322           467.344
       387   11 Jun 2027 09:20:49.567   11 Jun 2027 09:20:51.400             1.833           860.406
       388   11 Jun 2027 09:21:21.544   11 Jun 2027 09:21:23.339             1.795           873.125
       389   11 Jun 2027 09:22:10.804   11 Jun 2027 09:22:12.496             1.692           444.500
       390   11 Jun 2027 09:22:44.311   11 Jun 2027 09:22:46.475             2.164           763.625
       391   11 Jun 2027 09:23:18.788   11 Jun 2027 09:23:23.512             4.724           580.375
       392   11 Jun 2027 09:24:10.246   11 Jun 2027 09:24:13.912             3.666          1460.438
       393   11 Jun 2027 09:24:30.651   11 Jun 2027 09:24:31.725             1.074            81.594
       394   11 Jun 2027 09:25:02.740   11 Jun 2027 09:25:06.132             3.392           779.188
       395   11 Jun 2027 09:25:13.055   11 Jun 2027 09:25:14.550             1.495           216.344
       396   11 Jun 2027 09:25:30.339   11 Jun 2027 09:25:30.339             0.000             0.000
       397   11 Jun 2027 10:55:54.583   11 Jun 2027 10:56:11.232            16.649          8148.625
       398   11 Jun 2027 10:57:42.698   11 Jun 2027 10:57:48.702             6.004          2332.469
       399   11 Jun 2027 10:58:18.622   11 Jun 2027 10:58:21.757             3.135           788.219
       400   11 Jun 2027 10:59:17.842   11 Jun 2027 10:59:22.294             4.452          1710.438
       401   11 Jun 2027 10:59:50.463   11 Jun 2027 10:59:50.463             0.000             0.000
       402   11 Jun 2027 11:00:41.655   11 Jun 2027 11:00:47.663             6.008          2360.875
       403   11 Jun 2027 11:00:49.528   11 Jun 2027 11:00:49.528             0.000             0.000
       404   11 Jun 2027 11:00:54.641   11 Jun 2027 11:00:57.375             2.734           218.063
       405   11 Jun 2027 11:01:27.055   11 Jun 2027 11:01:29.321             2.266           839.937
       406   12 Jun 2027 03:20:12.726   12 Jun 2027 03:22:33.165           140.439         70219.500
       407   12 Jun 2027 03:23:05.384   12 Jun 2027 03:23:05.384             0.000             0.000
       408   12 Jun 2027 03:23:09.446   12 Jun 2027 03:23:57.906            48.460         24230.000
       409   12 Jun 2027 04:43:34.466   12 Jun 2027 04:44:40.984            66.518         33259.000
       410   12 Jun 2027 04:45:20.652   12 Jun 2027 04:45:20.652             0.000             0.000
       411   12 Jun 2027 04:45:25.343   12 Jun 2027 04:45:43.182            17.839          8919.500
       412   12 Jun 2027 06:19:55.397   12 Jun 2027 06:20:46.966            51.569         25688.500
       413   12 Jun 2027 06:21:56.556   12 Jun 2027 06:21:59.594             3.038          1330.500
       414   12 Jun 2027 06:22:47.251   12 Jun 2027 06:22:50.372             3.121           885.063
       415   12 Jun 2027 07:53:57.459   12 Jun 2027 07:54:10.365            12.906          4395.844
       416   12 Jun 2027 07:55:44.851   12 Jun 2027 07:55:50.895             6.044          1499.437
       417   12 Jun 2027 07:55:59.006   12 Jun 2027 07:55:59.006             0.000             0.000
       418   12 Jun 2027 07:56:51.381   12 Jun 2027 07:56:55.475             4.094          1834.250
       419   12 Jun 2027 07:57:43.592   12 Jun 2027 07:57:43.592             0.000             0.000
       420   12 Jun 2027 07:57:54.577   12 Jun 2027 07:58:02.926             8.349          1543.094
       421   12 Jun 2027 07:58:20.852   12 Jun 2027 07:58:23.128             2.276           496.188
       422   12 Jun 2027 07:58:51.114   12 Jun 2027 07:58:56.776             5.662           310.344
       423   12 Jun 2027 08:00:27.661   12 Jun 2027 08:00:34.500             6.839          2401.594
       424   12 Jun 2027 08:00:34.849   12 Jun 2027 08:00:34.849             0.000             0.000
       425   12 Jun 2027 08:00:39.755   12 Jun 2027 08:00:41.104             1.349           164.219
       426   12 Jun 2027 08:00:54.929   12 Jun 2027 08:00:54.929             0.000             0.000
       427   12 Jun 2027 08:01:46.894   12 Jun 2027 08:01:52.512             5.618          1864.969
       428   12 Jun 2027 08:01:56.940   12 Jun 2027 08:01:59.288             2.348           138.375
       429   12 Jun 2027 09:31:05.041   12 Jun 2027 09:31:23.602            18.561          7393.437
       430   12 Jun 2027 09:32:27.904   12 Jun 2027 09:32:29.327             1.423           567.438
       431   12 Jun 2027 09:32:46.959   12 Jun 2027 09:32:49.771             2.812           551.000
       432   12 Jun 2027 09:33:32.419   12 Jun 2027 09:33:36.894             4.475           842.156
       433   12 Jun 2027 09:34:14.297   12 Jun 2027 09:34:16.686             2.389           223.406
       434   12 Jun 2027 09:34:39.071   12 Jun 2027 09:34:40.588             1.517           699.531
       435   12 Jun 2027 09:35:24.735   12 Jun 2027 09:35:29.739             5.004          1245.469
       436   12 Jun 2027 09:35:34.058   12 Jun 2027 09:35:34.317             0.259           110.344
       437   12 Jun 2027 09:35:50.994   12 Jun 2027 09:35:54.654             3.660           436.469
       438   12 Jun 2027 09:36:23.916   12 Jun 2027 09:36:25.473             1.557           772.031
       439   12 Jun 2027 09:37:09.939   12 Jun 2027 09:37:12.795             2.856          1256.312
       440   12 Jun 2027 11:08:02.942   12 Jun 2027 11:08:20.989            18.047          8209.750
       441   12 Jun 2027 11:09:22.919   12 Jun 2027 11:09:23.644             0.725           362.500
       442   12 Jun 2027 11:09:55.746   12 Jun 2027 11:09:58.506             2.760          1309.375
       443   12 Jun 2027 11:10:25.150   12 Jun 2027 11:10:28.620             3.470           441.531
       444   12 Jun 2027 11:11:11.714   12 Jun 2027 11:11:15.347             3.633          1346.687
       445   12 Jun 2027 11:11:52.812   12 Jun 2027 11:11:55.209             2.397           921.469
       446   12 Jun 2027 11:12:16.341   12 Jun 2027 11:12:17.173             0.832           416.000
       447   12 Jun 2027 11:12:47.944   12 Jun 2027 11:12:54.105             6.161          1205.968
       448   12 Jun 2027 11:13:01.662   12 Jun 2027 11:13:02.629             0.967           236.156
       449   13 Jun 2027 03:32:31.224   13 Jun 2027 03:34:46.309           135.085         67542.500
       450   13 Jun 2027 03:34:57.144   13 Jun 2027 03:36:03.784            66.640         33320.000
       451   13 Jun 2027 04:55:35.192   13 Jun 2027 04:56:38.042            62.850         31425.000
       452   13 Jun 2027 04:56:54.108   13 Jun 2027 04:56:57.849             3.741          1870.500
       453   13 Jun 2027 06:32:01.598   13 Jun 2027 06:32:42.768            41.170         20060.782
       454   13 Jun 2027 06:33:05.219   13 Jun 2027 06:33:05.219             0.000             0.000
       455   13 Jun 2027 06:33:15.499   13 Jun 2027 06:33:18.441             2.942           410.000
       456   13 Jun 2027 06:33:53.865   13 Jun 2027 06:33:55.068             1.203           207.625
       457   13 Jun 2027 06:34:22.981   13 Jun 2027 06:34:22.981             0.000             0.000
       458   13 Jun 2027 06:34:23.694   13 Jun 2027 06:34:27.551             3.857           852.313
       459   13 Jun 2027 06:35:05.469   13 Jun 2027 06:35:15.359             9.890           955.594
       460   13 Jun 2027 08:07:10.168   13 Jun 2027 08:07:22.149            11.981          4450.000
       461   13 Jun 2027 08:07:50.252   13 Jun 2027 08:07:50.252             0.000             0.000
       462   13 Jun 2027 08:08:21.203   13 Jun 2027 08:08:23.425             2.222          1096.031
       463   13 Jun 2027 08:08:52.893   13 Jun 2027 08:08:59.917             7.024           920.875
       464   13 Jun 2027 08:10:18.558   13 Jun 2027 08:10:22.408             3.850          1475.156
       465   13 Jun 2027 08:10:53.771   13 Jun 2027 08:10:56.860             3.089           882.406
       466   13 Jun 2027 08:11:23.629   13 Jun 2027 08:11:25.588             1.959           719.687
       467   13 Jun 2027 08:11:42.106   13 Jun 2027 08:11:42.848             0.742           133.281
       468   13 Jun 2027 08:12:21.157   13 Jun 2027 08:12:23.155             1.998           829.938
       469   13 Jun 2027 08:12:32.090   13 Jun 2027 08:12:35.342             3.252           244.875
       470   13 Jun 2027 08:13:09.776   13 Jun 2027 08:13:09.776             0.000             0.000
       471   13 Jun 2027 08:13:51.618   13 Jun 2027 08:13:58.860             7.242          2383.625
       472   13 Jun 2027 09:43:30.674   13 Jun 2027 09:43:43.823            13.149          6038.594
       473   13 Jun 2027 09:45:15.944   13 Jun 2027 09:45:21.443             5.499          2090.375
       474   13 Jun 2027 09:45:45.328   13 Jun 2027 09:45:47.354             2.026           682.250
       475   13 Jun 2027 09:46:17.016   13 Jun 2027 09:46:19.207             2.191           926.938
       476   13 Jun 2027 09:46:28.418   13 Jun 2027 09:46:30.781             2.363            19.531
       477   13 Jun 2027 09:46:48.709   13 Jun 2027 09:46:57.091             8.382            70.187
       478   13 Jun 2027 09:47:15.151   13 Jun 2027 09:47:15.620             0.469           234.500
       479   13 Jun 2027 09:47:35.368   13 Jun 2027 09:47:39.300             3.932           947.000
       480   13 Jun 2027 09:48:03.486   13 Jun 2027 09:48:07.766             4.280           755.813
       481   13 Jun 2027 09:48:56.414   13 Jun 2027 09:48:57.559             1.145           572.500
       482   13 Jun 2027 09:49:37.217   13 Jun 2027 09:49:43.223             6.006          2153.719
       483   13 Jun 2027 11:21:04.751   13 Jun 2027 11:21:15.740            10.989          5494.500
       484   13 Jun 2027 11:21:46.842   13 Jun 2027 11:21:59.017            12.175          1854.344
       485   13 Jun 2027 11:22:45.232   13 Jun 2027 11:22:48.100             2.868          1434.000
       486   13 Jun 2027 11:22:58.553   13 Jun 2027 11:23:01.851             3.298           336.875
       487   13 Jun 2027 11:23:26.184   13 Jun 2027 11:23:34.069             7.885           760.406
       488   13 Jun 2027 11:24:10.900   13 Jun 2027 11:24:15.519             4.619          1150.969
       489   13 Jun 2027 11:25:03.430   13 Jun 2027 11:25:06.578             3.148          1497.219
       490   13 Jun 2027 11:25:21.051   13 Jun 2027 11:25:22.404             1.353           206.812
