uniorb/output/strategy_2/Camera/Camera_KinoSat_110601.txt

KinoSat_110601
-------------------------
    Access    *     Start Time (UTCG)     *     Stop Time (UTCG)  *   Duration (s) *   Data (Mbytes)
         1   01 Jun 2027 04:19:46.789   01 Jun 2027 04:21:39.745           112.956         56478.000
         2   01 Jun 2027 04:21:50.308   01 Jun 2027 04:22:07.181            16.873          8436.500
         3   01 Jun 2027 04:23:58.611   01 Jun 2027 04:23:58.611             0.000             0.000
         4   01 Jun 2027 04:24:22.622   01 Jun 2027 04:24:23.920             1.298           649.000
         5   01 Jun 2027 04:25:30.304   01 Jun 2027 04:25:48.191            17.887          8943.500
         6   01 Jun 2027 04:26:34.203   01 Jun 2027 04:27:04.884            30.681         15340.500
         7   01 Jun 2027 05:57:12.496   01 Jun 2027 05:59:52.485           159.989         79994.500
         8   01 Jun 2027 06:02:06.920   01 Jun 2027 06:02:16.424             9.504          4752.000
         9   01 Jun 2027 06:02:24.901   01 Jun 2027 06:02:38.798            13.897          6948.500
        10   01 Jun 2027 06:03:26.780   01 Jun 2027 06:03:37.559            10.779          5389.500
        11   01 Jun 2027 06:03:54.544   01 Jun 2027 06:03:55.751             1.207           603.500
        12   01 Jun 2027 07:33:59.559   01 Jun 2027 07:36:02.591           123.032         61516.000
        13   01 Jun 2027 07:36:50.932   01 Jun 2027 07:38:12.926            81.994         40997.000
        14   01 Jun 2027 07:38:18.255   01 Jun 2027 07:38:28.861            10.606          5303.000
        15   01 Jun 2027 07:39:24.835   01 Jun 2027 07:39:52.428            27.593         13796.500
        16   01 Jun 2027 09:11:57.449   01 Jun 2027 09:14:12.346           134.897         67448.500
        17   01 Jun 2027 09:14:12.754   01 Jun 2027 09:14:18.373             5.619          2809.500
        18   01 Jun 2027 09:14:37.529   01 Jun 2027 09:14:47.749            10.220          5110.000
        19   01 Jun 2027 09:16:04.736   01 Jun 2027 09:16:07.361             2.625          1312.500
        20   01 Jun 2027 10:45:34.728   01 Jun 2027 10:47:29.398           114.670         57335.000
        21   01 Jun 2027 10:48:49.807   01 Jun 2027 10:49:12.960            23.153         11576.500
        22   02 Jun 2027 03:00:19.390   02 Jun 2027 03:00:48.832            29.442         14721.000
        23   02 Jun 2027 04:31:15.545   02 Jun 2027 04:34:07.808           172.263         86131.500
        24   02 Jun 2027 04:34:17.776   02 Jun 2027 04:34:28.606            10.830          5415.000
        25   02 Jun 2027 04:34:33.962   02 Jun 2027 04:34:33.962             0.000             0.000
        26   02 Jun 2027 04:34:39.378   02 Jun 2027 04:34:40.818             1.440           720.000
        27   02 Jun 2027 04:34:47.822   02 Jun 2027 04:35:15.359            27.537         13768.500
        28   02 Jun 2027 04:35:44.972   02 Jun 2027 04:36:00.075            15.103          7551.500
        29   02 Jun 2027 04:40:07.761   02 Jun 2027 04:40:21.884            14.123          7061.500
        30   02 Jun 2027 06:09:06.448   02 Jun 2027 06:11:22.334           135.886         67943.000
        31   02 Jun 2027 06:11:57.719   02 Jun 2027 06:12:08.412            10.693          5346.500
        32   02 Jun 2027 06:15:44.200   02 Jun 2027 06:16:07.140            22.940         11470.000
        33   02 Jun 2027 07:45:51.093   02 Jun 2027 07:47:45.614           114.521         57260.500
        34   02 Jun 2027 07:47:55.255   02 Jun 2027 07:48:59.105            63.850         31925.000
        35   02 Jun 2027 07:49:53.596   02 Jun 2027 07:50:05.830            12.234          6117.000
        36   02 Jun 2027 07:50:50.503   02 Jun 2027 07:50:52.887             2.384          1192.000
        37   02 Jun 2027 07:51:37.821   02 Jun 2027 07:51:42.939             5.118          2559.000
        38   02 Jun 2027 09:23:59.979   02 Jun 2027 09:24:38.625            38.646         19323.000
        39   02 Jun 2027 09:25:34.164   02 Jun 2027 09:26:13.773            39.609         19655.469
        40   02 Jun 2027 09:26:26.689   02 Jun 2027 09:26:35.375             8.686           403.625
        41   02 Jun 2027 09:26:49.304   02 Jun 2027 09:26:53.503             4.199           433.125
        42   02 Jun 2027 09:27:21.451   02 Jun 2027 09:27:23.103             1.652           783.562
        43   02 Jun 2027 09:27:45.387   02 Jun 2027 09:27:47.442             2.055           535.406
        44   02 Jun 2027 10:57:51.470   02 Jun 2027 10:57:56.754             5.284          2407.437
        45   02 Jun 2027 10:59:11.461   02 Jun 2027 10:59:17.882             6.421          1962.906
        46   02 Jun 2027 10:59:46.889   02 Jun 2027 10:59:49.268             2.379           906.469
        47   02 Jun 2027 11:00:51.399   02 Jun 2027 11:00:54.806             3.407          1375.750
        48   02 Jun 2027 11:01:18.545   02 Jun 2027 11:01:20.645             2.100           508.188
        49   02 Jun 2027 11:01:51.375   02 Jun 2027 11:01:54.493             3.118           960.313
        50   02 Jun 2027 11:02:21.430   02 Jun 2027 11:02:26.806             5.376           343.844
        51   02 Jun 2027 11:02:49.042   02 Jun 2027 11:02:50.801             1.759           391.219
        52   02 Jun 2027 11:02:55.557   02 Jun 2027 11:02:57.445             1.888           148.625
        53   02 Jun 2027 11:04:04.224   02 Jun 2027 11:04:06.645             2.421          1210.500
        54   03 Jun 2027 03:10:15.764   03 Jun 2027 03:10:59.863            44.099         22049.500
        55   03 Jun 2027 03:12:34.736   03 Jun 2027 03:12:43.943             9.207          4603.500
        56   03 Jun 2027 04:44:03.953   03 Jun 2027 04:47:07.143           183.190         91595.000
        57   03 Jun 2027 04:47:20.999   03 Jun 2027 04:47:36.694            15.695          7847.500
        58   03 Jun 2027 04:50:45.602   03 Jun 2027 04:50:45.602             0.000             0.000
        59   03 Jun 2027 04:51:35.789   03 Jun 2027 04:51:58.248            22.459         11229.500
        60   03 Jun 2027 04:52:03.965   03 Jun 2027 04:52:16.087            12.122          6061.000
        61   03 Jun 2027 06:21:13.502   03 Jun 2027 06:22:34.947            81.445         40653.468
        62   03 Jun 2027 06:23:31.448   03 Jun 2027 06:23:36.455             5.007          1691.844
        63   03 Jun 2027 06:23:40.691   03 Jun 2027 06:23:46.379             5.688            53.156
        64   03 Jun 2027 06:24:26.694   03 Jun 2027 06:24:27.745             1.051           425.688
        65   03 Jun 2027 06:24:52.405   03 Jun 2027 06:24:59.148             6.743           637.344
        66   03 Jun 2027 06:26:39.074   03 Jun 2027 06:26:47.873             8.799          3006.031
        67   03 Jun 2027 06:28:00.323   03 Jun 2027 06:28:05.278             4.955          2106.656
        68   03 Jun 2027 07:58:16.875   03 Jun 2027 07:58:58.435            41.560         18550.344
        69   03 Jun 2027 07:59:26.614   03 Jun 2027 07:59:32.626             6.012           240.000
        70   03 Jun 2027 08:00:46.888   03 Jun 2027 08:00:46.888             0.000             0.000
        71   03 Jun 2027 08:01:04.457   03 Jun 2027 08:01:16.098            11.641          1818.313
        72   03 Jun 2027 08:02:20.459   03 Jun 2027 08:02:22.937             2.478          1239.000
        73   03 Jun 2027 08:02:27.574   03 Jun 2027 08:02:33.940             6.366           707.250
        74   03 Jun 2027 08:03:13.136   03 Jun 2027 08:03:15.936             2.800          1224.875
        75   03 Jun 2027 08:03:25.502   03 Jun 2027 08:03:26.481             0.979           298.937
        76   03 Jun 2027 08:03:56.962   03 Jun 2027 08:04:02.856             5.894           706.125
        77   03 Jun 2027 09:35:11.000   03 Jun 2027 09:35:31.872            20.872          8675.312
        78   03 Jun 2027 09:35:40.781   03 Jun 2027 09:35:41.445             0.664           128.250
        79   03 Jun 2027 09:36:26.356   03 Jun 2027 09:36:31.743             5.387          1403.469
        80   03 Jun 2027 09:36:54.847   03 Jun 2027 09:36:57.810             2.963           652.812
        81   03 Jun 2027 09:37:04.247   03 Jun 2027 09:37:04.422             0.175            17.031
        82   03 Jun 2027 09:37:36.718   03 Jun 2027 09:37:37.306             0.588           294.000
        83   03 Jun 2027 09:38:02.818   03 Jun 2027 09:38:07.127             4.309          1354.312
        84   03 Jun 2027 09:38:28.591   03 Jun 2027 09:38:32.499             3.908           670.750
        85   03 Jun 2027 09:38:44.408   03 Jun 2027 09:38:46.233             1.825           101.938
        86   03 Jun 2027 09:39:08.593   03 Jun 2027 09:39:14.961             6.368           446.594
        87   03 Jun 2027 09:39:17.509   03 Jun 2027 09:39:21.658             4.149            79.625
        88   03 Jun 2027 11:10:20.472   03 Jun 2027 11:10:26.332             5.860          2930.000
        89   03 Jun 2027 11:10:34.559   03 Jun 2027 11:10:38.424             3.865           613.250
        90   03 Jun 2027 11:12:04.503   03 Jun 2027 11:12:17.060            12.557          1930.562
        91   03 Jun 2027 11:13:06.386   03 Jun 2027 11:13:11.234             4.848          1528.063
        92   03 Jun 2027 11:13:30.484   03 Jun 2027 11:13:35.078             4.594           156.219
        93   03 Jun 2027 11:14:20.139   03 Jun 2027 11:14:22.112             1.973           986.500
        94   04 Jun 2027 03:22:32.834   04 Jun 2027 03:23:32.054            59.220         29610.000
        95   04 Jun 2027 03:23:40.028   04 Jun 2027 03:23:42.557             2.529          1264.500
        96   04 Jun 2027 03:23:44.334   04 Jun 2027 03:23:50.662             6.328          3164.000
        97   04 Jun 2027 03:24:36.803   04 Jun 2027 03:24:52.267            15.464          7732.000
        98   04 Jun 2027 04:56:24.998   04 Jun 2027 04:59:20.464           175.466         87733.000
        99   04 Jun 2027 05:00:16.158   04 Jun 2027 05:00:24.994             8.836          4418.000
       100   04 Jun 2027 05:00:28.003   04 Jun 2027 05:00:38.587            10.584          5292.000
       101   04 Jun 2027 05:00:52.089   04 Jun 2027 05:00:56.122             4.033          2016.500
       102   04 Jun 2027 05:03:00.528   04 Jun 2027 05:03:10.624            10.096          5048.000
       103   04 Jun 2027 05:03:30.035   04 Jun 2027 05:03:30.035             0.000             0.000
       104   04 Jun 2027 05:03:36.661   04 Jun 2027 05:04:09.386            32.725         15075.218
       105   04 Jun 2027 05:04:31.963   04 Jun 2027 05:04:33.273             1.310           605.938
       106   04 Jun 2027 06:33:40.097   04 Jun 2027 06:34:36.315            56.218         27120.344
       107   04 Jun 2027 06:35:20.868   04 Jun 2027 06:35:21.531             0.663           261.906
       108   04 Jun 2027 06:35:53.676   04 Jun 2027 06:35:54.798             1.122           389.625
       109   04 Jun 2027 06:37:01.927   04 Jun 2027 06:37:05.768             3.841          1405.188
       110   04 Jun 2027 06:38:11.913   04 Jun 2027 06:38:16.231             4.318          1760.937
       111   04 Jun 2027 06:38:55.856   04 Jun 2027 06:38:58.892             3.036          1223.562
       112   04 Jun 2027 06:39:47.924   04 Jun 2027 06:39:51.293             3.369          1532.250
       113   04 Jun 2027 08:10:41.541   04 Jun 2027 08:11:14.977            33.436         16032.250
       114   04 Jun 2027 08:11:22.266   04 Jun 2027 08:11:23.913             1.647            57.844
       115   04 Jun 2027 08:12:33.394   04 Jun 2027 08:12:36.802             3.408          1225.531
       116   04 Jun 2027 08:12:48.393   04 Jun 2027 08:12:48.974             0.581           105.906
       117   04 Jun 2027 08:13:01.801   04 Jun 2027 08:13:04.153             2.352           369.375
       118   04 Jun 2027 08:13:23.694   04 Jun 2027 08:13:23.694             0.000             0.000
       119   04 Jun 2027 08:13:26.090   04 Jun 2027 08:13:26.526             0.436           218.000
       120   04 Jun 2027 08:14:04.106   04 Jun 2027 08:14:07.754             3.648          1641.906
       121   04 Jun 2027 08:14:59.295   04 Jun 2027 08:14:59.785             0.490           245.000
       122   04 Jun 2027 08:15:27.865   04 Jun 2027 08:15:32.828             4.963          2230.344
       123   04 Jun 2027 09:47:25.530   04 Jun 2027 09:47:47.932            22.402         10362.563
       124   04 Jun 2027 09:48:01.582   04 Jun 2027 09:48:03.782             2.200           412.219
       125   04 Jun 2027 09:49:14.902   04 Jun 2027 09:49:22.393             7.491          2222.500
       126   04 Jun 2027 09:49:39.809   04 Jun 2027 09:49:41.606             1.797           397.063
       127   04 Jun 2027 09:50:35.442   04 Jun 2027 09:50:39.841             4.399          1682.375
       128   04 Jun 2027 09:50:52.696   04 Jun 2027 09:50:52.696             0.000             0.000
       129   04 Jun 2027 09:51:11.491   04 Jun 2027 09:51:12.989             1.498           749.000
       130   04 Jun 2027 09:51:28.828   04 Jun 2027 09:51:32.492             3.664           735.031
       131   04 Jun 2027 11:25:34.546   04 Jun 2027 11:25:38.693             4.147          1248.469
       132   04 Jun 2027 11:26:06.536   04 Jun 2027 11:26:08.704             2.168           540.406
       133   04 Jun 2027 11:26:32.611   04 Jun 2027 11:26:34.252             1.641           460.313
       134   04 Jun 2027 11:26:38.346   04 Jun 2027 11:26:38.346             0.000             0.000
       135   05 Jun 2027 03:34:36.124   05 Jun 2027 03:35:23.625            47.501         23750.500
       136   05 Jun 2027 03:36:43.283   05 Jun 2027 03:36:43.283             0.000             0.000
       137   05 Jun 2027 05:09:42.673   05 Jun 2027 05:11:33.275           110.602         55301.000
       138   05 Jun 2027 05:11:43.760   05 Jun 2027 05:12:47.151            63.391         31695.500
       139   05 Jun 2027 05:13:34.967   05 Jun 2027 05:13:46.280            11.313          5656.500
       140   05 Jun 2027 05:15:00.164   05 Jun 2027 05:15:29.305            29.141         14570.500
       141   05 Jun 2027 05:15:31.966   05 Jun 2027 05:15:35.166             3.200          1600.000
       142   05 Jun 2027 05:16:26.676   05 Jun 2027 05:16:32.378             5.702          2851.000
       143   05 Jun 2027 06:46:03.328   05 Jun 2027 06:47:09.546            66.218         33109.000
       144   05 Jun 2027 06:47:14.078   05 Jun 2027 06:47:16.697             2.619          1128.782
       145   05 Jun 2027 06:47:39.416   05 Jun 2027 06:47:40.894             1.478           563.250
       146   05 Jun 2027 06:48:22.722   05 Jun 2027 06:48:25.325             2.603          1295.031
       147   05 Jun 2027 06:49:06.826   05 Jun 2027 06:49:09.911             3.085           512.875
       148   05 Jun 2027 06:50:10.373   05 Jun 2027 06:50:13.897             3.524          1490.281
       149   05 Jun 2027 06:50:28.621   05 Jun 2027 06:50:29.315             0.694            41.531
       150   05 Jun 2027 06:52:09.087   05 Jun 2027 06:52:21.560            12.473          3065.688
       151   05 Jun 2027 08:23:33.366   05 Jun 2027 08:24:05.991            32.625         14937.375
       152   05 Jun 2027 08:24:32.887   05 Jun 2027 08:24:33.805             0.918           388.438
       153   05 Jun 2027 08:25:16.293   05 Jun 2027 08:25:22.309             6.016          1078.406
       154   05 Jun 2027 08:25:56.690   05 Jun 2027 08:25:59.745             3.055          1012.969
       155   05 Jun 2027 08:26:47.575   05 Jun 2027 08:26:52.168             4.593          1494.687
       156   05 Jun 2027 08:27:29.505   05 Jun 2027 08:27:32.931             3.426          1030.906
       157   05 Jun 2027 09:59:37.779   05 Jun 2027 09:59:55.645            17.866          8155.125
       158   05 Jun 2027 10:00:33.886   05 Jun 2027 10:00:36.611             2.725          1188.031
       159   05 Jun 2027 10:01:18.822   05 Jun 2027 10:01:21.118             2.296           838.625
       160   05 Jun 2027 10:02:41.628   05 Jun 2027 10:02:51.586             9.958          2507.313
       161   05 Jun 2027 10:02:59.463   05 Jun 2027 10:03:03.258             3.795           246.156
       162   06 Jun 2027 03:46:46.736   06 Jun 2027 03:47:43.666            56.930         28465.000
       163   06 Jun 2027 03:48:42.371   06 Jun 2027 03:48:50.933             8.562          4281.000
       164   06 Jun 2027 03:50:13.130   06 Jun 2027 03:50:15.696             2.566          1283.000
       165   06 Jun 2027 05:21:56.463   06 Jun 2027 05:25:42.282           225.819        112909.500
       166   06 Jun 2027 05:28:19.631   06 Jun 2027 05:28:32.387            12.756          6378.000
       167   06 Jun 2027 06:58:17.894   06 Jun 2027 06:59:08.904            51.010         24720.563
       168   06 Jun 2027 06:59:24.592   06 Jun 2027 06:59:28.315             3.723           284.656
       169   06 Jun 2027 07:00:01.651   06 Jun 2027 07:00:05.601             3.950           580.656
       170   06 Jun 2027 07:00:44.522   06 Jun 2027 07:00:46.383             1.861           689.281
       171   06 Jun 2027 07:01:26.076   06 Jun 2027 07:01:26.812             0.736           368.000
       172   06 Jun 2027 07:02:28.549   06 Jun 2027 07:02:34.920             6.371          1996.313
       173   06 Jun 2027 07:02:42.643   06 Jun 2027 07:02:44.278             1.635            84.938
       174   06 Jun 2027 07:03:21.166   06 Jun 2027 07:03:24.516             3.350          1124.594
       175   06 Jun 2027 07:03:51.568   06 Jun 2027 07:03:56.210             4.642           720.344
       176   06 Jun 2027 08:35:36.151   06 Jun 2027 08:36:01.880            25.729         12864.500
       177   06 Jun 2027 08:37:09.080   06 Jun 2027 08:37:24.514            15.434          3447.344
       178   06 Jun 2027 08:37:28.927   06 Jun 2027 08:37:29.474             0.547           137.906
       179   06 Jun 2027 08:38:22.266   06 Jun 2027 08:38:31.002             8.736          1438.062
       180   06 Jun 2027 08:38:36.140   06 Jun 2027 08:38:41.189             5.049           123.750
       181   06 Jun 2027 08:39:05.465   06 Jun 2027 08:39:07.516             2.051           758.625
       182   06 Jun 2027 08:39:24.312   06 Jun 2027 08:39:25.172             0.860           430.000
       183   06 Jun 2027 08:40:11.435   06 Jun 2027 08:40:14.303             2.868          1434.000
       184   06 Jun 2027 10:11:48.043   06 Jun 2027 10:12:04.458            16.415          7798.937
       185   06 Jun 2027 10:12:49.264   06 Jun 2027 10:12:52.355             3.091          1389.438
       186   06 Jun 2027 10:12:59.493   06 Jun 2027 10:13:02.464             2.971           180.187
       187   06 Jun 2027 10:13:13.762   06 Jun 2027 10:13:16.160             2.398           353.062
       188   06 Jun 2027 10:14:47.222   06 Jun 2027 10:14:52.988             5.766          2369.813
       189   06 Jun 2027 10:15:32.973   06 Jun 2027 10:15:40.108             7.135           520.031
       190   06 Jun 2027 10:16:35.842   06 Jun 2027 10:16:36.311             0.469           234.500
       191   07 Jun 2027 03:58:37.073   07 Jun 2027 03:59:40.094            63.021         31510.500
       192   07 Jun 2027 03:59:40.930   07 Jun 2027 04:00:04.208            23.278         11639.000
       193   07 Jun 2027 04:01:00.621   07 Jun 2027 04:01:00.621             0.000             0.000
       194   07 Jun 2027 04:01:57.376   07 Jun 2027 04:01:58.823             1.447           723.500
       195   07 Jun 2027 04:02:09.938   07 Jun 2027 04:02:14.322             4.384          2192.000
       196   07 Jun 2027 05:33:30.901   07 Jun 2027 05:36:20.321           169.420         84710.000
       197   07 Jun 2027 05:37:45.274   07 Jun 2027 05:38:05.108            19.834          9917.000
       198   07 Jun 2027 05:38:22.457   07 Jun 2027 05:38:34.173            11.716          5858.000
       199   07 Jun 2027 05:38:54.535   07 Jun 2027 05:38:58.267             3.732          1866.000
       200   07 Jun 2027 05:39:25.192   07 Jun 2027 05:39:28.297             3.105          1552.500
       201   07 Jun 2027 05:39:51.494   07 Jun 2027 05:40:05.823            14.329          7164.500
       202   07 Jun 2027 05:40:37.358   07 Jun 2027 05:40:41.360             4.002          2001.000
       203   07 Jun 2027 07:09:54.211   07 Jun 2027 07:11:16.643            82.432         41004.563
       204   07 Jun 2027 07:12:03.103   07 Jun 2027 07:12:03.473             0.370           158.344
       205   07 Jun 2027 07:12:24.038   07 Jun 2027 07:12:26.117             2.079           642.656
       206   07 Jun 2027 07:12:32.632   07 Jun 2027 07:12:33.942             1.310           185.125
       207   07 Jun 2027 07:13:19.061   07 Jun 2027 07:13:21.213             2.152           239.000
       208   07 Jun 2027 07:13:56.339   07 Jun 2027 07:13:59.693             3.354          1097.687
       209   07 Jun 2027 07:14:07.596   07 Jun 2027 07:14:16.981             9.385           223.563
       210   07 Jun 2027 07:14:43.166   07 Jun 2027 07:14:44.110             0.944           472.000
       211   07 Jun 2027 08:48:10.732   07 Jun 2027 08:48:31.598            20.866         10433.000
       212   07 Jun 2027 08:48:53.031   07 Jun 2027 08:48:57.022             3.991          1328.344
       213   07 Jun 2027 08:49:17.418   07 Jun 2027 08:49:24.388             6.970           384.688
       214   07 Jun 2027 08:49:53.255   07 Jun 2027 08:49:53.255             0.000             0.000
       215   07 Jun 2027 08:49:56.020   07 Jun 2027 08:50:00.304             4.284           988.500
       216   07 Jun 2027 08:51:02.784   07 Jun 2027 08:51:09.422             6.638          1715.469
       217   07 Jun 2027 08:51:58.958   07 Jun 2027 08:52:02.184             3.226          1548.000
       218   07 Jun 2027 10:23:33.653   07 Jun 2027 10:23:48.243            14.590          7295.000
       219   07 Jun 2027 10:23:56.854   07 Jun 2027 10:23:59.754             2.900           526.125
       220   07 Jun 2027 10:24:40.036   07 Jun 2027 10:24:46.458             6.422          1204.062
       221   07 Jun 2027 10:25:01.156   07 Jun 2027 10:25:01.156             0.000             0.000
       222   07 Jun 2027 10:25:39.549   07 Jun 2027 10:25:43.308             3.759          1553.187
       223   07 Jun 2027 10:26:35.287   07 Jun 2027 10:26:36.861             1.574           787.000
       224   07 Jun 2027 10:26:50.521   07 Jun 2027 10:26:50.521             0.000             0.000
       225   07 Jun 2027 10:27:08.878   07 Jun 2027 10:27:13.326             4.448          1490.500
       226   07 Jun 2027 10:28:33.451   07 Jun 2027 10:28:40.691             7.240          2503.906
       227   08 Jun 2027 04:08:54.609   08 Jun 2027 04:09:40.633            46.024         23012.000
       228   08 Jun 2027 04:10:21.004   08 Jun 2027 04:11:05.514            44.510         22255.000
       229   08 Jun 2027 04:11:13.509   08 Jun 2027 04:11:26.705            13.196          6598.000
       230   08 Jun 2027 04:13:39.933   08 Jun 2027 04:14:02.527            22.594         11297.000
       231   08 Jun 2027 04:14:44.649   08 Jun 2027 04:14:44.649             0.000             0.000
       232   08 Jun 2027 05:45:07.369   08 Jun 2027 05:47:49.462           162.093         81046.500
       233   08 Jun 2027 05:49:22.942   08 Jun 2027 05:49:22.942             0.000             0.000
       234   08 Jun 2027 05:49:50.538   08 Jun 2027 05:49:54.626             4.088          2044.000
       235   08 Jun 2027 05:51:40.718   08 Jun 2027 05:51:48.899             8.181          4090.500
       236   08 Jun 2027 05:51:57.715   08 Jun 2027 05:52:05.567             7.852          3926.000
       237   08 Jun 2027 05:52:41.893   08 Jun 2027 05:52:42.074             0.181            90.500
       238   08 Jun 2027 07:22:13.744   08 Jun 2027 07:23:17.379            63.635         31817.500
       239   08 Jun 2027 07:23:56.215   08 Jun 2027 07:24:12.514            16.299          7935.531
       240   08 Jun 2027 07:25:04.749   08 Jun 2027 07:25:11.828             7.079          1313.687
       241   08 Jun 2027 07:25:36.541   08 Jun 2027 07:25:36.541             0.000             0.000
       242   08 Jun 2027 07:26:13.153   08 Jun 2027 07:26:16.659             3.506          1588.531
       243   08 Jun 2027 07:26:49.613   08 Jun 2027 07:26:51.032             1.419           709.500
       244   08 Jun 2027 07:26:59.748   08 Jun 2027 07:27:00.145             0.397           198.500
       245   08 Jun 2027 07:27:18.834   08 Jun 2027 07:27:20.926             2.092           978.218
       246   08 Jun 2027 07:28:21.551   08 Jun 2027 07:28:28.990             7.439          1592.937
       247   08 Jun 2027 09:00:11.658   08 Jun 2027 09:00:37.307            25.649         10577.063
       248   08 Jun 2027 09:01:05.420   08 Jun 2027 09:01:05.420             0.000             0.000
       249   08 Jun 2027 09:01:05.928   08 Jun 2027 09:01:07.140             1.212           606.000
       250   08 Jun 2027 09:01:24.470   08 Jun 2027 09:01:27.487             3.017           648.000
       251   08 Jun 2027 09:01:52.221   08 Jun 2027 09:02:01.797             9.576           160.781
       252   08 Jun 2027 09:02:15.223   08 Jun 2027 09:02:19.364             4.141           419.562
       253   08 Jun 2027 09:02:43.919   08 Jun 2027 09:02:45.690             1.771           767.344
       254   08 Jun 2027 09:03:53.699   08 Jun 2027 09:03:57.237             3.538          1444.844
       255   08 Jun 2027 10:33:19.071   08 Jun 2027 10:33:34.502            15.431          6214.938
       256   08 Jun 2027 10:35:09.674   08 Jun 2027 10:35:13.700             4.026          1568.375
       257   08 Jun 2027 10:36:10.890   08 Jun 2027 10:36:14.365             3.475          1629.187
       258   08 Jun 2027 10:36:41.984   08 Jun 2027 10:36:45.477             3.493           863.094
       259   08 Jun 2027 10:36:51.221   08 Jun 2027 10:36:55.912             4.691           144.750
       260   08 Jun 2027 10:37:49.266   08 Jun 2027 10:37:53.218             3.952          1528.406
       261   08 Jun 2027 10:38:26.452   08 Jun 2027 10:38:26.452             0.000             0.000
       262   08 Jun 2027 10:38:49.352   08 Jun 2027 10:38:56.825             7.473          1467.938
       263   08 Jun 2027 10:39:24.923   08 Jun 2027 10:39:24.923             0.000             0.000
       264   08 Jun 2027 10:40:18.035   08 Jun 2027 10:40:22.035             4.000          1121.750
       265   08 Jun 2027 10:40:56.212   08 Jun 2027 10:41:01.108             4.896           929.438
       266   09 Jun 2027 04:20:01.257   09 Jun 2027 04:21:54.305           113.048         56524.000
       267   09 Jun 2027 04:22:04.682   09 Jun 2027 04:22:35.155            30.473         15236.500
       268   09 Jun 2027 04:22:38.174   09 Jun 2027 04:22:38.174             0.000             0.000
       269   09 Jun 2027 04:22:42.649   09 Jun 2027 04:23:05.602            22.953         11476.500
       270   09 Jun 2027 04:23:14.752   09 Jun 2027 04:23:22.990             8.238          4119.000
       271   09 Jun 2027 04:23:34.466   09 Jun 2027 04:23:46.739            12.273          6136.500
       272   09 Jun 2027 04:25:10.194   09 Jun 2027 04:25:20.712            10.518          5259.000
       273   09 Jun 2027 04:25:49.643   09 Jun 2027 04:25:51.068             1.425           712.500
       274   09 Jun 2027 04:28:04.447   09 Jun 2027 04:28:17.933            13.486          6743.000
       275   09 Jun 2027 05:57:27.215   09 Jun 2027 05:58:34.526            67.311         33655.500
       276   09 Jun 2027 05:58:53.226   09 Jun 2027 05:59:51.485            58.259         28476.313
       277   09 Jun 2027 05:59:55.790   09 Jun 2027 05:59:58.522             2.732           134.531
       278   09 Jun 2027 06:01:51.011   09 Jun 2027 06:01:52.884             1.873           936.500
       279   09 Jun 2027 06:02:25.577   09 Jun 2027 06:02:31.832             6.255          3127.500
       280   09 Jun 2027 06:02:39.512   09 Jun 2027 06:02:45.291             5.779           588.000
       281   09 Jun 2027 06:03:42.422   09 Jun 2027 06:03:46.271             3.849          1533.750
       282   09 Jun 2027 07:34:14.065   09 Jun 2027 07:35:09.824            55.759         27767.281
       283   09 Jun 2027 07:36:16.340   09 Jun 2027 07:36:17.216             0.876           311.313
       284   09 Jun 2027 07:37:38.105   09 Jun 2027 07:37:43.418             5.313          1629.656
       285   09 Jun 2027 07:38:27.213   09 Jun 2027 07:38:32.156             4.943          1368.594
       286   09 Jun 2027 07:38:53.047   09 Jun 2027 07:38:54.952             1.905           652.844
       287   09 Jun 2027 07:40:08.274   09 Jun 2027 07:40:12.757             4.483          2226.656
       288   09 Jun 2027 07:40:30.309   09 Jun 2027 07:40:32.695             2.386            24.938
       289   09 Jun 2027 09:12:12.119   09 Jun 2027 09:12:35.363            23.244          9681.719
       290   09 Jun 2027 09:12:58.809   09 Jun 2027 09:13:01.737             2.928           720.687
       291   09 Jun 2027 09:13:06.959   09 Jun 2027 09:13:10.638             3.679            64.812
       292   09 Jun 2027 09:13:16.701   09 Jun 2027 09:13:22.850             6.149           189.469
       293   09 Jun 2027 09:13:38.872   09 Jun 2027 09:13:38.872             0.000             0.000
       294   09 Jun 2027 09:13:51.585   09 Jun 2027 09:13:56.880             5.295           897.969
       295   09 Jun 2027 09:14:33.043   09 Jun 2027 09:14:39.183             6.140           512.969
       296   09 Jun 2027 09:14:55.336   09 Jun 2027 09:14:59.942             4.606           471.125
       297   09 Jun 2027 09:15:27.183   09 Jun 2027 09:15:29.117             1.934           851.281
       298   09 Jun 2027 09:16:05.311   09 Jun 2027 09:16:08.129             2.818          1114.687
       299   09 Jun 2027 10:45:49.616   09 Jun 2027 10:45:58.261             8.645          2468.375
       300   09 Jun 2027 10:47:33.624   09 Jun 2027 10:47:35.909             2.285          1098.406
       301   09 Jun 2027 10:47:55.378   09 Jun 2027 10:48:00.781             5.403           351.125
       302   09 Jun 2027 10:49:29.364   09 Jun 2027 10:49:38.658             9.294          2196.250
       303   09 Jun 2027 10:49:49.721   09 Jun 2027 10:49:52.336             2.615           237.750
       304   09 Jun 2027 10:50:16.711   09 Jun 2027 10:50:18.403             1.692           567.781
       305   09 Jun 2027 10:51:15.696   09 Jun 2027 10:51:22.439             6.743          1224.813
       306   09 Jun 2027 10:52:30.472   09 Jun 2027 10:52:32.491             2.019          1009.500
       307   09 Jun 2027 10:52:34.597   09 Jun 2027 10:52:37.737             3.140          1010.125
       308   09 Jun 2027 10:53:06.756   09 Jun 2027 10:53:08.568             1.812           725.281
       309   10 Jun 2027 03:00:00.000   10 Jun 2027 03:00:13.249            13.249          6624.500
       310   10 Jun 2027 03:00:42.067   10 Jun 2027 03:00:52.686            10.619          5309.500
       311   10 Jun 2027 03:01:04.188   10 Jun 2027 03:01:17.713            13.525          6762.500
       312   10 Jun 2027 03:02:00.728   10 Jun 2027 03:02:26.146            25.418         12709.000
       313   10 Jun 2027 04:31:29.798   10 Jun 2027 04:33:59.168           149.370         74685.000
       314   10 Jun 2027 04:35:29.911   10 Jun 2027 04:35:29.911             0.000             0.000
       315   10 Jun 2027 04:35:49.652   10 Jun 2027 04:36:02.290            12.638          6319.000
       316   10 Jun 2027 04:36:38.124   10 Jun 2027 04:36:38.124             0.000             0.000
       317   10 Jun 2027 04:36:43.262   10 Jun 2027 04:36:55.151            11.889          5944.500
       318   10 Jun 2027 04:38:04.283   10 Jun 2027 04:38:05.138             0.855           427.500
       319   10 Jun 2027 04:39:03.968   10 Jun 2027 04:39:26.118            22.150         11075.000
       320   10 Jun 2027 04:39:50.878   10 Jun 2027 04:40:05.561            14.683          7341.500
       321   10 Jun 2027 04:40:22.188   10 Jun 2027 04:40:36.901            14.713          7356.500
       322   10 Jun 2027 04:40:39.081   10 Jun 2027 04:40:39.081             0.000             0.000
       323   10 Jun 2027 06:09:21.223   10 Jun 2027 06:11:01.143            99.920         49960.000
       324   10 Jun 2027 06:11:35.192   10 Jun 2027 06:11:38.531             3.339          1228.186
       325   10 Jun 2027 06:12:23.209   10 Jun 2027 06:12:27.142             3.933          1396.188
       326   10 Jun 2027 06:12:34.542   10 Jun 2027 06:12:34.542             0.000             0.000
       327   10 Jun 2027 06:13:51.916   10 Jun 2027 06:13:55.863             3.947          1973.500
       328   10 Jun 2027 06:14:53.194   10 Jun 2027 06:14:53.194             0.000             0.000
       329   10 Jun 2027 06:15:15.326   10 Jun 2027 06:15:22.595             7.269          3128.312
       330   10 Jun 2027 06:16:37.154   10 Jun 2027 06:16:39.643             2.489          1202.719
       331   10 Jun 2027 07:46:05.689   10 Jun 2027 07:46:49.931            44.242         22121.000
       332   10 Jun 2027 07:46:52.648   10 Jun 2027 07:46:56.963             4.315          1526.219
       333   10 Jun 2027 07:47:19.047   10 Jun 2027 07:47:25.387             6.340           622.688
       334   10 Jun 2027 07:47:47.083   10 Jun 2027 07:47:49.685             2.602           472.875
       335   10 Jun 2027 07:49:17.119   10 Jun 2027 07:49:19.750             2.631          1315.500
       336   10 Jun 2027 07:49:58.678   10 Jun 2027 07:50:03.025             4.347          1525.625
       337   10 Jun 2027 07:50:23.306   10 Jun 2027 07:50:28.860             5.554           633.781
       338   10 Jun 2027 07:50:35.382   10 Jun 2027 07:50:37.086             1.704            82.719
       339   10 Jun 2027 07:51:05.572   10 Jun 2027 07:51:07.766             2.194           578.719
       340   10 Jun 2027 07:51:52.213   10 Jun 2027 07:51:55.588             3.375          1388.969
       341   10 Jun 2027 07:52:14.191   10 Jun 2027 07:52:18.578             4.387           500.187
       342   10 Jun 2027 09:24:14.903   10 Jun 2027 09:24:34.110            19.207          9355.969
       343   10 Jun 2027 09:25:08.161   10 Jun 2027 09:25:12.568             4.407           866.500
       344   10 Jun 2027 09:25:14.464   10 Jun 2027 09:25:16.068             1.604            59.250
       345   10 Jun 2027 09:25:44.076   10 Jun 2027 09:25:48.842             4.766           875.250
       346   10 Jun 2027 09:26:37.696   10 Jun 2027 09:26:41.117             3.421          1526.687
       347   10 Jun 2027 09:27:26.897   10 Jun 2027 09:27:32.725             5.828          1040.281
       348   10 Jun 2027 09:28:09.923   10 Jun 2027 09:28:18.167             8.244          1162.437
       349   10 Jun 2027 10:58:06.582   10 Jun 2027 10:58:11.477             4.895          1727.688
       350   10 Jun 2027 10:58:53.646   10 Jun 2027 10:58:56.829             3.183          1219.281
       351   10 Jun 2027 11:00:01.371   10 Jun 2027 11:00:05.113             3.742          1488.000
       352   10 Jun 2027 11:00:41.794   10 Jun 2027 11:00:41.794             0.000             0.000
       353   10 Jun 2027 11:00:51.812   10 Jun 2027 11:00:55.768             3.956           910.500
       354   10 Jun 2027 11:01:17.458   10 Jun 2027 11:01:17.519             0.061            30.500
       355   10 Jun 2027 11:01:33.112   10 Jun 2027 11:01:37.277             4.165           813.000
       356   10 Jun 2027 11:01:43.584   10 Jun 2027 11:01:43.584             0.000             0.000
       357   10 Jun 2027 11:01:49.057   10 Jun 2027 11:01:53.455             4.398           368.125
       358   10 Jun 2027 11:02:51.376   10 Jun 2027 11:02:54.895             3.519          1365.000
       359   10 Jun 2027 11:03:30.864   10 Jun 2027 11:03:35.441             4.577          1124.031
       360   10 Jun 2027 11:04:13.274   10 Jun 2027 11:04:17.664             4.390          1151.094
       361   11 Jun 2027 03:10:30.654   11 Jun 2027 03:11:39.133            68.479         34239.500
       362   11 Jun 2027 03:13:04.888   11 Jun 2027 03:13:06.945             2.057          1028.500
       363   11 Jun 2027 04:44:18.646   11 Jun 2027 04:46:56.243           157.597         78798.500
       364   11 Jun 2027 04:47:01.760   11 Jun 2027 04:47:01.760             0.000             0.000
       365   11 Jun 2027 04:48:17.198   11 Jun 2027 04:48:31.573            14.375          7187.500
       366   11 Jun 2027 04:48:45.227   11 Jun 2027 04:48:51.272             6.045          3022.500
       367   11 Jun 2027 04:51:39.704   11 Jun 2027 04:51:44.159             4.455          2227.500
       368   11 Jun 2027 04:51:51.061   11 Jun 2027 04:52:14.081            23.020         11510.000
       369   11 Jun 2027 06:21:28.198   11 Jun 2027 06:22:59.518            91.320         45233.156
       370   11 Jun 2027 06:23:25.616   11 Jun 2027 06:23:27.126             1.510           707.375
       371   11 Jun 2027 06:24:27.855   11 Jun 2027 06:24:31.550             3.695          1536.437
       372   11 Jun 2027 06:25:20.096   11 Jun 2027 06:25:22.329             2.233          1116.500
       373   11 Jun 2027 06:25:34.180   11 Jun 2027 06:25:34.577             0.397           198.500
       374   11 Jun 2027 06:26:16.139   11 Jun 2027 06:26:20.386             4.247          1743.313
       375   11 Jun 2027 06:26:33.275   11 Jun 2027 06:26:33.926             0.651           255.188
       376   11 Jun 2027 06:28:16.216   11 Jun 2027 06:28:21.704             5.488          2551.688
       377   11 Jun 2027 07:58:32.060   11 Jun 2027 07:59:08.659            36.599         17753.469
       378   11 Jun 2027 07:59:20.022   11 Jun 2027 07:59:21.653             1.631            87.219
       379   11 Jun 2027 08:01:07.861   11 Jun 2027 08:01:09.466             1.605           802.500
       380   11 Jun 2027 08:01:44.480   11 Jun 2027 08:01:49.004             4.524          2099.687
       381   11 Jun 2027 08:03:01.278   11 Jun 2027 08:03:08.235             6.957          1895.344
       382   11 Jun 2027 08:04:03.373   11 Jun 2027 08:04:06.437             3.064          1434.562
       383   11 Jun 2027 09:35:25.408   11 Jun 2027 09:35:46.114            20.706         10287.875
       384   11 Jun 2027 09:35:53.587   11 Jun 2027 09:35:54.697             1.110            74.719
       385   11 Jun 2027 09:36:42.085   11 Jun 2027 09:36:47.767             5.682          1364.187
       386   11 Jun 2027 09:37:13.495   11 Jun 2027 09:37:16.728             3.233           804.000
       387   11 Jun 2027 09:37:19.984   11 Jun 2027 09:37:24.739             4.755           101.750
       388   11 Jun 2027 09:38:28.568   11 Jun 2027 09:38:34.041             5.473          1994.656
       389   11 Jun 2027 09:39:21.278   11 Jun 2027 09:39:24.176             2.898          1330.438
       390   11 Jun 2027 09:39:30.160   11 Jun 2027 09:39:33.514             3.354             6.125
       391   11 Jun 2027 09:40:00.265   11 Jun 2027 09:40:06.394             6.129           635.594
       392   11 Jun 2027 11:10:35.935   11 Jun 2027 11:10:45.901             9.966          4243.781
       393   11 Jun 2027 11:12:10.652   11 Jun 2027 11:12:13.194             2.542          1014.500
       394   11 Jun 2027 11:12:32.875   11 Jun 2027 11:12:36.007             3.132           428.344
       395   11 Jun 2027 11:12:51.356   11 Jun 2027 11:12:52.334             0.978           349.281
       396   11 Jun 2027 11:13:07.556   11 Jun 2027 11:13:07.556             0.000             0.000
       397   11 Jun 2027 11:13:25.143   11 Jun 2027 11:13:28.077             2.934          1015.906
       398   11 Jun 2027 11:13:55.441   11 Jun 2027 11:13:58.466             3.025           648.781
       399   11 Jun 2027 11:14:34.733   11 Jun 2027 11:14:36.744             2.011          1005.500
       400   11 Jun 2027 11:14:48.908   11 Jun 2027 11:14:51.805             2.897           507.969
       401   11 Jun 2027 11:15:13.601   11 Jun 2027 11:15:15.834             2.233           669.313
       402   12 Jun 2027 03:22:47.461   12 Jun 2027 03:23:47.699            60.238         30119.000
       403   12 Jun 2027 03:24:07.802   12 Jun 2027 03:24:42.742            34.940         17470.000
       404   12 Jun 2027 03:25:42.319   12 Jun 2027 03:25:42.319             0.000             0.000
       405   12 Jun 2027 03:26:06.215   12 Jun 2027 03:26:15.431             9.216          4608.000
       406   12 Jun 2027 04:56:40.012   12 Jun 2027 05:00:18.434           218.422        109211.000
       407   12 Jun 2027 05:03:29.840   12 Jun 2027 05:03:43.571            13.731          6837.969
       408   12 Jun 2027 05:04:46.540   12 Jun 2027 05:04:49.027             2.487          1243.500
       409   12 Jun 2027 06:33:54.544   12 Jun 2027 06:34:58.820            64.276         31893.281
       410   12 Jun 2027 06:35:28.522   12 Jun 2027 06:35:29.359             0.837            36.687
       411   12 Jun 2027 06:36:13.922   12 Jun 2027 06:36:15.894             1.972           549.750
       412   12 Jun 2027 06:36:31.733   12 Jun 2027 06:36:34.044             2.311           494.969
       413   12 Jun 2027 06:37:16.600   12 Jun 2027 06:37:19.731             3.131           864.281
       414   12 Jun 2027 06:37:34.212   12 Jun 2027 06:37:35.496             1.284           250.844
       415   12 Jun 2027 06:40:02.361   12 Jun 2027 06:40:14.908            12.547          4277.844
       416   12 Jun 2027 08:10:56.655   12 Jun 2027 08:11:30.908            34.253         15884.188
       417   12 Jun 2027 08:11:57.718   12 Jun 2027 08:12:01.991             4.273           636.062
       418   12 Jun 2027 08:12:49.404   12 Jun 2027 08:12:52.564             3.160          1273.125
       419   12 Jun 2027 08:13:03.241   12 Jun 2027 08:13:03.566             0.325            17.844
       420   12 Jun 2027 08:14:18.375   12 Jun 2027 08:14:22.456             4.081          1982.500
       421   12 Jun 2027 08:14:42.085   12 Jun 2027 08:14:42.085             0.000             0.000
       422   12 Jun 2027 08:15:15.599   12 Jun 2027 08:15:21.034             5.435          1631.906
       423   12 Jun 2027 08:15:41.479   12 Jun 2027 08:15:43.905             2.426           638.906
       424   12 Jun 2027 08:15:53.286   12 Jun 2027 08:15:53.286             0.000             0.000
       425   12 Jun 2027 09:47:40.300   12 Jun 2027 09:47:56.898            16.598          7385.281
       426   12 Jun 2027 09:48:31.553   12 Jun 2027 09:48:33.452             1.899           520.187
       427   12 Jun 2027 09:49:01.341   12 Jun 2027 09:49:03.897             2.556           726.406
       428   12 Jun 2027 09:49:51.710   12 Jun 2027 09:49:55.019             3.309          1273.094
       429   12 Jun 2027 09:50:17.903   12 Jun 2027 09:50:19.531             1.628           665.937
       430   12 Jun 2027 09:50:47.240   12 Jun 2027 09:50:49.375             2.135           809.438
       431   12 Jun 2027 09:51:07.540   12 Jun 2027 09:51:09.334             1.794           409.063
       432   12 Jun 2027 09:51:27.567   12 Jun 2027 09:51:29.053             1.486           569.781
       433   12 Jun 2027 11:25:49.460   12 Jun 2027 11:26:01.891            12.431          2971.781
       434   12 Jun 2027 11:26:21.225   12 Jun 2027 11:26:30.167             8.942           496.438
       435   12 Jun 2027 11:26:48.095   12 Jun 2027 11:26:50.575             2.480           488.562
       436   13 Jun 2027 03:35:03.056   13 Jun 2027 03:35:51.204            48.148         24074.000
       437   13 Jun 2027 03:36:05.738   13 Jun 2027 03:36:13.928             8.190          4095.000
       438   13 Jun 2027 03:36:54.582   13 Jun 2027 03:37:00.356             5.774          2887.000
       439   13 Jun 2027 05:09:57.713   13 Jun 2027 05:11:19.668            81.955         40977.500
       440   13 Jun 2027 05:11:58.024   13 Jun 2027 05:12:00.993             2.969          1484.500
       441   13 Jun 2027 05:13:01.767   13 Jun 2027 05:13:43.330            41.563         20781.500
       442   13 Jun 2027 05:13:57.992   13 Jun 2027 05:15:15.045            77.053         38526.500
       443   13 Jun 2027 05:16:08.111   13 Jun 2027 05:16:08.111             0.000             0.000
       444   13 Jun 2027 05:16:26.603   13 Jun 2027 05:16:47.234            20.631         10315.500
       445   13 Jun 2027 06:46:18.200   13 Jun 2027 06:47:14.164            55.964         26964.875
       446   13 Jun 2027 06:47:35.977   13 Jun 2027 06:47:37.373             1.396           681.656
       447   13 Jun 2027 06:48:34.854   13 Jun 2027 06:48:37.535             2.681          1277.594
       448   13 Jun 2027 06:48:44.832   13 Jun 2027 06:48:45.644             0.812           193.344
       449   13 Jun 2027 06:49:37.388   13 Jun 2027 06:49:40.507             3.119          1511.875
       450   13 Jun 2027 06:50:25.379   13 Jun 2027 06:50:28.385             3.006          1256.156
       451   13 Jun 2027 06:50:40.715   13 Jun 2027 06:50:43.210             2.495           379.469
       452   13 Jun 2027 06:51:36.273   13 Jun 2027 06:51:36.273             0.000             0.000
       453   13 Jun 2027 06:51:59.453   13 Jun 2027 06:52:04.190             4.737          2339.437
       454   13 Jun 2027 08:23:48.547   13 Jun 2027 08:24:22.401            33.854         15575.250
       455   13 Jun 2027 08:24:47.587   13 Jun 2027 08:24:48.995             1.408           345.187
       456   13 Jun 2027 08:25:18.830   13 Jun 2027 08:25:20.963             2.133           609.406
       457   13 Jun 2027 08:25:51.146   13 Jun 2027 08:25:53.096             1.950           943.219
       458   13 Jun 2027 08:26:10.558   13 Jun 2027 08:26:10.558             0.000             0.000
       459   13 Jun 2027 08:26:31.140   13 Jun 2027 08:26:32.370             1.230           615.000
       460   13 Jun 2027 08:27:52.460   13 Jun 2027 08:28:03.121            10.661          2979.031
       461   13 Jun 2027 09:59:53.415   13 Jun 2027 10:00:10.505            17.090          7646.906
       462   13 Jun 2027 10:00:35.247   13 Jun 2027 10:00:41.427             6.180           762.844
       463   13 Jun 2027 10:01:00.299   13 Jun 2027 10:01:02.811             2.512           324.156
       464   13 Jun 2027 10:01:12.529   13 Jun 2027 10:01:12.529             0.000             0.000
       465   13 Jun 2027 10:01:52.325   13 Jun 2027 10:01:56.590             4.265          1547.312
       466   13 Jun 2027 10:02:36.299   13 Jun 2027 10:02:41.647             5.348           717.344
       467   13 Jun 2027 10:02:57.558   13 Jun 2027 10:02:58.235             0.677            16.969
       468   13 Jun 2027 10:03:11.847   13 Jun 2027 10:03:13.082             1.235           425.375
       469   13 Jun 2027 10:03:43.137   13 Jun 2027 10:03:47.327             4.190           861.594
