uniorb/output/strategy_2/Camera/Camera_KinoSat_110709.txt

KinoSat_110709
-------------------------
    Access    *     Start Time (UTCG)     *     Stop Time (UTCG)  *   Duration (s) *   Data (Mbytes)
         1   01 Jun 2027 03:01:23.349   01 Jun 2027 03:01:31.758             8.409          4204.500
         2   01 Jun 2027 03:01:41.989   01 Jun 2027 03:02:01.530            19.541          9770.500
         3   01 Jun 2027 03:03:51.803   01 Jun 2027 03:04:13.851            22.048         11024.000
         4   01 Jun 2027 04:37:08.283   01 Jun 2027 04:38:32.043            83.760         41880.000
         5   01 Jun 2027 04:38:54.970   01 Jun 2027 04:40:40.623           105.653         52826.500
         6   01 Jun 2027 04:40:59.121   01 Jun 2027 04:41:01.122             2.001          1000.500
         7   01 Jun 2027 04:41:10.140   01 Jun 2027 04:41:17.090             6.950          3475.000
         8   01 Jun 2027 04:41:27.324   01 Jun 2027 04:41:27.324             0.000             0.000
         9   01 Jun 2027 06:11:52.090   01 Jun 2027 06:14:58.854           186.764         93382.000
        10   01 Jun 2027 06:16:49.682   01 Jun 2027 06:16:53.063             3.381          1690.500
        11   01 Jun 2027 06:17:00.072   01 Jun 2027 06:17:21.470            21.398         10699.000
        12   01 Jun 2027 06:18:33.198   01 Jun 2027 06:18:39.639             6.441          3220.500
        13   01 Jun 2027 07:48:39.733   01 Jun 2027 07:51:11.765           152.032         76016.000
        14   01 Jun 2027 07:51:34.915   01 Jun 2027 07:51:46.616            11.701          5850.500
        15   01 Jun 2027 07:51:48.371   01 Jun 2027 07:51:48.371             0.000             0.000
        16   01 Jun 2027 07:52:35.665   01 Jun 2027 07:52:37.222             1.557           778.500
        17   01 Jun 2027 07:54:06.698   01 Jun 2027 07:54:32.250            25.552         12776.000
        18   01 Jun 2027 09:26:55.008   01 Jun 2027 09:29:32.520           157.512         78756.000
        19   01 Jun 2027 11:00:12.534   01 Jun 2027 11:01:44.686            92.152         46076.000
        20   01 Jun 2027 11:02:10.467   01 Jun 2027 11:02:25.194            14.727          7363.500
        21   01 Jun 2027 11:05:09.780   01 Jun 2027 11:05:11.760             1.980           990.000
        22   01 Jun 2027 11:05:20.057   01 Jun 2027 11:05:29.215             9.158          4579.000
        23   01 Jun 2027 11:07:33.928   01 Jun 2027 11:07:45.814            11.886          5943.000
        24   02 Jun 2027 03:11:59.146   02 Jun 2027 03:12:13.297            14.151          7075.500
        25   02 Jun 2027 03:12:48.550   02 Jun 2027 03:12:59.463            10.913          5456.500
        26   02 Jun 2027 03:13:42.917   02 Jun 2027 03:13:47.557             4.640          2320.000
        27   02 Jun 2027 03:14:51.506   02 Jun 2027 03:15:13.663            22.157         11078.500
        28   02 Jun 2027 03:15:31.030   02 Jun 2027 03:15:48.804            17.774          8887.000
        29   02 Jun 2027 04:47:03.088   02 Jun 2027 04:48:20.128            77.040         38520.000
        30   02 Jun 2027 04:48:52.732   02 Jun 2027 04:49:43.244            50.512         25256.000
        31   02 Jun 2027 04:50:56.012   02 Jun 2027 04:51:30.151            34.139         17069.500
        32   02 Jun 2027 04:52:13.729   02 Jun 2027 04:52:29.790            16.061          8030.500
        33   02 Jun 2027 04:52:53.785   02 Jun 2027 04:52:58.931             5.146          2573.000
        34   02 Jun 2027 06:24:00.222   02 Jun 2027 06:26:29.575           149.353         74676.500
        35   02 Jun 2027 06:26:35.101   02 Jun 2027 06:26:35.101             0.000             0.000
        36   02 Jun 2027 06:26:57.183   02 Jun 2027 06:27:09.802            12.619          6309.500
        37   02 Jun 2027 06:28:52.195   02 Jun 2027 06:28:52.195             0.000             0.000
        38   02 Jun 2027 06:28:52.235   02 Jun 2027 06:29:02.935            10.700          5350.000
        39   02 Jun 2027 06:30:24.085   02 Jun 2027 06:30:32.799             8.714          4357.000
        40   02 Jun 2027 08:00:58.910   02 Jun 2027 08:03:45.695           166.785         83304.155
        41   02 Jun 2027 08:04:41.437   02 Jun 2027 08:04:41.747             0.310             4.531
        42   02 Jun 2027 08:06:14.611   02 Jun 2027 08:06:22.885             8.274          2891.813
        43   02 Jun 2027 09:38:53.138   02 Jun 2027 09:39:32.807            39.669         11712.781
        44   02 Jun 2027 09:39:36.659   02 Jun 2027 09:39:38.365             1.706           101.344
        45   02 Jun 2027 09:40:35.799   02 Jun 2027 09:40:43.774             7.975          1585.313
        46   02 Jun 2027 09:41:36.729   02 Jun 2027 09:41:39.921             3.192          1535.063
        47   02 Jun 2027 09:42:43.913   02 Jun 2027 09:42:49.026             5.113          1999.750
        48   02 Jun 2027 11:12:12.028   02 Jun 2027 11:12:23.824            11.796          4852.437
        49   02 Jun 2027 11:13:07.981   02 Jun 2027 11:13:13.568             5.587           480.500
        50   02 Jun 2027 11:14:04.208   02 Jun 2027 11:14:04.208             0.000             0.000
        51   02 Jun 2027 11:14:38.523   02 Jun 2027 11:14:43.329             4.806          1810.875
        52   02 Jun 2027 11:14:47.853   02 Jun 2027 11:14:55.407             7.554           136.531
        53   02 Jun 2027 11:15:30.403   02 Jun 2027 11:15:30.403             0.000             0.000
        54   02 Jun 2027 11:15:50.052   02 Jun 2027 11:15:54.427             4.375          1404.750
        55   02 Jun 2027 11:16:25.934   02 Jun 2027 11:16:28.762             2.828           117.094
        56   02 Jun 2027 11:18:13.852   02 Jun 2027 11:18:20.808             6.956          2923.156
        57   02 Jun 2027 11:18:33.436   02 Jun 2027 11:18:34.627             1.191           394.625
        58   02 Jun 2027 11:19:11.919   02 Jun 2027 11:19:18.513             6.594           769.781
        59   03 Jun 2027 03:23:28.980   03 Jun 2027 03:23:49.779            20.799         10399.500
        60   03 Jun 2027 03:24:38.342   03 Jun 2027 03:24:46.487             8.145          4072.500
        61   03 Jun 2027 03:25:31.281   03 Jun 2027 03:26:06.846            35.565         17782.500
        62   03 Jun 2027 03:26:29.581   03 Jun 2027 03:26:37.563             7.982          3991.000
        63   03 Jun 2027 03:27:29.626   03 Jun 2027 03:27:42.805            13.179          6589.500
        64   03 Jun 2027 04:58:28.089   03 Jun 2027 05:01:26.017           177.928         88964.000
        65   03 Jun 2027 05:03:46.393   03 Jun 2027 05:04:08.119            21.726         10863.000
        66   03 Jun 2027 06:36:04.245   03 Jun 2027 06:36:29.092            24.847         12423.500
        67   03 Jun 2027 06:37:25.740   03 Jun 2027 06:38:05.466            39.726         17382.063
        68   03 Jun 2027 06:38:31.343   03 Jun 2027 06:38:33.444             2.101           641.406
        69   03 Jun 2027 06:39:05.359   03 Jun 2027 06:39:06.126             0.767           383.500
        70   03 Jun 2027 06:39:35.151   03 Jun 2027 06:39:43.492             8.341          1334.375
        71   03 Jun 2027 06:40:11.632   03 Jun 2027 06:40:13.976             2.344           720.062
        72   03 Jun 2027 06:40:15.826   03 Jun 2027 06:40:17.480             1.654            47.875
        73   03 Jun 2027 06:40:44.407   03 Jun 2027 06:40:45.379             0.972           206.812
        74   03 Jun 2027 06:41:16.968   03 Jun 2027 06:41:22.448             5.480           987.156
        75   03 Jun 2027 06:41:47.827   03 Jun 2027 06:41:48.093             0.266           133.000
        76   03 Jun 2027 06:42:31.365   03 Jun 2027 06:42:42.887            11.522          2012.344
        77   03 Jun 2027 06:43:14.032   03 Jun 2027 06:43:15.820             1.788           572.125
        78   03 Jun 2027 08:12:47.990   03 Jun 2027 08:13:19.358            31.368         15599.844
        79   03 Jun 2027 08:13:31.671   03 Jun 2027 08:13:31.859             0.188            60.719
        80   03 Jun 2027 08:13:52.527   03 Jun 2027 08:13:55.761             3.234            87.188
        81   03 Jun 2027 08:14:37.898   03 Jun 2027 08:14:43.799             5.901          1316.781
        82   03 Jun 2027 08:15:17.770   03 Jun 2027 08:15:19.838             2.068           929.250
        83   03 Jun 2027 08:16:08.269   03 Jun 2027 08:16:12.240             3.971          1481.281
        84   03 Jun 2027 08:16:22.102   03 Jun 2027 08:16:25.134             3.032           308.188
        85   03 Jun 2027 08:16:50.945   03 Jun 2027 08:16:56.275             5.330           535.219
        86   03 Jun 2027 08:17:27.619   03 Jun 2027 08:17:30.750             3.131           827.156
        87   03 Jun 2027 08:17:57.268   03 Jun 2027 08:17:59.553             2.285           828.687
        88   03 Jun 2027 08:18:31.939   03 Jun 2027 08:18:34.838             2.899           982.656
        89   03 Jun 2027 08:19:07.430   03 Jun 2027 08:19:08.838             1.408           643.562
        90   03 Jun 2027 09:50:52.513   03 Jun 2027 09:51:10.163            17.650          8825.000
        91   03 Jun 2027 09:51:24.211   03 Jun 2027 09:51:30.286             6.075           554.344
        92   03 Jun 2027 09:51:55.698   03 Jun 2027 09:51:57.990             2.292           663.344
        93   03 Jun 2027 09:52:23.449   03 Jun 2027 09:52:23.677             0.228           114.000
        94   03 Jun 2027 09:52:37.202   03 Jun 2027 09:52:42.328             5.126          1104.250
        95   03 Jun 2027 09:53:09.639   03 Jun 2027 09:53:13.404             3.765            36.719
        96   03 Jun 2027 09:53:50.554   03 Jun 2027 09:53:51.599             1.045           522.500
        97   03 Jun 2027 09:54:25.938   03 Jun 2027 09:54:31.255             5.317          1516.156
        98   03 Jun 2027 09:54:59.796   03 Jun 2027 09:55:01.768             1.972           833.250
        99   03 Jun 2027 11:24:37.493   03 Jun 2027 11:24:42.534             5.041          1977.406
       100   03 Jun 2027 11:26:00.540   03 Jun 2027 11:26:04.932             4.392          2060.312
       101   03 Jun 2027 11:26:33.625   03 Jun 2027 11:26:33.625             0.000             0.000
       102   03 Jun 2027 11:26:37.516   03 Jun 2027 11:26:41.547             4.031          1018.250
       103   03 Jun 2027 11:27:05.646   03 Jun 2027 11:27:07.258             1.612           753.094
       104   03 Jun 2027 11:28:23.613   03 Jun 2027 11:28:30.873             7.260          1611.719
       105   03 Jun 2027 11:28:52.021   03 Jun 2027 11:28:52.021             0.000             0.000
       106   03 Jun 2027 11:29:15.625   03 Jun 2027 11:29:25.292             9.667          1185.187
       107   03 Jun 2027 11:30:27.737   03 Jun 2027 11:30:37.868            10.131          1737.719
       108   03 Jun 2027 11:31:11.412   03 Jun 2027 11:31:12.735             1.323           211.531
       109   04 Jun 2027 03:35:05.078   04 Jun 2027 03:36:22.016            76.938         38469.000
       110   04 Jun 2027 03:36:38.855   04 Jun 2027 03:36:38.855             0.000             0.000
       111   04 Jun 2027 03:39:28.922   04 Jun 2027 03:39:35.826             6.904          3452.000
       112   04 Jun 2027 03:40:01.977   04 Jun 2027 03:40:05.457             3.480          1740.000
       113   04 Jun 2027 03:40:11.530   04 Jun 2027 03:40:11.530             0.000             0.000
       114   04 Jun 2027 05:09:58.739   04 Jun 2027 05:13:26.432           207.693        103846.500
       115   04 Jun 2027 05:15:22.253   04 Jun 2027 05:15:26.673             4.420          2210.000
       116   04 Jun 2027 05:16:19.031   04 Jun 2027 05:16:19.031             0.000             0.000
       117   04 Jun 2027 05:16:24.740   04 Jun 2027 05:16:40.900            16.160          8080.000
       118   04 Jun 2027 05:18:55.140   04 Jun 2027 05:19:00.769             5.629          2814.500
       119   04 Jun 2027 06:48:02.305   04 Jun 2027 06:48:32.272            29.967         14983.500
       120   04 Jun 2027 06:49:07.053   04 Jun 2027 06:49:34.949            27.896         13603.781
       121   04 Jun 2027 06:50:03.386   04 Jun 2027 06:50:04.406             1.020           339.719
       122   04 Jun 2027 06:51:49.000   04 Jun 2027 06:51:56.927             7.927          3005.156
       123   04 Jun 2027 06:52:20.114   04 Jun 2027 06:52:23.421             3.307           427.812
       124   04 Jun 2027 06:52:54.363   04 Jun 2027 06:52:55.665             1.302           615.875
       125   04 Jun 2027 06:53:08.219   04 Jun 2027 06:53:09.627             1.408           392.312
       126   04 Jun 2027 06:53:58.438   04 Jun 2027 06:53:58.438             0.000             0.000
       127   04 Jun 2027 06:54:17.404   04 Jun 2027 06:54:23.975             6.571          2081.219
       128   04 Jun 2027 06:54:36.832   04 Jun 2027 06:54:40.169             3.337           252.469
       129   04 Jun 2027 06:54:48.657   04 Jun 2027 06:54:49.991             1.334           253.000
       130   04 Jun 2027 06:55:10.884   04 Jun 2027 06:55:14.138             3.254           230.000
       131   04 Jun 2027 08:24:55.543   04 Jun 2027 08:25:10.899            15.356          7678.000
       132   04 Jun 2027 08:25:28.082   04 Jun 2027 08:25:42.641            14.559          7234.719
       133   04 Jun 2027 08:25:59.529   04 Jun 2027 08:26:05.047             5.518            94.250
       134   04 Jun 2027 08:26:48.651   04 Jun 2027 08:26:49.862             1.211           565.313
       135   04 Jun 2027 08:28:04.553   04 Jun 2027 08:28:11.578             7.025          1759.625
       136   04 Jun 2027 08:28:30.811   04 Jun 2027 08:28:35.881             5.070           601.031
       137   04 Jun 2027 08:29:44.739   04 Jun 2027 08:29:52.002             7.263          2031.719
       138   04 Jun 2027 08:30:44.983   04 Jun 2027 08:30:50.804             5.821          1306.063
       139   04 Jun 2027 10:02:05.730   04 Jun 2027 10:02:27.497            21.767          9218.500
       140   04 Jun 2027 10:02:30.326   04 Jun 2027 10:02:31.036             0.710            46.750
       141   04 Jun 2027 10:04:00.443   04 Jun 2027 10:04:07.199             6.756          2793.969
       142   04 Jun 2027 10:04:22.705   04 Jun 2027 10:04:30.543             7.838           484.563
       143   04 Jun 2027 10:05:31.593   04 Jun 2027 10:05:37.274             5.681          1907.812
       144   04 Jun 2027 10:06:01.466   04 Jun 2027 10:06:02.597             1.131           462.719
       145   04 Jun 2027 10:06:21.733   04 Jun 2027 10:06:21.733             0.000             0.000
       146   04 Jun 2027 10:06:26.496   04 Jun 2027 10:06:30.681             4.185           746.844
       147   04 Jun 2027 11:36:52.433   04 Jun 2027 11:37:00.499             8.066          2618.656
       148   04 Jun 2027 11:37:43.854   04 Jun 2027 11:37:47.879             4.025          1184.531
       149   04 Jun 2027 11:38:48.251   04 Jun 2027 11:38:58.931            10.680          1315.156
       150   04 Jun 2027 11:39:33.614   04 Jun 2027 11:39:35.573             1.959           869.531
       151   04 Jun 2027 11:39:53.856   04 Jun 2027 11:39:55.122             1.266           571.344
       152   04 Jun 2027 11:40:25.144   04 Jun 2027 11:40:25.555             0.411           205.500
       153   04 Jun 2027 11:40:43.447   04 Jun 2027 11:40:45.059             1.612           717.844
       154   04 Jun 2027 11:41:37.086   04 Jun 2027 11:41:39.317             2.231           975.625
       155   04 Jun 2027 11:41:45.062   04 Jun 2027 11:41:46.823             1.761           135.344
       156   04 Jun 2027 11:42:00.594   04 Jun 2027 11:42:03.632             3.038           430.344
       157   05 Jun 2027 03:49:23.748   05 Jun 2027 03:50:31.178            67.430         33715.000
       158   05 Jun 2027 03:52:17.393   05 Jun 2027 03:52:55.557            38.164         19082.000
       159   05 Jun 2027 05:22:57.222   05 Jun 2027 05:23:21.827            24.605         12302.500
       160   05 Jun 2027 05:23:58.465   05 Jun 2027 05:25:52.631           114.166         57083.000
       161   05 Jun 2027 05:26:52.570   05 Jun 2027 05:27:19.256            26.686         13343.000
       162   05 Jun 2027 05:27:37.759   05 Jun 2027 05:27:42.324             4.565          2282.500
       163   05 Jun 2027 05:28:07.500   05 Jun 2027 05:28:32.284            24.784         12392.000
       164   05 Jun 2027 05:30:30.982   05 Jun 2027 05:30:40.011             9.029          4514.500
       165   05 Jun 2027 05:31:10.023   05 Jun 2027 05:31:30.865            20.842         10421.000
       166   05 Jun 2027 07:00:24.194   05 Jun 2027 07:01:17.429            53.235         24207.969
       167   05 Jun 2027 07:03:05.312   05 Jun 2027 07:03:09.699             4.387          1299.219
       168   05 Jun 2027 07:03:19.707   05 Jun 2027 07:03:21.124             1.417           107.656
       169   05 Jun 2027 07:03:42.150   05 Jun 2027 07:03:47.138             4.988           368.313
       170   05 Jun 2027 07:04:55.535   05 Jun 2027 07:05:00.083             4.548          2100.500
       171   05 Jun 2027 07:05:17.695   05 Jun 2027 07:05:19.587             1.892           460.438
       172   05 Jun 2027 07:06:20.687   05 Jun 2027 07:06:24.460             3.773          1698.875
       173   05 Jun 2027 08:37:24.470   05 Jun 2027 08:37:57.017            32.547         14014.250
       174   05 Jun 2027 08:38:05.958   05 Jun 2027 08:38:06.102             0.144            35.625
       175   05 Jun 2027 08:38:57.119   05 Jun 2027 08:39:00.027             2.908          1334.156
       176   05 Jun 2027 08:40:41.259   05 Jun 2027 08:40:44.159             2.900          1450.000
       177   05 Jun 2027 08:40:56.129   05 Jun 2027 08:41:00.205             4.076          1795.844
       178   05 Jun 2027 08:41:08.034   05 Jun 2027 08:41:09.707             1.673           244.656
       179   05 Jun 2027 08:41:47.473   05 Jun 2027 08:41:47.473             0.000             0.000
       180   05 Jun 2027 08:42:25.095   05 Jun 2027 08:42:30.646             5.551          2267.875
       181   05 Jun 2027 08:42:38.429   05 Jun 2027 08:42:41.756             3.327           194.969
       182   05 Jun 2027 10:14:18.489   05 Jun 2027 10:14:34.889            16.400          8200.000
       183   05 Jun 2027 10:15:12.657   05 Jun 2027 10:15:16.315             3.658          1817.969
       184   05 Jun 2027 10:15:18.976   05 Jun 2027 10:15:19.894             0.918            83.156
       185   05 Jun 2027 10:16:24.698   05 Jun 2027 10:16:29.461             4.763          2005.187
       186   05 Jun 2027 10:16:59.135   05 Jun 2027 10:16:59.872             0.737           368.500
       187   05 Jun 2027 10:17:15.784   05 Jun 2027 10:17:20.241             4.457           966.625
       188   05 Jun 2027 10:17:29.947   05 Jun 2027 10:17:42.869            12.922            18.344
       189   05 Jun 2027 10:18:50.786   05 Jun 2027 10:18:55.077             4.291          2061.906
       190   05 Jun 2027 11:51:27.652   05 Jun 2027 11:51:35.091             7.439          1619.937
       191   05 Jun 2027 11:51:45.417   05 Jun 2027 11:51:49.251             3.834           322.688
       192   05 Jun 2027 11:52:26.754   05 Jun 2027 11:52:26.754             0.000             0.000
       193   05 Jun 2027 11:52:35.843   05 Jun 2027 11:52:43.956             8.113           687.781
       194   05 Jun 2027 11:53:46.059   05 Jun 2027 11:53:50.386             4.327          1433.062
       195   06 Jun 2027 04:01:29.304   06 Jun 2027 04:02:31.335            62.031         31015.500
       196   06 Jun 2027 04:02:44.477   06 Jun 2027 04:02:58.390            13.913          6956.500
       197   06 Jun 2027 05:33:40.320   06 Jun 2027 05:33:48.530             8.210          4105.000
       198   06 Jun 2027 05:35:36.047   06 Jun 2027 05:38:41.778           185.731         92865.500
       199   06 Jun 2027 05:38:43.997   06 Jun 2027 05:39:07.621            23.624         11812.000
       200   06 Jun 2027 05:39:28.111   06 Jun 2027 05:39:28.111             0.000             0.000
       201   06 Jun 2027 07:12:33.933   06 Jun 2027 07:13:20.235            46.302         22907.126
       202   06 Jun 2027 07:13:30.865   06 Jun 2027 07:13:32.940             2.075           332.187
       203   06 Jun 2027 07:14:19.588   06 Jun 2027 07:14:24.035             4.447           835.656
       204   06 Jun 2027 07:15:24.372   06 Jun 2027 07:15:27.755             3.383           534.906
       205   06 Jun 2027 07:15:45.571   06 Jun 2027 07:15:47.455             1.884           236.906
       206   06 Jun 2027 07:16:14.514   06 Jun 2027 07:16:16.114             1.600           624.750
       207   06 Jun 2027 07:16:56.972   06 Jun 2027 07:16:58.982             2.010          1005.000
       208   06 Jun 2027 07:17:48.207   06 Jun 2027 07:17:50.977             2.770          1385.000
       209   06 Jun 2027 07:18:13.156   06 Jun 2027 07:18:15.213             2.057          1027.125
       210   06 Jun 2027 07:18:46.215   06 Jun 2027 07:18:49.375             3.160           968.813
       211   06 Jun 2027 07:19:13.005   06 Jun 2027 07:19:14.435             1.430           408.062
       212   06 Jun 2027 08:49:49.811   06 Jun 2027 08:50:11.966            22.155         10894.000
       213   06 Jun 2027 08:50:15.139   06 Jun 2027 08:50:18.637             3.498            99.156
       214   06 Jun 2027 08:51:01.407   06 Jun 2027 08:51:01.892             0.485           242.500
       215   06 Jun 2027 08:52:02.319   06 Jun 2027 08:52:07.217             4.898          2187.406
       216   06 Jun 2027 08:52:43.949   06 Jun 2027 08:52:49.797             5.848           362.781
       217   06 Jun 2027 08:53:31.926   06 Jun 2027 08:53:36.600             4.674          1316.531
       218   06 Jun 2027 08:54:24.531   06 Jun 2027 08:54:24.531             0.000             0.000
       219   06 Jun 2027 08:54:39.402   06 Jun 2027 08:54:40.532             1.130           565.000
       220   06 Jun 2027 10:26:19.274   06 Jun 2027 10:26:37.027            17.753          7579.469
       221   06 Jun 2027 10:27:41.588   06 Jun 2027 10:27:51.884            10.296          1448.062
       222   06 Jun 2027 10:28:27.490   06 Jun 2027 10:28:31.524             4.034          1041.719
       223   06 Jun 2027 10:29:07.624   06 Jun 2027 10:29:15.798             8.174          1088.062
       224   06 Jun 2027 10:30:11.466   06 Jun 2027 10:30:14.910             3.444          1648.156
       225   06 Jun 2027 10:30:16.763   06 Jun 2027 10:30:18.836             2.073            57.906
       226   06 Jun 2027 10:30:52.354   06 Jun 2027 10:31:00.942             8.588           916.031
       227   07 Jun 2027 04:13:38.284   07 Jun 2027 04:14:46.088            67.804         33902.000
       228   07 Jun 2027 04:14:52.287   07 Jun 2027 04:15:31.085            38.798         19399.000
       229   07 Jun 2027 04:16:37.640   07 Jun 2027 04:16:37.640             0.000             0.000
       230   07 Jun 2027 04:17:08.990   07 Jun 2027 04:17:17.146             8.156          4078.000
       231   07 Jun 2027 05:48:48.806   07 Jun 2027 05:50:54.319           125.513         62756.500
       232   07 Jun 2027 05:51:18.243   07 Jun 2027 05:51:45.163            26.920         13460.000
       233   07 Jun 2027 05:52:23.236   07 Jun 2027 05:53:04.117            40.881         20440.500
       234   07 Jun 2027 05:55:19.107   07 Jun 2027 05:55:20.980             1.873           936.500
       235   07 Jun 2027 07:25:08.019   07 Jun 2027 07:25:58.781            50.762         25186.500
       236   07 Jun 2027 07:26:20.842   07 Jun 2027 07:26:28.095             7.253           359.844
       237   07 Jun 2027 07:26:56.462   07 Jun 2027 07:27:00.941             4.479           886.469
       238   07 Jun 2027 07:27:06.431   07 Jun 2027 07:27:07.386             0.955           104.219
       239   07 Jun 2027 07:27:26.569   07 Jun 2027 07:27:27.863             1.294           599.469
       240   07 Jun 2027 07:28:29.959   07 Jun 2027 07:28:33.217             3.258          1295.875
       241   07 Jun 2027 07:28:50.490   07 Jun 2027 07:28:51.653             1.163           525.469
       242   07 Jun 2027 07:29:04.325   07 Jun 2027 07:29:08.013             3.688           396.000
       243   07 Jun 2027 07:30:09.877   07 Jun 2027 07:30:11.513             1.636           818.000
       244   07 Jun 2027 07:30:16.458   07 Jun 2027 07:30:20.534             4.076           752.250
       245   07 Jun 2027 07:30:48.909   07 Jun 2027 07:30:50.384             1.475           324.031
       246   07 Jun 2027 09:02:31.832   07 Jun 2027 09:02:56.267            24.435         12184.219
       247   07 Jun 2027 09:04:17.554   07 Jun 2027 09:04:25.938             8.384          2021.969
       248   07 Jun 2027 09:04:31.425   07 Jun 2027 09:04:32.059             0.634            56.750
       249   07 Jun 2027 09:04:51.168   07 Jun 2027 09:04:51.168             0.000             0.000
       250   07 Jun 2027 09:04:51.170   07 Jun 2027 09:04:51.814             0.644           282.219
       251   07 Jun 2027 09:05:25.327   07 Jun 2027 09:05:26.363             1.036           518.000
       252   07 Jun 2027 09:06:15.537   07 Jun 2027 09:06:19.685             4.148          2035.750
       253   07 Jun 2027 09:06:32.451   07 Jun 2027 09:06:33.647             1.196           170.625
       254   07 Jun 2027 10:38:44.052   07 Jun 2027 10:39:00.559            16.507          8209.875
       255   07 Jun 2027 10:39:27.256   07 Jun 2027 10:39:31.001             3.745           581.156
       256   07 Jun 2027 10:39:40.091   07 Jun 2027 10:39:40.091             0.000             0.000
       257   07 Jun 2027 10:40:15.149   07 Jun 2027 10:40:18.833             3.684          1222.313
       258   07 Jun 2027 10:40:21.069   07 Jun 2027 10:40:21.789             0.720            30.562
       259   07 Jun 2027 10:41:17.895   07 Jun 2027 10:41:21.168             3.273          1385.969
       260   07 Jun 2027 10:41:28.783   07 Jun 2027 10:41:32.395             3.612           237.969
       261   07 Jun 2027 10:41:49.341   07 Jun 2027 10:41:50.527             1.186           136.094
       262   07 Jun 2027 10:42:10.591   07 Jun 2027 10:42:11.619             1.028           514.000
       263   07 Jun 2027 10:42:45.116   07 Jun 2027 10:42:48.669             3.553          1095.063
       264   07 Jun 2027 10:42:55.375   07 Jun 2027 10:42:56.202             0.827            39.281
       265   08 Jun 2027 04:25:39.524   08 Jun 2027 04:27:11.746            92.222         46111.000
       266   08 Jun 2027 04:27:57.676   08 Jun 2027 04:29:08.162            70.486         35243.000
       267   08 Jun 2027 06:00:52.248   08 Jun 2027 06:02:25.197            92.949         46474.500
       268   08 Jun 2027 06:03:03.183   08 Jun 2027 06:03:29.124            25.941         12970.500
       269   08 Jun 2027 06:03:41.683   08 Jun 2027 06:04:14.790            33.107         14792.469
       270   08 Jun 2027 06:04:50.226   08 Jun 2027 06:04:53.198             2.972          1032.281
       271   08 Jun 2027 06:06:13.780   08 Jun 2027 06:06:13.780             0.000             0.000
       272   08 Jun 2027 06:06:25.597   08 Jun 2027 06:06:31.042             5.445          2496.562
       273   08 Jun 2027 06:06:40.486   08 Jun 2027 06:06:44.404             3.918           263.219
       274   08 Jun 2027 06:07:30.174   08 Jun 2027 06:07:32.513             2.339          1169.500
       275   08 Jun 2027 07:36:47.279   08 Jun 2027 07:37:21.159            33.880         15580.281
       276   08 Jun 2027 07:37:52.946   08 Jun 2027 07:37:54.686             1.740            83.250
       277   08 Jun 2027 07:38:01.093   08 Jun 2027 07:38:02.261             1.168             4.969
       278   08 Jun 2027 07:38:31.475   08 Jun 2027 07:38:36.220             4.745           368.656
       279   08 Jun 2027 07:39:04.715   08 Jun 2027 07:39:05.988             1.273           632.813
       280   08 Jun 2027 07:39:50.064   08 Jun 2027 07:39:53.584             3.520           956.812
       281   08 Jun 2027 07:41:33.972   08 Jun 2027 07:41:40.824             6.852          2498.281
       282   08 Jun 2027 07:41:47.411   08 Jun 2027 07:41:50.862             3.451            29.844
       283   08 Jun 2027 07:42:07.669   08 Jun 2027 07:42:11.204             3.535           470.625
       284   08 Jun 2027 07:42:13.549   08 Jun 2027 07:42:13.681             0.132            55.187
       285   08 Jun 2027 09:14:44.651   08 Jun 2027 09:15:08.916            24.265         10471.719
       286   08 Jun 2027 09:15:46.567   08 Jun 2027 09:15:50.203             3.636           831.438
       287   08 Jun 2027 09:16:30.958   08 Jun 2027 09:16:39.571             8.613          1159.469
       288   08 Jun 2027 09:16:49.460   08 Jun 2027 09:16:51.872             2.412           309.031
       289   08 Jun 2027 09:17:38.692   08 Jun 2027 09:17:44.453             5.761          1408.625
       290   08 Jun 2027 09:18:07.256   08 Jun 2027 09:18:07.472             0.216           108.000
       291   08 Jun 2027 09:18:15.846   08 Jun 2027 09:18:18.120             2.274           814.656
       292   08 Jun 2027 09:19:07.202   08 Jun 2027 09:19:10.464             3.262          1396.031
       293   08 Jun 2027 10:50:37.716   08 Jun 2027 10:50:56.852            19.136          8578.375
       294   08 Jun 2027 10:52:11.083   08 Jun 2027 10:52:14.370             3.287          1643.500
       295   08 Jun 2027 10:52:31.885   08 Jun 2027 10:52:34.491             2.606           919.531
       296   08 Jun 2027 10:53:30.010   08 Jun 2027 10:53:32.280             2.270          1135.000
       297   08 Jun 2027 10:53:58.547   08 Jun 2027 10:54:09.118            10.571          1420.813
       298   08 Jun 2027 10:54:17.700   08 Jun 2027 10:54:21.089             3.389           192.531
       299   08 Jun 2027 10:54:37.902   08 Jun 2027 10:54:38.636             0.734           367.000
       300   08 Jun 2027 10:54:50.272   08 Jun 2027 10:54:50.909             0.637           318.500
       301   08 Jun 2027 10:54:56.608   08 Jun 2027 10:54:59.057             2.449           203.531
       302   08 Jun 2027 10:55:35.195   08 Jun 2027 10:55:38.267             3.072          1114.375
       303   09 Jun 2027 03:00:59.938   09 Jun 2027 03:01:10.690            10.752          5376.000
       304   09 Jun 2027 03:01:13.396   09 Jun 2027 03:01:21.478             8.082          4041.000
       305   09 Jun 2027 03:01:48.748   09 Jun 2027 03:01:48.748             0.000             0.000
       306   09 Jun 2027 03:02:54.635   09 Jun 2027 03:03:06.362            11.727          5863.500
       307   09 Jun 2027 03:03:30.613   09 Jun 2027 03:03:43.349            12.736          6368.000
       308   09 Jun 2027 03:04:32.045   09 Jun 2027 03:04:32.045             0.000             0.000
       309   09 Jun 2027 04:37:22.886   09 Jun 2027 04:37:48.213            25.327         12663.500
       310   09 Jun 2027 04:37:48.607   09 Jun 2027 04:38:52.717            64.110         32055.000
       311   09 Jun 2027 04:39:09.671   09 Jun 2027 04:40:59.690           110.019         55009.500
       312   09 Jun 2027 04:41:00.142   09 Jun 2027 04:41:09.435             9.293          4646.500
       313   09 Jun 2027 04:41:14.391   09 Jun 2027 04:41:16.513             2.122          1061.000
       314   09 Jun 2027 06:12:06.762   09 Jun 2027 06:13:17.198            70.436         35199.312
       315   09 Jun 2027 06:14:13.486   09 Jun 2027 06:14:13.486             0.000             0.000
       316   09 Jun 2027 06:14:48.044   09 Jun 2027 06:14:53.899             5.855          2838.938
       317   09 Jun 2027 06:15:10.516   09 Jun 2027 06:15:10.862             0.346            94.906
       318   09 Jun 2027 06:15:32.594   09 Jun 2027 06:15:38.914             6.320           679.125
       319   09 Jun 2027 06:17:06.674   09 Jun 2027 06:17:08.240             1.566           783.000
       320   09 Jun 2027 06:17:16.844   09 Jun 2027 06:17:23.252             6.408          2094.719
       321   09 Jun 2027 06:17:52.199   09 Jun 2027 06:17:57.437             5.238            86.062
       322   09 Jun 2027 06:18:20.844   09 Jun 2027 06:18:20.844             0.000             0.000
       323   09 Jun 2027 07:48:54.760   09 Jun 2027 07:49:29.052            34.292         16826.031
       324   09 Jun 2027 07:49:51.065   09 Jun 2027 07:49:55.397             4.332           597.313
       325   09 Jun 2027 07:51:26.614   09 Jun 2027 07:51:29.962             3.348          1275.969
       326   09 Jun 2027 07:52:18.379   09 Jun 2027 07:52:22.398             4.019           804.563
       327   09 Jun 2027 07:52:52.555   09 Jun 2027 07:52:54.205             1.650           366.906
       328   09 Jun 2027 07:53:41.628   09 Jun 2027 07:53:43.554             1.926           963.000
       329   09 Jun 2027 07:54:37.158   09 Jun 2027 07:54:42.023             4.865          1938.531
       330   09 Jun 2027 07:54:52.705   09 Jun 2027 07:55:04.800            12.095           333.812
       331   09 Jun 2027 09:27:09.800   09 Jun 2027 09:27:28.934            19.134          9322.500
       332   09 Jun 2027 09:27:42.328   09 Jun 2027 09:27:47.197             4.869           297.125
       333   09 Jun 2027 09:28:03.971   09 Jun 2027 09:28:06.002             2.031           524.187
       334   09 Jun 2027 09:28:53.769   09 Jun 2027 09:28:58.591             4.822          1393.094
       335   09 Jun 2027 09:29:18.910   09 Jun 2027 09:29:18.910             0.000             0.000
       336   09 Jun 2027 09:30:00.436   09 Jun 2027 09:30:03.889             3.453          1639.094
       337   09 Jun 2027 09:30:13.305   09 Jun 2027 09:30:15.442             2.137           294.250
       338   09 Jun 2027 11:00:26.959   09 Jun 2027 11:00:40.611            13.652          6527.406
       339   09 Jun 2027 11:02:04.267   09 Jun 2027 11:02:08.283             4.016          1754.031
       340   09 Jun 2027 11:02:25.346   09 Jun 2027 11:02:28.388             3.042           436.750
       341   09 Jun 2027 11:02:59.443   09 Jun 2027 11:03:04.013             4.570           861.812
       342   09 Jun 2027 11:03:07.028   09 Jun 2027 11:03:08.038             1.010            19.906
       343   09 Jun 2027 11:03:43.377   09 Jun 2027 11:03:48.426             5.049           763.062
       344   09 Jun 2027 11:04:17.880   09 Jun 2027 11:04:20.088             2.208           920.437
       345   09 Jun 2027 11:05:24.441   09 Jun 2027 11:05:27.891             3.450          1711.406
       346   09 Jun 2027 11:05:44.037   09 Jun 2027 11:05:44.037             0.000             0.000
       347   09 Jun 2027 11:05:50.527   09 Jun 2027 11:05:51.901             1.374           492.906
       348   09 Jun 2027 11:06:32.910   09 Jun 2027 11:06:35.324             2.414          1075.469
       349   09 Jun 2027 11:07:49.254   09 Jun 2027 11:07:53.385             4.131          1964.625
       350   10 Jun 2027 03:12:13.474   10 Jun 2027 03:13:03.457            49.983         24991.500
       351   10 Jun 2027 03:13:03.864   10 Jun 2027 03:13:10.026             6.162          3081.000
       352   10 Jun 2027 03:13:11.180   10 Jun 2027 03:13:11.180             0.000             0.000
       353   10 Jun 2027 03:15:44.694   10 Jun 2027 03:15:44.694             0.000             0.000
       354   10 Jun 2027 03:16:07.641   10 Jun 2027 03:16:09.763             2.122          1061.000
       355   10 Jun 2027 03:16:52.142   10 Jun 2027 03:16:52.142             0.000             0.000
       356   10 Jun 2027 03:17:00.620   10 Jun 2027 03:17:00.620             0.000             0.000
       357   10 Jun 2027 04:47:17.167   10 Jun 2027 04:48:35.080            77.913         38956.500
       358   10 Jun 2027 04:49:07.223   10 Jun 2027 04:51:11.279           124.056         62028.000
       359   10 Jun 2027 04:53:03.738   10 Jun 2027 04:53:03.738             0.000             0.000
       360   10 Jun 2027 06:24:14.956   10 Jun 2027 06:25:23.625            68.669         33522.499
       361   10 Jun 2027 06:26:50.634   10 Jun 2027 06:26:52.979             2.345           175.562
       362   10 Jun 2027 06:27:07.676   10 Jun 2027 06:27:10.394             2.718           459.281
       363   10 Jun 2027 06:27:45.874   10 Jun 2027 06:27:48.680             2.806          1062.281
       364   10 Jun 2027 06:28:43.521   10 Jun 2027 06:28:49.929             6.408           943.906
       365   10 Jun 2027 06:29:10.457   10 Jun 2027 06:29:12.791             2.334            96.937
       366   10 Jun 2027 06:29:40.833   10 Jun 2027 06:29:41.550             0.717           358.500
       367   10 Jun 2027 06:29:44.701   10 Jun 2027 06:29:44.777             0.076            38.000
       368   10 Jun 2027 06:30:39.191   10 Jun 2027 06:30:43.878             4.687          2278.719
       369   10 Jun 2027 06:31:34.686   10 Jun 2027 06:31:38.814             4.128          1477.531
       370   10 Jun 2027 08:01:13.237   10 Jun 2027 08:01:51.263            38.026         16597.063
       371   10 Jun 2027 08:01:56.935   10 Jun 2027 08:01:59.503             2.568           104.250
       372   10 Jun 2027 08:02:14.976   10 Jun 2027 08:02:15.114             0.138            69.000
       373   10 Jun 2027 08:02:40.499   10 Jun 2027 08:02:48.011             7.512           860.781
       374   10 Jun 2027 08:03:41.169   10 Jun 2027 08:03:45.839             4.670           923.719
       375   10 Jun 2027 08:03:52.557   10 Jun 2027 08:03:53.468             0.911           135.594
       376   10 Jun 2027 08:04:55.180   10 Jun 2027 08:05:00.042             4.862          1916.062
       377   10 Jun 2027 08:05:02.731   10 Jun 2027 08:05:03.404             0.673            84.031
       378   10 Jun 2027 08:05:50.349   10 Jun 2027 08:05:55.314             4.965          1467.031
       379   10 Jun 2027 08:06:18.086   10 Jun 2027 08:06:19.370             1.284           336.469
       380   10 Jun 2027 08:06:38.387   10 Jun 2027 08:06:40.185             1.798           407.531
       381   10 Jun 2027 08:06:52.540   10 Jun 2027 08:06:53.391             0.851           386.094
       382   10 Jun 2027 08:07:00.023   10 Jun 2027 08:07:01.865             1.842           207.250
       383   10 Jun 2027 09:39:07.914   10 Jun 2027 09:39:23.215            15.301          7650.500
       384   10 Jun 2027 09:39:25.807   10 Jun 2027 09:39:29.266             3.459          1028.437
       385   10 Jun 2027 09:39:51.863   10 Jun 2027 09:39:52.580             0.717           119.281
       386   10 Jun 2027 09:40:25.753   10 Jun 2027 09:40:28.403             2.650           647.063
       387   10 Jun 2027 09:40:59.904   10 Jun 2027 09:41:02.711             2.807           950.344
       388   10 Jun 2027 09:41:51.830   10 Jun 2027 09:41:54.495             2.665          1332.500
       389   10 Jun 2027 09:43:00.858   10 Jun 2027 09:43:06.586             5.728          2206.844
       390   10 Jun 2027 11:12:26.912   10 Jun 2027 11:12:41.328            14.416          5429.344
       391   10 Jun 2027 11:13:22.215   10 Jun 2027 11:13:23.485             1.270           464.313
       392   10 Jun 2027 11:14:03.259   10 Jun 2027 11:14:07.023             3.764           239.031
       393   10 Jun 2027 11:14:16.375   10 Jun 2027 11:14:19.176             2.801           232.750
       394   10 Jun 2027 11:14:53.407   10 Jun 2027 11:14:59.193             5.786          1019.219
       395   10 Jun 2027 11:15:02.763   10 Jun 2027 11:15:13.253            10.490            95.437
       396   10 Jun 2027 11:16:05.680   10 Jun 2027 11:16:10.247             4.567          1432.937
       397   10 Jun 2027 11:16:57.082   10 Jun 2027 11:16:59.185             2.103          1017.719
       398   10 Jun 2027 11:17:22.395   10 Jun 2027 11:17:25.181             2.786           597.219
       399   10 Jun 2027 11:18:28.754   10 Jun 2027 11:18:34.635             5.881          1986.656
       400   10 Jun 2027 11:19:26.608   10 Jun 2027 11:19:35.663             9.055          1624.156
       401   11 Jun 2027 03:23:43.379   11 Jun 2027 03:24:49.417            66.038         33019.000
       402   11 Jun 2027 03:24:54.886   11 Jun 2027 03:24:56.769             1.883           941.500
       403   11 Jun 2027 03:26:52.174   11 Jun 2027 03:26:52.174             0.000             0.000
       404   11 Jun 2027 03:28:40.374   11 Jun 2027 03:28:47.449             7.075          3537.500
       405   11 Jun 2027 04:58:42.160   11 Jun 2027 05:02:02.703           200.543        100271.500
       406   11 Jun 2027 05:02:21.969   11 Jun 2027 05:02:21.969             0.000             0.000
       407   11 Jun 2027 05:03:15.244   11 Jun 2027 05:03:15.244             0.000             0.000
       408   11 Jun 2027 05:03:26.663   11 Jun 2027 05:03:30.203             3.540          1770.000
       409   11 Jun 2027 06:36:18.408   11 Jun 2027 06:37:11.904            53.496         26469.031
       410   11 Jun 2027 06:37:44.452   11 Jun 2027 06:37:48.563             4.111           944.719
       411   11 Jun 2027 06:38:28.568   11 Jun 2027 06:38:33.769             5.201            52.781
       412   11 Jun 2027 06:38:40.848   11 Jun 2027 06:38:44.019             3.171           127.437
       413   11 Jun 2027 06:39:18.750   11 Jun 2027 06:39:20.014             1.264           468.344
       414   11 Jun 2027 06:39:48.962   11 Jun 2027 06:39:49.744             0.782           391.000
       415   11 Jun 2027 06:40:25.025   11 Jun 2027 06:40:28.542             3.517          1616.156
       416   11 Jun 2027 06:40:36.232   11 Jun 2027 06:40:37.872             1.640           240.312
       417   11 Jun 2027 06:41:32.865   11 Jun 2027 06:41:37.166             4.301          1391.563
       418   11 Jun 2027 06:42:05.100   11 Jun 2027 06:42:07.371             2.271           872.938
       419   11 Jun 2027 06:43:10.462   11 Jun 2027 06:43:15.684             5.222          1971.594
       420   11 Jun 2027 08:13:02.659   11 Jun 2027 08:13:34.312            31.653         15809.062
       421   11 Jun 2027 08:13:46.446   11 Jun 2027 08:13:48.571             2.125            69.375
       422   11 Jun 2027 08:14:52.459   11 Jun 2027 08:14:59.562             7.103          1501.594
       423   11 Jun 2027 08:15:57.888   11 Jun 2027 08:16:02.599             4.711           996.563
       424   11 Jun 2027 08:17:18.075   11 Jun 2027 08:17:23.528             5.453          2358.625
       425   11 Jun 2027 08:18:07.224   11 Jun 2027 08:18:08.827             1.603           801.500
       426   11 Jun 2027 08:18:13.403   11 Jun 2027 08:18:15.466             2.063           666.719
       427   11 Jun 2027 08:18:46.403   11 Jun 2027 08:18:50.440             4.037           954.313
       428   11 Jun 2027 08:19:22.094   11 Jun 2027 08:19:23.469             1.375           583.937
       429   11 Jun 2027 09:51:07.318   11 Jun 2027 09:51:24.898            17.580          8476.813
       430   11 Jun 2027 09:51:49.102   11 Jun 2027 09:51:52.401             3.299           756.375
       431   11 Jun 2027 09:52:17.990   11 Jun 2027 09:52:17.990             0.000             0.000
       432   11 Jun 2027 09:52:46.932   11 Jun 2027 09:52:51.692             4.760          1390.000
       433   11 Jun 2027 09:53:34.888   11 Jun 2027 09:53:38.081             3.193          1349.875
       434   11 Jun 2027 09:54:19.721   11 Jun 2027 09:54:22.133             2.412          1011.469
       435   11 Jun 2027 09:54:29.899   11 Jun 2027 09:54:32.647             2.748           242.687
       436   11 Jun 2027 09:54:45.802   11 Jun 2027 09:54:46.992             1.190           411.094
       437   11 Jun 2027 09:55:05.565   11 Jun 2027 09:55:08.025             2.460           489.188
       438   11 Jun 2027 11:24:52.823   11 Jun 2027 11:24:56.007             3.184          1168.312
       439   11 Jun 2027 11:26:15.284   11 Jun 2027 11:26:20.001             4.717          2060.344
       440   11 Jun 2027 11:26:48.534   11 Jun 2027 11:26:51.857             3.323           891.656
       441   11 Jun 2027 11:26:56.408   11 Jun 2027 11:26:56.408             0.000             0.000
       442   11 Jun 2027 11:27:20.366   11 Jun 2027 11:27:24.863             4.497           830.719
       443   11 Jun 2027 11:29:10.987   11 Jun 2027 11:29:18.733             7.746          2697.313
       444   11 Jun 2027 11:30:10.208   11 Jun 2027 11:30:15.794             5.586          1405.344
       445   11 Jun 2027 11:30:36.894   11 Jun 2027 11:30:38.391             1.497           659.375
       446   12 Jun 2027 03:35:19.570   12 Jun 2027 03:36:51.208            91.638         45819.000
       447   12 Jun 2027 03:36:54.846   12 Jun 2027 03:37:10.765            15.919          7959.500
       448   12 Jun 2027 05:10:12.704   12 Jun 2027 05:12:48.941           156.237         78118.500
       449   12 Jun 2027 05:12:55.822   12 Jun 2027 05:13:23.120            27.298         13649.000
       450   12 Jun 2027 05:13:30.375   12 Jun 2027 05:13:35.654             5.279          2639.500
       451   12 Jun 2027 05:14:04.316   12 Jun 2027 05:14:04.316             0.000             0.000
       452   12 Jun 2027 05:19:09.547   12 Jun 2027 05:19:34.557            25.010         12505.000
       453   12 Jun 2027 06:48:17.343   12 Jun 2027 06:49:07.454            50.111         24829.218
       454   12 Jun 2027 06:49:24.948   12 Jun 2027 06:49:27.991             3.043           546.688
       455   12 Jun 2027 06:52:03.810   12 Jun 2027 06:52:11.845             8.035          3010.281
       456   12 Jun 2027 06:52:51.057   12 Jun 2027 06:52:53.802             2.745           498.594
       457   12 Jun 2027 06:54:43.328   12 Jun 2027 06:54:50.668             7.340          3066.406
       458   12 Jun 2027 06:54:56.105   12 Jun 2027 06:54:58.068             1.963           146.125
       459   12 Jun 2027 08:25:10.564   12 Jun 2027 08:25:25.487            14.923          7461.500
       460   12 Jun 2027 08:25:43.084   12 Jun 2027 08:25:58.503            15.419          7228.625
       461   12 Jun 2027 08:26:20.740   12 Jun 2027 08:26:21.314             0.574           205.563
       462   12 Jun 2027 08:26:43.832   12 Jun 2027 08:26:44.378             0.546           248.688
       463   12 Jun 2027 08:27:42.880   12 Jun 2027 08:27:46.641             3.761          1479.250
       464   12 Jun 2027 08:28:27.706   12 Jun 2027 08:28:33.553             5.847          1283.281
       465   12 Jun 2027 08:28:42.688   12 Jun 2027 08:28:45.659             2.971           259.625
       466   12 Jun 2027 08:28:58.348   12 Jun 2027 08:28:58.348             0.000             0.000
       467   12 Jun 2027 08:29:38.781   12 Jun 2027 08:29:47.423             8.642          1380.313
       468   12 Jun 2027 08:30:43.401   12 Jun 2027 08:30:53.569            10.168          1745.281
       469   12 Jun 2027 08:31:22.354   12 Jun 2027 08:31:23.977             1.623           732.031
       470   12 Jun 2027 10:02:20.446   12 Jun 2027 10:02:38.840            18.394          8337.281
       471   12 Jun 2027 10:02:59.837   12 Jun 2027 10:03:01.652             1.815           447.188
       472   12 Jun 2027 10:04:15.158   12 Jun 2027 10:04:20.569             5.411          2297.063
       473   12 Jun 2027 10:04:38.682   12 Jun 2027 10:04:46.025             7.343           514.094
       474   12 Jun 2027 10:04:46.833   12 Jun 2027 10:04:46.833             0.000             0.000
       475   12 Jun 2027 10:05:07.083   12 Jun 2027 10:05:07.083             0.000             0.000
       476   12 Jun 2027 10:05:46.198   12 Jun 2027 10:05:52.545             6.347          1880.406
       477   12 Jun 2027 10:06:17.568   12 Jun 2027 10:06:19.551             1.983           405.687
       478   12 Jun 2027 10:06:41.505   12 Jun 2027 10:06:46.326             4.821           534.500
       479   12 Jun 2027 10:07:00.341   12 Jun 2027 10:07:03.495             3.154           112.688
       480   12 Jun 2027 11:37:07.526   12 Jun 2027 11:37:09.253             1.727           863.500
       481   12 Jun 2027 11:39:02.727   12 Jun 2027 11:39:14.596            11.869          2476.969
       482   12 Jun 2027 11:39:48.247   12 Jun 2027 11:39:51.233             2.986           867.000
       483   12 Jun 2027 11:40:08.363   12 Jun 2027 11:40:09.511             1.148           535.313
       484   12 Jun 2027 11:40:58.611   12 Jun 2027 11:41:02.584             3.973           585.281
       485   12 Jun 2027 11:41:51.828   12 Jun 2027 11:41:54.746             2.918           920.312
       486   12 Jun 2027 11:42:00.084   12 Jun 2027 11:42:00.084             0.000             0.000
       487   12 Jun 2027 11:42:19.956   12 Jun 2027 11:42:23.469             3.513           764.375
       488   13 Jun 2027 03:49:38.536   13 Jun 2027 03:50:14.260            35.724         17862.000
       489   13 Jun 2027 03:50:28.703   13 Jun 2027 03:50:45.823            17.120          8560.000
       490   13 Jun 2027 03:51:26.044   13 Jun 2027 03:51:32.115             6.071          3035.500
       491   13 Jun 2027 03:51:36.793   13 Jun 2027 03:52:04.070            27.277         13638.500
       492   13 Jun 2027 03:52:32.211   13 Jun 2027 03:53:10.791            38.580         19290.000
       493   13 Jun 2027 05:23:11.896   13 Jun 2027 05:25:54.102           162.206         81103.000
       494   13 Jun 2027 05:27:34.152   13 Jun 2027 05:27:43.969             9.817          4908.500
       495   13 Jun 2027 05:30:45.193   13 Jun 2027 05:31:08.471            23.278         11639.000
       496   13 Jun 2027 05:31:44.328   13 Jun 2027 05:31:45.570             1.242           621.000
       497   13 Jun 2027 07:00:39.541   13 Jun 2027 07:01:34.761            55.220         27575.000
       498   13 Jun 2027 07:02:42.892   13 Jun 2027 07:02:47.720             4.828          2114.437
       499   13 Jun 2027 07:04:21.901   13 Jun 2027 07:04:29.340             7.439          1572.344
       500   13 Jun 2027 07:04:37.512   13 Jun 2027 07:04:38.233             0.721           255.375
       501   13 Jun 2027 07:05:18.925   13 Jun 2027 07:05:19.053             0.128            64.000
       502   13 Jun 2027 07:06:10.562   13 Jun 2027 07:06:17.525             6.963          2737.844
       503   13 Jun 2027 07:06:38.954   13 Jun 2027 07:06:39.315             0.361           143.781
       504   13 Jun 2027 08:37:39.071   13 Jun 2027 08:38:04.312            25.241         12134.688
       505   13 Jun 2027 08:38:51.133   13 Jun 2027 08:38:55.639             4.506           302.938
       506   13 Jun 2027 08:39:06.480   13 Jun 2027 08:39:10.480             4.000           338.781
       507   13 Jun 2027 08:39:24.364   13 Jun 2027 08:39:28.129             3.765           433.875
       508   13 Jun 2027 08:40:00.994   13 Jun 2027 08:40:06.786             5.792           953.469
       509   13 Jun 2027 08:40:27.642   13 Jun 2027 08:40:29.765             2.123           651.750
       510   13 Jun 2027 08:40:57.584   13 Jun 2027 08:40:59.073             1.489           338.844
       511   13 Jun 2027 08:41:10.810   13 Jun 2027 08:41:15.151             4.341           366.781
       512   13 Jun 2027 08:41:23.651   13 Jun 2027 08:41:25.012             1.361           265.625
       513   13 Jun 2027 08:42:25.477   13 Jun 2027 08:42:31.401             5.924          1816.312
       514   13 Jun 2027 08:42:46.835   13 Jun 2027 08:42:48.513             1.678           193.344
       515   13 Jun 2027 08:43:08.569   13 Jun 2027 08:43:13.174             4.605           626.750
       516   13 Jun 2027 10:14:33.057   13 Jun 2027 10:14:50.443            17.386          7410.469
       517   13 Jun 2027 10:15:27.658   13 Jun 2027 10:15:28.214             0.556           278.000
       518   13 Jun 2027 10:15:36.956   13 Jun 2027 10:15:43.565             6.609          1158.156
       519   13 Jun 2027 10:15:51.685   13 Jun 2027 10:15:52.043             0.358            99.719
       520   13 Jun 2027 10:16:40.207   13 Jun 2027 10:16:44.379             4.172          1359.344
       521   13 Jun 2027 10:17:16.473   13 Jun 2027 10:17:18.378             1.905           952.500
       522   13 Jun 2027 10:18:21.780   13 Jun 2027 10:18:23.931             2.151          1075.500
       523   13 Jun 2027 10:18:26.621   13 Jun 2027 10:18:28.819             2.198          1004.219
       524   13 Jun 2027 11:51:42.473   13 Jun 2027 11:51:49.721             7.248          3291.219
       525   13 Jun 2027 11:52:01.094   13 Jun 2027 11:52:04.325             3.231           355.406
       526   13 Jun 2027 11:53:16.873   13 Jun 2027 11:53:20.175             3.302          1443.031
