uniorb/output/strategy_2/Camera/Camera_KinoSat_110607.txt

KinoSat_110607
-------------------------
    Access    *     Start Time (UTCG)     *     Stop Time (UTCG)  *   Duration (s) *   Data (Mbytes)
         1   01 Jun 2027 03:24:48.572   01 Jun 2027 03:25:19.721            31.149         15574.500
         2   01 Jun 2027 03:26:29.602   01 Jun 2027 03:27:01.975            32.373         16186.500
         3   01 Jun 2027 04:59:13.647   01 Jun 2027 05:01:23.196           129.549         64774.500
         4   01 Jun 2027 05:03:17.960   01 Jun 2027 05:04:51.914            93.954         46977.000
         5   01 Jun 2027 05:04:52.072   01 Jun 2027 05:05:10.820            18.748          9374.000
         6   01 Jun 2027 05:06:49.194   01 Jun 2027 05:06:51.882             2.688          1344.000
         7   01 Jun 2027 06:35:58.031   01 Jun 2027 06:37:29.052            91.021         45510.500
         8   01 Jun 2027 06:38:06.601   01 Jun 2027 06:39:14.647            68.046         34023.000
         9   01 Jun 2027 06:39:49.941   01 Jun 2027 06:40:34.612            44.671         22335.500
        10   01 Jun 2027 06:41:21.261   01 Jun 2027 06:41:23.821             2.560          1280.000
        11   01 Jun 2027 06:42:21.336   01 Jun 2027 06:42:40.359            19.023          9511.500
        12   01 Jun 2027 08:12:55.662   01 Jun 2027 08:15:31.587           155.925         77962.500
        13   01 Jun 2027 08:15:54.875   01 Jun 2027 08:16:24.402            29.527         14763.500
        14   01 Jun 2027 08:16:57.749   01 Jun 2027 08:17:28.546            30.797         15398.500
        15   01 Jun 2027 08:17:29.929   01 Jun 2027 08:17:35.384             5.455          2727.500
        16   01 Jun 2027 08:17:36.475   01 Jun 2027 08:17:39.959             3.484          1742.000
        17   01 Jun 2027 09:49:41.782   01 Jun 2027 09:51:30.249           108.467         54233.500
        18   01 Jun 2027 09:52:03.430   01 Jun 2027 09:52:48.355            44.925         22462.500
        19   01 Jun 2027 11:27:53.297   01 Jun 2027 11:28:53.538            60.241         30120.500
        20   02 Jun 2027 03:36:55.215   02 Jun 2027 03:37:53.566            58.351         29175.500
        21   02 Jun 2027 03:37:59.913   02 Jun 2027 03:38:11.643            11.730          5865.000
        22   02 Jun 2027 03:39:02.429   02 Jun 2027 03:39:06.556             4.127          2063.500
        23   02 Jun 2027 03:39:58.623   02 Jun 2027 03:40:28.019            29.396         14698.000
        24   02 Jun 2027 05:12:03.059   02 Jun 2027 05:14:43.039           159.980         79990.000
        25   02 Jun 2027 05:15:28.566   02 Jun 2027 05:15:44.857            16.291          8145.500
        26   02 Jun 2027 05:15:57.718   02 Jun 2027 05:16:03.212             5.494          2747.000
        27   02 Jun 2027 05:18:43.599   02 Jun 2027 05:18:52.527             8.928          4464.000
        28   02 Jun 2027 06:48:24.001   02 Jun 2027 06:49:27.007            63.006         31503.000
        29   02 Jun 2027 06:49:39.036   02 Jun 2027 06:49:56.460            17.424          8712.000
        30   02 Jun 2027 06:50:45.147   02 Jun 2027 06:52:34.336           109.189         54594.500
        31   02 Jun 2027 06:53:01.708   02 Jun 2027 06:53:09.241             7.533          3766.500
        32   02 Jun 2027 06:53:46.111   02 Jun 2027 06:54:24.516            38.405         19202.500
        33   02 Jun 2027 08:25:57.359   02 Jun 2027 08:27:53.412           116.053         57312.249
        34   02 Jun 2027 08:28:23.103   02 Jun 2027 08:28:26.530             3.427           927.844
        35   02 Jun 2027 08:28:43.508   02 Jun 2027 08:28:47.030             3.522           486.500
        36   02 Jun 2027 08:29:21.364   02 Jun 2027 08:29:25.170             3.806           878.937
        37   02 Jun 2027 08:29:30.364   02 Jun 2027 08:29:32.020             1.656           162.313
        38   02 Jun 2027 08:29:41.737   02 Jun 2027 08:29:44.785             3.048           270.469
        39   02 Jun 2027 10:02:01.096   02 Jun 2027 10:02:21.209            20.113          8689.062
        40   02 Jun 2027 10:03:06.289   02 Jun 2027 10:03:09.729             3.440          1394.500
        41   02 Jun 2027 10:03:51.302   02 Jun 2027 10:03:54.754             3.452          1278.812
        42   02 Jun 2027 10:04:55.264   02 Jun 2027 10:04:59.045             3.781          1853.312
        43   02 Jun 2027 10:05:09.477   02 Jun 2027 10:05:14.406             4.929           201.812
        44   02 Jun 2027 10:05:43.670   02 Jun 2027 10:05:52.868             9.198           906.469
        45   03 Jun 2027 03:49:04.763   03 Jun 2027 03:49:56.315            51.552         25776.000
        46   03 Jun 2027 03:49:59.493   03 Jun 2027 03:50:24.576            25.083         12541.500
        47   03 Jun 2027 03:50:35.271   03 Jun 2027 03:50:35.271             0.000             0.000
        48   03 Jun 2027 03:50:58.651   03 Jun 2027 03:51:07.518             8.867          4433.500
        49   03 Jun 2027 03:52:05.423   03 Jun 2027 03:52:30.813            25.390         12695.000
        50   03 Jun 2027 05:24:14.784   03 Jun 2027 05:27:00.055           165.271         82635.500
        51   03 Jun 2027 05:28:00.298   03 Jun 2027 05:28:00.298             0.000             0.000
        52   03 Jun 2027 05:28:04.048   03 Jun 2027 05:28:12.868             8.820          4410.000
        53   03 Jun 2027 05:29:36.802   03 Jun 2027 05:29:45.079             8.277          4138.500
        54   03 Jun 2027 05:29:55.151   03 Jun 2027 05:30:00.370             5.219          2609.500
        55   03 Jun 2027 05:30:31.088   03 Jun 2027 05:30:31.088             0.000             0.000
        56   03 Jun 2027 05:30:36.155   03 Jun 2027 05:30:51.000            14.845          7422.500
        57   03 Jun 2027 07:00:32.018   03 Jun 2027 07:01:26.313            54.295         27128.500
        58   03 Jun 2027 07:01:43.108   03 Jun 2027 07:01:53.485            10.377           291.188
        59   03 Jun 2027 07:02:20.063   03 Jun 2027 07:02:22.795             2.732           671.125
        60   03 Jun 2027 07:02:40.943   03 Jun 2027 07:02:42.477             1.534           405.625
        61   03 Jun 2027 07:03:29.182   03 Jun 2027 07:03:31.530             2.348          1016.906
        62   03 Jun 2027 07:03:42.742   03 Jun 2027 07:03:43.892             1.150           350.375
        63   03 Jun 2027 07:04:58.479   03 Jun 2027 07:05:03.534             5.055          2314.188
        64   03 Jun 2027 07:05:37.277   03 Jun 2027 07:05:37.277             0.000             0.000
        65   03 Jun 2027 07:06:11.680   03 Jun 2027 07:06:15.782             4.102          2051.000
        66   03 Jun 2027 08:38:03.103   03 Jun 2027 08:38:32.095            28.992         14223.687
        67   03 Jun 2027 08:38:48.027   03 Jun 2027 08:38:53.278             5.251           362.094
        68   03 Jun 2027 08:39:21.631   03 Jun 2027 08:39:22.751             1.120           560.000
        69   03 Jun 2027 08:39:57.328   03 Jun 2027 08:40:04.641             7.313          1406.562
        70   03 Jun 2027 08:40:14.088   03 Jun 2027 08:40:15.154             1.066           144.781
        71   03 Jun 2027 08:40:34.735   03 Jun 2027 08:40:37.209             2.474           573.375
        72   03 Jun 2027 08:40:54.268   03 Jun 2027 08:41:02.190             7.922           525.781
        73   03 Jun 2027 08:41:22.374   03 Jun 2027 08:41:24.135             1.761           593.562
        74   03 Jun 2027 08:41:30.121   03 Jun 2027 08:41:32.188             2.067           168.188
        75   03 Jun 2027 08:41:37.909   03 Jun 2027 08:41:41.475             3.566             8.000
        76   03 Jun 2027 08:42:27.032   03 Jun 2027 08:42:27.032             0.000             0.000
        77   03 Jun 2027 10:14:04.649   03 Jun 2027 10:14:10.655             6.006          3003.000
        78   03 Jun 2027 10:14:50.395   03 Jun 2027 10:15:07.564            17.169          6570.281
        79   03 Jun 2027 10:15:10.768   03 Jun 2027 10:15:12.216             1.448           100.125
        80   03 Jun 2027 10:15:13.772   03 Jun 2027 10:15:17.069             3.297            27.000
        81   03 Jun 2027 10:15:56.834   03 Jun 2027 10:16:00.472             3.638          1214.875
        82   03 Jun 2027 10:16:52.245   03 Jun 2027 10:16:54.536             2.291          1144.000
        83   03 Jun 2027 10:17:08.833   03 Jun 2027 10:17:10.048             1.215           176.563
        84   03 Jun 2027 10:17:36.350   03 Jun 2027 10:17:39.160             2.810           650.813
        85   03 Jun 2027 10:18:14.433   03 Jun 2027 10:18:15.795             1.362           307.094
        86   03 Jun 2027 10:18:52.725   03 Jun 2027 10:18:53.256             0.531           265.500
        87   04 Jun 2027 04:00:48.639   04 Jun 2027 04:02:20.820            92.181         46090.500
        88   04 Jun 2027 04:02:21.273   04 Jun 2027 04:02:29.312             8.039          4019.500
        89   04 Jun 2027 05:35:43.114   04 Jun 2027 05:38:23.800           160.686         80343.000
        90   04 Jun 2027 05:38:25.983   04 Jun 2027 05:38:51.838            25.855         12927.500
        91   04 Jun 2027 05:39:37.460   04 Jun 2027 05:40:03.283            25.823         12911.500
        92   04 Jun 2027 05:41:04.943   04 Jun 2027 05:41:04.943             0.000             0.000
        93   04 Jun 2027 05:41:54.425   04 Jun 2027 05:41:54.425             0.000             0.000
        94   04 Jun 2027 05:42:26.256   04 Jun 2027 05:42:35.679             9.423          4711.500
        95   04 Jun 2027 07:12:15.024   04 Jun 2027 07:12:53.755            38.731         19365.500
        96   04 Jun 2027 07:13:20.244   04 Jun 2027 07:13:47.056            26.812         12565.032
        97   04 Jun 2027 07:15:53.734   04 Jun 2027 07:15:58.211             4.477          2230.406
        98   04 Jun 2027 07:16:45.564   04 Jun 2027 07:16:49.608             4.044          1252.875
        99   04 Jun 2027 07:17:37.500   04 Jun 2027 07:17:41.339             3.839          1413.969
       100   04 Jun 2027 08:50:32.608   04 Jun 2027 08:50:58.181            25.573         12050.094
       101   04 Jun 2027 08:51:34.471   04 Jun 2027 08:51:41.253             6.782           933.187
       102   04 Jun 2027 08:51:51.895   04 Jun 2027 08:51:52.755             0.860           332.562
       103   04 Jun 2027 08:52:27.562   04 Jun 2027 08:52:31.803             4.241           552.125
       104   04 Jun 2027 08:52:55.498   04 Jun 2027 08:52:59.294             3.796           213.656
       105   04 Jun 2027 08:53:10.186   04 Jun 2027 08:53:10.826             0.640           165.937
       106   04 Jun 2027 08:53:20.123   04 Jun 2027 08:53:20.456             0.333            77.406
       107   04 Jun 2027 08:53:30.597   04 Jun 2027 08:53:30.597             0.000             0.000
       108   04 Jun 2027 08:53:38.017   04 Jun 2027 08:53:39.306             1.289           548.781
       109   04 Jun 2027 10:25:53.955   04 Jun 2027 10:26:12.274            18.319          8510.938
       110   04 Jun 2027 10:27:04.862   04 Jun 2027 10:27:07.009             2.147          1073.500
       111   04 Jun 2027 10:27:19.625   04 Jun 2027 10:27:21.828             2.203           950.625
       112   04 Jun 2027 10:27:26.264   04 Jun 2027 10:27:27.404             1.140            41.813
       113   04 Jun 2027 10:28:17.653   04 Jun 2027 10:28:20.965             3.312          1568.812
       114   04 Jun 2027 10:28:35.587   04 Jun 2027 10:28:35.587             0.000             0.000
       115   04 Jun 2027 10:28:52.251   04 Jun 2027 10:28:53.672             1.421           697.437
       116   04 Jun 2027 10:29:01.000   04 Jun 2027 10:29:03.543             2.543           200.625
       117   04 Jun 2027 10:29:29.786   04 Jun 2027 10:29:31.241             1.455           663.406
       118   04 Jun 2027 10:30:22.503   04 Jun 2027 10:30:24.974             2.471          1204.531
       119   04 Jun 2027 10:30:39.102   04 Jun 2027 10:30:40.759             1.657           441.500
       120   04 Jun 2027 10:30:44.643   04 Jun 2027 10:30:45.653             1.010            52.031
       121   05 Jun 2027 04:11:03.330   05 Jun 2027 04:11:58.760            55.430         27715.000
       122   05 Jun 2027 04:12:34.149   05 Jun 2027 04:12:48.842            14.693          7346.500
       123   05 Jun 2027 04:13:26.263   05 Jun 2027 04:13:55.371            29.108         14554.000
       124   05 Jun 2027 04:15:53.103   05 Jun 2027 04:16:03.885            10.782          5391.000
       125   05 Jun 2027 05:47:29.146   05 Jun 2027 05:50:30.031           180.885         90442.500
       126   05 Jun 2027 05:51:14.238   05 Jun 2027 05:51:15.943             1.705           852.500
       127   05 Jun 2027 05:52:08.901   05 Jun 2027 05:52:12.492             3.591          1795.500
       128   05 Jun 2027 05:54:04.084   05 Jun 2027 05:54:20.289            16.205          8102.500
       129   05 Jun 2027 05:54:48.355   05 Jun 2027 05:54:59.837            11.482          5741.000
       130   05 Jun 2027 05:55:00.830   05 Jun 2027 05:55:00.986             0.156            78.000
       131   05 Jun 2027 07:24:35.399   05 Jun 2027 07:25:45.713            70.314         34445.156
       132   05 Jun 2027 07:26:42.925   05 Jun 2027 07:26:51.784             8.859          1558.000
       133   05 Jun 2027 07:28:46.078   05 Jun 2027 07:28:51.672             5.594          2797.000
       134   05 Jun 2027 07:29:05.146   05 Jun 2027 07:29:07.403             2.257           486.812
       135   05 Jun 2027 07:30:46.263   05 Jun 2027 07:30:49.778             3.515          1757.500
       136   05 Jun 2027 09:02:30.361   05 Jun 2027 09:02:58.735            28.374         12097.969
       137   05 Jun 2027 09:04:09.619   05 Jun 2027 09:04:15.855             6.236          2115.656
       138   05 Jun 2027 09:04:33.657   05 Jun 2027 09:04:38.696             5.039           458.813
       139   05 Jun 2027 09:05:30.777   05 Jun 2027 09:05:34.358             3.581          1627.531
       140   05 Jun 2027 09:06:17.507   05 Jun 2027 09:06:21.355             3.848          1348.406
       141   05 Jun 2027 10:35:36.300   05 Jun 2027 10:35:55.016            18.716          6614.937
       142   05 Jun 2027 10:36:46.517   05 Jun 2027 10:36:49.673             3.156           274.281
       143   05 Jun 2027 10:37:03.096   05 Jun 2027 10:37:04.830             1.734           137.906
       144   05 Jun 2027 10:37:23.582   05 Jun 2027 10:37:24.857             1.275           586.000
       145   05 Jun 2027 10:37:53.255   05 Jun 2027 10:37:56.735             3.480           887.438
       146   05 Jun 2027 10:38:06.804   05 Jun 2027 10:38:10.400             3.596           314.656
       147   05 Jun 2027 10:38:57.891   05 Jun 2027 10:39:01.119             3.228           858.156
       148   05 Jun 2027 10:39:21.291   05 Jun 2027 10:39:21.291             0.000             0.000
       149   05 Jun 2027 10:39:59.152   05 Jun 2027 10:40:02.819             3.667          1727.719
       150   05 Jun 2027 10:40:54.486   05 Jun 2027 10:40:58.466             3.980          1509.437
       151   05 Jun 2027 10:41:23.971   05 Jun 2027 10:41:27.093             3.122           479.969
       152   05 Jun 2027 10:42:38.905   05 Jun 2027 10:42:44.623             5.718          1735.781
       153   05 Jun 2027 10:43:03.361   05 Jun 2027 10:43:04.792             1.431           575.719
       154   05 Jun 2027 10:43:35.214   05 Jun 2027 10:43:36.508             1.294           647.000
       155   06 Jun 2027 04:22:12.782   06 Jun 2027 04:24:13.633           120.851         60425.500
       156   06 Jun 2027 04:24:20.417   06 Jun 2027 04:24:40.472            20.055         10027.500
       157   06 Jun 2027 04:26:20.795   06 Jun 2027 04:26:36.370            15.575          7787.500
       158   06 Jun 2027 04:26:46.258   06 Jun 2027 04:26:54.316             8.058          4029.000
       159   06 Jun 2027 04:27:16.935   06 Jun 2027 04:27:21.949             5.014          2507.000
       160   06 Jun 2027 04:28:01.763   06 Jun 2027 04:28:01.763             0.000             0.000
       161   06 Jun 2027 04:28:11.776   06 Jun 2027 04:28:21.621             9.845          4922.500
       162   06 Jun 2027 04:28:33.023   06 Jun 2027 04:28:34.922             1.899           949.500
       163   06 Jun 2027 04:29:00.592   06 Jun 2027 04:29:31.127            30.535         15267.500
       164   06 Jun 2027 05:59:44.658   06 Jun 2027 06:01:42.013           117.355         58677.500
       165   06 Jun 2027 06:02:14.113   06 Jun 2027 06:02:20.187             6.074          3037.000
       166   06 Jun 2027 06:04:08.987   06 Jun 2027 06:04:10.399             1.412           706.000
       167   06 Jun 2027 06:04:36.498   06 Jun 2027 06:04:36.498             0.000             0.000
       168   06 Jun 2027 06:04:49.181   06 Jun 2027 06:05:03.250            14.069          6690.750
       169   06 Jun 2027 06:06:45.394   06 Jun 2027 06:06:51.709             6.315          2548.250
       170   06 Jun 2027 06:06:57.192   06 Jun 2027 06:06:59.172             1.980           135.625
       171   06 Jun 2027 07:36:30.621   06 Jun 2027 07:37:22.157            51.536         25210.750
       172   06 Jun 2027 07:38:32.339   06 Jun 2027 07:38:34.060             1.721           233.625
       173   06 Jun 2027 07:39:23.791   06 Jun 2027 07:39:29.043             5.252          1554.094
       174   06 Jun 2027 07:39:54.939   06 Jun 2027 07:39:55.270             0.331           165.500
       175   06 Jun 2027 07:40:41.954   06 Jun 2027 07:40:48.063             6.109          2037.313
       176   06 Jun 2027 07:41:09.914   06 Jun 2027 07:41:11.446             1.532           682.844
       177   06 Jun 2027 07:41:16.190   06 Jun 2027 07:41:17.412             1.222           148.250
       178   06 Jun 2027 07:41:47.017   06 Jun 2027 07:41:49.260             2.243           629.875
       179   06 Jun 2027 09:14:30.316   06 Jun 2027 09:14:51.524            21.208          9903.656
       180   06 Jun 2027 09:15:52.058   06 Jun 2027 09:15:55.237             3.179          1589.500
       181   06 Jun 2027 09:16:09.646   06 Jun 2027 09:16:09.646             0.000             0.000
       182   06 Jun 2027 09:16:45.742   06 Jun 2027 09:16:52.018             6.276          1582.687
       183   06 Jun 2027 09:17:16.473   06 Jun 2027 09:17:19.602             3.129           562.125
       184   06 Jun 2027 09:17:50.918   06 Jun 2027 09:17:56.151             5.233           978.625
       185   06 Jun 2027 09:18:10.842   06 Jun 2027 09:18:15.881             5.039           434.656
       186   06 Jun 2027 09:18:20.662   06 Jun 2027 09:18:21.135             0.473           149.406
       187   06 Jun 2027 09:18:26.770   06 Jun 2027 09:18:28.889             2.119           156.875
       188   06 Jun 2027 10:48:06.719   06 Jun 2027 10:48:11.665             4.946          1323.844
       189   06 Jun 2027 10:48:46.024   06 Jun 2027 10:48:47.829             1.805           213.313
       190   06 Jun 2027 10:49:13.749   06 Jun 2027 10:49:16.540             2.791           190.063
       191   06 Jun 2027 10:49:43.699   06 Jun 2027 10:49:49.945             6.246           479.937
       192   06 Jun 2027 10:50:01.223   06 Jun 2027 10:50:05.713             4.490           352.438
       193   06 Jun 2027 10:51:01.301   06 Jun 2027 10:51:06.150             4.849          1336.719
       194   06 Jun 2027 10:51:49.986   06 Jun 2027 10:51:53.904             3.918          1326.594
       195   06 Jun 2027 10:52:54.627   06 Jun 2027 10:52:58.476             3.849          1743.187
       196   06 Jun 2027 10:53:59.017   06 Jun 2027 10:54:04.908             5.891          1564.281
       197   06 Jun 2027 10:54:47.897   06 Jun 2027 10:54:48.588             0.691           345.500
       198   06 Jun 2027 10:54:51.569   06 Jun 2027 10:54:55.273             3.704          1091.063
       199   07 Jun 2027 03:00:00.000   07 Jun 2027 03:00:10.225            10.225          5112.500
       200   07 Jun 2027 03:00:46.463   07 Jun 2027 03:00:46.906             0.443           221.500
       201   07 Jun 2027 03:01:25.739   07 Jun 2027 03:01:32.767             7.028          3514.000
       202   07 Jun 2027 03:02:24.672   07 Jun 2027 03:02:48.289            23.617         11808.500
       203   07 Jun 2027 03:02:55.188   07 Jun 2027 03:03:06.619            11.431          5715.500
       204   07 Jun 2027 04:33:43.706   07 Jun 2027 04:36:37.802           174.096         87048.000
       205   07 Jun 2027 04:37:14.915   07 Jun 2027 04:37:17.719             2.804          1402.000
       206   07 Jun 2027 04:38:33.973   07 Jun 2027 04:38:40.439             6.466          3233.000
       207   07 Jun 2027 04:39:38.916   07 Jun 2027 04:39:46.702             7.786          3893.000
       208   07 Jun 2027 04:40:04.658   07 Jun 2027 04:40:20.809            16.151          8075.500
       209   07 Jun 2027 04:40:26.454   07 Jun 2027 04:40:36.337             9.883          4941.500
       210   07 Jun 2027 04:42:37.158   07 Jun 2027 04:42:52.178            15.020          7510.000
       211   07 Jun 2027 06:11:39.514   07 Jun 2027 06:12:56.025            76.511         38255.500
       212   07 Jun 2027 06:13:09.465   07 Jun 2027 06:13:29.310            19.845          8544.405
       213   07 Jun 2027 06:16:09.491   07 Jun 2027 06:16:13.258             3.767          1883.500
       214   07 Jun 2027 06:16:18.820   07 Jun 2027 06:16:18.820             0.000             0.000
       215   07 Jun 2027 06:16:44.675   07 Jun 2027 06:16:49.678             5.003          2501.500
       216   07 Jun 2027 06:17:00.201   07 Jun 2027 06:17:00.601             0.400           200.000
       217   07 Jun 2027 06:18:47.202   07 Jun 2027 06:18:57.137             9.935          4199.125
       218   07 Jun 2027 07:48:27.077   07 Jun 2027 07:48:59.159            32.082         16041.000
       219   07 Jun 2027 07:48:59.988   07 Jun 2027 07:49:15.657            15.669          7384.875
       220   07 Jun 2027 07:50:41.136   07 Jun 2027 07:50:46.009             4.873          2283.438
       221   07 Jun 2027 07:51:19.684   07 Jun 2027 07:51:22.130             2.446          1052.344
       222   07 Jun 2027 07:52:37.814   07 Jun 2027 07:52:41.537             3.723          1861.500
       223   07 Jun 2027 07:53:02.694   07 Jun 2027 07:53:03.847             1.153           576.500
       224   07 Jun 2027 07:53:04.137   07 Jun 2027 07:53:06.900             2.763           597.188
       225   07 Jun 2027 07:53:37.118   07 Jun 2027 07:53:40.738             3.620           944.313
       226   07 Jun 2027 07:53:53.455   07 Jun 2027 07:53:55.536             2.081           173.094
       227   07 Jun 2027 07:54:17.818   07 Jun 2027 07:54:18.380             0.562           164.094
       228   07 Jun 2027 07:54:30.181   07 Jun 2027 07:54:33.067             2.886           277.656
       229   07 Jun 2027 09:26:17.442   07 Jun 2027 09:26:37.306            19.864          9932.000
       230   07 Jun 2027 09:27:11.130   07 Jun 2027 09:27:15.638             4.508          1691.875
       231   07 Jun 2027 09:27:26.553   07 Jun 2027 09:27:30.949             4.396           341.094
       232   07 Jun 2027 09:28:02.795   07 Jun 2027 09:28:05.554             2.759           588.719
       233   07 Jun 2027 09:28:29.727   07 Jun 2027 09:28:32.869             3.142           726.469
       234   07 Jun 2027 09:29:15.915   07 Jun 2027 09:29:15.915             0.000             0.000
       235   07 Jun 2027 09:29:47.796   07 Jun 2027 09:29:51.783             3.987          1768.500
       236   07 Jun 2027 09:29:57.272   07 Jun 2027 09:29:58.469             1.197            88.844
       237   07 Jun 2027 11:02:16.091   07 Jun 2027 11:02:21.212             5.121          2175.344
       238   07 Jun 2027 11:03:43.023   07 Jun 2027 11:03:47.444             4.421          1795.875
       239   07 Jun 2027 11:04:54.006   07 Jun 2027 11:05:00.075             6.069          2027.813
       240   07 Jun 2027 11:05:25.140   07 Jun 2027 11:05:27.371             2.231           653.906
       241   07 Jun 2027 11:05:50.267   07 Jun 2027 11:05:52.809             2.542           624.719
       242   08 Jun 2027 03:12:49.514   08 Jun 2027 03:12:52.262             2.748          1374.000
       243   08 Jun 2027 03:13:04.083   08 Jun 2027 03:13:31.791            27.708         13854.000
       244   08 Jun 2027 03:14:04.399   08 Jun 2027 03:14:13.938             9.539          4769.500
       245   08 Jun 2027 03:14:16.256   08 Jun 2027 03:14:28.078            11.822          5911.000
       246   08 Jun 2027 03:15:08.016   08 Jun 2027 03:15:25.097            17.081          8540.500
       247   08 Jun 2027 04:46:37.180   08 Jun 2027 04:49:21.104           163.924         81962.000
       248   08 Jun 2027 04:50:10.757   08 Jun 2027 04:50:21.107            10.350          5175.000
       249   08 Jun 2027 04:52:44.000   08 Jun 2027 04:53:01.138            17.138          8569.000
       250   08 Jun 2027 04:54:15.903   08 Jun 2027 04:55:08.779            52.876         26438.000
       251   08 Jun 2027 06:23:51.411   08 Jun 2027 06:24:33.695            42.284         21142.000
       252   08 Jun 2027 06:24:43.115   08 Jun 2027 06:25:05.779            22.664         10427.500
       253   08 Jun 2027 06:26:00.084   08 Jun 2027 06:26:06.518             6.434          1527.094
       254   08 Jun 2027 06:26:18.614   08 Jun 2027 06:26:20.267             1.653           184.875
       255   08 Jun 2027 06:26:55.174   08 Jun 2027 06:26:57.289             2.115           890.906
       256   08 Jun 2027 06:27:25.934   08 Jun 2027 06:27:27.833             1.899           657.625
       257   08 Jun 2027 06:28:46.210   08 Jun 2027 06:28:51.142             4.932          2377.500
       258   08 Jun 2027 06:29:31.132   08 Jun 2027 06:29:34.394             3.262          1120.188
       259   08 Jun 2027 06:30:32.362   08 Jun 2027 06:30:36.012             3.650          1756.313
       260   08 Jun 2027 08:01:03.744   08 Jun 2027 08:01:45.520            41.776         19662.969
       261   08 Jun 2027 08:01:58.705   08 Jun 2027 08:02:00.744             2.039           208.250
       262   08 Jun 2027 08:03:20.236   08 Jun 2027 08:03:20.236             0.000             0.000
       263   08 Jun 2027 08:03:21.285   08 Jun 2027 08:03:25.069             3.784          1399.219
       264   08 Jun 2027 08:04:24.386   08 Jun 2027 08:04:28.640             4.254          1588.531
       265   08 Jun 2027 08:05:31.904   08 Jun 2027 08:05:32.231             0.327           163.500
       266   08 Jun 2027 08:05:41.912   08 Jun 2027 08:05:45.788             3.876          1811.344
       267   08 Jun 2027 08:05:48.873   08 Jun 2027 08:05:49.284             0.411            96.406
       268   08 Jun 2027 09:37:46.544   08 Jun 2027 09:38:05.536            18.992          9070.062
       269   08 Jun 2027 09:38:42.627   08 Jun 2027 09:38:44.579             1.952           906.719
       270   08 Jun 2027 09:39:27.930   08 Jun 2027 09:39:31.177             3.247           946.781
       271   08 Jun 2027 09:39:57.371   08 Jun 2027 09:40:02.217             4.846           382.187
       272   08 Jun 2027 09:40:03.339   08 Jun 2027 09:40:04.773             1.434            35.062
       273   08 Jun 2027 09:40:58.342   08 Jun 2027 09:40:59.431             1.089           544.500
       274   08 Jun 2027 09:41:34.274   08 Jun 2027 09:41:38.946             4.672          2068.969
       275   08 Jun 2027 09:41:50.128   08 Jun 2027 09:41:51.858             1.730           144.344
       276   08 Jun 2027 09:42:03.997   08 Jun 2027 09:42:07.704             3.707           379.344
       277   08 Jun 2027 11:12:59.015   08 Jun 2027 11:13:06.288             7.273          2816.531
       278   08 Jun 2027 11:14:57.750   08 Jun 2027 11:15:03.269             5.519          2410.312
       279   08 Jun 2027 11:15:36.207   08 Jun 2027 11:15:40.099             3.892          1001.531
       280   08 Jun 2027 11:15:56.873   08 Jun 2027 11:15:59.577             2.704           524.187
       281   08 Jun 2027 11:17:10.429   08 Jun 2027 11:17:13.276             2.847          1423.500
       282   09 Jun 2027 03:25:03.535   09 Jun 2027 03:25:59.796            56.261         28130.500
       283   09 Jun 2027 03:26:57.718   09 Jun 2027 03:27:10.041            12.323          6161.500
       284   09 Jun 2027 03:28:07.343   09 Jun 2027 03:28:24.726            17.383          8691.500
       285   09 Jun 2027 04:57:23.249   09 Jun 2027 04:57:56.354            33.105         16552.500
       286   09 Jun 2027 04:59:08.445   09 Jun 2027 05:01:37.913           149.468         74734.000
       287   09 Jun 2027 05:05:28.561   09 Jun 2027 05:05:49.109            20.548         10274.000
       288   09 Jun 2027 05:06:45.241   09 Jun 2027 05:06:45.241             0.000             0.000
       289   09 Jun 2027 05:07:03.770   09 Jun 2027 05:07:06.454             2.684          1342.000
       290   09 Jun 2027 06:36:12.644   09 Jun 2027 06:37:26.679            74.035         36854.093
       291   09 Jun 2027 06:38:22.391   09 Jun 2027 06:38:29.452             7.061          1270.719
       292   09 Jun 2027 06:38:50.510   09 Jun 2027 06:38:52.557             2.047           658.062
       293   09 Jun 2027 06:39:32.083   09 Jun 2027 06:39:35.324             3.241           877.969
       294   09 Jun 2027 06:39:44.163   09 Jun 2027 06:39:49.522             5.359           241.219
       295   09 Jun 2027 06:39:52.686   09 Jun 2027 06:39:54.890             2.204            76.906
       296   09 Jun 2027 06:40:39.608   09 Jun 2027 06:40:42.715             3.107           927.687
       297   09 Jun 2027 06:42:17.435   09 Jun 2027 06:42:24.204             6.769          2877.969
       298   09 Jun 2027 08:13:10.396   09 Jun 2027 08:13:43.640            33.244         15418.344
       299   09 Jun 2027 08:14:34.572   09 Jun 2027 08:14:38.680             4.108          1591.625
       300   09 Jun 2027 08:15:16.105   09 Jun 2027 08:15:17.489             1.384           454.063
       301   09 Jun 2027 08:15:36.921   09 Jun 2027 08:15:38.807             1.886           479.281
       302   09 Jun 2027 08:16:08.834   09 Jun 2027 08:16:10.188             1.354           677.000
       303   09 Jun 2027 08:17:44.424   09 Jun 2027 08:17:50.015             5.591          2795.500
       304   09 Jun 2027 09:49:56.201   09 Jun 2027 09:50:15.931            19.730          9296.531
       305   09 Jun 2027 09:50:47.220   09 Jun 2027 09:50:50.334             3.114           542.250
       306   09 Jun 2027 09:51:19.702   09 Jun 2027 09:51:19.702             0.000             0.000
       307   09 Jun 2027 09:51:29.413   09 Jun 2027 09:51:31.782             2.369          1099.687
       308   09 Jun 2027 09:51:34.786   09 Jun 2027 09:51:35.581             0.795            93.875
       309   09 Jun 2027 09:52:09.952   09 Jun 2027 09:52:17.828             7.876          1074.094
       310   09 Jun 2027 09:52:26.694   09 Jun 2027 09:52:28.828             2.134           277.062
       311   09 Jun 2027 09:53:02.420   09 Jun 2027 09:53:03.774             1.354           568.719
       312   09 Jun 2027 09:53:07.219   09 Jun 2027 09:53:10.714             3.495           107.656
       313   09 Jun 2027 09:53:24.838   09 Jun 2027 09:53:26.283             1.445           281.156
       314   09 Jun 2027 11:28:07.757   09 Jun 2027 11:28:15.230             7.473          2687.844
       315   09 Jun 2027 11:28:36.559   09 Jun 2027 11:28:38.320             1.761           370.031
       316   10 Jun 2027 03:37:10.524   10 Jun 2027 03:37:42.548            32.024         16012.000
       317   10 Jun 2027 03:37:56.440   10 Jun 2027 03:37:59.940             3.500          1750.000
       318   10 Jun 2027 03:38:16.691   10 Jun 2027 03:38:18.672             1.981           990.500
       319   10 Jun 2027 03:39:11.844   10 Jun 2027 03:39:54.292            42.448         21224.000
       320   10 Jun 2027 03:40:27.366   10 Jun 2027 03:40:27.366             0.000             0.000
       321   10 Jun 2027 05:12:17.973   10 Jun 2027 05:14:15.349           117.376         58688.000
       322   10 Jun 2027 05:14:21.100   10 Jun 2027 05:15:09.298            48.198         24099.000
       323   10 Jun 2027 05:15:39.170   10 Jun 2027 05:16:05.774            26.604         13302.000
       324   10 Jun 2027 05:16:25.452   10 Jun 2027 05:17:01.338            35.886         16413.531
       325   10 Jun 2027 05:18:06.574   10 Jun 2027 05:18:08.913             2.339          1169.500
       326   10 Jun 2027 05:18:44.585   10 Jun 2027 05:18:44.585             0.000             0.000
       327   10 Jun 2027 05:18:58.153   10 Jun 2027 05:19:02.866             4.713          2211.781
       328   10 Jun 2027 06:48:39.000   10 Jun 2027 06:49:43.157            64.157         31847.094
       329   10 Jun 2027 06:50:42.639   10 Jun 2027 06:50:45.760             3.121           984.062
       330   10 Jun 2027 06:51:53.782   10 Jun 2027 06:51:57.345             3.563          1781.500
       331   10 Jun 2027 06:53:21.060   10 Jun 2027 06:53:26.299             5.239          2619.500
       332   10 Jun 2027 06:53:41.523   10 Jun 2027 06:53:44.708             3.185           575.250
       333   10 Jun 2027 06:54:28.159   10 Jun 2027 06:54:30.104             1.945           836.406
       334   10 Jun 2027 06:54:36.519   10 Jun 2027 06:54:37.291             0.772           200.469
       335   10 Jun 2027 08:26:11.922   10 Jun 2027 08:26:41.986            30.064         14045.063
       336   10 Jun 2027 08:27:27.450   10 Jun 2027 08:27:33.454             6.004           399.094
       337   10 Jun 2027 08:27:58.977   10 Jun 2027 08:27:58.977             0.000             0.000
       338   10 Jun 2027 08:28:11.536   10 Jun 2027 08:28:14.197             2.661          1078.750
       339   10 Jun 2027 08:28:23.105   10 Jun 2027 08:28:25.747             2.642           278.375
       340   10 Jun 2027 08:28:46.976   10 Jun 2027 08:28:46.976             0.000             0.000
       341   10 Jun 2027 08:29:12.866   10 Jun 2027 08:29:22.988            10.122          1472.469
       342   10 Jun 2027 08:29:48.652   10 Jun 2027 08:29:53.716             5.064           782.375
       343   10 Jun 2027 08:30:09.411   10 Jun 2027 08:30:10.794             1.383           396.375
       344   10 Jun 2027 10:02:15.827   10 Jun 2027 10:02:36.353            20.526          8001.969
       345   10 Jun 2027 10:02:44.641   10 Jun 2027 10:02:48.431             3.790           223.937
       346   10 Jun 2027 10:03:30.494   10 Jun 2027 10:03:31.580             1.086           292.156
       347   10 Jun 2027 10:04:33.054   10 Jun 2027 10:04:45.622            12.568          1110.187
       348   10 Jun 2027 10:05:12.928   10 Jun 2027 10:05:13.179             0.251            32.937
       349   10 Jun 2027 10:05:22.248   10 Jun 2027 10:05:24.308             2.060           171.719
       350   10 Jun 2027 10:05:30.775   10 Jun 2027 10:05:31.248             0.473           202.094
       351   10 Jun 2027 10:06:28.749   10 Jun 2027 10:06:30.048             1.299           649.500
       352   11 Jun 2027 03:49:19.398   11 Jun 2027 03:50:09.266            49.868         24934.000
       353   11 Jun 2027 03:50:43.553   11 Jun 2027 03:51:13.112            29.559         14779.500
       354   11 Jun 2027 03:51:23.481   11 Jun 2027 03:51:23.481             0.000             0.000
       355   11 Jun 2027 05:24:29.373   11 Jun 2027 05:26:03.101            93.728         46864.000
       356   11 Jun 2027 05:26:30.515   11 Jun 2027 05:26:46.130            15.615          7807.500
       357   11 Jun 2027 05:27:20.034   11 Jun 2027 05:28:31.349            71.315         35657.500
       358   11 Jun 2027 05:28:49.809   11 Jun 2027 05:28:54.626             4.817          2408.500
       359   11 Jun 2027 05:29:31.510   11 Jun 2027 05:29:51.927            20.417         10208.500
       360   11 Jun 2027 05:30:10.955   11 Jun 2027 05:30:17.492             6.537          3268.500
       361   11 Jun 2027 05:30:50.680   11 Jun 2027 05:31:05.683            15.003          7501.500
       362   11 Jun 2027 07:00:46.673   11 Jun 2027 07:01:48.411            61.738         30161.219
       363   11 Jun 2027 07:02:43.662   11 Jun 2027 07:02:49.088             5.426          1671.031
       364   11 Jun 2027 07:03:08.302   11 Jun 2027 07:03:10.632             2.330           394.219
       365   11 Jun 2027 07:03:44.024   11 Jun 2027 07:03:46.225             2.201           971.594
       366   11 Jun 2027 07:03:58.514   11 Jun 2027 07:03:59.030             0.516           258.000
       367   11 Jun 2027 07:05:01.196   11 Jun 2027 07:05:09.783             8.587          2068.719
       368   11 Jun 2027 08:38:18.987   11 Jun 2027 08:38:46.986            27.999         12995.469
       369   11 Jun 2027 08:39:24.632   11 Jun 2027 08:39:26.002             1.370           435.594
       370   11 Jun 2027 08:39:38.346   11 Jun 2027 08:39:38.636             0.290           126.906
       371   11 Jun 2027 08:40:29.623   11 Jun 2027 08:40:33.074             3.451          1593.344
       372   11 Jun 2027 08:40:52.313   11 Jun 2027 08:40:53.544             1.231           145.531
       373   11 Jun 2027 08:41:18.250   11 Jun 2027 08:41:23.362             5.112           273.375
       374   11 Jun 2027 08:41:52.296   11 Jun 2027 08:41:56.240             3.944           904.187
       375   11 Jun 2027 08:42:44.015   11 Jun 2027 08:42:48.196             4.181          1466.313
       376   11 Jun 2027 10:14:19.028   11 Jun 2027 10:14:26.208             7.180          3590.000
       377   11 Jun 2027 10:15:04.828   11 Jun 2027 10:15:16.786            11.958          5116.156
       378   11 Jun 2027 10:15:26.096   11 Jun 2027 10:15:26.096             0.000             0.000
       379   11 Jun 2027 10:15:32.618   11 Jun 2027 10:15:33.361             0.743           318.781
       380   11 Jun 2027 10:15:46.069   11 Jun 2027 10:15:47.613             1.544           244.156
       381   11 Jun 2027 10:16:39.248   11 Jun 2027 10:16:41.679             2.431           867.406
       382   11 Jun 2027 10:17:22.216   11 Jun 2027 10:17:23.669             1.453           726.500
       383   11 Jun 2027 10:17:30.423   11 Jun 2027 10:17:31.977             1.554           658.000
       384   11 Jun 2027 10:18:34.709   11 Jun 2027 10:18:40.187             5.478          1860.562
       385   11 Jun 2027 10:19:00.884   11 Jun 2027 10:19:06.461             5.577           434.750
       386   12 Jun 2027 04:01:03.149   12 Jun 2027 04:02:16.681            73.532         36766.000
       387   12 Jun 2027 04:02:45.072   12 Jun 2027 04:02:50.487             5.415          2707.500
       388   12 Jun 2027 04:02:57.219   12 Jun 2027 04:02:57.219             0.000             0.000
       389   12 Jun 2027 04:04:37.395   12 Jun 2027 04:04:46.235             8.840          4420.000
       390   12 Jun 2027 05:35:56.599   12 Jun 2027 05:39:07.272           190.673         95336.500
       391   12 Jun 2027 05:40:35.086   12 Jun 2027 05:41:20.461            45.375         22687.500
       392   12 Jun 2027 05:42:40.741   12 Jun 2027 05:42:47.130             6.389          2544.562
       393   12 Jun 2027 07:12:29.986   12 Jun 2027 07:13:43.605            73.619         36510.125
       394   12 Jun 2027 07:15:04.227   12 Jun 2027 07:15:06.004             1.777           747.844
       395   12 Jun 2027 07:16:12.197   12 Jun 2027 07:16:14.522             2.325          1117.375
       396   12 Jun 2027 07:17:17.810   12 Jun 2027 07:17:23.401             5.591          1798.438
       397   12 Jun 2027 07:17:37.903   12 Jun 2027 07:17:39.306             1.403           372.156
       398   12 Jun 2027 08:50:47.289   12 Jun 2027 08:51:13.231            25.942         12632.375
       399   12 Jun 2027 08:51:53.080   12 Jun 2027 08:51:57.018             3.938          1065.531
       400   12 Jun 2027 08:52:25.797   12 Jun 2027 08:52:28.233             2.436           840.813
       401   12 Jun 2027 08:53:17.213   12 Jun 2027 08:53:21.260             4.047          1530.625
       402   12 Jun 2027 08:53:35.712   12 Jun 2027 08:53:35.712             0.000             0.000
       403   12 Jun 2027 08:53:45.133   12 Jun 2027 08:53:50.537             5.404           688.500
       404   12 Jun 2027 08:54:27.254   12 Jun 2027 08:54:31.097             3.843          1147.406
       405   12 Jun 2027 10:26:08.264   12 Jun 2027 10:26:23.796            15.532          7537.344
       406   12 Jun 2027 10:27:22.067   12 Jun 2027 10:27:23.478             1.411           705.500
       407   12 Jun 2027 10:27:34.285   12 Jun 2027 10:27:34.285             0.000             0.000
       408   12 Jun 2027 10:28:12.572   12 Jun 2027 10:28:18.175             5.603          2526.469
       409   12 Jun 2027 10:29:27.151   12 Jun 2027 10:29:33.065             5.914          2047.594
       410   12 Jun 2027 10:30:37.362   12 Jun 2027 10:30:39.523             2.161          1057.094
       411   12 Jun 2027 10:30:54.273   12 Jun 2027 10:30:56.076             1.803           453.344
       412   12 Jun 2027 10:31:00.036   12 Jun 2027 10:31:01.141             1.105            40.344
       413   13 Jun 2027 04:11:17.467   13 Jun 2027 04:12:13.509            56.042         28021.000
       414   13 Jun 2027 04:12:48.563   13 Jun 2027 04:13:28.194            39.631         19815.500
       415   13 Jun 2027 04:14:19.132   13 Jun 2027 04:14:36.280            17.148          8574.000
       416   13 Jun 2027 04:16:07.952   13 Jun 2027 04:16:33.760            25.808         12904.000
       417   13 Jun 2027 05:47:44.078   13 Jun 2027 05:50:22.727           158.649         79324.500
       418   13 Jun 2027 05:52:22.625   13 Jun 2027 05:52:23.413             0.788           394.000
       419   13 Jun 2027 05:52:43.411   13 Jun 2027 05:52:50.907             7.496          3748.000
       420   13 Jun 2027 05:52:55.558   13 Jun 2027 05:53:11.573            16.015          8007.500
       421   13 Jun 2027 05:54:27.358   13 Jun 2027 05:54:38.174            10.816          5408.000
       422   13 Jun 2027 05:55:15.526   13 Jun 2027 05:55:15.841             0.315           157.500
       423   13 Jun 2027 07:24:50.644   13 Jun 2027 07:26:11.541            80.897         38499.093
       424   13 Jun 2027 07:27:45.082   13 Jun 2027 07:27:49.711             4.629          2102.125
       425   13 Jun 2027 07:28:02.331   13 Jun 2027 07:28:11.564             9.233           394.375
       426   13 Jun 2027 07:29:01.091   13 Jun 2027 07:29:01.342             0.251           125.500
       427   13 Jun 2027 07:29:31.401   13 Jun 2027 07:29:36.514             5.113          2361.562
       428   13 Jun 2027 07:29:49.281   13 Jun 2027 07:29:53.350             4.069           180.031
       429   13 Jun 2027 07:30:01.060   13 Jun 2027 07:30:07.037             5.977           214.250
       430   13 Jun 2027 07:30:20.823   13 Jun 2027 07:30:21.612             0.789           318.937
       431   13 Jun 2027 07:30:54.165   13 Jun 2027 07:31:00.851             6.686           687.031
       432   13 Jun 2027 09:02:45.026   13 Jun 2027 09:03:10.192            25.166         11595.156
       433   13 Jun 2027 09:03:36.732   13 Jun 2027 09:03:36.732             0.000             0.000
       434   13 Jun 2027 09:03:38.909   13 Jun 2027 09:03:41.132             2.223           341.969
       435   13 Jun 2027 09:03:58.237   13 Jun 2027 09:03:59.938             1.701           321.906
       436   13 Jun 2027 09:04:33.878   13 Jun 2027 09:04:36.815             2.937          1014.219
       437   13 Jun 2027 09:05:13.391   13 Jun 2027 09:05:16.573             3.182           557.250
       438   13 Jun 2027 09:05:39.069   13 Jun 2027 09:05:40.465             1.396           637.469
       439   13 Jun 2027 09:06:05.645   13 Jun 2027 09:06:18.496            12.851           619.125
       440   13 Jun 2027 09:06:33.168   13 Jun 2027 09:06:35.804             2.636           458.500
       441   13 Jun 2027 10:35:51.231   13 Jun 2027 10:36:10.908            19.677          6190.750
       442   13 Jun 2027 10:37:02.110   13 Jun 2027 10:37:04.243             2.133           303.688
       443   13 Jun 2027 10:37:23.205   13 Jun 2027 10:37:29.215             6.010           242.875
       444   13 Jun 2027 10:37:52.392   13 Jun 2027 10:37:54.722             2.330           433.563
       445   13 Jun 2027 10:39:19.226   13 Jun 2027 10:39:24.258             5.032          1803.063
       446   13 Jun 2027 10:39:35.950   13 Jun 2027 10:39:37.412             1.462           365.375
       447   13 Jun 2027 10:40:20.806   13 Jun 2027 10:40:23.650             2.844          1007.094
       448   13 Jun 2027 10:40:39.648   13 Jun 2027 10:40:41.552             1.904           183.125
       449   13 Jun 2027 10:41:23.301   13 Jun 2027 10:41:28.649             5.348           784.937
       450   13 Jun 2027 10:41:51.379   13 Jun 2027 10:41:58.135             6.756           618.656
       451   13 Jun 2027 10:42:06.937   13 Jun 2027 10:42:09.111             2.174           275.063
       452   13 Jun 2027 10:43:04.370   13 Jun 2027 10:43:14.645            10.275          1525.719
       453   13 Jun 2027 10:43:50.181   13 Jun 2027 10:43:50.743             0.562           281.000
