uniorb/output/strategy_2/Camera/Camera_KinoSat_112006.txt

KinoSat_112006
-------------------------
    Access    *     Start Time (UTCG)     *     Stop Time (UTCG)  *   Duration (s) *   Data (Mbytes)
         1   01 Jun 2027 04:23:52.702   01 Jun 2027 04:25:34.185           101.483         50741.500
         2   01 Jun 2027 04:25:34.335   01 Jun 2027 04:26:59.742            85.407         42703.500
         3   01 Jun 2027 04:27:15.797   01 Jun 2027 04:27:15.797             0.000             0.000
         4   01 Jun 2027 04:27:59.436   01 Jun 2027 04:28:25.631            26.195         13097.500
         5   01 Jun 2027 06:02:56.996   01 Jun 2027 06:05:11.626           134.630         67315.000
         6   01 Jun 2027 06:06:13.441   01 Jun 2027 06:06:25.600            12.159          6079.500
         7   01 Jun 2027 06:06:35.131   01 Jun 2027 06:06:54.829            19.698          9849.000
         8   01 Jun 2027 06:07:22.898   01 Jun 2027 06:07:39.704            16.806          8403.000
         9   01 Jun 2027 06:08:09.881   01 Jun 2027 06:08:17.642             7.761          3880.500
        10   01 Jun 2027 06:08:27.868   01 Jun 2027 06:08:40.735            12.867          6433.500
        11   01 Jun 2027 06:09:03.068   01 Jun 2027 06:09:03.900             0.832           416.000
        12   01 Jun 2027 06:09:43.925   01 Jun 2027 06:09:59.453            15.528          7764.000
        13   01 Jun 2027 07:27:49.257   01 Jun 2027 07:28:44.448            55.191         27595.500
        14   01 Jun 2027 07:28:51.317   01 Jun 2027 07:28:51.317             0.000             0.000
        15   01 Jun 2027 07:39:31.418   01 Jun 2027 07:40:31.953            60.535         30267.500
        16   01 Jun 2027 09:01:44.961   01 Jun 2027 09:02:10.837            25.876         12938.000
        17   01 Jun 2027 09:02:40.535   01 Jun 2027 09:02:56.141            15.606          7803.000
        18   01 Jun 2027 09:03:45.859   01 Jun 2027 09:04:23.789            37.930         18965.000
        19   01 Jun 2027 10:36:49.018   01 Jun 2027 10:37:26.674            37.656         18828.000
        20   02 Jun 2027 03:00:00.000   02 Jun 2027 03:00:00.576             0.576           288.000
        21   02 Jun 2027 03:00:01.024   02 Jun 2027 03:01:45.651           104.627         52313.500
        22   02 Jun 2027 03:02:32.596   02 Jun 2027 03:03:29.098            56.502         28251.000
        23   02 Jun 2027 03:04:03.427   02 Jun 2027 03:04:17.108            13.681          6840.500
        24   02 Jun 2027 03:04:21.539   02 Jun 2027 03:04:49.105            27.566         13783.000
        25   02 Jun 2027 03:05:04.146   02 Jun 2027 03:05:16.095            11.949          5974.500
        26   02 Jun 2027 04:36:44.465   02 Jun 2027 04:37:19.542            35.077         17538.500
        27   02 Jun 2027 04:37:22.892   02 Jun 2027 04:39:00.543            97.651         48825.500
        28   02 Jun 2027 04:39:17.829   02 Jun 2027 04:39:50.613            32.784         16392.000
        29   02 Jun 2027 04:42:09.881   02 Jun 2027 04:42:09.881             0.000             0.000
        30   02 Jun 2027 06:14:59.226   02 Jun 2027 06:17:10.165           130.939         65469.500
        31   02 Jun 2027 06:17:27.118   02 Jun 2027 06:17:27.738             0.620           310.000
        32   02 Jun 2027 06:19:03.531   02 Jun 2027 06:19:06.990             3.459          1729.500
        33   02 Jun 2027 06:19:31.489   02 Jun 2027 06:20:30.718            59.229         29614.500
        34   02 Jun 2027 07:39:19.422   02 Jun 2027 07:39:59.324            39.902         19951.000
        35   02 Jun 2027 07:40:23.590   02 Jun 2027 07:40:23.590             0.000             0.000
        36   02 Jun 2027 07:40:57.853   02 Jun 2027 07:41:21.266            23.413         11706.500
        37   02 Jun 2027 07:51:33.763   02 Jun 2027 07:51:36.252             2.489          1244.500
        38   02 Jun 2027 09:13:29.376   02 Jun 2027 09:14:04.971            35.595         17797.500
        39   02 Jun 2027 09:15:32.310   02 Jun 2027 09:17:17.327           105.017         51898.782
        40   02 Jun 2027 10:48:17.279   02 Jun 2027 10:48:32.527            15.248          7624.000
        41   02 Jun 2027 10:49:19.177   02 Jun 2027 10:49:32.464            13.287          2768.750
        42   03 Jun 2027 03:11:16.718   03 Jun 2027 03:12:34.736            78.018         39009.000
        43   03 Jun 2027 03:12:41.863   03 Jun 2027 03:12:46.360             4.497          2248.500
        44   03 Jun 2027 03:13:32.892   03 Jun 2027 03:13:34.552             1.660           830.000
        45   03 Jun 2027 03:14:00.086   03 Jun 2027 03:14:13.550            13.464          6732.000
        46   03 Jun 2027 03:14:35.709   03 Jun 2027 03:14:41.391             5.682          2841.000
        47   03 Jun 2027 03:15:05.536   03 Jun 2027 03:15:42.189            36.653         18326.500
        48   03 Jun 2027 03:15:46.616   03 Jun 2027 03:16:48.192            61.576         30788.000
        49   03 Jun 2027 03:17:08.955   03 Jun 2027 03:18:08.049            59.094         29547.000
        50   03 Jun 2027 03:18:17.299   03 Jun 2027 03:18:36.213            18.914          9457.000
        51   03 Jun 2027 04:51:25.402   03 Jun 2027 04:52:49.253            83.851         41925.500
        52   03 Jun 2027 06:27:22.779   03 Jun 2027 06:28:22.338            59.559         29299.750
        53   03 Jun 2027 06:28:48.356   03 Jun 2027 06:28:54.608             6.252           446.437
        54   03 Jun 2027 06:29:18.191   03 Jun 2027 06:29:18.948             0.757           150.937
        55   03 Jun 2027 06:29:44.574   03 Jun 2027 06:29:51.940             7.366           800.813
        56   03 Jun 2027 06:30:32.408   03 Jun 2027 06:30:34.525             2.117          1044.594
        57   03 Jun 2027 06:30:58.227   03 Jun 2027 06:31:00.085             1.858           740.687
        58   03 Jun 2027 06:31:22.343   03 Jun 2027 06:31:22.343             0.000             0.000
        59   03 Jun 2027 06:32:28.640   03 Jun 2027 06:32:30.415             1.775           887.500
        60   03 Jun 2027 07:51:19.008   03 Jun 2027 07:51:35.185            16.177          5924.469
        61   03 Jun 2027 07:52:37.137   03 Jun 2027 07:52:37.137             0.000             0.000
        62   03 Jun 2027 07:52:37.953   03 Jun 2027 07:52:44.353             6.400          1343.750
        63   03 Jun 2027 09:27:15.809   03 Jun 2027 09:27:53.328            37.519         17656.406
        64   03 Jun 2027 09:28:05.128   03 Jun 2027 09:28:05.790             0.662           148.813
        65   03 Jun 2027 09:29:01.068   03 Jun 2027 09:29:03.446             2.378          1189.000
        66   03 Jun 2027 09:29:50.222   03 Jun 2027 09:29:56.932             6.710          1964.656
        67   03 Jun 2027 09:30:37.203   03 Jun 2027 09:30:41.630             4.427          1000.906
        68   03 Jun 2027 11:02:49.834   03 Jun 2027 11:03:10.648            20.814         10407.000
        69   03 Jun 2027 11:08:56.579   03 Jun 2027 11:09:21.354            24.775         11783.906
        70   04 Jun 2027 03:23:16.805   04 Jun 2027 03:24:18.023            61.218         30609.000
        71   04 Jun 2027 03:24:26.406   04 Jun 2027 03:24:36.803            10.397          5198.500
        72   04 Jun 2027 03:25:27.380   04 Jun 2027 03:27:23.071           115.691         57845.500
        73   04 Jun 2027 03:27:27.822   04 Jun 2027 03:27:49.221            21.399         10699.500
        74   04 Jun 2027 03:27:54.656   04 Jun 2027 03:28:14.679            20.023         10011.500
        75   04 Jun 2027 03:29:32.414   04 Jun 2027 03:30:33.737            61.323         30661.500
        76   04 Jun 2027 03:30:37.126   04 Jun 2027 03:30:49.471            12.345          4815.094
        77   04 Jun 2027 05:01:40.748   04 Jun 2027 05:02:00.618            19.870          9935.000
        78   04 Jun 2027 05:02:17.708   04 Jun 2027 05:03:08.583            50.875         25437.500
        79   04 Jun 2027 05:03:10.492   04 Jun 2027 05:03:15.820             5.328          2436.906
        80   04 Jun 2027 05:03:24.094   04 Jun 2027 05:03:25.105             1.011            66.062
        81   04 Jun 2027 05:04:01.323   04 Jun 2027 05:04:05.989             4.666           683.187
        82   04 Jun 2027 05:04:12.957   04 Jun 2027 05:04:14.738             1.781           111.594
        83   04 Jun 2027 05:05:17.903   04 Jun 2027 05:05:21.693             3.790          1588.000
        84   04 Jun 2027 05:05:58.444   04 Jun 2027 05:06:02.801             4.357          1148.469
        85   04 Jun 2027 05:06:46.020   04 Jun 2027 05:06:49.120             3.100          1258.656
        86   04 Jun 2027 05:07:08.429   04 Jun 2027 05:07:10.221             1.792           390.844
        87   04 Jun 2027 06:39:49.077   04 Jun 2027 06:40:19.175            30.098         15049.000
        88   04 Jun 2027 06:40:23.823   04 Jun 2027 06:40:31.446             7.623           394.750
        89   04 Jun 2027 06:42:32.488   04 Jun 2027 06:42:40.746             8.258          3446.469
        90   04 Jun 2027 06:43:53.946   04 Jun 2027 06:43:59.606             5.660          2015.281
        91   04 Jun 2027 06:44:26.971   04 Jun 2027 06:44:31.341             4.370           513.094
        92   04 Jun 2027 08:03:13.615   04 Jun 2027 08:03:26.122            12.507          5741.187
        93   04 Jun 2027 08:04:38.617   04 Jun 2027 08:04:42.908             4.291          1572.844
        94   04 Jun 2027 08:05:11.604   04 Jun 2027 08:05:12.730             1.126           218.250
        95   04 Jun 2027 09:39:37.897   04 Jun 2027 09:40:04.963            27.066         13533.000
        96   04 Jun 2027 09:41:51.197   04 Jun 2027 09:41:51.197             0.000             0.000
        97   04 Jun 2027 11:13:20.297   04 Jun 2027 11:13:37.821            17.524          8381.375
        98   04 Jun 2027 11:14:34.325   04 Jun 2027 11:14:36.467             2.142           916.500
        99   04 Jun 2027 11:15:06.236   04 Jun 2027 11:15:09.143             2.907           370.031
       100   04 Jun 2027 11:15:28.784   04 Jun 2027 11:15:30.315             1.531           234.969
       101   04 Jun 2027 11:21:35.136   04 Jun 2027 11:21:36.800             1.664           832.000
       102   05 Jun 2027 03:35:29.644   05 Jun 2027 03:36:38.653            69.009         34504.500
       103   05 Jun 2027 03:36:54.965   05 Jun 2027 03:39:36.006           161.041         80520.500
       104   05 Jun 2027 03:39:37.670   05 Jun 2027 03:39:57.603            19.933          9966.500
       105   05 Jun 2027 03:42:22.485   05 Jun 2027 03:42:29.693             7.208          3604.000
       106   05 Jun 2027 03:42:45.354   05 Jun 2027 03:42:53.962             8.608          4304.000
       107   05 Jun 2027 05:13:49.061   05 Jun 2027 05:14:38.917            49.856         24928.000
       108   05 Jun 2027 05:16:45.678   05 Jun 2027 05:17:23.125            37.447         18014.563
       109   05 Jun 2027 05:18:39.319   05 Jun 2027 05:18:39.975             0.656           328.000
       110   05 Jun 2027 05:19:09.437   05 Jun 2027 05:19:16.957             7.520          2953.594
       111   05 Jun 2027 06:52:07.014   05 Jun 2027 06:52:28.180            21.166         10461.531
       112   05 Jun 2027 06:53:11.280   05 Jun 2027 06:53:13.951             2.671           809.312
       113   05 Jun 2027 06:54:24.390   05 Jun 2027 06:54:28.673             4.283          1929.219
       114   05 Jun 2027 06:55:26.270   05 Jun 2027 06:55:27.822             1.552           776.000
       115   05 Jun 2027 06:55:47.644   05 Jun 2027 06:55:51.909             4.265          1024.406
       116   05 Jun 2027 08:15:01.137   05 Jun 2027 08:15:16.415            15.278          7470.969
       117   05 Jun 2027 08:17:45.199   05 Jun 2027 08:17:48.603             3.404          1702.000
       118   05 Jun 2027 09:51:40.418   05 Jun 2027 09:52:02.332            21.914         10607.094
       119   05 Jun 2027 11:26:40.297   05 Jun 2027 11:27:00.314            20.017          9650.312
       120   05 Jun 2027 11:30:46.491   05 Jun 2027 11:30:58.812            12.321          6160.500
       121   05 Jun 2027 11:31:31.944   05 Jun 2027 11:31:40.209             8.265          1455.219
       122   05 Jun 2027 11:31:53.027   05 Jun 2027 11:31:56.700             3.673           374.094
       123   05 Jun 2027 11:33:05.156   05 Jun 2027 11:33:12.088             6.932          1926.937
       124   05 Jun 2027 11:33:30.559   05 Jun 2027 11:33:31.766             1.207           504.625
       125   06 Jun 2027 03:47:26.509   06 Jun 2027 03:50:29.474           182.965         91482.500
       126   06 Jun 2027 03:51:24.151   06 Jun 2027 03:51:34.202            10.051          5025.500
       127   06 Jun 2027 03:51:45.720   06 Jun 2027 03:52:16.345            30.625         15312.500
       128   06 Jun 2027 03:52:34.751   06 Jun 2027 03:52:56.213            21.462         10731.000
       129   06 Jun 2027 03:54:22.919   06 Jun 2027 03:54:38.173            15.254          7627.000
       130   06 Jun 2027 05:25:34.832   06 Jun 2027 05:26:36.118            61.286         30643.000
       131   06 Jun 2027 05:26:42.812   06 Jun 2027 05:27:21.745            38.933         18609.000
       132   06 Jun 2027 05:28:09.335   06 Jun 2027 05:28:12.652             3.317          1091.844
       133   06 Jun 2027 05:29:04.224   06 Jun 2027 05:29:10.825             6.601          1606.219
       134   06 Jun 2027 05:29:49.034   06 Jun 2027 05:29:53.780             4.746          1076.469
       135   06 Jun 2027 05:30:01.705   06 Jun 2027 05:30:01.851             0.146            73.000
       136   06 Jun 2027 05:30:33.353   06 Jun 2027 05:30:34.159             0.806           403.000
       137   06 Jun 2027 05:30:52.200   06 Jun 2027 05:30:53.986             1.786           893.000
       138   06 Jun 2027 05:31:44.077   06 Jun 2027 05:31:46.957             2.880          1440.000
       139   06 Jun 2027 07:03:52.277   06 Jun 2027 07:04:04.848            12.571          6285.500
       140   06 Jun 2027 07:04:52.108   06 Jun 2027 07:04:54.464             2.356          1178.000
       141   06 Jun 2027 07:05:24.278   06 Jun 2027 07:05:24.278             0.000             0.000
       142   06 Jun 2027 07:05:46.838   06 Jun 2027 07:05:46.838             0.000             0.000
       143   06 Jun 2027 07:05:53.901   06 Jun 2027 07:05:59.940             6.039          2544.500
       144   06 Jun 2027 07:06:18.562   06 Jun 2027 07:06:21.560             2.998           581.937
       145   06 Jun 2027 08:27:15.923   06 Jun 2027 08:27:32.624            16.701          7229.594
       146   06 Jun 2027 08:27:56.779   06 Jun 2027 08:28:01.126             4.347           590.375
       147   06 Jun 2027 08:28:56.128   06 Jun 2027 08:28:56.128             0.000             0.000
       148   06 Jun 2027 08:29:50.972   06 Jun 2027 08:29:55.797             4.825          2191.156
       149   06 Jun 2027 10:03:47.744   06 Jun 2027 10:04:01.689            13.945          6028.063
       150   06 Jun 2027 10:04:58.223   06 Jun 2027 10:05:01.815             3.592          1685.156
       151   06 Jun 2027 11:40:46.716   06 Jun 2027 11:41:28.529            41.813         18720.688
       152   06 Jun 2027 11:42:47.343   06 Jun 2027 11:42:53.109             5.766          2048.906
       153   06 Jun 2027 11:43:02.673   06 Jun 2027 11:43:05.055             2.382           281.563
       154   06 Jun 2027 11:43:16.200   06 Jun 2027 11:43:17.936             1.736           297.969
       155   06 Jun 2027 11:43:56.411   06 Jun 2027 11:43:58.567             2.156          1053.437
       156   06 Jun 2027 11:45:05.538   06 Jun 2027 11:45:10.240             4.702          2092.844
       157   07 Jun 2027 03:59:23.814   07 Jun 2027 04:02:59.028           215.214        107607.000
       158   07 Jun 2027 04:03:34.851   07 Jun 2027 04:03:51.522            16.671          8335.500
       159   07 Jun 2027 04:04:11.764   07 Jun 2027 04:04:15.874             4.110          2055.000
       160   07 Jun 2027 04:04:41.727   07 Jun 2027 04:04:50.233             8.506          4253.000
       161   07 Jun 2027 04:05:48.705   07 Jun 2027 04:05:56.061             7.356          3678.000
       162   07 Jun 2027 04:06:11.372   07 Jun 2027 04:06:16.812             5.440          2720.000
       163   07 Jun 2027 05:38:41.596   07 Jun 2027 05:40:31.739           110.143         53325.376
       164   07 Jun 2027 05:40:52.840   07 Jun 2027 05:40:53.266             0.426           187.250
       165   07 Jun 2027 05:43:12.742   07 Jun 2027 05:43:12.742             0.000             0.000
       166   07 Jun 2027 05:43:15.269   07 Jun 2027 05:43:23.107             7.838          3919.000
       167   07 Jun 2027 05:45:31.250   07 Jun 2027 05:45:39.161             7.911          3021.000
       168   07 Jun 2027 05:46:33.069   07 Jun 2027 05:46:37.244             4.175          1628.344
       169   07 Jun 2027 07:15:49.305   07 Jun 2027 07:16:00.937            11.632          5816.000
       170   07 Jun 2027 07:16:47.522   07 Jun 2027 07:16:53.248             5.726          2863.000
       171   07 Jun 2027 07:17:39.590   07 Jun 2027 07:17:45.316             5.726          1641.156
       172   07 Jun 2027 07:18:11.621   07 Jun 2027 07:18:11.621             0.000             0.000
       173   07 Jun 2027 07:18:38.440   07 Jun 2027 07:18:42.282             3.842          1575.719
       174   07 Jun 2027 08:39:46.055   07 Jun 2027 08:40:11.944            25.889         10132.781
       175   07 Jun 2027 08:40:56.909   07 Jun 2027 08:40:59.427             2.518          1024.813
       176   07 Jun 2027 10:15:40.622   07 Jun 2027 10:15:56.699            16.077          7892.719
       177   07 Jun 2027 11:57:15.627   07 Jun 2027 11:57:42.034            26.407         13203.500
       178   08 Jun 2027 04:12:05.204   08 Jun 2027 04:15:14.187           188.983         94491.500
       179   08 Jun 2027 04:15:41.049   08 Jun 2027 04:16:22.154            41.105         20552.500
       180   08 Jun 2027 05:50:45.822   08 Jun 2027 05:52:46.990           121.168         60130.906
       181   08 Jun 2027 05:52:52.940   08 Jun 2027 05:52:53.239             0.299            16.781
       182   08 Jun 2027 05:53:30.273   08 Jun 2027 05:53:30.273             0.000             0.000
       183   08 Jun 2027 05:54:33.008   08 Jun 2027 05:54:39.660             6.652          2742.469
       184   08 Jun 2027 05:55:32.119   08 Jun 2027 05:55:35.862             3.743          1631.625
       185   08 Jun 2027 05:56:02.604   08 Jun 2027 05:56:02.604             0.000             0.000
       186   08 Jun 2027 05:56:35.321   08 Jun 2027 05:56:41.703             6.382          1805.000
       187   08 Jun 2027 07:16:34.702   08 Jun 2027 07:16:49.723            15.021          7107.750
       188   08 Jun 2027 07:17:09.761   08 Jun 2027 07:17:09.761             0.000             0.000
       189   08 Jun 2027 07:27:46.081   08 Jun 2027 07:27:54.241             8.160          3774.688
       190   08 Jun 2027 07:28:57.931   08 Jun 2027 07:29:00.632             2.701          1133.094
       191   08 Jun 2027 08:50:23.234   08 Jun 2027 08:50:38.189            14.955          7477.500
       192   08 Jun 2027 08:52:41.705   08 Jun 2027 08:52:50.481             8.776          4192.062
       193   09 Jun 2027 04:24:11.349   09 Jun 2027 04:27:32.824           201.475        100737.500
       194   09 Jun 2027 04:28:14.265   09 Jun 2027 04:28:39.841            25.576         12788.000
       195   09 Jun 2027 04:29:36.548   09 Jun 2027 04:29:36.667             0.119            59.500
       196   09 Jun 2027 04:30:13.433   09 Jun 2027 04:30:16.448             3.015          1507.500
       197   09 Jun 2027 06:03:15.998   09 Jun 2027 06:05:12.522           116.524         58262.000
       198   09 Jun 2027 06:05:59.387   09 Jun 2027 06:06:08.396             9.009          2341.501
       199   09 Jun 2027 06:06:40.702   09 Jun 2027 06:06:40.702             0.000             0.000
       200   09 Jun 2027 06:06:52.011   09 Jun 2027 06:06:55.770             3.759          1011.344
       201   09 Jun 2027 06:07:22.950   09 Jun 2027 06:07:23.994             1.044           487.688
       202   09 Jun 2027 06:07:55.345   09 Jun 2027 06:07:55.345             0.000             0.000
       203   09 Jun 2027 06:08:22.204   09 Jun 2027 06:08:29.180             6.976          1657.406
       204   09 Jun 2027 06:08:45.513   09 Jun 2027 06:08:46.732             1.219           414.031
       205   09 Jun 2027 06:08:48.742   09 Jun 2027 06:08:56.546             7.804            40.062
       206   09 Jun 2027 06:09:19.036   09 Jun 2027 06:09:21.208             2.172           687.031
       207   09 Jun 2027 06:10:03.136   09 Jun 2027 06:10:09.564             6.428          1310.250
       208   09 Jun 2027 07:28:06.719   09 Jun 2027 07:28:19.214            12.495          6247.500
       209   09 Jun 2027 07:28:23.921   09 Jun 2027 07:28:26.255             2.334           444.375
       210   09 Jun 2027 07:28:51.572   09 Jun 2027 07:28:51.572             0.000             0.000
       211   09 Jun 2027 07:29:36.275   09 Jun 2027 07:29:39.817             3.542          1626.875
       212   09 Jun 2027 07:39:47.004   09 Jun 2027 07:39:57.322            10.318          3365.937
       213   09 Jun 2027 09:02:04.515   09 Jun 2027 09:02:27.585            23.070         11535.000
       214   09 Jun 2027 09:03:00.304   09 Jun 2027 09:03:00.304             0.000             0.000
       215   09 Jun 2027 09:03:00.620   09 Jun 2027 09:03:09.900             9.280          4189.344
       216   09 Jun 2027 09:04:03.155   09 Jun 2027 09:04:03.990             0.835           258.375
       217   09 Jun 2027 09:06:11.245   09 Jun 2027 09:06:11.245             0.000             0.000
       218   09 Jun 2027 09:06:57.003   09 Jun 2027 09:07:05.997             8.994          4497.000
       219   09 Jun 2027 10:37:46.541   09 Jun 2027 10:37:46.541             0.000             0.000
       220   09 Jun 2027 10:38:16.408   09 Jun 2027 10:38:29.890            13.482          6741.000
       221   10 Jun 2027 03:00:00.000   10 Jun 2027 03:00:11.085            11.085          5542.500
       222   10 Jun 2027 03:00:36.750   10 Jun 2027 03:00:47.244            10.494          5247.000
       223   10 Jun 2027 03:01:17.713   10 Jun 2027 03:01:26.243             8.530          4265.000
       224   10 Jun 2027 03:02:05.481   10 Jun 2027 03:02:18.038            12.557          6278.500
       225   10 Jun 2027 03:02:31.253   10 Jun 2027 03:02:40.001             8.748          4374.000
       226   10 Jun 2027 03:02:53.273   10 Jun 2027 03:03:23.536            30.263         15131.500
       227   10 Jun 2027 03:03:29.265   10 Jun 2027 03:03:42.293            13.028          6514.000
       228   10 Jun 2027 03:04:29.512   10 Jun 2027 03:04:31.788             2.276          1138.000
       229   10 Jun 2027 03:04:38.192   10 Jun 2027 03:04:45.615             7.423          3711.500
       230   10 Jun 2027 03:05:28.520   10 Jun 2027 03:06:01.300            32.780         16390.000
       231   10 Jun 2027 03:06:31.923   10 Jun 2027 03:06:36.729             4.806          2403.000
       232   10 Jun 2027 04:36:31.593   10 Jun 2027 04:36:40.394             8.801          4400.500
       233   10 Jun 2027 04:37:20.967   10 Jun 2027 04:37:37.279            16.312          8156.000
       234   10 Jun 2027 04:37:41.195   10 Jun 2027 04:37:47.847             6.652          3326.000
       235   10 Jun 2027 04:39:41.768   10 Jun 2027 04:40:09.328            27.560         13780.000
       236   10 Jun 2027 04:40:56.701   10 Jun 2027 04:41:26.452            29.751         14875.500
       237   10 Jun 2027 04:41:35.104   10 Jun 2027 04:42:01.422            26.318         13159.000
       238   10 Jun 2027 04:42:14.922   10 Jun 2027 04:42:31.374            16.452          8226.000
       239   10 Jun 2027 06:15:18.323   10 Jun 2027 06:16:27.556            69.233         34616.500
       240   10 Jun 2027 06:16:39.643   10 Jun 2027 06:17:04.987            25.344         12020.721
       241   10 Jun 2027 06:17:42.372   10 Jun 2027 06:17:42.372             0.000             0.000
       242   10 Jun 2027 06:17:59.315   10 Jun 2027 06:18:03.188             3.873          1697.750
       243   10 Jun 2027 06:18:51.252   10 Jun 2027 06:18:51.252             0.000             0.000
       244   10 Jun 2027 06:19:16.341   10 Jun 2027 06:19:21.523             5.182          1874.406
       245   10 Jun 2027 06:20:54.092   10 Jun 2027 06:20:59.773             5.681          2093.969
       246   10 Jun 2027 06:22:14.590   10 Jun 2027 06:22:18.266             3.676          1838.000
       247   10 Jun 2027 07:39:38.606   10 Jun 2027 07:39:57.139            18.533          8159.000
       248   10 Jun 2027 07:40:44.450   10 Jun 2027 07:40:46.747             2.297           896.406
       249   10 Jun 2027 07:41:47.000   10 Jun 2027 07:41:50.450             3.450          1677.312
       250   10 Jun 2027 07:51:54.975   10 Jun 2027 07:52:01.831             6.856          3428.000
       251   10 Jun 2027 09:13:45.583   10 Jun 2027 09:14:20.572            34.989         17345.563
       252   10 Jun 2027 09:17:37.100   10 Jun 2027 09:17:50.082            12.982          6110.469
       253   10 Jun 2027 09:18:53.905   10 Jun 2027 09:18:55.962             2.057          1028.500
       254   10 Jun 2027 09:18:57.572   10 Jun 2027 09:19:02.506             4.934           408.344
       255   10 Jun 2027 10:48:33.405   10 Jun 2027 10:48:44.886            11.481          5320.313
       256   10 Jun 2027 10:52:09.960   10 Jun 2027 10:52:22.068            12.108          4846.250
       257   10 Jun 2027 10:55:48.186   10 Jun 2027 10:56:01.998            13.812          6330.844
       258   10 Jun 2027 10:56:56.294   10 Jun 2027 10:56:58.896             2.602          1055.687
       259   10 Jun 2027 10:57:17.188   10 Jun 2027 10:57:18.315             1.127           500.406
       260   11 Jun 2027 03:11:34.630   11 Jun 2027 03:12:49.488            74.858         37429.000
       261   11 Jun 2027 03:13:47.732   11 Jun 2027 03:13:47.732             0.000             0.000
       262   11 Jun 2027 03:13:49.196   11 Jun 2027 03:14:03.492            14.296          7148.000
       263   11 Jun 2027 03:14:15.008   11 Jun 2027 03:15:06.553            51.545         25772.500
       264   11 Jun 2027 03:15:31.334   11 Jun 2027 03:16:01.513            30.179         15089.500
       265   11 Jun 2027 03:17:12.376   11 Jun 2027 03:17:26.154            13.778          6889.000
       266   11 Jun 2027 03:18:22.515   11 Jun 2027 03:18:53.809            31.294         15647.000
       267   11 Jun 2027 04:49:14.548   11 Jun 2027 04:49:28.936            14.388          7194.000
       268   11 Jun 2027 04:49:38.197   11 Jun 2027 04:50:49.904            71.707         35853.500
       269   11 Jun 2027 04:51:19.297   11 Jun 2027 04:51:57.374            38.077         19038.500
       270   11 Jun 2027 04:52:19.349   11 Jun 2027 04:52:22.953             3.604          1133.406
       271   11 Jun 2027 04:53:20.124   11 Jun 2027 04:53:24.731             4.607          1527.656
       272   11 Jun 2027 04:54:11.947   11 Jun 2027 04:54:13.835             1.888           944.000
       273   11 Jun 2027 06:27:43.967   11 Jun 2027 06:28:30.015            46.048         20292.094
       274   11 Jun 2027 06:28:58.795   11 Jun 2027 06:28:59.905             1.110           302.031
       275   11 Jun 2027 06:29:30.065   11 Jun 2027 06:29:32.918             2.853           805.687
       276   11 Jun 2027 06:29:55.768   11 Jun 2027 06:29:56.051             0.283           141.500
       277   11 Jun 2027 06:30:11.993   11 Jun 2027 06:30:19.923             7.930           957.250
       278   11 Jun 2027 06:30:58.350   11 Jun 2027 06:31:00.773             2.423           898.656
       279   11 Jun 2027 06:31:14.406   11 Jun 2027 06:31:14.627             0.221           109.219
       280   11 Jun 2027 06:32:05.242   11 Jun 2027 06:32:07.617             2.375          1187.500
       281   11 Jun 2027 06:32:44.242   11 Jun 2027 06:32:47.503             3.261          1538.750
       282   11 Jun 2027 07:51:36.837   11 Jun 2027 07:51:51.515            14.678          4509.469
       283   11 Jun 2027 07:52:54.955   11 Jun 2027 07:52:59.428             4.473          1377.094
       284   11 Jun 2027 09:27:34.133   11 Jun 2027 09:28:12.267            38.134         18000.437
       285   11 Jun 2027 09:28:32.224   11 Jun 2027 09:28:37.253             5.029           413.531
       286   11 Jun 2027 09:30:22.889   11 Jun 2027 09:30:22.889             0.000             0.000
       287   11 Jun 2027 11:01:22.763   11 Jun 2027 11:01:46.131            23.368         10863.594
       288   11 Jun 2027 11:02:50.140   11 Jun 2027 11:02:53.251             3.111           995.750
       289   11 Jun 2027 11:07:32.953   11 Jun 2027 11:07:54.445            21.492          8209.187
       290   11 Jun 2027 11:08:43.075   11 Jun 2027 11:08:44.650             1.575           787.500
       291   11 Jun 2027 11:09:27.079   11 Jun 2027 11:09:31.564             4.485          1680.000
       292   12 Jun 2027 03:23:35.412   12 Jun 2027 03:24:51.551            76.139         38069.500
       293   12 Jun 2027 03:25:42.319   12 Jun 2027 03:26:48.592            66.273         33136.500
       294   12 Jun 2027 03:27:37.332   12 Jun 2027 03:29:18.392           101.060         50530.000
       295   12 Jun 2027 03:29:31.506   12 Jun 2027 03:29:43.346            11.840          5920.000
       296   12 Jun 2027 05:01:58.326   12 Jun 2027 05:02:17.564            19.238          9619.000
       297   12 Jun 2027 05:02:31.197   12 Jun 2027 05:03:26.615            55.418         27709.000
       298   12 Jun 2027 05:03:26.733   12 Jun 2027 05:03:39.661            12.928          6231.281
       299   12 Jun 2027 05:04:52.077   12 Jun 2027 05:04:56.420             4.343          2088.500
       300   12 Jun 2027 05:05:56.507   12 Jun 2027 05:05:59.517             3.010          1276.813
       301   12 Jun 2027 05:07:00.624   12 Jun 2027 05:07:05.146             4.522          1467.344
       302   12 Jun 2027 05:07:28.001   12 Jun 2027 05:07:29.544             1.543           547.375
       303   12 Jun 2027 06:40:06.075   12 Jun 2027 06:40:36.775            30.700         14959.219
       304   12 Jun 2027 06:41:04.949   12 Jun 2027 06:41:10.692             5.743           880.437
       305   12 Jun 2027 06:41:18.811   12 Jun 2027 06:41:21.444             2.633           160.187
       306   12 Jun 2027 06:41:47.539   12 Jun 2027 06:41:49.419             1.880           815.469
       307   12 Jun 2027 06:43:08.469   12 Jun 2027 06:43:17.488             9.019          2137.156
       308   12 Jun 2027 06:43:54.742   12 Jun 2027 06:43:56.928             2.186          1093.000
       309   12 Jun 2027 08:03:29.798   12 Jun 2027 08:03:40.982            11.184          5370.406
       310   12 Jun 2027 08:04:56.415   12 Jun 2027 08:05:03.741             7.326          1634.906
       311   12 Jun 2027 08:05:26.703   12 Jun 2027 08:05:27.419             0.716           160.594
       312   12 Jun 2027 09:40:35.967   12 Jun 2027 09:41:12.528            36.561         18269.375
       313   12 Jun 2027 09:41:59.744   12 Jun 2027 09:41:59.744             0.000             0.000
       314   12 Jun 2027 09:42:02.999   12 Jun 2027 09:42:05.759             2.760           874.094
       315   12 Jun 2027 11:15:43.885   12 Jun 2027 11:15:59.441            15.556          7778.000
       316   12 Jun 2027 11:20:31.095   12 Jun 2027 11:20:52.628            21.533         10766.500
       317   12 Jun 2027 11:20:53.132   12 Jun 2027 11:21:00.139             7.007          3114.969
       318   12 Jun 2027 11:21:22.192   12 Jun 2027 11:21:24.132             1.940           431.281
       319   12 Jun 2027 11:21:40.331   12 Jun 2027 11:21:43.295             2.964           372.000
       320   13 Jun 2027 03:35:44.760   13 Jun 2027 03:36:53.396            68.636         34318.000
       321   13 Jun 2027 03:37:09.967   13 Jun 2027 03:39:52.726           162.759         81379.500
       322   13 Jun 2027 03:40:12.049   13 Jun 2027 03:40:20.730             8.681          4340.500
       323   13 Jun 2027 03:41:07.677   13 Jun 2027 03:41:24.475            16.798          8399.000
       324   13 Jun 2027 03:41:37.421   13 Jun 2027 03:41:48.011            10.590          5295.000
       325   13 Jun 2027 03:42:42.660   13 Jun 2027 03:42:44.317             1.657           828.500
       326   13 Jun 2027 03:42:59.873   13 Jun 2027 03:43:08.226             8.353          4176.500
       327   13 Jun 2027 05:14:53.302   13 Jun 2027 05:14:58.526             5.224          2612.000
       328   13 Jun 2027 05:15:04.253   13 Jun 2027 05:16:18.298            74.045         37022.500
       329   13 Jun 2027 05:16:40.584   13 Jun 2027 05:16:53.792            13.208          6076.563
       330   13 Jun 2027 05:17:12.843   13 Jun 2027 05:17:14.673             1.830           595.344
       331   13 Jun 2027 05:17:33.523   13 Jun 2027 05:17:37.827             4.304           589.062
       332   13 Jun 2027 05:17:43.845   13 Jun 2027 05:17:44.348             0.503           188.063
       333   13 Jun 2027 05:17:53.264   13 Jun 2027 05:17:54.452             1.188            64.781
       334   13 Jun 2027 05:17:57.181   13 Jun 2027 05:17:58.112             0.931            55.687
       335   13 Jun 2027 05:18:13.088   13 Jun 2027 05:18:17.083             3.995           369.094
       336   13 Jun 2027 05:18:57.262   13 Jun 2027 05:19:00.952             3.690          1211.969
       337   13 Jun 2027 05:19:26.120   13 Jun 2027 05:19:29.810             3.690           786.500
       338   13 Jun 2027 06:52:29.265   13 Jun 2027 06:52:52.994            23.729         10930.656
       339   13 Jun 2027 06:53:06.769   13 Jun 2027 06:53:06.769             0.000             0.000
       340   13 Jun 2027 06:54:00.856   13 Jun 2027 06:54:04.272             3.416          1708.000
       341   13 Jun 2027 06:54:59.637   13 Jun 2027 06:55:03.039             3.402          1701.000
       342   13 Jun 2027 06:55:41.871   13 Jun 2027 06:55:47.961             6.090          1388.312
       343   13 Jun 2027 08:15:18.958   13 Jun 2027 08:15:33.298            14.340          6603.187
       344   13 Jun 2027 08:18:04.230   13 Jun 2027 08:18:06.085             1.855           927.500
       345   13 Jun 2027 09:51:55.724   13 Jun 2027 09:52:19.223            23.499         11259.312
       346   13 Jun 2027 09:53:11.515   13 Jun 2027 09:53:14.643             3.128          1253.125
       347   13 Jun 2027 11:28:22.959   13 Jun 2027 11:28:53.250            30.291         11977.750
       348   13 Jun 2027 11:29:31.891   13 Jun 2027 11:29:36.197             4.306           465.594
       349   13 Jun 2027 11:30:04.570   13 Jun 2027 11:30:09.428             4.858           886.656
       350   13 Jun 2027 11:31:00.497   13 Jun 2027 11:31:01.219             0.722           361.000
       351   13 Jun 2027 11:33:47.928   13 Jun 2027 11:33:50.531             2.603          1301.500
