uniorb/output/strategy_2/Camera/Camera_KinoSat_110102.txt

KinoSat_110102
-------------------------
    Access    *     Start Time (UTCG)     *     Stop Time (UTCG)  *   Duration (s) *   Data (Mbytes)
         1   01 Jun 2027 03:00:00.000   01 Jun 2027 03:00:09.650             9.650          4825.000
         2   01 Jun 2027 03:00:12.057   01 Jun 2027 03:00:13.544             1.487           743.500
         3   01 Jun 2027 03:00:58.708   01 Jun 2027 03:01:06.164             7.456          3728.000
         4   01 Jun 2027 03:01:41.989   01 Jun 2027 03:01:42.749             0.760           380.000
         5   01 Jun 2027 03:01:48.740   01 Jun 2027 03:01:52.018             3.278          1639.000
         6   01 Jun 2027 03:02:25.482   01 Jun 2027 03:02:26.641             1.159           579.500
         7   01 Jun 2027 03:02:41.562   01 Jun 2027 03:02:46.871             5.309          2654.500
         8   01 Jun 2027 03:03:23.219   01 Jun 2027 03:03:26.731             3.512          1756.000
         9   01 Jun 2027 03:03:57.061   01 Jun 2027 03:04:06.675             9.614          4807.000
        10   01 Jun 2027 03:05:27.290   01 Jun 2027 03:05:38.131            10.841          5420.500
        11   01 Jun 2027 04:35:36.601   01 Jun 2027 04:35:40.329             3.728          1864.000
        12   01 Jun 2027 04:36:09.489   01 Jun 2027 04:36:35.679            26.190         13095.000
        13   01 Jun 2027 04:38:29.230   01 Jun 2027 04:38:31.774             2.544          1272.000
        14   01 Jun 2027 04:38:44.322   01 Jun 2027 04:38:50.251             5.929          2964.500
        15   01 Jun 2027 04:39:43.343   01 Jun 2027 04:39:43.580             0.237           118.500
        16   01 Jun 2027 04:40:05.731   01 Jun 2027 04:40:06.376             0.645           322.500
        17   01 Jun 2027 04:40:56.210   01 Jun 2027 04:40:59.321             3.111          1555.500
        18   01 Jun 2027 04:41:54.980   01 Jun 2027 04:42:15.604            20.624         10312.000
        19   01 Jun 2027 06:13:26.937   01 Jun 2027 06:13:39.604            12.667          6333.500
        20   01 Jun 2027 06:14:45.056   01 Jun 2027 06:14:50.738             5.682          2841.000
        21   01 Jun 2027 06:15:18.831   01 Jun 2027 06:15:24.193             5.362          2681.000
        22   01 Jun 2027 06:15:57.229   01 Jun 2027 06:15:58.987             1.758           879.000
        23   01 Jun 2027 06:16:11.793   01 Jun 2027 06:16:23.576            11.783          5891.500
        24   01 Jun 2027 06:17:26.981   01 Jun 2027 06:17:30.283             3.302          1651.000
        25   01 Jun 2027 07:49:25.614   01 Jun 2027 07:49:26.066             0.452           226.000
        26   01 Jun 2027 07:49:48.866   01 Jun 2027 07:50:09.253            20.387         10193.500
        27   01 Jun 2027 07:51:46.616   01 Jun 2027 07:51:48.371             1.755           877.500
        28   01 Jun 2027 07:52:35.665   01 Jun 2027 07:52:36.138             0.473           236.500
        29   01 Jun 2027 07:53:13.320   01 Jun 2027 07:53:29.021            15.701          7850.500
        30   02 Jun 2027 03:11:01.003   02 Jun 2027 03:11:16.434            15.431          7715.500
        31   02 Jun 2027 03:12:10.492   02 Jun 2027 03:12:20.795            10.303          5151.500
        32   02 Jun 2027 03:13:31.562   02 Jun 2027 03:13:32.737             1.175           587.500
        33   02 Jun 2027 03:13:40.814   02 Jun 2027 03:13:42.917             2.103          1051.500
        34   02 Jun 2027 03:14:09.449   02 Jun 2027 03:14:25.595            16.146          8073.000
        35   02 Jun 2027 03:15:25.241   02 Jun 2027 03:15:31.030             5.789          2894.500
        36   02 Jun 2027 03:15:41.195   02 Jun 2027 03:15:41.195             0.000             0.000
        37   02 Jun 2027 03:15:48.804   02 Jun 2027 03:15:56.897             8.093          4046.500
        38   02 Jun 2027 03:16:41.406   02 Jun 2027 03:16:45.346             3.940          1970.000
        39   02 Jun 2027 03:17:21.885   02 Jun 2027 03:17:30.304             8.419          4209.500
        40   02 Jun 2027 03:18:01.136   02 Jun 2027 03:18:01.136             0.000             0.000
        41   02 Jun 2027 03:18:09.027   02 Jun 2027 03:18:12.239             3.212          1606.000
        42   02 Jun 2027 04:48:13.297   02 Jun 2027 04:48:53.173            39.876         19938.000
        43   02 Jun 2027 04:51:36.435   02 Jun 2027 04:51:40.336             3.901          1950.500
        44   02 Jun 2027 04:51:56.351   02 Jun 2027 04:52:07.206            10.855          5427.500
        45   02 Jun 2027 04:53:01.880   02 Jun 2027 04:53:05.643             3.763          1881.500
        46   02 Jun 2027 04:53:54.098   02 Jun 2027 04:53:55.596             1.498           749.000
        47   02 Jun 2027 06:24:56.123   02 Jun 2027 06:25:10.545            14.422          7211.000
        48   02 Jun 2027 06:26:08.811   02 Jun 2027 06:26:10.989             2.178          1089.000
        49   02 Jun 2027 06:26:52.395   02 Jun 2027 06:26:52.693             0.298           149.000
        50   02 Jun 2027 06:27:15.305   02 Jun 2027 06:27:19.005             3.700          1850.000
        51   02 Jun 2027 06:27:34.012   02 Jun 2027 06:27:37.383             3.371          1685.500
        52   02 Jun 2027 06:28:06.073   02 Jun 2027 06:28:07.203             1.130           565.000
        53   02 Jun 2027 06:28:25.456   02 Jun 2027 06:28:29.128             3.672          1836.000
        54   02 Jun 2027 06:28:54.945   02 Jun 2027 06:28:56.435             1.490           745.000
        55   02 Jun 2027 06:29:24.970   02 Jun 2027 06:29:26.874             1.904           952.000
        56   02 Jun 2027 08:00:09.174   02 Jun 2027 08:00:15.095             5.921          2960.500
        57   02 Jun 2027 08:01:53.329   02 Jun 2027 08:01:57.296             3.967          1983.500
        58   02 Jun 2027 08:02:29.781   02 Jun 2027 08:02:37.682             7.901          3950.500
        59   02 Jun 2027 08:03:09.542   02 Jun 2027 08:03:13.016             3.474          1737.000
        60   02 Jun 2027 08:03:33.695   02 Jun 2027 08:03:37.609             3.914          1957.000
        61   02 Jun 2027 08:03:49.442   02 Jun 2027 08:03:49.442             0.000             0.000
        62   03 Jun 2027 03:23:22.159   03 Jun 2027 03:23:32.781            10.622          5311.000
        63   03 Jun 2027 03:24:43.264   03 Jun 2027 03:24:48.446             5.182          2591.000
        64   03 Jun 2027 03:25:41.814   03 Jun 2027 03:25:45.016             3.202          1601.000
        65   03 Jun 2027 03:26:01.216   03 Jun 2027 03:26:12.221            11.005          5502.500
        66   03 Jun 2027 03:27:02.269   03 Jun 2027 03:27:14.368            12.099          6049.500
        67   03 Jun 2027 03:28:19.436   03 Jun 2027 03:28:34.381            14.945          7472.500
        68   03 Jun 2027 05:00:19.997   03 Jun 2027 05:00:34.531            14.534          7267.000
        69   03 Jun 2027 05:01:36.579   03 Jun 2027 05:01:40.094             3.515          1757.500
        70   03 Jun 2027 05:02:06.929   03 Jun 2027 05:02:12.450             5.521          2760.500
        71   03 Jun 2027 05:02:38.741   03 Jun 2027 05:02:50.446            11.705          5852.500
        72   03 Jun 2027 05:03:42.170   03 Jun 2027 05:03:43.594             1.424           712.000
        73   03 Jun 2027 05:03:48.082   03 Jun 2027 05:04:00.590            12.508          6254.000
        74   03 Jun 2027 05:04:44.462   03 Jun 2027 05:04:52.331             7.869          3934.500
        75   03 Jun 2027 06:37:05.731   03 Jun 2027 06:37:14.574             8.843          4421.500
        76   03 Jun 2027 06:37:58.718   03 Jun 2027 06:38:06.264             7.546          3773.000
        77   03 Jun 2027 06:38:43.521   03 Jun 2027 06:38:48.907             5.386          2693.000
        78   03 Jun 2027 06:39:12.345   03 Jun 2027 06:39:19.463             7.118          3559.000
        79   03 Jun 2027 06:40:04.142   03 Jun 2027 06:40:11.632             7.490          3745.000
        80   03 Jun 2027 06:40:45.379   03 Jun 2027 06:40:48.874             3.495          1747.500
        81   03 Jun 2027 06:41:16.953   03 Jun 2027 06:41:18.353             1.400           700.000
        82   03 Jun 2027 08:15:17.329   03 Jun 2027 08:15:17.762             0.433           216.500
        83   04 Jun 2027 03:35:48.742   04 Jun 2027 03:35:50.012             1.270           635.000
        84   04 Jun 2027 03:36:07.793   04 Jun 2027 03:36:18.626            10.833          5416.500
        85   04 Jun 2027 03:37:08.506   04 Jun 2027 03:37:10.154             1.648           824.000
        86   04 Jun 2027 03:37:22.491   04 Jun 2027 03:37:28.126             5.635          2817.500
        87   04 Jun 2027 03:39:06.200   04 Jun 2027 03:39:15.669             9.469          4734.500
        88   04 Jun 2027 03:39:41.063   04 Jun 2027 03:39:50.714             9.651          4825.500
        89   04 Jun 2027 03:41:23.114   04 Jun 2027 03:41:34.028            10.914          5457.000
        90   04 Jun 2027 05:13:21.528   04 Jun 2027 05:13:22.607             1.079           539.500
        91   04 Jun 2027 05:14:02.079   04 Jun 2027 05:14:06.724             4.645          2322.500
        92   04 Jun 2027 05:14:31.739   04 Jun 2027 05:14:35.221             3.482          1741.000
        93   04 Jun 2027 05:14:57.589   04 Jun 2027 05:15:00.807             3.218          1609.000
        94   04 Jun 2027 05:15:13.428   04 Jun 2027 05:15:16.982             3.554          1777.000
        95   04 Jun 2027 05:15:41.810   04 Jun 2027 05:15:46.792             4.982          2491.000
        96   04 Jun 2027 05:16:09.168   04 Jun 2027 05:16:10.774             1.606           803.000
        97   04 Jun 2027 05:16:26.037   04 Jun 2027 05:16:41.912            15.875          7937.500
        98   04 Jun 2027 05:16:53.417   04 Jun 2027 05:16:58.323             4.906          2453.000
        99   04 Jun 2027 06:49:25.491   04 Jun 2027 06:49:34.949             9.458          4729.000
       100   04 Jun 2027 06:50:38.745   04 Jun 2027 06:50:46.694             7.949          3974.500
       101   04 Jun 2027 06:51:33.647   04 Jun 2027 06:51:45.322            11.675          5837.500
       102   04 Jun 2027 06:52:54.943   04 Jun 2027 06:52:59.346             4.403          2201.500
       103   05 Jun 2027 03:47:56.334   05 Jun 2027 03:48:08.790            12.456          6228.000
       104   05 Jun 2027 03:48:50.396   05 Jun 2027 03:48:58.592             8.196          4098.000
       105   05 Jun 2027 03:49:53.776   05 Jun 2027 03:50:05.842            12.066          6033.000
       106   05 Jun 2027 03:50:37.730   05 Jun 2027 03:50:40.539             2.809          1404.500
       107   05 Jun 2027 03:51:12.580   05 Jun 2027 03:51:13.506             0.926           463.000
       108   05 Jun 2027 03:51:29.725   05 Jun 2027 03:51:31.693             1.968           984.000
       109   05 Jun 2027 03:51:45.251   05 Jun 2027 03:51:52.132             6.881          3440.500
       110   05 Jun 2027 03:52:46.033   05 Jun 2027 03:52:46.372             0.339           169.500
       111   05 Jun 2027 03:53:06.286   05 Jun 2027 03:53:22.509            16.223          8111.500
       112   05 Jun 2027 05:25:27.887   05 Jun 2027 05:25:31.575             3.688          1844.000
       113   05 Jun 2027 05:26:05.394   05 Jun 2027 05:26:13.318             7.924          3962.000
       114   05 Jun 2027 05:26:59.717   05 Jun 2027 05:27:00.322             0.605           302.500
       115   05 Jun 2027 05:27:11.031   05 Jun 2027 05:27:18.939             7.908          3954.000
       116   05 Jun 2027 05:28:09.026   05 Jun 2027 05:28:09.156             0.130            65.000
       117   05 Jun 2027 05:28:28.186   05 Jun 2027 05:28:31.569             3.383          1691.500
       118   05 Jun 2027 05:29:15.284   05 Jun 2027 05:29:25.295            10.011          5005.500
       119   05 Jun 2027 05:29:49.333   05 Jun 2027 05:29:51.221             1.888           944.000
       120   05 Jun 2027 07:01:28.590   05 Jun 2027 07:01:33.339             4.749          2374.500
       121   05 Jun 2027 07:02:17.920   05 Jun 2027 07:02:22.487             4.567          2283.500
       122   05 Jun 2027 07:02:47.604   05 Jun 2027 07:02:54.250             6.646          3323.000
       123   05 Jun 2027 07:03:30.364   05 Jun 2027 07:03:42.150            11.786          5893.000
       124   05 Jun 2027 07:05:02.961   05 Jun 2027 07:05:04.326             1.365           682.500
       125   05 Jun 2027 07:05:56.453   05 Jun 2027 07:06:13.818            17.365          8682.500
       126   06 Jun 2027 03:59:39.634   06 Jun 2027 03:59:46.330             6.696          3348.000
       127   06 Jun 2027 04:00:40.959   06 Jun 2027 04:00:52.087            11.128          5564.000
       128   06 Jun 2027 04:01:45.938   06 Jun 2027 04:01:46.727             0.789           394.500
       129   06 Jun 2027 04:02:28.406   06 Jun 2027 04:02:28.535             0.129            64.500
       130   06 Jun 2027 04:02:42.508   06 Jun 2027 04:02:42.607             0.099            49.500
       131   06 Jun 2027 04:03:24.357   06 Jun 2027 04:03:25.579             1.222           611.000
       132   06 Jun 2027 04:03:43.877   06 Jun 2027 04:03:52.516             8.639          4319.500
       133   06 Jun 2027 04:04:37.069   06 Jun 2027 04:04:40.676             3.607          1803.500
       134   06 Jun 2027 04:05:03.280   06 Jun 2027 04:05:10.942             7.662          3831.000
       135   06 Jun 2027 04:05:50.706   06 Jun 2027 04:05:56.169             5.463          2731.500
       136   06 Jun 2027 05:37:57.027   06 Jun 2027 05:38:07.239            10.212          5106.000
       137   06 Jun 2027 05:38:50.240   06 Jun 2027 05:38:57.206             6.966          3483.000
       138   06 Jun 2027 05:39:31.784   06 Jun 2027 05:39:34.305             2.521          1260.500
       139   06 Jun 2027 05:40:34.189   06 Jun 2027 05:40:39.081             4.892          2446.000
       140   06 Jun 2027 05:41:00.207   06 Jun 2027 05:41:07.132             6.925          3462.500
       141   06 Jun 2027 07:11:58.245   06 Jun 2027 07:12:02.083             3.838          1919.000
       142   06 Jun 2027 07:12:19.365   06 Jun 2027 07:12:37.881            18.516          9258.000
       143   06 Jun 2027 07:13:52.847   06 Jun 2027 07:14:07.588            14.741          7370.500
       144   06 Jun 2027 07:14:59.682   06 Jun 2027 07:14:59.682             0.000             0.000
       145   06 Jun 2027 07:15:22.267   06 Jun 2027 07:15:27.755             5.488          2744.000
       146   06 Jun 2027 07:16:14.950   06 Jun 2027 07:16:15.309             0.359           179.500
       147   06 Jun 2027 07:16:34.659   06 Jun 2027 07:16:38.723             4.064          2032.000
       148   06 Jun 2027 07:16:58.982   06 Jun 2027 07:17:05.980             6.998          3499.000
       149   06 Jun 2027 07:18:18.143   06 Jun 2027 07:18:26.224             8.081          4040.500
       150   07 Jun 2027 04:12:00.679   07 Jun 2027 04:12:04.618             3.939          1969.500
       151   07 Jun 2027 04:12:39.245   07 Jun 2027 04:12:56.972            17.727          8863.500
       152   07 Jun 2027 04:14:37.950   07 Jun 2027 04:14:38.669             0.719           359.500
       153   07 Jun 2027 04:14:46.075   07 Jun 2027 04:14:57.092            11.017          5508.500
       154   07 Jun 2027 04:16:46.343   07 Jun 2027 04:16:50.276             3.933          1966.500
       155   07 Jun 2027 04:17:11.374   07 Jun 2027 04:17:18.935             7.561          3780.500
       156   07 Jun 2027 04:17:59.544   07 Jun 2027 04:18:05.361             5.817          2908.500
       157   07 Jun 2027 05:49:54.754   07 Jun 2027 05:50:01.395             6.641          3320.500
       158   07 Jun 2027 05:50:39.602   07 Jun 2027 05:50:51.897            12.295          6147.500
       159   07 Jun 2027 05:51:43.260   07 Jun 2027 05:51:44.915             1.655           827.500
       160   07 Jun 2027 05:51:58.946   07 Jun 2027 05:52:01.172             2.226          1113.000
       161   07 Jun 2027 05:52:15.495   07 Jun 2027 05:52:17.386             1.891           945.500
       162   07 Jun 2027 05:52:20.208   07 Jun 2027 05:52:25.308             5.100          2550.000
       163   07 Jun 2027 05:52:51.074   07 Jun 2027 05:52:55.791             4.717          2358.500
       164   07 Jun 2027 05:53:23.526   07 Jun 2027 05:53:28.467             4.941          2470.500
       165   07 Jun 2027 05:53:52.459   07 Jun 2027 05:53:53.642             1.183           591.500
       166   07 Jun 2027 07:23:01.200   07 Jun 2027 07:23:21.811            20.611         10305.500
       167   07 Jun 2027 07:24:47.916   07 Jun 2027 07:24:49.111             1.195           597.500
       168   07 Jun 2027 07:24:54.526   07 Jun 2027 07:25:01.269             6.743          3371.500
       169   07 Jun 2027 07:26:08.197   07 Jun 2027 07:26:30.308            22.111         11055.500
       170   07 Jun 2027 07:28:03.095   07 Jun 2027 07:28:03.152             0.057            28.500
       171   07 Jun 2027 07:28:15.393   07 Jun 2027 07:28:19.012             3.619          1809.500
       172   07 Jun 2027 07:28:51.653   07 Jun 2027 07:28:51.927             0.274           137.000
       173   07 Jun 2027 07:30:14.191   07 Jun 2027 07:30:20.874             6.683          3341.500
       174   08 Jun 2027 04:23:52.040   08 Jun 2027 04:23:52.590             0.550           275.000
       175   08 Jun 2027 04:23:57.910   08 Jun 2027 04:23:58.584             0.674           337.000
       176   08 Jun 2027 04:24:00.654   08 Jun 2027 04:24:15.452            14.798          7399.000
       177   08 Jun 2027 04:25:31.586   08 Jun 2027 04:25:34.613             3.027          1513.500
       178   08 Jun 2027 04:25:38.044   08 Jun 2027 04:25:48.394            10.350          5175.000
       179   08 Jun 2027 04:26:45.888   08 Jun 2027 04:26:47.830             1.942           971.000
       180   08 Jun 2027 04:27:00.685   08 Jun 2027 04:27:05.445             4.760          2380.000
       181   08 Jun 2027 04:27:19.188   08 Jun 2027 04:27:35.283            16.095          8047.500
       182   08 Jun 2027 04:29:30.947   08 Jun 2027 04:29:49.907            18.960          9480.000
       183   08 Jun 2027 06:01:54.788   08 Jun 2027 06:02:00.646             5.858          2929.000
       184   08 Jun 2027 06:02:25.197   08 Jun 2027 06:02:27.791             2.594          1297.000
       185   08 Jun 2027 06:03:17.888   08 Jun 2027 06:03:20.096             2.208          1104.000
       186   08 Jun 2027 06:03:56.690   08 Jun 2027 06:04:00.471             3.781          1890.500
       187   08 Jun 2027 06:04:35.733   08 Jun 2027 06:04:42.402             6.669          3334.500
       188   08 Jun 2027 06:05:35.499   08 Jun 2027 06:05:44.675             9.176          4588.000
       189   08 Jun 2027 07:35:31.160   08 Jun 2027 07:35:39.317             8.157          4078.500
       190   08 Jun 2027 07:36:58.932   08 Jun 2027 07:37:01.689             2.757          1378.500
       191   08 Jun 2027 07:37:21.211   08 Jun 2027 07:37:46.992            25.781         12890.500
       192   08 Jun 2027 07:39:51.879   08 Jun 2027 07:39:56.569             4.690          2345.000
       193   08 Jun 2027 07:40:19.314   08 Jun 2027 07:40:22.908             3.594          1797.000
       194   08 Jun 2027 07:41:01.762   08 Jun 2027 07:41:02.710             0.948           474.000
       195   08 Jun 2027 07:42:08.609   08 Jun 2027 07:42:13.023             4.414          2207.000
       196   08 Jun 2027 07:42:37.839   08 Jun 2027 07:42:38.201             0.362           181.000
       197   08 Jun 2027 07:42:40.332   08 Jun 2027 07:42:47.033             6.701          3350.500
       198   09 Jun 2027 03:00:00.000   09 Jun 2027 03:00:01.696             1.696           848.000
       199   09 Jun 2027 03:00:57.501   09 Jun 2027 03:00:58.701             1.200           600.000
       200   09 Jun 2027 03:01:10.690   09 Jun 2027 03:01:13.396             2.706          1353.000
       201   09 Jun 2027 03:01:25.255   09 Jun 2027 03:01:26.839             1.584           792.000
       202   09 Jun 2027 03:01:46.295   09 Jun 2027 03:01:55.048             8.753          4376.500
       203   09 Jun 2027 03:02:42.066   09 Jun 2027 03:02:49.550             7.484          3742.000
       204   09 Jun 2027 03:03:38.133   09 Jun 2027 03:03:42.635             4.502          2251.000
       205   09 Jun 2027 03:04:15.143   09 Jun 2027 03:04:32.045            16.902          8451.000
       206   09 Jun 2027 03:04:51.340   09 Jun 2027 03:04:54.610             3.270          1635.000
       207   09 Jun 2027 03:06:02.755   09 Jun 2027 03:06:06.128             3.373          1686.500
       208   09 Jun 2027 03:06:22.300   09 Jun 2027 03:06:30.309             8.009          4004.500
       209   09 Jun 2027 04:35:52.090   09 Jun 2027 04:36:00.902             8.812          4406.000
       210   09 Jun 2027 04:37:06.840   09 Jun 2027 04:37:20.061            13.221          6610.500
       211   09 Jun 2027 04:37:49.145   09 Jun 2027 04:37:51.178             2.033          1016.500
       212   09 Jun 2027 04:38:28.108   09 Jun 2027 04:38:33.819             5.711          2855.500
       213   09 Jun 2027 04:39:02.790   09 Jun 2027 04:39:05.425             2.635          1317.500
       214   09 Jun 2027 04:39:16.500   09 Jun 2027 04:39:31.510            15.010          7505.000
       215   09 Jun 2027 04:41:09.592   09 Jun 2027 04:41:09.726             0.134            67.000
       216   09 Jun 2027 04:41:13.972   09 Jun 2027 04:41:18.148             4.176          2088.000
       217   09 Jun 2027 04:41:45.319   09 Jun 2027 04:41:49.344             4.025          2012.500
       218   09 Jun 2027 04:41:57.885   09 Jun 2027 04:42:01.323             3.438          1719.000
       219   09 Jun 2027 06:13:42.274   09 Jun 2027 06:13:46.519             4.245          2122.500
       220   09 Jun 2027 06:14:07.331   09 Jun 2027 06:14:18.512            11.181          5590.500
       221   09 Jun 2027 06:15:15.808   09 Jun 2027 06:15:19.407             3.599          1799.500
       222   09 Jun 2027 06:15:33.808   09 Jun 2027 06:15:38.914             5.106          2553.000
       223   09 Jun 2027 06:16:12.287   09 Jun 2027 06:16:13.924             1.637           818.500
       224   09 Jun 2027 06:16:28.978   09 Jun 2027 06:16:29.181             0.203           101.500
       225   09 Jun 2027 06:16:39.849   09 Jun 2027 06:16:49.455             9.606          4803.000
       226   09 Jun 2027 06:17:49.445   09 Jun 2027 06:17:50.961             1.516           758.000
       227   09 Jun 2027 06:17:57.437   09 Jun 2027 06:18:03.024             5.587          2793.500
       228   09 Jun 2027 07:49:41.158   09 Jun 2027 07:49:50.985             9.827          4913.500
       229   09 Jun 2027 07:51:02.690   09 Jun 2027 07:51:21.364            18.674          9337.000
       230   09 Jun 2027 07:52:50.474   09 Jun 2027 07:52:51.721             1.247           623.500
       231   09 Jun 2027 07:53:13.279   09 Jun 2027 07:53:27.962            14.683          7341.500
       232   10 Jun 2027 03:11:16.570   10 Jun 2027 03:11:32.295            15.725          7862.500
       233   10 Jun 2027 03:12:56.772   10 Jun 2027 03:12:59.031             2.259          1129.500
       234   10 Jun 2027 03:13:09.104   10 Jun 2027 03:13:11.992             2.888          1444.000
       235   10 Jun 2027 03:13:48.004   10 Jun 2027 03:13:50.931             2.927          1463.500
       236   10 Jun 2027 03:13:52.878   10 Jun 2027 03:13:55.813             2.935          1467.500
       237   10 Jun 2027 03:14:42.158   10 Jun 2027 03:14:42.766             0.608           304.000
       238   10 Jun 2027 03:14:59.424   10 Jun 2027 03:15:07.618             8.194          4097.000
       239   10 Jun 2027 03:15:45.922   10 Jun 2027 03:15:55.907             9.985          4992.500
       240   10 Jun 2027 03:16:02.353   10 Jun 2027 03:16:02.759             0.406           203.000
       241   10 Jun 2027 03:16:17.990   10 Jun 2027 03:16:25.599             7.609          3804.500
       242   10 Jun 2027 03:17:37.258   10 Jun 2027 03:17:38.459             1.201           600.500
       243   10 Jun 2027 03:17:46.949   10 Jun 2027 03:17:58.292            11.343          5671.500
       244   10 Jun 2027 04:48:28.524   10 Jun 2027 04:48:49.416            20.892         10446.000
       245   10 Jun 2027 04:49:08.660   10 Jun 2027 04:49:12.566             3.906          1953.000
       246   10 Jun 2027 04:50:10.682   10 Jun 2027 04:50:18.752             8.070          4035.000
       247   10 Jun 2027 04:51:15.767   10 Jun 2027 04:51:16.608             0.841           420.500
       248   10 Jun 2027 04:51:33.983   10 Jun 2027 04:51:35.305             1.322           661.000
       249   10 Jun 2027 04:51:51.178   10 Jun 2027 04:51:55.602             4.424          2212.000
       250   10 Jun 2027 04:52:13.900   10 Jun 2027 04:52:24.167            10.267          5133.500
       251   10 Jun 2027 04:53:16.546   10 Jun 2027 04:53:21.537             4.991          2495.500
       252   10 Jun 2027 04:54:10.256   10 Jun 2027 04:54:11.573             1.317           658.500
       253   10 Jun 2027 06:25:11.520   10 Jun 2027 06:25:25.782            14.262          7131.000
       254   10 Jun 2027 06:26:26.489   10 Jun 2027 06:26:31.185             4.696          2348.000
       255   10 Jun 2027 06:27:18.505   10 Jun 2027 06:27:26.039             7.534          3767.000
       256   10 Jun 2027 06:28:20.998   10 Jun 2027 06:28:22.223             1.225           612.500
       257   10 Jun 2027 06:28:41.792   10 Jun 2027 06:28:50.493             8.701          4350.500
       258   10 Jun 2027 06:29:41.550   10 Jun 2027 06:29:44.701             3.151          1575.500
       259   10 Jun 2027 08:00:26.662   10 Jun 2027 08:00:29.324             2.662          1331.000
       260   10 Jun 2027 08:02:08.380   10 Jun 2027 08:02:11.339             2.959          1479.500
       261   10 Jun 2027 08:02:48.011   10 Jun 2027 08:03:03.113            15.102          7551.000
       262   10 Jun 2027 08:03:52.557   10 Jun 2027 08:03:52.557             0.000             0.000
       263   10 Jun 2027 08:04:04.042   10 Jun 2027 08:04:33.471            29.429         14714.500
       264   11 Jun 2027 03:23:36.905   11 Jun 2027 03:23:48.989            12.084          6042.000
       265   11 Jun 2027 03:25:01.161   11 Jun 2027 03:25:04.261             3.100          1550.000
       266   11 Jun 2027 03:25:16.678   11 Jun 2027 03:25:31.258            14.580          7290.000
       267   11 Jun 2027 03:25:39.426   11 Jun 2027 03:25:45.296             5.870          2935.000
       268   11 Jun 2027 03:27:04.670   11 Jun 2027 03:27:15.031            10.361          5180.500
       269   11 Jun 2027 03:28:00.607   11 Jun 2027 03:28:17.508            16.901          8450.500
       270   11 Jun 2027 03:29:35.669   11 Jun 2027 03:29:41.573             5.904          2952.000
       271   11 Jun 2027 05:00:34.825   11 Jun 2027 05:00:54.140            19.315          9657.500
       272   11 Jun 2027 05:02:06.446   11 Jun 2027 05:02:13.463             7.017          3508.500
       273   11 Jun 2027 05:03:15.107   11 Jun 2027 05:03:21.713             6.606          3303.000
       274   11 Jun 2027 05:03:53.253   11 Jun 2027 05:03:53.266             0.013             6.500
       275   11 Jun 2027 05:04:25.695   11 Jun 2027 05:04:31.715             6.020          3010.000
       276   11 Jun 2027 05:04:58.990   11 Jun 2027 05:05:02.347             3.357          1678.500
       277   11 Jun 2027 06:37:20.379   11 Jun 2027 06:37:29.129             8.750          4375.000
       278   11 Jun 2027 06:38:13.770   11 Jun 2027 06:38:23.888            10.118          5059.000
       279   11 Jun 2027 06:38:59.044   11 Jun 2027 06:39:04.979             5.935          2967.500
       280   11 Jun 2027 06:39:45.608   11 Jun 2027 06:39:46.405             0.797           398.500
       281   11 Jun 2027 06:40:20.767   11 Jun 2027 06:40:27.350             6.583          3291.500
       282   11 Jun 2027 06:41:46.343   11 Jun 2027 06:42:00.249            13.906          6953.000
       283   11 Jun 2027 08:15:32.035   11 Jun 2027 08:15:33.251             1.216           608.000
       284   12 Jun 2027 03:36:04.753   12 Jun 2027 03:36:21.693            16.940          8470.000
       285   12 Jun 2027 03:37:58.023   12 Jun 2027 03:38:00.757             2.734          1367.000
       286   12 Jun 2027 03:39:21.300   12 Jun 2027 03:39:30.433             9.133          4566.500
       287   12 Jun 2027 03:40:20.288   12 Jun 2027 03:40:20.895             0.607           303.500
       288   12 Jun 2027 03:40:44.092   12 Jun 2027 03:40:44.168             0.076            38.000
       289   12 Jun 2027 03:40:59.436   12 Jun 2027 03:41:01.257             1.821           910.500
       290   12 Jun 2027 03:41:28.504   12 Jun 2027 03:41:31.866             3.362          1681.000
       291   12 Jun 2027 03:42:01.358   12 Jun 2027 03:42:02.107             0.749           374.500
       292   12 Jun 2027 03:42:19.600   12 Jun 2027 03:42:24.495             4.895          2447.500
       293   12 Jun 2027 05:13:36.381   12 Jun 2027 05:13:37.365             0.984           492.000
       294   12 Jun 2027 05:14:16.571   12 Jun 2027 05:14:21.341             4.770          2385.000
       295   12 Jun 2027 05:14:49.671   12 Jun 2027 05:14:49.979             0.308           154.000
       296   12 Jun 2027 05:15:15.210   12 Jun 2027 05:15:16.368             1.158           579.000
       297   12 Jun 2027 05:16:19.510   12 Jun 2027 05:16:21.792             2.282          1141.000
       298   12 Jun 2027 05:16:41.695   12 Jun 2027 05:16:56.086            14.391          7195.500
       299   12 Jun 2027 05:17:07.987   12 Jun 2027 05:17:13.226             5.239          2619.500
       300   12 Jun 2027 06:49:40.996   12 Jun 2027 06:49:49.766             8.770          4385.000
       301   12 Jun 2027 06:50:14.281   12 Jun 2027 06:50:36.308            22.027         11013.500
       302   12 Jun 2027 06:52:16.302   12 Jun 2027 06:52:29.308            13.006          6503.000
       303   12 Jun 2027 06:53:28.021   12 Jun 2027 06:53:28.878             0.857           428.500
       304   12 Jun 2027 06:53:41.189   12 Jun 2027 06:53:42.202             1.013           506.500
       305   13 Jun 2027 03:48:11.490   13 Jun 2027 03:48:18.530             7.040          3520.000
       306   13 Jun 2027 03:49:08.643   13 Jun 2027 03:49:14.421             5.778          2889.000
       307   13 Jun 2027 03:50:07.790   13 Jun 2027 03:50:21.331            13.541          6770.500
       308   13 Jun 2027 03:51:27.365   13 Jun 2027 03:51:28.679             1.314           657.000
       309   13 Jun 2027 03:51:43.613   13 Jun 2027 03:51:44.444             0.831           415.500
       310   13 Jun 2027 03:52:06.503   13 Jun 2027 03:52:21.538            15.035          7517.500
       311   13 Jun 2027 03:53:13.106   13 Jun 2027 03:53:16.058             2.952          1476.000
       312   13 Jun 2027 03:53:46.829   13 Jun 2027 03:53:47.442             0.613           306.500
       313   13 Jun 2027 03:54:06.875   13 Jun 2027 03:54:09.558             2.683          1341.500
       314   13 Jun 2027 05:25:42.015   13 Jun 2027 05:25:50.955             8.940          4470.000
       315   13 Jun 2027 05:26:29.540   13 Jun 2027 05:26:31.741             2.201          1100.500
       316   13 Jun 2027 05:26:45.683   13 Jun 2027 05:26:45.809             0.126            63.000
       317   13 Jun 2027 05:26:54.470   13 Jun 2027 05:27:07.584            13.114          6557.000
       318   13 Jun 2027 05:28:26.046   13 Jun 2027 05:28:30.476             4.430          2215.000
       319   13 Jun 2027 05:28:50.213   13 Jun 2027 05:28:59.508             9.295          4647.500
       320   13 Jun 2027 05:29:43.592   13 Jun 2027 05:29:47.621             4.029          2014.500
       321   13 Jun 2027 05:30:04.853   13 Jun 2027 05:30:12.535             7.682          3841.000
       322   13 Jun 2027 07:01:43.163   13 Jun 2027 07:01:48.380             5.217          2608.500
       323   13 Jun 2027 07:02:32.586   13 Jun 2027 07:02:34.292             1.706           853.000
       324   13 Jun 2027 07:02:46.095   13 Jun 2027 07:02:50.168             4.073          2036.500
       325   13 Jun 2027 07:03:08.981   13 Jun 2027 07:03:15.773             6.792          3396.000
       326   13 Jun 2027 07:03:43.333   13 Jun 2027 07:03:46.018             2.685          1342.500
       327   13 Jun 2027 07:03:56.934   13 Jun 2027 07:03:57.017             0.083            41.500
       328   13 Jun 2027 07:04:02.703   13 Jun 2027 07:04:04.686             1.983           991.500
       329   13 Jun 2027 07:04:34.382   13 Jun 2027 07:04:38.233             3.851          1925.500
       330   13 Jun 2027 07:04:52.981   13 Jun 2027 07:05:04.399            11.418          5709.000
       331   13 Jun 2027 07:06:10.562   13 Jun 2027 07:06:11.058             0.496           248.000
       332   13 Jun 2027 07:06:34.353   13 Jun 2027 07:06:38.194             3.841          1920.500
