uniorb/output/strategy_2/Camera/Camera_KinoSat_111910.txt

KinoSat_111910
-------------------------
    Access    *     Start Time (UTCG)     *     Stop Time (UTCG)  *   Duration (s) *   Data (Mbytes)
         1   01 Jun 2027 03:49:21.768   01 Jun 2027 03:52:38.018           196.250         98125.000
         2   01 Jun 2027 03:52:57.480   01 Jun 2027 03:52:59.689             2.209          1104.500
         3   01 Jun 2027 03:53:53.041   01 Jun 2027 03:54:07.391            14.350          7175.000
         4   01 Jun 2027 05:28:19.682   01 Jun 2027 05:30:12.623           112.941         56470.500
         5   01 Jun 2027 05:30:18.874   01 Jun 2027 05:31:00.460            41.586         20793.000
         6   01 Jun 2027 05:32:22.540   01 Jun 2027 05:32:25.045             2.505          1252.500
         7   01 Jun 2027 05:33:52.519   01 Jun 2027 05:34:16.484            23.965         11982.500
         8   01 Jun 2027 06:53:35.976   01 Jun 2027 06:54:38.629            62.653         31326.500
         9   01 Jun 2027 07:05:03.514   01 Jun 2027 07:06:27.467            83.953         41976.500
        10   01 Jun 2027 08:27:42.295   01 Jun 2027 08:28:41.332            59.037         29518.500
        11   01 Jun 2027 08:29:18.047   01 Jun 2027 08:30:09.460            51.413         25706.500
        12   01 Jun 2027 08:31:18.894   01 Jun 2027 08:31:18.894             0.000             0.000
        13   01 Jun 2027 08:32:16.766   01 Jun 2027 08:32:21.158             4.392          2196.000
        14   01 Jun 2027 10:03:02.251   01 Jun 2027 10:04:00.880            58.629         29314.500
        15   01 Jun 2027 10:04:34.291   01 Jun 2027 10:04:59.165            24.874         12437.000
        16   01 Jun 2027 10:08:24.538   01 Jun 2027 10:08:33.945             9.407          4703.500
        17   01 Jun 2027 11:39:32.489   01 Jun 2027 11:39:52.182            19.693          9846.500
        18   01 Jun 2027 11:46:15.438   01 Jun 2027 11:47:01.724            46.286         23143.000
        19   02 Jun 2027 04:01:30.652   02 Jun 2027 04:03:02.410            91.758         45879.000
        20   02 Jun 2027 04:03:05.022   02 Jun 2027 04:05:37.133           152.111         76055.500
        21   02 Jun 2027 04:05:52.003   02 Jun 2027 04:05:53.280             1.277           638.500
        22   02 Jun 2027 05:40:35.596   02 Jun 2027 05:42:51.836           136.240         68120.000
        23   02 Jun 2027 05:45:49.642   02 Jun 2027 05:45:59.275             9.633          4816.500
        24   02 Jun 2027 05:46:29.169   02 Jun 2027 05:46:36.337             7.168          3584.000
        25   02 Jun 2027 07:04:50.283   02 Jun 2027 07:05:47.838            57.555         28777.500
        26   02 Jun 2027 07:06:04.452   02 Jun 2027 07:06:47.402            42.950         21475.000
        27   02 Jun 2027 07:17:02.653   02 Jun 2027 07:17:58.662            56.009         28004.500
        28   02 Jun 2027 08:39:18.436   02 Jun 2027 08:40:12.484            54.048         27024.000
        29   02 Jun 2027 08:41:21.918   02 Jun 2027 08:41:41.714            19.796          9898.000
        30   02 Jun 2027 08:43:27.026   02 Jun 2027 08:43:27.026             0.000             0.000
        31   02 Jun 2027 08:44:12.023   02 Jun 2027 08:44:28.026            16.003          7439.938
        32   02 Jun 2027 10:14:11.728   02 Jun 2027 10:14:26.428            14.700          6649.687
        33   02 Jun 2027 10:15:34.007   02 Jun 2027 10:15:34.559             0.552           276.000
        34   02 Jun 2027 10:19:24.982   02 Jun 2027 10:19:26.689             1.707           853.500
        35   02 Jun 2027 11:57:57.056   02 Jun 2027 11:58:51.554            54.498         27174.813
        36   03 Jun 2027 04:13:56.920   03 Jun 2027 04:14:10.302            13.382          6691.000
        37   03 Jun 2027 04:14:23.806   03 Jun 2027 04:14:50.947            27.141         13570.500
        38   03 Jun 2027 04:15:09.607   03 Jun 2027 04:18:13.430           183.823         91911.500
        39   03 Jun 2027 04:18:15.225   03 Jun 2027 04:18:22.910             7.685          3842.500
        40   03 Jun 2027 04:18:33.389   03 Jun 2027 04:18:43.410            10.021          5010.500
        41   03 Jun 2027 04:18:47.551   03 Jun 2027 04:18:51.438             3.887          1943.500
        42   03 Jun 2027 05:52:41.613   03 Jun 2027 05:53:20.763            39.150         19575.000
        43   03 Jun 2027 05:53:43.090   03 Jun 2027 05:54:51.208            68.118         33725.469
        44   03 Jun 2027 05:56:38.607   03 Jun 2027 05:56:38.607             0.000             0.000
        45   03 Jun 2027 05:56:55.945   03 Jun 2027 05:57:05.019             9.074          3331.969
        46   03 Jun 2027 05:58:09.624   03 Jun 2027 05:58:12.652             3.028          1514.000
        47   03 Jun 2027 07:16:56.306   03 Jun 2027 07:17:15.015            18.709          9160.781
        48   03 Jun 2027 07:17:31.642   03 Jun 2027 07:17:34.351             2.709           266.312
        49   03 Jun 2027 07:18:08.363   03 Jun 2027 07:18:11.694             3.331           870.531
        50   03 Jun 2027 07:18:45.954   03 Jun 2027 07:18:50.087             4.133           577.063
        51   03 Jun 2027 07:29:24.965   03 Jun 2027 07:29:29.957             4.992          2496.000
        52   03 Jun 2027 08:50:47.631   03 Jun 2027 08:51:12.418            24.787         11067.844
        53   03 Jun 2027 08:52:47.989   03 Jun 2027 08:52:53.734             5.745          2360.562
        54   03 Jun 2027 08:53:43.504   03 Jun 2027 08:53:50.776             7.272          1063.781
        55   03 Jun 2027 08:55:49.522   03 Jun 2027 08:55:58.517             8.995          3657.281
        56   03 Jun 2027 10:25:42.159   03 Jun 2027 10:25:58.248            16.089          7878.531
        57   03 Jun 2027 10:26:28.993   03 Jun 2027 10:26:35.143             6.150           953.656
        58   03 Jun 2027 10:27:59.689   03 Jun 2027 10:27:59.689             0.000             0.000
        59   03 Jun 2027 10:28:21.576   03 Jun 2027 10:28:28.782             7.206          3146.563
        60   03 Jun 2027 10:29:21.478   03 Jun 2027 10:29:21.478             0.000             0.000
        61   03 Jun 2027 10:32:50.752   03 Jun 2027 10:33:08.482            17.730          8113.375
        62   03 Jun 2027 10:33:22.025   03 Jun 2027 10:33:22.992             0.967           264.656
        63   03 Jun 2027 10:34:41.641   03 Jun 2027 10:34:50.560             8.919          2457.781
        64   03 Jun 2027 10:35:05.401   03 Jun 2027 10:35:07.709             2.308           164.875
        65   04 Jun 2027 04:26:34.308   04 Jun 2027 04:26:44.247             9.939          4969.500
        66   04 Jun 2027 04:26:56.340   04 Jun 2027 04:27:58.007            61.667         30833.500
        67   04 Jun 2027 04:28:03.231   04 Jun 2027 04:28:40.116            36.885         18442.500
        68   04 Jun 2027 04:28:41.843   04 Jun 2027 04:30:27.375           105.532         52766.000
        69   04 Jun 2027 04:31:49.099   04 Jun 2027 04:31:52.152             3.053          1526.500
        70   04 Jun 2027 06:05:43.517   04 Jun 2027 06:07:36.906           113.389         56088.563
        71   04 Jun 2027 06:08:03.156   04 Jun 2027 06:08:04.592             1.436           494.844
        72   04 Jun 2027 06:09:24.118   04 Jun 2027 06:09:30.374             6.256          2071.438
        73   04 Jun 2027 07:28:52.413   04 Jun 2027 07:29:13.426            21.013          8593.188
        74   04 Jun 2027 07:30:09.189   04 Jun 2027 07:30:14.759             5.570          1600.156
        75   04 Jun 2027 09:05:12.808   04 Jun 2027 09:05:44.933            32.125         15792.031
        76   04 Jun 2027 09:07:13.221   04 Jun 2027 09:07:19.395             6.174          2759.000
        77   04 Jun 2027 09:07:36.614   04 Jun 2027 09:07:36.614             0.000             0.000
        78   04 Jun 2027 09:08:09.642   04 Jun 2027 09:08:10.218             0.576           288.000
        79   04 Jun 2027 10:39:31.575   04 Jun 2027 10:39:53.069            21.494          7127.812
        80   04 Jun 2027 10:40:35.028   04 Jun 2027 10:40:35.595             0.567           170.625
        81   04 Jun 2027 10:41:16.682   04 Jun 2027 10:41:18.398             1.716           858.000
        82   04 Jun 2027 10:45:28.929   04 Jun 2027 10:45:42.464            13.535          6767.500
        83   04 Jun 2027 10:46:20.584   04 Jun 2027 10:46:27.505             6.921          2363.688
        84   04 Jun 2027 10:46:59.576   04 Jun 2027 10:47:05.355             5.779           882.156
        85   05 Jun 2027 03:00:54.960   05 Jun 2027 03:01:06.052            11.092          5546.000
        86   05 Jun 2027 03:01:13.896   05 Jun 2027 03:01:17.964             4.068          2034.000
        87   05 Jun 2027 03:01:50.082   05 Jun 2027 03:01:50.082             0.000             0.000
        88   05 Jun 2027 03:01:51.172   05 Jun 2027 03:02:27.122            35.950         17975.000
        89   05 Jun 2027 03:02:41.597   05 Jun 2027 03:03:09.991            28.394         14197.000
        90   05 Jun 2027 03:03:58.024   05 Jun 2027 03:04:35.379            37.355         18677.500
        91   05 Jun 2027 03:05:16.008   05 Jun 2027 03:06:10.375            54.367         27183.500
        92   05 Jun 2027 03:06:50.872   05 Jun 2027 03:06:55.440             4.568          2284.000
        93   05 Jun 2027 03:08:00.539   05 Jun 2027 03:08:08.623             8.084          4042.000
        94   05 Jun 2027 04:39:02.237   05 Jun 2027 04:39:30.695            28.458         14229.000
        95   05 Jun 2027 04:39:36.125   05 Jun 2027 04:41:24.378           108.253         54126.500
        96   05 Jun 2027 04:41:37.320   05 Jun 2027 04:41:42.115             4.795          2397.500
        97   05 Jun 2027 04:41:50.151   05 Jun 2027 04:41:52.496             2.345          1172.500
        98   05 Jun 2027 04:42:26.660   05 Jun 2027 04:42:31.163             4.503          2251.500
        99   05 Jun 2027 04:43:06.191   05 Jun 2027 04:43:17.641            11.450          5119.468
       100   05 Jun 2027 04:43:23.738   05 Jun 2027 04:43:28.749             5.011            35.781
       101   05 Jun 2027 06:17:02.897   05 Jun 2027 06:17:31.738            28.841         12887.500
       102   05 Jun 2027 06:17:44.856   05 Jun 2027 06:17:49.995             5.139           103.937
       103   05 Jun 2027 06:18:43.777   05 Jun 2027 06:18:48.290             4.513          1680.688
       104   05 Jun 2027 06:19:52.089   05 Jun 2027 06:19:57.135             5.046          1993.719
       105   05 Jun 2027 06:20:13.753   05 Jun 2027 06:20:15.431             1.678           381.563
       106   05 Jun 2027 06:21:11.216   05 Jun 2027 06:21:11.216             0.000             0.000
       107   05 Jun 2027 07:40:44.008   05 Jun 2027 07:40:59.105            15.097          5999.625
       108   05 Jun 2027 07:42:09.063   05 Jun 2027 07:42:15.230             6.167          1819.094
       109   05 Jun 2027 07:42:40.499   05 Jun 2027 07:42:42.420             1.921           319.219
       110   05 Jun 2027 07:42:51.750   05 Jun 2027 07:42:54.569             2.819           259.344
       111   05 Jun 2027 09:17:06.716   05 Jun 2027 09:17:29.639            22.923         10557.812
       112   05 Jun 2027 09:19:50.483   05 Jun 2027 09:19:50.483             0.000             0.000
       113   05 Jun 2027 10:51:11.520   05 Jun 2027 10:51:28.589            17.069          6820.750
       114   05 Jun 2027 10:53:00.660   05 Jun 2027 10:53:03.403             2.743          1371.500
       115   05 Jun 2027 10:55:01.104   05 Jun 2027 10:55:11.795            10.691          4253.438
       116   05 Jun 2027 10:55:14.222   05 Jun 2027 10:55:16.154             1.932            75.844
       117   05 Jun 2027 10:55:55.568   05 Jun 2027 10:55:58.586             3.018          1231.688
       118   05 Jun 2027 10:56:28.978   05 Jun 2027 10:56:31.586             2.608           504.313
       119   05 Jun 2027 10:57:16.936   05 Jun 2027 10:57:21.465             4.529          1417.188
       120   05 Jun 2027 10:58:55.179   05 Jun 2027 10:59:02.096             6.917          2011.500
       121   05 Jun 2027 10:59:07.401   05 Jun 2027 10:59:10.194             2.793           134.094
       122   06 Jun 2027 03:12:58.307   06 Jun 2027 03:13:39.784            41.477         20738.500
       123   06 Jun 2027 03:13:50.231   06 Jun 2027 03:13:55.344             5.113          2556.500
       124   06 Jun 2027 03:14:16.956   06 Jun 2027 03:16:20.728           123.772         61886.000
       125   06 Jun 2027 03:16:35.830   06 Jun 2027 03:16:43.146             7.316          3658.000
       126   06 Jun 2027 03:17:57.119   06 Jun 2027 03:18:04.409             7.290          3645.000
       127   06 Jun 2027 03:18:26.460   06 Jun 2027 03:18:33.072             6.612          3306.000
       128   06 Jun 2027 03:18:37.546   06 Jun 2027 03:18:44.471             6.925          3462.500
       129   06 Jun 2027 03:19:46.705   06 Jun 2027 03:19:51.069             4.364          2182.000
       130   06 Jun 2027 04:51:08.418   06 Jun 2027 04:51:34.793            26.375         13187.500
       131   06 Jun 2027 04:52:21.179   06 Jun 2027 04:54:01.947           100.768         47500.406
       132   06 Jun 2027 04:55:33.884   06 Jun 2027 04:55:40.926             7.042          2156.281
       133   06 Jun 2027 04:55:54.846   06 Jun 2027 04:55:56.059             1.213           428.688
       134   06 Jun 2027 04:56:29.037   06 Jun 2027 04:56:30.687             1.650           825.000
       135   06 Jun 2027 06:30:16.696   06 Jun 2027 06:30:32.785            16.089          8044.500
       136   06 Jun 2027 06:30:49.989   06 Jun 2027 06:30:56.448             6.459          2045.313
       137   06 Jun 2027 06:31:53.773   06 Jun 2027 06:31:58.505             4.732          1202.969
       138   06 Jun 2027 06:32:05.445   06 Jun 2027 06:32:09.170             3.725            94.344
       139   06 Jun 2027 06:32:24.324   06 Jun 2027 06:32:25.145             0.821           276.750
       140   06 Jun 2027 06:32:51.582   06 Jun 2027 06:32:55.605             4.023           813.062
       141   06 Jun 2027 07:52:48.568   06 Jun 2027 07:53:00.923            12.355          6177.500
       142   06 Jun 2027 07:54:10.194   06 Jun 2027 07:54:16.741             6.547          2529.313
       143   06 Jun 2027 07:54:28.145   06 Jun 2027 07:54:29.391             1.246            71.625
       144   06 Jun 2027 09:29:17.567   06 Jun 2027 09:29:29.321            11.754          4957.594
       145   06 Jun 2027 09:29:46.514   06 Jun 2027 09:29:51.274             4.760           333.344
       146   06 Jun 2027 09:31:50.243   06 Jun 2027 09:31:56.758             6.515          3183.250
       147   06 Jun 2027 11:04:23.413   06 Jun 2027 11:04:31.727             8.314          3996.844
       148   06 Jun 2027 11:05:24.524   06 Jun 2027 11:05:24.524             0.000             0.000
       149   06 Jun 2027 11:08:10.876   06 Jun 2027 11:08:10.876             0.000             0.000
       150   06 Jun 2027 11:10:27.349   06 Jun 2027 11:10:50.918            23.569         10192.344
       151   06 Jun 2027 11:11:09.125   06 Jun 2027 11:11:10.015             0.890           445.000
       152   07 Jun 2027 03:24:56.675   07 Jun 2027 03:28:44.333           227.658        113829.000
       153   07 Jun 2027 03:28:55.731   07 Jun 2027 03:29:11.602            15.871          7935.500
       154   07 Jun 2027 03:31:44.152   07 Jun 2027 03:31:54.677            10.525          5262.500
       155   07 Jun 2027 05:03:12.166   07 Jun 2027 05:03:53.176            41.010         20505.000
       156   07 Jun 2027 05:04:16.507   07 Jun 2027 05:05:04.856            48.349         22846.593
       157   07 Jun 2027 05:06:02.214   07 Jun 2027 05:06:02.733             0.519           259.500
       158   07 Jun 2027 05:06:06.444   07 Jun 2027 05:06:06.444             0.000             0.000
       159   07 Jun 2027 05:06:53.421   07 Jun 2027 05:06:57.880             4.459          2149.375
       160   07 Jun 2027 05:08:09.533   07 Jun 2027 05:08:15.651             6.118          1790.531
       161   07 Jun 2027 06:41:24.408   07 Jun 2027 06:41:33.841             9.433          4459.094
       162   07 Jun 2027 06:41:56.996   07 Jun 2027 06:42:00.283             3.287           604.219
       163   07 Jun 2027 06:44:03.986   07 Jun 2027 06:44:11.213             7.227          3281.812
       164   07 Jun 2027 06:44:14.904   07 Jun 2027 06:44:14.904             0.000             0.000
       165   07 Jun 2027 06:44:47.408   07 Jun 2027 06:44:47.408             0.000             0.000
       166   07 Jun 2027 08:04:53.288   07 Jun 2027 08:05:06.023            12.735          6361.750
       167   07 Jun 2027 08:05:32.035   07 Jun 2027 08:05:32.035             0.000             0.000
       168   07 Jun 2027 08:05:52.372   07 Jun 2027 08:05:57.109             4.737           996.156
       169   07 Jun 2027 08:07:34.827   07 Jun 2027 08:07:40.802             5.975          2618.625
       170   07 Jun 2027 09:41:22.207   07 Jun 2027 09:41:32.183             9.976          4372.219
       171   07 Jun 2027 11:16:32.584   07 Jun 2027 11:16:49.034            16.450          8225.000
       172   07 Jun 2027 11:19:18.900   07 Jun 2027 11:19:18.900             0.000             0.000
       173   07 Jun 2027 11:22:54.931   07 Jun 2027 11:23:09.074            14.143          7071.500
       174   08 Jun 2027 03:36:59.322   08 Jun 2027 03:41:19.791           260.469        130234.500
       175   08 Jun 2027 03:42:07.845   08 Jun 2027 03:42:07.845             0.000             0.000
       176   08 Jun 2027 03:44:00.178   08 Jun 2027 03:44:00.291             0.113            56.500
       177   08 Jun 2027 05:16:16.950   08 Jun 2027 05:17:19.640            62.690         29005.500
       178   08 Jun 2027 05:18:00.502   08 Jun 2027 05:18:05.326             4.824           297.063
       179   08 Jun 2027 05:19:59.811   08 Jun 2027 05:19:59.948             0.137            68.500
       180   08 Jun 2027 05:21:23.155   08 Jun 2027 05:21:33.715            10.560          5280.000
       181   08 Jun 2027 05:22:28.453   08 Jun 2027 05:22:31.787             3.334           954.938
       182   08 Jun 2027 05:23:12.085   08 Jun 2027 05:23:15.159             3.074           929.219
       183   08 Jun 2027 06:42:33.528   08 Jun 2027 06:42:43.599            10.071          4703.469
       184   08 Jun 2027 06:53:21.585   08 Jun 2027 06:53:28.251             6.666          2471.031
       185   08 Jun 2027 06:54:12.731   08 Jun 2027 06:54:17.809             5.078           203.500
       186   08 Jun 2027 06:56:02.093   08 Jun 2027 06:56:06.148             4.055          2027.500
       187   08 Jun 2027 08:17:20.315   08 Jun 2027 08:17:43.790            23.475         10155.344
       188   08 Jun 2027 08:18:24.101   08 Jun 2027 08:18:31.512             7.411          1178.813
       189   08 Jun 2027 08:20:03.708   08 Jun 2027 08:20:04.702             0.994           497.000
       190   08 Jun 2027 09:53:27.933   08 Jun 2027 09:53:45.861            17.928          8964.000
       191   08 Jun 2027 09:55:40.958   08 Jun 2027 09:55:45.728             4.770          2385.000
       192   08 Jun 2027 11:27:50.173   08 Jun 2027 11:28:10.553            20.380          9609.031
       193   08 Jun 2027 11:33:50.865   08 Jun 2027 11:34:12.522            21.657          9962.250
       194   08 Jun 2027 11:34:36.239   08 Jun 2027 11:34:37.106             0.867           433.500
       195   08 Jun 2027 11:34:54.503   08 Jun 2027 11:34:58.279             3.776           786.125
       196   08 Jun 2027 11:35:03.614   08 Jun 2027 11:35:11.198             7.584           166.719
       197   08 Jun 2027 11:35:15.306   08 Jun 2027 11:35:18.840             3.534            84.156
       198   09 Jun 2027 03:49:39.778   09 Jun 2027 03:53:40.169           240.391        120195.500
       199   09 Jun 2027 03:53:56.643   09 Jun 2027 03:54:02.960             6.317          3158.500
       200   09 Jun 2027 03:54:33.874   09 Jun 2027 03:54:35.878             2.004          1002.000
       201   09 Jun 2027 03:54:43.744   09 Jun 2027 03:54:45.005             1.261           630.500
       202   09 Jun 2027 03:56:02.346   09 Jun 2027 03:56:03.695             1.349           674.500
       203   09 Jun 2027 05:28:38.346   09 Jun 2027 05:29:48.354            70.008         34480.468
       204   09 Jun 2027 05:30:17.321   09 Jun 2027 05:30:19.153             1.832           594.656
       205   09 Jun 2027 05:32:14.985   09 Jun 2027 05:32:19.789             4.804          2402.000
       206   09 Jun 2027 05:32:39.806   09 Jun 2027 05:32:39.806             0.000             0.000
       207   09 Jun 2027 05:33:27.284   09 Jun 2027 05:33:33.198             5.914          2299.469
       208   09 Jun 2027 05:35:22.046   09 Jun 2027 05:35:30.692             8.646          3309.906
       209   09 Jun 2027 06:53:49.155   09 Jun 2027 06:54:02.466            13.311          4775.937
       210   09 Jun 2027 06:54:33.889   09 Jun 2027 06:54:34.981             1.092           426.094
       211   09 Jun 2027 07:05:22.495   09 Jun 2027 07:05:31.399             8.904          3106.500
       212   09 Jun 2027 07:06:32.669   09 Jun 2027 07:06:33.855             1.186           348.906
       213   09 Jun 2027 08:27:58.995   09 Jun 2027 08:28:14.528            15.533          7217.625
       214   09 Jun 2027 08:28:35.168   09 Jun 2027 08:28:38.391             3.223           645.000
       215   09 Jun 2027 08:29:35.396   09 Jun 2027 08:29:38.474             3.078          1050.031
       216   09 Jun 2027 08:31:42.186   09 Jun 2027 08:31:47.888             5.702          2851.000
       217   09 Jun 2027 08:32:12.218   09 Jun 2027 08:32:14.945             2.727          1188.469
       218   09 Jun 2027 08:32:25.358   09 Jun 2027 08:32:25.982             0.624           301.250
       219   09 Jun 2027 10:07:33.578   09 Jun 2027 10:07:43.259             9.681          4840.500
       220   09 Jun 2027 11:42:51.814   09 Jun 2027 11:43:08.555            16.741          8370.500
       221   09 Jun 2027 11:46:31.710   09 Jun 2027 11:47:16.973            45.263         21260.594
       222   10 Jun 2027 04:01:55.784   10 Jun 2027 04:04:56.644           180.860         90430.000
       223   10 Jun 2027 04:05:12.152   10 Jun 2027 04:06:01.496            49.344         24672.000
       224   10 Jun 2027 04:06:41.134   10 Jun 2027 04:06:58.054            16.920          8460.000
       225   10 Jun 2027 04:07:45.864   10 Jun 2027 04:07:51.777             5.913          2956.500
       226   10 Jun 2027 05:40:55.020   10 Jun 2027 05:42:14.243            79.223         39368.719
       227   10 Jun 2027 05:42:30.944   10 Jun 2027 05:42:34.374             3.430           521.906
       228   10 Jun 2027 05:44:36.866   10 Jun 2027 05:44:36.866             0.000             0.000
       229   10 Jun 2027 05:45:19.788   10 Jun 2027 05:45:28.676             8.888          4444.000
       230   10 Jun 2027 05:46:36.049   10 Jun 2027 05:46:40.594             4.545          2272.500
       231   10 Jun 2027 07:05:06.828   10 Jun 2027 07:05:25.371            18.543          9098.781
       232   10 Jun 2027 07:05:54.997   10 Jun 2027 07:05:59.009             4.012           496.750
       233   10 Jun 2027 07:06:01.781   10 Jun 2027 07:06:06.257             4.476            86.625
       234   10 Jun 2027 07:07:05.320   10 Jun 2027 07:07:09.061             3.741          1352.812
       235   10 Jun 2027 07:07:16.778   10 Jun 2027 07:07:17.805             1.027           107.625
       236   10 Jun 2027 07:17:19.978   10 Jun 2027 07:17:25.211             5.233          2043.875
       237   10 Jun 2027 08:39:34.612   10 Jun 2027 08:39:51.020            16.408          8204.000
       238   10 Jun 2027 08:39:59.707   10 Jun 2027 08:40:03.872             4.165          1236.500
       239   10 Jun 2027 08:42:10.989   10 Jun 2027 08:42:19.071             8.082          3092.562
       240   10 Jun 2027 08:43:45.224   10 Jun 2027 08:43:45.224             0.000             0.000
       241   10 Jun 2027 08:44:29.012   10 Jun 2027 08:44:37.962             8.950          3646.531
       242   10 Jun 2027 10:14:27.477   10 Jun 2027 10:14:37.925            10.448          4615.656
       243   10 Jun 2027 10:15:07.561   10 Jun 2027 10:15:09.132             1.571           646.125
       244   10 Jun 2027 10:16:38.432   10 Jun 2027 10:16:47.458             9.026          2790.625
       245   10 Jun 2027 11:58:12.706   10 Jun 2027 11:59:02.681            49.975         24818.688
       246   11 Jun 2027 04:14:15.097   11 Jun 2027 04:14:28.175            13.078          6539.000
       247   11 Jun 2027 04:14:42.487   11 Jun 2027 04:15:24.222            41.735         20867.500
       248   11 Jun 2027 04:15:46.639   11 Jun 2027 04:17:39.591           112.952         56476.000
       249   11 Jun 2027 04:18:01.577   11 Jun 2027 04:19:02.842            61.265         30632.500
       250   11 Jun 2027 04:19:56.022   11 Jun 2027 04:19:56.022             0.000             0.000
       251   11 Jun 2027 05:53:01.856   11 Jun 2027 05:54:29.500            87.644         43815.032
       252   11 Jun 2027 05:56:13.215   11 Jun 2027 05:56:14.447             1.232           616.000
       253   11 Jun 2027 05:56:34.488   11 Jun 2027 05:56:36.485             1.997           998.500
       254   11 Jun 2027 05:57:24.470   11 Jun 2027 05:57:36.123            11.653          2839.469
       255   11 Jun 2027 05:58:21.835   11 Jun 2027 05:58:21.835             0.000             0.000
       256   11 Jun 2027 05:58:47.900   11 Jun 2027 05:58:47.900             0.000             0.000
       257   11 Jun 2027 05:59:47.636   11 Jun 2027 05:59:47.636             0.000             0.000
       258   11 Jun 2027 07:17:12.959   11 Jun 2027 07:17:28.322            15.363          7646.531
       259   11 Jun 2027 07:17:49.261   11 Jun 2027 07:17:50.001             0.740           324.781
       260   11 Jun 2027 07:18:24.408   11 Jun 2027 07:18:26.387             1.979           818.250
       261   11 Jun 2027 07:29:45.309   11 Jun 2027 07:29:46.557             1.248           624.000
       262   11 Jun 2027 08:51:03.332   11 Jun 2027 08:51:27.963            24.631         11188.719
       263   11 Jun 2027 08:53:06.540   11 Jun 2027 08:53:13.630             7.090          2466.188
       264   11 Jun 2027 08:54:57.476   11 Jun 2027 08:55:05.244             7.768          3245.187
       265   11 Jun 2027 10:25:57.611   11 Jun 2027 10:26:08.508            10.897          4827.437
       266   11 Jun 2027 10:27:01.457   11 Jun 2027 10:27:02.793             1.336           498.688
       267   11 Jun 2027 10:28:41.981   11 Jun 2027 10:28:43.987             2.006           705.094
       268   11 Jun 2027 10:31:43.163   11 Jun 2027 10:31:43.163             0.000             0.000
       269   11 Jun 2027 10:33:07.223   11 Jun 2027 10:33:23.390            16.167          8029.781
       270   12 Jun 2027 04:26:52.963   12 Jun 2027 04:26:59.970             7.007          3503.500
       271   12 Jun 2027 04:27:14.376   12 Jun 2027 04:28:15.552            61.176         30588.000
       272   12 Jun 2027 04:28:20.407   12 Jun 2027 04:30:43.126           142.719         71359.500
       273   12 Jun 2027 04:30:53.139   12 Jun 2027 04:31:33.880            40.741         20370.500
       274   12 Jun 2027 06:05:39.235   12 Jun 2027 06:06:56.340            77.105         38552.500
       275   12 Jun 2027 06:07:28.582   12 Jun 2027 06:07:31.819             3.237          1367.125
       276   12 Jun 2027 06:08:04.612   12 Jun 2027 06:08:07.369             2.757          1024.781
       277   12 Jun 2027 06:08:40.242   12 Jun 2027 06:08:40.242             0.000             0.000
       278   12 Jun 2027 06:08:58.728   12 Jun 2027 06:08:58.728             0.000             0.000
       279   12 Jun 2027 06:09:38.856   12 Jun 2027 06:09:43.538             4.682          2341.000
       280   12 Jun 2027 07:29:09.259   12 Jun 2027 07:29:31.852            22.593         10165.000
       281   12 Jun 2027 07:30:25.245   12 Jun 2027 07:30:25.245             0.000             0.000
       282   12 Jun 2027 07:30:34.848   12 Jun 2027 07:30:43.477             8.629          1912.656
       283   12 Jun 2027 07:30:53.581   12 Jun 2027 07:30:53.581             0.000             0.000
       284   12 Jun 2027 07:30:58.404   12 Jun 2027 07:31:01.062             2.658           461.938
       285   12 Jun 2027 09:05:22.473   12 Jun 2027 09:05:45.433            22.960         11412.656
       286   12 Jun 2027 09:06:02.618   12 Jun 2027 09:06:02.618             0.000             0.000
       287   12 Jun 2027 09:08:08.151   12 Jun 2027 09:08:17.519             9.368          4422.813
       288   12 Jun 2027 10:38:54.350   12 Jun 2027 10:39:10.209            15.859          5875.438
       289   12 Jun 2027 10:43:42.759   12 Jun 2027 10:43:58.709            15.950          7507.219
       290   12 Jun 2027 10:44:53.674   12 Jun 2027 10:44:56.848             3.174          1585.687
       291   12 Jun 2027 10:45:48.843   12 Jun 2027 10:45:48.843             0.000             0.000
       292   12 Jun 2027 10:47:28.553   12 Jun 2027 10:47:29.038             0.485           242.500
       293   13 Jun 2027 03:01:12.858   13 Jun 2027 03:01:29.366            16.508          8254.000
       294   13 Jun 2027 03:01:53.560   13 Jun 2027 03:01:53.560             0.000             0.000
       295   13 Jun 2027 03:02:06.264   13 Jun 2027 03:02:06.264             0.000             0.000
       296   13 Jun 2027 03:02:48.642   13 Jun 2027 03:02:48.642             0.000             0.000
       297   13 Jun 2027 03:03:03.954   13 Jun 2027 03:04:13.700            69.746         34873.000
       298   13 Jun 2027 03:04:49.908   13 Jun 2027 03:05:02.166            12.258          6129.000
       299   13 Jun 2027 03:05:13.909   13 Jun 2027 03:05:32.664            18.755          9377.500
       300   13 Jun 2027 03:06:11.306   13 Jun 2027 03:06:39.342            28.036         14018.000
       301   13 Jun 2027 03:08:41.656   13 Jun 2027 03:08:44.811             3.155          1577.500
       302   13 Jun 2027 04:39:19.534   13 Jun 2027 04:39:46.989            27.455         13727.500
       303   13 Jun 2027 04:39:50.797   13 Jun 2027 04:41:42.523           111.726         55863.000
       304   13 Jun 2027 04:42:34.737   13 Jun 2027 04:42:41.513             6.776          3388.000
       305   13 Jun 2027 04:42:49.083   13 Jun 2027 04:43:38.279            49.196         24265.687
       306   13 Jun 2027 04:44:14.648   13 Jun 2027 04:44:15.352             0.704           352.000
       307   13 Jun 2027 04:44:40.686   13 Jun 2027 04:44:47.708             7.022          1404.812
       308   13 Jun 2027 06:17:20.432   13 Jun 2027 06:17:48.382            27.950         11546.188
       309   13 Jun 2027 06:17:58.292   13 Jun 2027 06:17:59.480             1.188            52.875
       310   13 Jun 2027 06:18:21.549   13 Jun 2027 06:18:22.937             1.388           687.781
       311   13 Jun 2027 06:18:36.287   13 Jun 2027 06:18:38.103             1.816           238.500
       312   13 Jun 2027 06:18:49.463   13 Jun 2027 06:18:49.576             0.113            56.500
       313   13 Jun 2027 06:20:04.539   13 Jun 2027 06:20:08.413             3.874          1937.000
       314   13 Jun 2027 06:20:40.575   13 Jun 2027 06:20:44.495             3.920          1607.656
       315   13 Jun 2027 06:21:10.741   13 Jun 2027 06:21:10.741             0.000             0.000
       316   13 Jun 2027 07:41:01.322   13 Jun 2027 07:41:18.375            17.053          7462.063
       317   13 Jun 2027 07:42:26.591   13 Jun 2027 07:42:26.591             0.000             0.000
       318   13 Jun 2027 07:43:01.760   13 Jun 2027 07:43:09.449             7.689          2980.000
       319   13 Jun 2027 07:43:38.001   13 Jun 2027 07:43:38.043             0.042            21.000
       320   13 Jun 2027 09:17:27.938   13 Jun 2027 09:17:51.492            23.554          9885.094
       321   13 Jun 2027 10:49:39.159   13 Jun 2027 10:49:45.478             6.319          3159.500
       322   13 Jun 2027 10:51:33.389   13 Jun 2027 10:51:45.228            11.839          5142.969
       323   13 Jun 2027 10:54:55.090   13 Jun 2027 10:54:58.398             3.308          1654.000
       324   13 Jun 2027 10:57:54.343   13 Jun 2027 10:58:08.260            13.917          6717.563
       325   13 Jun 2027 10:58:19.583   13 Jun 2027 10:58:20.414             0.831           234.531
       326   13 Jun 2027 10:58:33.768   13 Jun 2027 10:58:33.768             0.000             0.000
       327   13 Jun 2027 10:58:47.610   13 Jun 2027 10:58:51.389             3.779           727.344
       328   13 Jun 2027 10:58:52.129   13 Jun 2027 10:58:52.261             0.132            16.250
       329   13 Jun 2027 10:59:24.665   13 Jun 2027 10:59:25.145             0.480           240.000
