uniorb/output/strategy_2/Camera/Camera_KinoSat_110703.txt

KinoSat_110703
-------------------------
    Access    *     Start Time (UTCG)     *     Stop Time (UTCG)  *   Duration (s) *   Data (Mbytes)
         1   01 Jun 2027 03:58:53.809   01 Jun 2027 03:59:55.499            61.690         30845.000
         2   01 Jun 2027 04:00:14.362   01 Jun 2027 04:00:14.362             0.000             0.000
         3   01 Jun 2027 04:01:05.015   01 Jun 2027 04:01:21.256            16.241          8120.500
         4   01 Jun 2027 05:31:10.876   01 Jun 2027 05:31:23.199            12.323          6161.500
         5   01 Jun 2027 05:33:10.358   01 Jun 2027 05:35:56.655           166.297         83148.500
         6   01 Jun 2027 05:36:31.106   01 Jun 2027 05:36:33.405             2.299          1149.500
         7   01 Jun 2027 05:36:40.137   01 Jun 2027 05:36:55.582            15.445          7722.500
         8   01 Jun 2027 05:37:05.967   01 Jun 2027 05:37:49.003            43.036         21518.000
         9   01 Jun 2027 05:39:24.864   01 Jun 2027 05:39:31.668             6.804          3402.000
        10   01 Jun 2027 05:40:53.399   01 Jun 2027 05:40:56.015             2.616          1308.000
        11   01 Jun 2027 07:10:02.246   01 Jun 2027 07:11:48.696           106.450         53225.000
        12   01 Jun 2027 07:12:34.539   01 Jun 2027 07:13:32.795            58.256         29128.000
        13   01 Jun 2027 07:14:24.998   01 Jun 2027 07:15:02.269            37.271         18635.500
        14   01 Jun 2027 07:15:25.559   01 Jun 2027 07:15:35.701            10.142          5071.000
        15   01 Jun 2027 08:46:58.597   01 Jun 2027 08:49:09.603           131.006         65503.000
        16   01 Jun 2027 08:50:51.310   01 Jun 2027 08:51:15.512            24.202         12101.000
        17   01 Jun 2027 08:51:41.185   01 Jun 2027 08:51:49.945             8.760          4380.000
        18   01 Jun 2027 10:23:45.176   01 Jun 2027 10:26:32.931           167.755         83877.500
        19   01 Jun 2027 10:26:55.775   01 Jun 2027 10:27:04.661             8.886          4443.000
        20   01 Jun 2027 10:27:08.377   01 Jun 2027 10:27:25.959            17.582          8791.000
        21   02 Jun 2027 04:11:04.313   02 Jun 2027 04:11:27.226            22.913         11456.500
        22   02 Jun 2027 04:12:33.430   02 Jun 2027 04:13:20.666            47.236         23618.000
        23   02 Jun 2027 05:46:09.177   02 Jun 2027 05:49:12.550           183.373         91686.500
        24   02 Jun 2027 05:50:29.037   02 Jun 2027 05:50:35.003             5.966          2983.000
        25   02 Jun 2027 05:51:53.865   02 Jun 2027 05:51:53.865             0.000             0.000
        26   02 Jun 2027 05:52:11.057   02 Jun 2027 05:52:20.397             9.340          4670.000
        27   02 Jun 2027 05:52:47.694   02 Jun 2027 05:52:57.083             9.389          4694.500
        28   02 Jun 2027 07:22:30.761   02 Jun 2027 07:23:59.534            88.773         44386.500
        29   02 Jun 2027 07:24:50.243   02 Jun 2027 07:25:15.154            24.911         12455.500
        30   02 Jun 2027 07:26:07.772   02 Jun 2027 07:27:40.510            92.738         46369.000
        31   02 Jun 2027 07:27:50.255   02 Jun 2027 07:27:53.849             3.594          1797.000
        32   02 Jun 2027 07:28:05.375   02 Jun 2027 07:28:17.330            11.955          5977.500
        33   02 Jun 2027 09:00:01.515   02 Jun 2027 09:02:04.193           122.678         59067.688
        34   02 Jun 2027 09:02:55.156   02 Jun 2027 09:02:55.156             0.000             0.000
        35   02 Jun 2027 09:04:02.201   02 Jun 2027 09:04:12.930            10.729          3588.656
        36   02 Jun 2027 09:04:18.543   02 Jun 2027 09:04:18.740             0.197            97.656
        37   02 Jun 2027 10:36:06.074   02 Jun 2027 10:36:24.093            18.019          9009.500
        38   02 Jun 2027 10:36:38.771   02 Jun 2027 10:36:42.869             4.098           706.125
        39   02 Jun 2027 10:36:50.139   02 Jun 2027 10:36:55.665             5.526           210.844
        40   02 Jun 2027 10:37:06.990   02 Jun 2027 10:37:08.363             1.373           343.063
        41   02 Jun 2027 10:37:54.214   02 Jun 2027 10:37:56.427             2.213           463.313
        42   02 Jun 2027 10:38:31.349   02 Jun 2027 10:38:33.573             2.224          1013.125
        43   02 Jun 2027 10:38:56.049   02 Jun 2027 10:38:59.918             3.869           471.688
        44   02 Jun 2027 10:39:26.072   02 Jun 2027 10:39:36.271            10.199           759.062
        45   02 Jun 2027 10:40:01.384   02 Jun 2027 10:40:06.580             5.196           784.781
        46   03 Jun 2027 04:23:09.075   03 Jun 2027 04:23:43.428            34.353         17176.500
        47   03 Jun 2027 04:23:55.759   03 Jun 2027 04:24:39.744            43.985         21992.500
        48   03 Jun 2027 04:25:20.354   03 Jun 2027 04:26:34.406            74.052         37026.000
        49   03 Jun 2027 05:58:19.217   03 Jun 2027 06:00:35.181           135.964         67982.000
        50   03 Jun 2027 06:00:45.418   03 Jun 2027 06:01:09.845            24.427         12213.500
        51   03 Jun 2027 06:03:42.374   03 Jun 2027 06:03:53.868            11.494          5747.000
        52   03 Jun 2027 06:04:14.296   03 Jun 2027 06:04:16.639             2.343           660.688
        53   03 Jun 2027 06:04:32.441   03 Jun 2027 06:04:33.266             0.825           367.281
        54   03 Jun 2027 06:04:40.105   03 Jun 2027 06:04:40.345             0.240            70.344
        55   03 Jun 2027 07:34:35.320   03 Jun 2027 07:35:10.281            34.961         15309.781
        56   03 Jun 2027 07:36:15.267   03 Jun 2027 07:36:22.603             7.336          1613.312
        57   03 Jun 2027 07:37:24.320   03 Jun 2027 07:37:28.831             4.511          1280.094
        58   03 Jun 2027 07:37:46.222   03 Jun 2027 07:37:47.389             1.167           543.469
        59   03 Jun 2027 07:38:27.130   03 Jun 2027 07:38:29.325             2.195           446.437
        60   03 Jun 2027 07:39:35.581   03 Jun 2027 07:39:40.043             4.462          2048.125
        61   03 Jun 2027 07:39:46.988   03 Jun 2027 07:39:48.172             1.184           187.406
        62   03 Jun 2027 07:40:06.241   03 Jun 2027 07:40:07.184             0.943           378.750
        63   03 Jun 2027 07:40:17.041   03 Jun 2027 07:40:18.486             1.445           135.156
        64   03 Jun 2027 09:12:07.024   03 Jun 2027 09:12:31.613            24.589         10047.125
        65   03 Jun 2027 09:13:13.698   03 Jun 2027 09:13:16.166             2.468           840.281
        66   03 Jun 2027 09:14:20.592   03 Jun 2027 09:14:27.307             6.715          1664.219
        67   03 Jun 2027 09:14:44.318   03 Jun 2027 09:14:45.446             1.128            78.938
        68   03 Jun 2027 09:14:59.439   03 Jun 2027 09:15:00.213             0.774           269.625
        69   03 Jun 2027 09:15:31.419   03 Jun 2027 09:15:34.853             3.434           975.187
        70   03 Jun 2027 10:48:08.259   03 Jun 2027 10:48:23.149            14.890          7390.156
        71   03 Jun 2027 10:48:37.253   03 Jun 2027 10:48:38.560             1.307            63.062
        72   03 Jun 2027 10:49:30.145   03 Jun 2027 10:49:33.669             3.524          1612.031
        73   03 Jun 2027 10:49:38.995   03 Jun 2027 10:49:41.046             2.051           129.125
        74   03 Jun 2027 10:50:54.557   03 Jun 2027 10:50:58.587             4.030          1659.813
        75   03 Jun 2027 10:51:07.016   03 Jun 2027 10:51:11.742             4.726           194.813
        76   03 Jun 2027 10:51:29.039   03 Jun 2027 10:51:32.946             3.907           107.469
        77   03 Jun 2027 10:52:03.380   03 Jun 2027 10:52:06.288             2.908           503.687
        78   03 Jun 2027 10:52:18.346   03 Jun 2027 10:52:20.409             2.063           376.813
        79   04 Jun 2027 03:00:00.000   04 Jun 2027 03:00:08.152             8.152          4076.000
        80   04 Jun 2027 03:01:09.888   04 Jun 2027 03:01:15.592             5.704          2852.000
        81   04 Jun 2027 04:34:52.615   04 Jun 2027 04:38:20.296           207.681        103840.500
        82   04 Jun 2027 04:38:40.772   04 Jun 2027 04:38:47.490             6.718          3359.000
        83   04 Jun 2027 04:39:00.346   04 Jun 2027 04:39:06.496             6.150          3075.000
        84   04 Jun 2027 06:09:44.037   04 Jun 2027 06:11:06.408            82.371         41115.594
        85   04 Jun 2027 06:11:50.314   04 Jun 2027 06:11:54.149             3.835           939.688
        86   04 Jun 2027 06:12:40.857   04 Jun 2027 06:12:40.857             0.000             0.000
        87   04 Jun 2027 06:12:49.008   04 Jun 2027 06:12:51.681             2.673           995.063
        88   04 Jun 2027 06:14:17.858   04 Jun 2027 06:14:17.858             0.000             0.000
        89   04 Jun 2027 06:14:32.491   04 Jun 2027 06:14:42.198             9.707          2593.063
        90   04 Jun 2027 06:15:33.037   04 Jun 2027 06:15:33.037             0.000             0.000
        91   04 Jun 2027 06:15:35.017   04 Jun 2027 06:15:38.585             3.568          1650.594
        92   04 Jun 2027 06:16:00.636   04 Jun 2027 06:16:02.762             2.126           674.219
        93   04 Jun 2027 06:16:30.007   04 Jun 2027 06:16:31.463             1.456           349.844
        94   04 Jun 2027 06:16:58.439   04 Jun 2027 06:17:01.327             2.888           505.969
        95   04 Jun 2027 07:46:19.556   04 Jun 2027 07:46:54.652            35.096         17184.844
        96   04 Jun 2027 07:47:35.581   04 Jun 2027 07:47:37.964             2.383           732.188
        97   04 Jun 2027 07:48:19.913   04 Jun 2027 07:48:22.542             2.629          1310.906
        98   04 Jun 2027 07:48:53.557   04 Jun 2027 07:48:56.935             3.378           969.219
        99   04 Jun 2027 07:50:05.218   04 Jun 2027 07:50:09.401             4.183          2079.812
       100   04 Jun 2027 07:51:12.576   04 Jun 2027 07:51:17.332             4.756          1712.313
       101   04 Jun 2027 07:51:28.534   04 Jun 2027 07:51:29.094             0.560           280.000
       102   04 Jun 2027 09:24:37.144   04 Jun 2027 09:25:03.195            26.051         10477.250
       103   04 Jun 2027 09:25:04.185   04 Jun 2027 09:25:04.899             0.714            30.938
       104   04 Jun 2027 09:25:56.072   04 Jun 2027 09:25:58.921             2.849          1306.094
       105   04 Jun 2027 09:27:13.335   04 Jun 2027 09:27:19.319             5.984          1638.625
       106   04 Jun 2027 09:27:23.413   04 Jun 2027 09:27:28.954             5.541            68.531
       107   04 Jun 2027 09:27:53.463   04 Jun 2027 09:27:57.703             4.240           763.844
       108   04 Jun 2027 09:28:00.033   04 Jun 2027 09:28:01.423             1.390            72.812
       109   04 Jun 2027 10:58:37.022   04 Jun 2027 10:58:50.894            13.872          6088.031
       110   04 Jun 2027 10:59:57.051   04 Jun 2027 10:59:58.277             1.226           184.000
       111   04 Jun 2027 11:00:34.118   04 Jun 2027 11:00:37.269             3.151          1059.219
       112   04 Jun 2027 11:01:26.907   04 Jun 2027 11:01:31.928             5.021          1281.063
       113   04 Jun 2027 11:02:48.044   04 Jun 2027 11:02:53.144             5.100          2268.250
       114   04 Jun 2027 11:03:08.186   04 Jun 2027 11:03:11.516             3.330           383.031
       115   04 Jun 2027 11:03:25.479   04 Jun 2027 11:03:28.600             3.121           213.219
       116   04 Jun 2027 11:03:50.903   04 Jun 2027 11:03:51.432             0.529           264.500
       117   04 Jun 2027 11:05:01.332   04 Jun 2027 11:05:10.072             8.740          2251.937
       118   05 Jun 2027 03:09:45.769   05 Jun 2027 03:10:01.401            15.632          7816.000
       119   05 Jun 2027 03:10:32.690   05 Jun 2027 03:10:44.722            12.032          6016.000
       120   05 Jun 2027 03:11:21.370   05 Jun 2027 03:11:42.666            21.296         10648.000
       121   05 Jun 2027 03:13:34.550   05 Jun 2027 03:13:34.550             0.000             0.000
       122   05 Jun 2027 04:45:06.294   05 Jun 2027 04:46:04.376            58.082         29041.000
       123   05 Jun 2027 04:46:37.701   05 Jun 2027 04:47:23.307            45.606         22803.000
       124   05 Jun 2027 04:48:37.442   05 Jun 2027 04:50:14.736            97.294         48647.000
       125   05 Jun 2027 04:51:23.601   05 Jun 2027 04:51:23.887             0.286           143.000
       126   05 Jun 2027 06:21:35.534   05 Jun 2027 06:22:35.025            59.491         29535.531
       127   05 Jun 2027 06:22:57.143   05 Jun 2027 06:22:59.707             2.564           397.438
       128   05 Jun 2027 06:23:36.489   05 Jun 2027 06:23:38.176             1.687           225.406
       129   05 Jun 2027 06:24:30.476   05 Jun 2027 06:24:34.574             4.098          1206.656
       130   05 Jun 2027 06:24:42.944   05 Jun 2027 06:24:43.297             0.353            78.781
       131   05 Jun 2027 06:25:04.948   05 Jun 2027 06:25:09.350             4.402           676.594
       132   05 Jun 2027 06:25:32.117   05 Jun 2027 06:25:35.790             3.673           641.500
       133   05 Jun 2027 06:26:09.694   05 Jun 2027 06:26:12.326             2.632           315.812
       134   05 Jun 2027 06:26:40.337   05 Jun 2027 06:26:41.220             0.883           221.281
       135   05 Jun 2027 06:27:12.946   05 Jun 2027 06:27:14.331             1.385           692.500
       136   05 Jun 2027 06:28:23.936   05 Jun 2027 06:28:30.644             6.708          2474.093
       137   05 Jun 2027 06:28:50.551   05 Jun 2027 06:28:53.647             3.096           204.937
       138   05 Jun 2027 07:58:40.654   05 Jun 2027 07:59:14.839            34.185         16598.906
       139   05 Jun 2027 08:00:26.117   05 Jun 2027 08:00:27.508             1.391           370.094
       140   05 Jun 2027 08:01:20.875   05 Jun 2027 08:01:21.691             0.816           408.000
       141   05 Jun 2027 08:01:31.627   05 Jun 2027 08:01:36.973             5.346          1359.875
       142   05 Jun 2027 08:01:47.522   05 Jun 2027 08:01:54.445             6.923            90.469
       143   05 Jun 2027 08:02:50.887   05 Jun 2027 08:02:55.939             5.052          1763.812
       144   05 Jun 2027 08:03:47.355   05 Jun 2027 08:03:51.660             4.305          1606.750
       145   05 Jun 2027 08:04:07.747   05 Jun 2027 08:04:07.747             0.000             0.000
       146   05 Jun 2027 08:04:51.411   05 Jun 2027 08:04:52.032             0.621           310.500
       147   05 Jun 2027 09:36:34.798   05 Jun 2027 09:36:55.090            20.292          9928.406
       148   05 Jun 2027 09:37:15.082   05 Jun 2027 09:37:17.074             1.992           618.719
       149   05 Jun 2027 09:38:10.909   05 Jun 2027 09:38:14.688             3.779          1342.063
       150   05 Jun 2027 09:38:56.317   05 Jun 2027 09:39:00.071             3.754          1300.906
       151   05 Jun 2027 09:39:24.973   05 Jun 2027 09:39:28.877             3.904           284.563
       152   05 Jun 2027 09:39:45.163   05 Jun 2027 09:39:46.594             1.431           508.938
       153   05 Jun 2027 09:40:28.772   05 Jun 2027 09:40:34.422             5.650          1209.781
       154   05 Jun 2027 11:09:42.899   05 Jun 2027 11:09:59.259            16.360          6883.125
       155   05 Jun 2027 11:11:17.999   05 Jun 2027 11:11:21.718             3.719          1113.781
       156   05 Jun 2027 11:11:49.016   05 Jun 2027 11:11:49.016             0.000             0.000
       157   05 Jun 2027 11:12:21.599   05 Jun 2027 11:12:25.164             3.565          1605.125
       158   05 Jun 2027 11:12:30.806   05 Jun 2027 11:12:37.560             6.754           110.938
       159   05 Jun 2027 11:13:21.122   05 Jun 2027 11:13:32.225            11.103          1071.281
       160   05 Jun 2027 11:14:03.811   05 Jun 2027 11:14:06.835             3.024           969.812
       161   05 Jun 2027 11:15:55.132   05 Jun 2027 11:16:01.931             6.799          2979.438
       162   05 Jun 2027 11:17:06.733   05 Jun 2027 11:17:10.828             4.095          1957.094
       163   06 Jun 2027 03:21:21.628   06 Jun 2027 03:21:29.676             8.048          4024.000
       164   06 Jun 2027 03:22:19.778   06 Jun 2027 03:22:28.222             8.444          4222.000
       165   06 Jun 2027 03:23:41.279   06 Jun 2027 03:24:08.322            27.043         13521.500
       166   06 Jun 2027 03:24:11.206   06 Jun 2027 03:24:11.206             0.000             0.000
       167   06 Jun 2027 03:24:35.337   06 Jun 2027 03:25:11.834            36.497         18248.500
       168   06 Jun 2027 04:56:15.621   06 Jun 2027 04:58:18.165           122.544         61272.000
       169   06 Jun 2027 04:58:24.620   06 Jun 2027 04:59:15.926            51.306         25653.000
       170   06 Jun 2027 04:59:57.964   06 Jun 2027 05:00:40.975            43.011         21505.500
       171   06 Jun 2027 05:02:44.997   06 Jun 2027 05:02:44.997             0.000             0.000
       172   06 Jun 2027 05:04:40.677   06 Jun 2027 05:04:44.668             3.991          1995.500
       173   06 Jun 2027 06:33:49.104   06 Jun 2027 06:34:31.048            41.944         19736.313
       174   06 Jun 2027 06:35:44.168   06 Jun 2027 06:35:49.875             5.707          1477.906
       175   06 Jun 2027 06:36:26.758   06 Jun 2027 06:36:32.231             5.473          1152.594
       176   06 Jun 2027 06:36:44.783   06 Jun 2027 06:36:46.894             2.111           131.656
       177   06 Jun 2027 06:38:33.043   06 Jun 2027 06:38:47.827            14.784          3047.219
       178   06 Jun 2027 06:39:21.045   06 Jun 2027 06:39:31.621            10.576          1038.063
       179   06 Jun 2027 06:39:57.446   06 Jun 2027 06:39:58.879             1.433           455.469
       180   06 Jun 2027 06:40:25.508   06 Jun 2027 06:40:25.508             0.000             0.000
       181   06 Jun 2027 08:10:31.566   06 Jun 2027 08:11:01.892            30.326         14719.469
       182   06 Jun 2027 08:11:18.886   06 Jun 2027 08:11:21.477             2.591            20.281
       183   06 Jun 2027 08:11:43.389   06 Jun 2027 08:11:44.595             1.206           307.781
       184   06 Jun 2027 08:12:53.353   06 Jun 2027 08:12:58.347             4.994          1674.656
       185   06 Jun 2027 08:13:11.444   06 Jun 2027 08:13:11.444             0.000             0.000
       186   06 Jun 2027 08:13:51.479   06 Jun 2027 08:13:55.017             3.538          1445.250
       187   06 Jun 2027 08:14:18.467   06 Jun 2027 08:14:22.118             3.651           467.156
       188   06 Jun 2027 08:14:27.573   06 Jun 2027 08:14:31.636             4.063            78.094
       189   06 Jun 2027 08:14:38.864   06 Jun 2027 08:14:40.671             1.807            31.031
       190   06 Jun 2027 08:14:48.427   06 Jun 2027 08:14:56.929             8.502            71.281
       191   06 Jun 2027 08:15:15.090   06 Jun 2027 08:15:18.000             2.910           567.531
       192   06 Jun 2027 08:16:17.196   06 Jun 2027 08:16:23.896             6.700          1693.375
       193   06 Jun 2027 08:16:49.150   06 Jun 2027 08:16:51.737             2.587           577.281
       194   06 Jun 2027 09:48:34.684   06 Jun 2027 09:48:54.732            20.048         10010.437
       195   06 Jun 2027 09:49:57.653   06 Jun 2027 09:50:00.508             2.855          1425.063
       196   06 Jun 2027 09:50:14.167   06 Jun 2027 09:50:17.211             3.044           293.438
       197   06 Jun 2027 09:51:11.096   06 Jun 2027 09:51:17.137             6.041          1574.125
       198   06 Jun 2027 09:51:47.240   06 Jun 2027 09:51:50.289             3.049           919.000
       199   06 Jun 2027 09:51:56.409   06 Jun 2027 09:51:57.188             0.779             6.937
       200   06 Jun 2027 09:52:14.271   06 Jun 2027 09:52:18.097             3.826           533.844
       201   06 Jun 2027 09:52:23.920   06 Jun 2027 09:52:25.075             1.155           181.969
       202   06 Jun 2027 09:52:41.946   06 Jun 2027 09:52:44.170             2.224           289.937
       203   06 Jun 2027 11:22:11.806   06 Jun 2027 11:22:14.666             2.860          1320.688
       204   06 Jun 2027 11:23:40.922   06 Jun 2027 11:23:46.953             6.031          2495.250
       205   06 Jun 2027 11:24:39.046   06 Jun 2027 11:24:44.798             5.752          1627.906
       206   06 Jun 2027 11:25:30.644   06 Jun 2027 11:25:35.856             5.212          1349.687
       207   06 Jun 2027 11:26:34.464   06 Jun 2027 11:26:38.752             4.288          1502.094
       208   06 Jun 2027 11:27:41.408   06 Jun 2027 11:27:45.310             3.902          1528.344
       209   06 Jun 2027 11:29:12.760   06 Jun 2027 11:29:16.654             3.894          1947.000
       210   06 Jun 2027 11:29:32.787   06 Jun 2027 11:29:35.407             2.620          1119.781
       211   07 Jun 2027 03:32:50.957   07 Jun 2027 03:34:01.941            70.984         35492.000
       212   07 Jun 2027 03:34:03.325   07 Jun 2027 03:34:07.517             4.192          2096.000
       213   07 Jun 2027 03:37:13.905   07 Jun 2027 03:37:13.905             0.000             0.000
       214   07 Jun 2027 03:37:35.946   07 Jun 2027 03:37:41.666             5.720          2860.000
       215   07 Jun 2027 03:37:47.914   07 Jun 2027 03:37:48.490             0.576           288.000
       216   07 Jun 2027 05:07:46.223   07 Jun 2027 05:11:20.078           213.855        106927.500
       217   07 Jun 2027 05:17:10.460   07 Jun 2027 05:17:12.011             1.551           775.500
       218   07 Jun 2027 06:45:43.024   07 Jun 2027 06:46:16.636            33.612         16806.000
       219   07 Jun 2027 06:46:50.412   07 Jun 2027 06:47:16.748            26.336         12645.562
       220   07 Jun 2027 06:47:47.161   07 Jun 2027 06:47:54.607             7.446           262.500
       221   07 Jun 2027 06:48:54.379   07 Jun 2027 06:48:58.847             4.468          1867.875
       222   07 Jun 2027 06:49:22.017   07 Jun 2027 06:49:22.017             0.000             0.000
       223   07 Jun 2027 06:49:23.578   07 Jun 2027 06:49:25.421             1.843           772.844
       224   07 Jun 2027 06:49:58.887   07 Jun 2027 06:50:01.879             2.992           971.281
       225   07 Jun 2027 06:50:03.967   07 Jun 2027 06:50:04.070             0.103            50.031
       226   07 Jun 2027 06:50:32.032   07 Jun 2027 06:50:33.858             1.826           397.063
       227   07 Jun 2027 06:50:42.255   07 Jun 2027 06:50:47.211             4.956           262.406
       228   07 Jun 2027 06:52:00.304   07 Jun 2027 06:52:05.637             5.333          2284.156
       229   07 Jun 2027 06:52:14.392   07 Jun 2027 06:52:15.191             0.799           273.594
       230   07 Jun 2027 06:52:46.430   07 Jun 2027 06:52:50.389             3.959           749.969
       231   07 Jun 2027 06:52:58.862   07 Jun 2027 06:53:02.263             3.401            67.156
       232   07 Jun 2027 08:22:35.609   07 Jun 2027 08:22:53.062            17.453          8726.500
       233   07 Jun 2027 08:23:06.107   07 Jun 2027 08:23:20.435            14.328          6983.094
       234   07 Jun 2027 08:25:06.476   07 Jun 2027 08:25:20.087            13.611          1639.375
       235   07 Jun 2027 08:26:12.223   07 Jun 2027 08:26:20.045             7.822          1528.438
       236   07 Jun 2027 08:27:02.248   07 Jun 2027 08:27:06.572             4.324          1045.187
       237   07 Jun 2027 08:27:29.601   07 Jun 2027 08:27:30.536             0.935           467.500
       238   07 Jun 2027 08:27:33.582   07 Jun 2027 08:27:35.190             1.608           347.344
       239   07 Jun 2027 08:28:35.453   07 Jun 2027 08:28:45.778            10.325          1627.812
       240   07 Jun 2027 10:00:21.125   07 Jun 2027 10:00:42.041            20.916          9000.531
       241   07 Jun 2027 10:00:47.968   07 Jun 2027 10:00:51.518             3.550           116.688
       242   07 Jun 2027 10:01:18.402   07 Jun 2027 10:01:27.852             9.450           781.344
       243   07 Jun 2027 10:02:13.992   07 Jun 2027 10:02:16.932             2.940          1421.563
       244   07 Jun 2027 10:02:53.043   07 Jun 2027 10:02:56.276             3.233          1128.469
       245   07 Jun 2027 10:04:09.362   07 Jun 2027 10:04:11.176             1.814           907.000
       246   07 Jun 2027 10:04:33.982   07 Jun 2027 10:04:39.066             5.084          1618.656
       247   07 Jun 2027 11:36:20.647   07 Jun 2027 11:36:25.825             5.178          2419.438
       248   07 Jun 2027 11:36:50.808   07 Jun 2027 11:36:52.445             1.637           780.719
       249   07 Jun 2027 11:37:37.709   07 Jun 2027 11:37:40.860             3.151           800.688
       250   07 Jun 2027 11:38:51.729   07 Jun 2027 11:39:07.085            15.356          1672.406
       251   07 Jun 2027 11:39:26.897   07 Jun 2027 11:39:28.669             1.772           191.406
       252   07 Jun 2027 11:40:01.075   07 Jun 2027 11:40:04.335             3.260           559.125
       253   08 Jun 2027 03:46:54.319   08 Jun 2027 03:48:12.950            78.631         39315.500
       254   08 Jun 2027 03:49:19.520   08 Jun 2027 03:49:19.520             0.000             0.000
       255   08 Jun 2027 03:49:32.605   08 Jun 2027 03:49:36.206             3.601          1800.500
       256   08 Jun 2027 05:20:40.069   08 Jun 2027 05:23:21.039           160.970         80485.000
       257   08 Jun 2027 05:24:11.105   08 Jun 2027 05:24:46.763            35.658         17829.000
       258   08 Jun 2027 05:28:36.941   08 Jun 2027 05:29:13.277            36.336         18168.000
       259   08 Jun 2027 06:58:03.448   08 Jun 2027 06:58:50.266            46.818         23283.125
       260   08 Jun 2027 06:59:41.590   08 Jun 2027 06:59:42.850             1.260           539.750
       261   08 Jun 2027 07:00:58.720   08 Jun 2027 07:01:02.142             3.422          1711.000
       262   08 Jun 2027 07:02:27.083   08 Jun 2027 07:02:35.610             8.527          2945.062
       263   08 Jun 2027 07:02:47.423   08 Jun 2027 07:02:48.734             1.311           369.156
       264   08 Jun 2027 07:04:04.882   08 Jun 2027 07:04:08.405             3.523          1567.750
       265   08 Jun 2027 08:35:07.674   08 Jun 2027 08:35:18.110            10.436          5218.000
       266   08 Jun 2027 08:35:23.853   08 Jun 2027 08:35:41.412            17.559          8160.969
       267   08 Jun 2027 08:35:47.115   08 Jun 2027 08:35:47.178             0.063            31.500
       268   08 Jun 2027 08:35:48.878   08 Jun 2027 08:35:50.653             1.775           160.094
       269   08 Jun 2027 08:36:18.103   08 Jun 2027 08:36:18.455             0.352            66.875
       270   08 Jun 2027 08:36:53.042   08 Jun 2027 08:36:55.992             2.950           401.625
       271   08 Jun 2027 08:38:25.104   08 Jun 2027 08:38:30.698             5.594          2740.437
       272   08 Jun 2027 08:38:55.015   08 Jun 2027 08:38:57.104             2.089           756.312
       273   08 Jun 2027 08:40:16.049   08 Jun 2027 08:40:21.382             5.333          2345.969
       274   08 Jun 2027 10:11:52.100   08 Jun 2027 10:12:10.959            18.859          7924.750
       275   08 Jun 2027 10:12:43.324   08 Jun 2027 10:12:49.211             5.887           991.688
       276   08 Jun 2027 10:13:36.019   08 Jun 2027 10:13:38.836             2.817          1386.188
       277   08 Jun 2027 10:14:14.148   08 Jun 2027 10:14:19.994             5.846           191.813
       278   08 Jun 2027 10:14:57.013   08 Jun 2027 10:15:02.291             5.278          1156.844
       279   08 Jun 2027 10:15:41.745   08 Jun 2027 10:15:41.745             0.000             0.000
       280   08 Jun 2027 10:15:43.220   08 Jun 2027 10:15:45.438             2.218           989.781
       281   08 Jun 2027 10:15:58.731   08 Jun 2027 10:16:02.457             3.726           388.469
       282   08 Jun 2027 10:16:28.797   08 Jun 2027 10:16:31.956             3.159           674.531
       283   08 Jun 2027 11:47:08.085   08 Jun 2027 11:47:12.715             4.630          1883.531
       284   08 Jun 2027 11:49:16.657   08 Jun 2027 11:49:21.620             4.963          1927.562
       285   08 Jun 2027 11:49:26.209   08 Jun 2027 11:49:27.866             1.657           111.781
       286   08 Jun 2027 11:49:58.883   08 Jun 2027 11:50:04.185             5.302           969.281
       287   08 Jun 2027 11:50:19.359   08 Jun 2027 11:50:19.359             0.000             0.000
       288   08 Jun 2027 11:50:44.270   08 Jun 2027 11:50:49.149             4.879          1123.375
       289   08 Jun 2027 11:50:56.385   08 Jun 2027 11:51:00.476             4.091           182.188
       290   09 Jun 2027 03:59:08.559   09 Jun 2027 04:00:29.189            80.630         40315.000
       291   09 Jun 2027 04:01:21.516   09 Jun 2027 04:01:21.516             0.000             0.000
       292   09 Jun 2027 04:02:13.620   09 Jun 2027 04:02:13.620             0.000             0.000
       293   09 Jun 2027 04:02:13.940   09 Jun 2027 04:02:35.978            22.038         11019.000
       294   09 Jun 2027 05:31:25.328   09 Jun 2027 05:31:38.713            13.385          6692.500
       295   09 Jun 2027 05:33:12.545   09 Jun 2027 05:35:52.513           159.968         79984.000
       296   09 Jun 2027 05:35:53.134   09 Jun 2027 05:35:53.134             0.000             0.000
       297   09 Jun 2027 05:36:49.529   09 Jun 2027 05:36:57.845             8.316          4158.000
       298   09 Jun 2027 05:38:23.420   09 Jun 2027 05:38:23.420             0.000             0.000
       299   09 Jun 2027 05:40:22.956   09 Jun 2027 05:40:22.956             0.000             0.000
       300   09 Jun 2027 05:41:08.032   09 Jun 2027 05:41:10.630             2.598          1299.000
       301   09 Jun 2027 07:10:17.079   09 Jun 2027 07:11:16.783            59.704         29194.407
       302   09 Jun 2027 07:11:22.575   09 Jun 2027 07:11:27.828             5.253            64.937
       303   09 Jun 2027 07:12:03.373   09 Jun 2027 07:12:07.783             4.410          1106.844
       304   09 Jun 2027 07:13:03.470   09 Jun 2027 07:13:05.398             1.928           829.219
       305   09 Jun 2027 07:13:26.900   09 Jun 2027 07:13:29.605             2.705           505.750
       306   09 Jun 2027 07:14:16.358   09 Jun 2027 07:14:17.111             0.753           376.500
       307   09 Jun 2027 07:15:02.147   09 Jun 2027 07:15:08.923             6.776          2402.000
       308   09 Jun 2027 07:15:54.161   09 Jun 2027 07:15:57.167             3.006          1065.438
       309   09 Jun 2027 07:16:28.951   09 Jun 2027 07:16:31.809             2.858           948.938
       310   09 Jun 2027 07:16:53.217   09 Jun 2027 07:16:54.650             1.433           259.531
       311   09 Jun 2027 08:47:13.141   09 Jun 2027 08:47:42.204            29.063         14341.781
       312   09 Jun 2027 08:48:44.944   09 Jun 2027 08:48:44.944             0.000             0.000
       313   09 Jun 2027 08:48:58.652   09 Jun 2027 08:49:01.721             3.069           950.781
       314   09 Jun 2027 08:49:27.999   09 Jun 2027 08:49:32.361             4.362           821.188
       315   09 Jun 2027 08:50:20.841   09 Jun 2027 08:50:24.890             4.049          1515.000
       316   09 Jun 2027 08:50:30.864   09 Jun 2027 08:50:30.864             0.000             0.000
       317   09 Jun 2027 08:50:41.723   09 Jun 2027 08:50:44.341             2.618           524.000
       318   09 Jun 2027 08:50:47.632   09 Jun 2027 08:50:51.333             3.701           102.844
       319   09 Jun 2027 08:51:39.136   09 Jun 2027 08:51:43.349             4.213          1493.844
       320   09 Jun 2027 10:23:59.718   09 Jun 2027 10:24:13.949            14.231          6520.750
       321   09 Jun 2027 10:24:52.993   09 Jun 2027 10:24:54.503             1.510           398.500
       322   09 Jun 2027 10:25:07.635   09 Jun 2027 10:25:13.527             5.892           410.375
       323   09 Jun 2027 10:25:20.076   09 Jun 2027 10:25:20.076             0.000             0.000
       324   09 Jun 2027 10:26:02.759   09 Jun 2027 10:26:07.207             4.448          1482.719
       325   09 Jun 2027 10:26:27.473   09 Jun 2027 10:26:29.036             1.563           460.156
       326   09 Jun 2027 10:27:41.931   09 Jun 2027 10:27:45.760             3.829          1695.250
       327   09 Jun 2027 10:28:07.912   09 Jun 2027 10:28:14.922             7.010           689.531
       328   10 Jun 2027 04:11:19.076   10 Jun 2027 04:12:12.940            53.864         26932.000
       329   10 Jun 2027 04:12:16.118   10 Jun 2027 04:12:31.695            15.577          7788.500
       330   10 Jun 2027 04:13:11.879   10 Jun 2027 04:13:14.954             3.075          1537.500
       331   10 Jun 2027 04:14:18.367   10 Jun 2027 04:14:18.367             0.000             0.000
       332   10 Jun 2027 05:46:23.989   10 Jun 2027 05:48:54.847           150.858         75429.000
       333   10 Jun 2027 05:49:31.290   10 Jun 2027 05:49:45.389            14.099          7049.500
       334   10 Jun 2027 05:51:10.756   10 Jun 2027 05:51:59.593            48.837         24418.500
       335   10 Jun 2027 05:53:02.304   10 Jun 2027 05:53:11.777             9.473          4736.500
       336   10 Jun 2027 07:22:45.847   10 Jun 2027 07:23:41.449            55.602         27554.094
       337   10 Jun 2027 07:24:38.100   10 Jun 2027 07:24:41.044             2.944           850.438
       338   10 Jun 2027 07:25:51.653   10 Jun 2027 07:25:55.678             4.025          1453.969
       339   10 Jun 2027 07:26:23.037   10 Jun 2027 07:26:25.422             2.385           670.656
       340   10 Jun 2027 07:27:55.026   10 Jun 2027 07:28:02.600             7.574          2563.031
       341   10 Jun 2027 07:28:21.155   10 Jun 2027 07:28:29.573             8.418           445.750
       342   10 Jun 2027 09:00:16.237   10 Jun 2027 09:00:41.100            24.863         11347.250
       343   10 Jun 2027 09:02:14.105   10 Jun 2027 09:02:23.587             9.482          2503.969
       344   10 Jun 2027 09:03:07.724   10 Jun 2027 09:03:10.492             2.768          1357.500
       345   10 Jun 2027 09:03:59.071   10 Jun 2027 09:04:02.986             3.915          1518.094
       346   10 Jun 2027 09:04:14.406   10 Jun 2027 09:04:15.635             1.229           178.625
       347   10 Jun 2027 10:36:20.885   10 Jun 2027 10:36:37.943            17.058          8036.281
       348   10 Jun 2027 10:36:53.754   10 Jun 2027 10:36:55.647             1.893           412.500
       349   10 Jun 2027 10:37:06.221   10 Jun 2027 10:37:11.663             5.442           244.750
       350   10 Jun 2027 10:37:58.202   10 Jun 2027 10:38:01.269             3.067          1454.344
       351   10 Jun 2027 10:38:02.877   10 Jun 2027 10:38:04.297             1.420            19.188
       352   10 Jun 2027 10:38:35.845   10 Jun 2027 10:38:39.170             3.325           881.812
       353   10 Jun 2027 10:39:10.705   10 Jun 2027 10:39:16.692             5.987           409.375
       354   10 Jun 2027 10:39:34.383   10 Jun 2027 10:39:37.376             2.993           552.844
       355   10 Jun 2027 10:39:56.401   10 Jun 2027 10:39:56.401             0.000             0.000
       356   10 Jun 2027 10:40:28.876   10 Jun 2027 10:40:35.382             6.506          1493.938
       357   11 Jun 2027 04:23:23.683   11 Jun 2027 04:24:54.393            90.710         45355.000
       358   11 Jun 2027 04:25:35.750   11 Jun 2027 04:26:48.898            73.148         36574.000
       359   11 Jun 2027 05:58:34.026   11 Jun 2027 06:01:05.174           151.148         75574.000
       360   11 Jun 2027 06:02:48.591   11 Jun 2027 06:02:50.570             1.979           989.500
       361   11 Jun 2027 06:03:58.097   11 Jun 2027 06:04:07.833             9.736          4868.000
       362   11 Jun 2027 06:04:28.927   11 Jun 2027 06:04:34.781             5.854          1986.000
       363   11 Jun 2027 06:04:54.680   11 Jun 2027 06:04:55.997             1.317           353.125
       364   11 Jun 2027 07:34:48.901   11 Jun 2027 07:35:16.741            27.840         13634.406
       365   11 Jun 2027 07:36:29.787   11 Jun 2027 07:36:37.433             7.646          1612.156
       366   11 Jun 2027 07:36:51.473   11 Jun 2027 07:36:55.839             4.366           140.344
       367   11 Jun 2027 07:37:10.615   11 Jun 2027 07:37:10.838             0.223           107.656
       368   11 Jun 2027 07:38:27.776   11 Jun 2027 07:38:31.727             3.951          1734.531
       369   11 Jun 2027 07:38:35.278   11 Jun 2027 07:38:36.922             1.644            28.500
       370   11 Jun 2027 07:39:51.511   11 Jun 2027 07:39:58.374             6.863          2178.000
       371   11 Jun 2027 07:40:47.410   11 Jun 2027 07:40:48.431             1.021           510.500
       372   11 Jun 2027 09:12:21.769   11 Jun 2027 09:12:45.458            23.689         10696.938
       373   11 Jun 2027 09:13:26.518   11 Jun 2027 09:13:28.321             1.803           674.781
       374   11 Jun 2027 09:13:59.997   11 Jun 2027 09:14:02.823             2.826           989.875
       375   11 Jun 2027 09:14:31.126   11 Jun 2027 09:14:32.141             1.015           312.875
       376   11 Jun 2027 09:14:58.648   11 Jun 2027 09:15:00.686             2.038           828.344
       377   11 Jun 2027 09:15:50.825   11 Jun 2027 09:15:57.173             6.348          1563.063
       378   11 Jun 2027 09:16:13.385   11 Jun 2027 09:16:13.774             0.389            65.563
       379   11 Jun 2027 09:16:43.941   11 Jun 2027 09:16:48.931             4.990           942.719
       380   11 Jun 2027 10:48:23.084   11 Jun 2027 10:48:43.885            20.801          8637.031
       381   11 Jun 2027 10:48:52.219   11 Jun 2027 10:48:52.219             0.000             0.000
       382   11 Jun 2027 10:48:57.868   11 Jun 2027 10:48:59.479             1.611           243.969
       383   11 Jun 2027 10:49:23.241   11 Jun 2027 10:49:23.241             0.000             0.000
       384   11 Jun 2027 10:49:46.100   11 Jun 2027 10:49:49.385             3.285          1456.906
       385   11 Jun 2027 10:50:16.176   11 Jun 2027 10:50:20.613             4.437           683.031
       386   11 Jun 2027 10:51:56.807   11 Jun 2027 10:52:02.186             5.379          2499.500
       387   11 Jun 2027 10:52:18.095   11 Jun 2027 10:52:22.207             4.112           497.156
       388   11 Jun 2027 10:52:33.098   11 Jun 2027 10:52:35.070             1.972           338.719
       389   12 Jun 2027 03:00:22.819   12 Jun 2027 03:00:36.604            13.785          6892.500
       390   12 Jun 2027 03:00:36.768   12 Jun 2027 03:00:44.944             8.176          4088.000
       391   12 Jun 2027 04:35:07.322   12 Jun 2027 04:38:35.176           207.854        103927.000
       392   12 Jun 2027 04:38:45.440   12 Jun 2027 04:38:47.325             1.885           942.500
       393   12 Jun 2027 06:09:58.492   12 Jun 2027 06:11:29.699            91.207         45184.500
       394   12 Jun 2027 06:11:55.190   12 Jun 2027 06:11:56.232             1.042           166.469
       395   12 Jun 2027 06:12:51.407   12 Jun 2027 06:12:55.774             4.367          1482.219
       396   12 Jun 2027 06:13:00.894   12 Jun 2027 06:13:01.593             0.699           123.469
       397   12 Jun 2027 06:14:33.467   12 Jun 2027 06:14:39.715             6.248          2871.063
       398   12 Jun 2027 06:15:08.879   12 Jun 2027 06:15:13.042             4.163           911.375
       399   12 Jun 2027 06:15:33.885   12 Jun 2027 06:15:34.807             0.922           272.156
       400   12 Jun 2027 06:16:09.506   12 Jun 2027 06:16:14.290             4.784          1084.344
       401   12 Jun 2027 06:17:01.098   12 Jun 2027 06:17:12.501            11.403          1285.656
       402   12 Jun 2027 07:46:34.195   12 Jun 2027 07:47:12.239            38.044         18454.000
       403   12 Jun 2027 07:47:51.066   12 Jun 2027 07:47:54.565             3.499           233.219
       404   12 Jun 2027 07:48:34.309   12 Jun 2027 07:48:36.821             2.512          1242.000
       405   12 Jun 2027 07:48:49.028   12 Jun 2027 07:48:52.784             3.756           252.500
       406   12 Jun 2027 07:49:14.412   12 Jun 2027 07:49:20.349             5.937           187.656
       407   12 Jun 2027 07:49:50.658   12 Jun 2027 07:49:52.825             2.167           560.344
       408   12 Jun 2027 07:50:44.276   12 Jun 2027 07:50:46.845             2.569           566.438
       409   12 Jun 2027 07:51:32.205   12 Jun 2027 07:51:35.318             3.113          1348.063
       410   12 Jun 2027 07:52:03.457   12 Jun 2027 07:52:08.658             5.201           614.687
       411   12 Jun 2027 07:52:12.649   12 Jun 2027 07:52:13.675             1.026           124.719
       412   12 Jun 2027 07:52:35.806   12 Jun 2027 07:52:46.035            10.229           382.719
       413   12 Jun 2027 07:52:51.851   12 Jun 2027 07:52:55.512             3.661            22.125
       414   12 Jun 2027 09:24:51.811   12 Jun 2027 09:25:12.329            20.518          9952.781
       415   12 Jun 2027 09:25:22.351   12 Jun 2027 09:25:25.256             2.905           118.250
       416   12 Jun 2027 09:26:12.533   12 Jun 2027 09:26:16.169             3.636          1363.437
       417   12 Jun 2027 09:26:26.258   12 Jun 2027 09:26:26.258             0.000             0.000
       418   12 Jun 2027 09:26:30.309   12 Jun 2027 09:26:31.030             0.721           172.438
       419   12 Jun 2027 09:27:30.603   12 Jun 2027 09:27:36.158             5.555          1714.719
       420   12 Jun 2027 09:27:38.896   12 Jun 2027 09:27:41.410             2.514            85.563
       421   12 Jun 2027 09:27:55.105   12 Jun 2027 09:27:55.105             0.000             0.000
       422   12 Jun 2027 09:28:08.397   12 Jun 2027 09:28:11.651             3.254           775.687
       423   12 Jun 2027 09:28:15.363   12 Jun 2027 09:28:16.937             1.574           116.000
       424   12 Jun 2027 10:58:12.571   12 Jun 2027 10:58:20.831             8.260          4130.000
       425   12 Jun 2027 11:00:11.688   12 Jun 2027 11:00:16.752             5.064          2532.000
       426   12 Jun 2027 11:00:42.723   12 Jun 2027 11:00:49.666             6.943          1300.781
       427   12 Jun 2027 11:01:24.898   12 Jun 2027 11:01:27.324             2.426          1101.000
       428   12 Jun 2027 11:01:56.558   12 Jun 2027 11:02:02.930             6.372           901.062
       429   12 Jun 2027 11:02:12.361   12 Jun 2027 11:02:13.169             0.808           194.313
       430   12 Jun 2027 11:02:21.260   12 Jun 2027 11:02:21.757             0.497           218.719
       431   12 Jun 2027 11:02:51.946   12 Jun 2027 11:02:53.841             1.895           876.719
       432   12 Jun 2027 11:03:54.296   12 Jun 2027 11:03:57.683             3.387          1691.531
       433   12 Jun 2027 11:04:15.367   12 Jun 2027 11:04:16.397             1.030           281.937
       434   12 Jun 2027 11:05:12.715   12 Jun 2027 11:05:15.818             3.103          1358.344
       435   13 Jun 2027 03:10:00.457   13 Jun 2027 03:10:43.975            43.518         21759.000
       436   13 Jun 2027 03:11:36.512   13 Jun 2027 03:11:59.456            22.944         11472.000
       437   13 Jun 2027 03:12:01.668   13 Jun 2027 03:12:12.787            11.119          5559.500
       438   13 Jun 2027 03:12:24.478   13 Jun 2027 03:12:35.807            11.329          5664.500
       439   13 Jun 2027 04:45:20.216   13 Jun 2027 04:46:19.355            59.139         29569.500
       440   13 Jun 2027 04:46:52.292   13 Jun 2027 04:47:06.866            14.574          7287.000
       441   13 Jun 2027 04:47:14.709   13 Jun 2027 04:47:38.078            23.369         11684.500
       442   13 Jun 2027 04:48:52.180   13 Jun 2027 04:50:13.534            81.354         40677.000
       443   13 Jun 2027 04:50:25.289   13 Jun 2027 04:50:29.860             4.571          2285.500
       444   13 Jun 2027 04:51:38.615   13 Jun 2027 04:51:39.846             1.231           615.500
       445   13 Jun 2027 06:21:50.708   13 Jun 2027 06:22:49.943            59.235         29212.375
       446   13 Jun 2027 06:24:08.843   13 Jun 2027 06:24:13.367             4.524          2155.469
       447   13 Jun 2027 06:24:37.467   13 Jun 2027 06:24:39.160             1.693           530.438
       448   13 Jun 2027 06:24:58.256   13 Jun 2027 06:24:59.016             0.760           380.000
       449   13 Jun 2027 06:25:09.980   13 Jun 2027 06:25:09.980             0.000             0.000
       450   13 Jun 2027 06:25:27.468   13 Jun 2027 06:25:31.067             3.599           946.062
       451   13 Jun 2027 06:26:27.274   13 Jun 2027 06:26:30.617             3.343          1116.094
       452   13 Jun 2027 06:26:55.568   13 Jun 2027 06:26:57.566             1.998           252.219
       453   13 Jun 2027 06:27:52.996   13 Jun 2027 06:27:57.095             4.099          1732.188
       454   13 Jun 2027 06:28:24.051   13 Jun 2027 06:28:24.051             0.000             0.000
       455   13 Jun 2027 07:58:55.252   13 Jun 2027 07:59:27.273            32.021         16009.562
       456   13 Jun 2027 08:00:40.700   13 Jun 2027 08:00:41.816             1.116           376.688
       457   13 Jun 2027 08:00:55.077   13 Jun 2027 08:00:56.162             1.085           390.469
       458   13 Jun 2027 08:02:34.956   13 Jun 2027 08:02:40.527             5.571          2693.562
       459   13 Jun 2027 08:03:05.829   13 Jun 2027 08:03:07.337             1.508           197.531
       460   13 Jun 2027 08:03:23.168   13 Jun 2027 08:03:23.930             0.762           235.406
       461   13 Jun 2027 08:04:34.369   13 Jun 2027 08:04:37.004             2.635          1317.500
       462   13 Jun 2027 08:05:02.431   13 Jun 2027 08:05:06.242             3.811          1678.312
       463   13 Jun 2027 09:36:49.495   13 Jun 2027 09:37:04.775            15.280          7640.000
       464   13 Jun 2027 09:37:11.330   13 Jun 2027 09:37:28.702            17.372          1418.594
       465   13 Jun 2027 09:38:00.175   13 Jun 2027 09:38:05.697             5.522           952.031
       466   13 Jun 2027 09:38:35.277   13 Jun 2027 09:38:39.800             4.523           728.719
       467   13 Jun 2027 09:40:05.006   13 Jun 2027 09:40:09.639             4.633          1675.969
       468   13 Jun 2027 09:40:36.398   13 Jun 2027 09:40:38.094             1.696           389.312
       469   13 Jun 2027 11:09:58.204   13 Jun 2027 11:10:11.998            13.794          6497.406
       470   13 Jun 2027 11:11:33.029   13 Jun 2027 11:11:35.338             2.309          1123.219
       471   13 Jun 2027 11:12:05.589   13 Jun 2027 11:12:07.224             1.635           771.156
       472   13 Jun 2027 11:13:18.080   13 Jun 2027 11:13:21.068             2.988          1494.000
       473   13 Jun 2027 11:13:34.748   13 Jun 2027 11:13:36.548             1.800           553.594
       474   13 Jun 2027 11:14:18.546   13 Jun 2027 11:14:22.933             4.387           942.187
       475   13 Jun 2027 11:16:10.034   13 Jun 2027 11:16:17.599             7.565          2919.875
       476   13 Jun 2027 11:16:42.430   13 Jun 2027 11:16:46.395             3.965           730.375
