uniorb/output/strategy_2/Camera/Camera_KinoSat_110206.txt

KinoSat_110206
-------------------------
    Access    *     Start Time (UTCG)     *     Stop Time (UTCG)  *   Duration (s) *   Data (Mbytes)
         1   01 Jun 2027 03:51:37.468   01 Jun 2027 03:51:43.589             6.121          3060.500
         2   01 Jun 2027 03:52:37.137   01 Jun 2027 03:52:49.054            11.917          5958.500
         3   01 Jun 2027 03:53:51.932   01 Jun 2027 03:53:53.041             1.109           554.500
         4   01 Jun 2027 03:54:07.391   01 Jun 2027 03:54:12.440             5.049          2524.500
         5   01 Jun 2027 03:54:36.146   01 Jun 2027 03:54:40.696             4.550          2275.000
         6   01 Jun 2027 03:55:05.690   01 Jun 2027 03:55:05.785             0.095            47.500
         7   01 Jun 2027 03:55:14.407   01 Jun 2027 03:55:17.110             2.703          1351.500
         8   01 Jun 2027 03:55:44.067   01 Jun 2027 03:55:47.754             3.687          1843.500
         9   01 Jun 2027 03:56:07.222   01 Jun 2027 03:56:09.195             1.973           986.500
        10   01 Jun 2027 03:56:33.484   01 Jun 2027 03:56:33.612             0.128            64.000
        11   01 Jun 2027 03:56:42.660   01 Jun 2027 03:56:43.331             0.671           335.500
        12   01 Jun 2027 03:57:25.103   01 Jun 2027 03:57:27.437             2.334          1167.000
        13   01 Jun 2027 03:57:42.865   01 Jun 2027 03:57:46.196             3.331          1665.500
        14   01 Jun 2027 03:58:17.414   01 Jun 2027 03:58:19.444             2.030          1015.000
        15   01 Jun 2027 03:58:26.676   01 Jun 2027 03:58:28.379             1.703           851.500
        16   01 Jun 2027 05:28:52.045   01 Jun 2027 05:28:53.154             1.109           554.500
        17   01 Jun 2027 05:30:01.428   01 Jun 2027 05:30:01.433             0.005             2.500
        18   01 Jun 2027 05:30:12.623   01 Jun 2027 05:30:18.874             6.251          3125.500
        19   01 Jun 2027 05:31:00.460   01 Jun 2027 05:31:02.602             2.142          1071.000
        20   01 Jun 2027 05:31:23.199   01 Jun 2027 05:31:27.513             4.314          2157.000
        21   01 Jun 2027 05:31:53.845   01 Jun 2027 05:31:58.335             4.490          2245.000
        22   01 Jun 2027 05:32:21.253   01 Jun 2027 05:32:22.540             1.287           643.500
        23   01 Jun 2027 05:32:36.608   01 Jun 2027 05:32:45.712             9.104          4552.000
        24   01 Jun 2027 05:33:39.190   01 Jun 2027 05:33:52.519            13.329          6664.500
        25   01 Jun 2027 07:05:33.894   01 Jun 2027 07:05:47.260            13.366          6683.000
        26   01 Jun 2027 07:07:09.920   01 Jun 2027 07:07:26.536            16.616          8308.000
        27   01 Jun 2027 07:08:53.394   01 Jun 2027 07:08:59.652             6.258          3129.000
        28   01 Jun 2027 07:09:52.352   01 Jun 2027 07:09:53.893             1.541           770.500
        29   01 Jun 2027 07:10:22.778   01 Jun 2027 07:10:25.708             2.930          1465.000
        30   01 Jun 2027 08:40:45.760   01 Jun 2027 08:40:48.788             3.028          1514.000
        31   01 Jun 2027 08:42:20.653   01 Jun 2027 08:42:27.127             6.474          3237.000
        32   01 Jun 2027 08:43:33.849   01 Jun 2027 08:43:53.971            20.122         10061.000
        33   02 Jun 2027 04:04:02.808   02 Jun 2027 04:04:27.201            24.393         12196.500
        34   02 Jun 2027 04:06:22.672   02 Jun 2027 04:06:28.621             5.949          2974.500
        35   02 Jun 2027 04:07:23.071   02 Jun 2027 04:07:23.979             0.908           454.000
        36   02 Jun 2027 04:07:47.259   02 Jun 2027 04:07:54.854             7.595          3797.500
        37   02 Jun 2027 04:09:22.129   02 Jun 2027 04:09:26.864             4.735          2367.500
        38   02 Jun 2027 04:10:18.155   02 Jun 2027 04:10:30.183            12.028          6014.000
        39   02 Jun 2027 05:41:02.042   02 Jun 2027 05:41:22.413            20.371         10185.500
        40   02 Jun 2027 05:42:53.321   02 Jun 2027 05:42:59.635             6.314          3157.000
        41   02 Jun 2027 05:43:41.758   02 Jun 2027 05:43:42.207             0.449           224.500
        42   02 Jun 2027 05:43:54.739   02 Jun 2027 05:43:54.934             0.195            97.500
        43   02 Jun 2027 05:44:59.216   02 Jun 2027 05:45:02.148             2.932          1466.000
        44   02 Jun 2027 05:45:24.797   02 Jun 2027 05:45:37.503            12.706          6353.000
        45   02 Jun 2027 07:17:48.670   02 Jun 2027 07:17:59.918            11.248          5624.000
        46   02 Jun 2027 07:19:12.434   02 Jun 2027 07:19:21.834             9.400          4700.000
        47   02 Jun 2027 07:19:59.911   02 Jun 2027 07:20:00.393             0.482           241.000
        48   02 Jun 2027 07:20:24.825   02 Jun 2027 07:20:25.672             0.847           423.500
        49   02 Jun 2027 07:20:51.817   02 Jun 2027 07:20:58.730             6.913          3456.500
        50   02 Jun 2027 07:21:20.198   02 Jun 2027 07:21:33.220            13.022          6511.000
        51   02 Jun 2027 08:55:59.032   02 Jun 2027 08:56:07.321             8.289          4144.500
        52   02 Jun 2027 08:56:51.940   02 Jun 2027 08:56:54.341             2.401          1200.500
        53   03 Jun 2027 04:16:28.777   03 Jun 2027 04:16:38.901            10.124          5062.000
        54   03 Jun 2027 04:18:13.441   03 Jun 2027 04:18:15.225             1.784           892.000
        55   03 Jun 2027 04:18:43.410   03 Jun 2027 04:18:47.551             4.141          2070.500
        56   03 Jun 2027 04:19:10.628   03 Jun 2027 04:19:15.866             5.238          2619.000
        57   03 Jun 2027 04:19:39.848   03 Jun 2027 04:19:45.415             5.567          2783.500
        58   03 Jun 2027 04:20:08.161   03 Jun 2027 04:20:11.256             3.095          1547.500
        59   03 Jun 2027 04:21:17.290   03 Jun 2027 04:21:18.457             1.167           583.500
        60   03 Jun 2027 04:21:47.301   03 Jun 2027 04:21:55.162             7.861          3930.500
        61   03 Jun 2027 04:22:25.821   03 Jun 2027 04:22:32.105             6.284          3142.000
        62   03 Jun 2027 05:54:02.977   03 Jun 2027 05:54:04.774             1.797           898.500
        63   03 Jun 2027 05:54:14.599   03 Jun 2027 05:54:33.975            19.376          9688.000
        64   03 Jun 2027 05:56:02.149   03 Jun 2027 05:56:02.769             0.620           310.000
        65   03 Jun 2027 05:56:08.072   03 Jun 2027 05:56:16.189             8.117          4058.500
        66   03 Jun 2027 05:57:10.021   03 Jun 2027 05:57:19.223             9.202          4601.000
        67   03 Jun 2027 05:58:01.749   03 Jun 2027 05:58:04.357             2.608          1304.000
        68   03 Jun 2027 07:30:06.026   03 Jun 2027 07:30:06.726             0.700           350.000
        69   03 Jun 2027 07:30:13.761   03 Jun 2027 07:30:14.515             0.754           377.000
        70   03 Jun 2027 07:30:19.426   03 Jun 2027 07:30:35.264            15.838          7919.000
        71   03 Jun 2027 07:32:07.072   03 Jun 2027 07:32:10.032             2.960          1480.000
        72   03 Jun 2027 07:32:49.010   03 Jun 2027 07:32:49.847             0.837           418.500
        73   03 Jun 2027 07:33:05.382   03 Jun 2027 07:33:10.493             5.111          2555.500
        74   03 Jun 2027 07:33:35.231   03 Jun 2027 07:33:42.112             6.881          3440.500
        75   03 Jun 2027 07:34:02.086   03 Jun 2027 07:34:06.483             4.397          2198.500
        76   04 Jun 2027 04:28:41.026   04 Jun 2027 04:28:53.232            12.206          6103.000
        77   04 Jun 2027 04:30:01.190   04 Jun 2027 04:30:04.510             3.320          1660.000
        78   04 Jun 2027 04:30:12.323   04 Jun 2027 04:30:13.135             0.812           406.000
        79   04 Jun 2027 04:30:27.984   04 Jun 2027 04:30:28.247             0.263           131.500
        80   04 Jun 2027 04:31:21.220   04 Jun 2027 04:31:21.491             0.271           135.500
        81   04 Jun 2027 04:31:35.711   04 Jun 2027 04:31:46.715            11.004          5502.000
        82   04 Jun 2027 04:32:43.923   04 Jun 2027 04:32:50.701             6.778          3389.000
        83   04 Jun 2027 04:33:45.931   04 Jun 2027 04:33:47.285             1.354           677.000
        84   04 Jun 2027 04:34:16.889   04 Jun 2027 04:34:18.668             1.779           889.500
        85   04 Jun 2027 04:34:28.125   04 Jun 2027 04:34:34.117             5.992          2996.000
        86   04 Jun 2027 06:05:57.719   04 Jun 2027 06:06:02.474             4.755          2377.500
        87   04 Jun 2027 06:06:46.442   04 Jun 2027 06:06:55.314             8.872          4436.000
        88   04 Jun 2027 06:07:55.684   04 Jun 2027 06:08:01.415             5.731          2865.500
        89   04 Jun 2027 06:08:29.412   04 Jun 2027 06:08:30.081             0.669           334.500
        90   04 Jun 2027 06:08:42.937   04 Jun 2027 06:08:46.597             3.660          1830.000
        91   04 Jun 2027 06:09:01.424   04 Jun 2027 06:09:11.155             9.731          4865.500
        92   04 Jun 2027 06:09:51.728   04 Jun 2027 06:10:01.885            10.157          5078.500
        93   04 Jun 2027 07:42:10.256   04 Jun 2027 07:42:28.860            18.604          9302.000
        94   04 Jun 2027 07:44:01.854   04 Jun 2027 07:44:01.950             0.096            48.000
        95   04 Jun 2027 07:44:04.551   04 Jun 2027 07:44:07.486             2.935          1467.500
        96   04 Jun 2027 07:44:51.105   04 Jun 2027 07:44:58.220             7.115          3557.500
        97   04 Jun 2027 07:46:01.867   04 Jun 2027 07:46:02.028             0.161            80.500
        98   05 Jun 2027 03:03:50.296   05 Jun 2027 03:03:57.745             7.449          3724.500
        99   05 Jun 2027 03:04:47.062   05 Jun 2027 03:04:51.783             4.721          2360.500
       100   05 Jun 2027 03:05:13.322   05 Jun 2027 03:05:14.711             1.389           694.500
       101   05 Jun 2027 03:06:10.375   05 Jun 2027 03:06:14.169             3.794          1897.000
       102   05 Jun 2027 03:06:14.910   05 Jun 2027 03:06:17.831             2.921          1460.500
       103   05 Jun 2027 03:06:46.349   05 Jun 2027 03:06:50.872             4.523          2261.500
       104   05 Jun 2027 03:07:41.532   05 Jun 2027 03:07:50.284             8.752          4376.000
       105   05 Jun 2027 03:08:43.155   05 Jun 2027 03:08:49.841             6.686          3343.000
       106   05 Jun 2027 03:09:29.617   05 Jun 2027 03:09:30.525             0.908           454.000
       107   05 Jun 2027 03:09:47.603   05 Jun 2027 03:09:53.199             5.596          2798.000
       108   05 Jun 2027 03:10:26.016   05 Jun 2027 03:10:26.383             0.367           183.500
       109   05 Jun 2027 03:10:40.424   05 Jun 2027 03:10:42.655             2.231          1115.500
       110   05 Jun 2027 04:40:19.854   05 Jun 2027 04:40:26.699             6.845          3422.500
       111   05 Jun 2027 04:41:24.378   05 Jun 2027 04:41:27.829             3.451          1725.500
       112   05 Jun 2027 04:41:42.115   05 Jun 2027 04:41:50.151             8.036          4018.000
       113   05 Jun 2027 04:42:32.310   05 Jun 2027 04:42:41.132             8.822          4411.000
       114   05 Jun 2027 04:42:58.960   05 Jun 2027 04:43:06.191             7.231          3615.500
       115   05 Jun 2027 04:44:03.852   05 Jun 2027 04:44:14.464            10.612          5306.000
       116   05 Jun 2027 04:45:01.221   05 Jun 2027 04:45:04.900             3.679          1839.500
       117   05 Jun 2027 04:45:34.232   05 Jun 2027 04:45:45.851            11.619          5809.500
       118   05 Jun 2027 04:46:36.183   05 Jun 2027 04:46:36.466             0.283           141.500
       119   05 Jun 2027 06:18:37.518   05 Jun 2027 06:18:40.508             2.990          1495.000
       120   05 Jun 2027 06:19:27.736   05 Jun 2027 06:19:38.223            10.487          5243.500
       121   05 Jun 2027 06:20:24.301   05 Jun 2027 06:20:28.845             4.544          2272.000
       122   05 Jun 2027 06:21:04.282   05 Jun 2027 06:21:10.942             6.660          3330.000
       123   05 Jun 2027 06:21:48.760   05 Jun 2027 06:21:58.466             9.706          4853.000
       124   05 Jun 2027 07:54:04.043   05 Jun 2027 07:54:07.195             3.152          1576.000
       125   05 Jun 2027 07:54:35.912   05 Jun 2027 07:54:38.354             2.442          1221.000
       126   05 Jun 2027 07:55:24.110   05 Jun 2027 07:56:03.045            38.935         19467.500
       127   05 Jun 2027 07:57:59.777   05 Jun 2027 07:57:59.777             0.000             0.000
       128   05 Jun 2027 07:59:01.928   05 Jun 2027 07:59:09.479             7.551          3775.500
       129   06 Jun 2027 03:15:33.348   06 Jun 2027 03:15:38.476             5.128          2564.000
       130   06 Jun 2027 03:15:48.552   06 Jun 2027 03:15:54.700             6.148          3074.000
       131   06 Jun 2027 03:16:43.285   06 Jun 2027 03:16:44.827             1.542           771.000
       132   06 Jun 2027 03:16:52.879   06 Jun 2027 03:16:59.790             6.911          3455.500
       133   06 Jun 2027 03:17:50.986   06 Jun 2027 03:17:57.119             6.133          3066.500
       134   06 Jun 2027 03:18:35.247   06 Jun 2027 03:18:39.556             4.309          2154.500
       135   06 Jun 2027 03:19:04.421   06 Jun 2027 03:19:05.287             0.866           433.000
       136   06 Jun 2027 03:19:46.678   06 Jun 2027 03:19:46.705             0.027            13.500
       137   06 Jun 2027 03:20:15.087   06 Jun 2027 03:20:18.887             3.800          1900.000
       138   06 Jun 2027 03:20:48.311   06 Jun 2027 03:20:49.935             1.624           812.000
       139   06 Jun 2027 03:20:51.384   06 Jun 2027 03:20:51.384             0.000             0.000
       140   06 Jun 2027 03:20:56.935   06 Jun 2027 03:20:59.567             2.632          1316.000
       141   06 Jun 2027 03:21:06.583   06 Jun 2027 03:21:06.583             0.000             0.000
       142   06 Jun 2027 03:21:29.676   06 Jun 2027 03:21:36.155             6.479          3239.500
       143   06 Jun 2027 03:21:40.344   06 Jun 2027 03:21:45.051             4.707          2353.500
       144   06 Jun 2027 03:22:25.955   06 Jun 2027 03:22:39.971            14.016          7008.000
       145   06 Jun 2027 03:23:05.685   06 Jun 2027 03:23:05.813             0.128            64.000
       146   06 Jun 2027 04:52:39.858   06 Jun 2027 04:52:48.508             8.650          4325.000
       147   06 Jun 2027 04:53:24.392   06 Jun 2027 04:53:25.673             1.281           640.500
       148   06 Jun 2027 04:54:07.952   06 Jun 2027 04:54:21.200            13.248          6624.000
       149   06 Jun 2027 04:55:46.485   06 Jun 2027 04:55:54.846             8.361          4180.500
       150   06 Jun 2027 04:56:25.795   06 Jun 2027 04:56:46.532            20.737         10368.500
       151   06 Jun 2027 04:58:17.910   06 Jun 2027 04:58:26.393             8.483          4241.500
       152   06 Jun 2027 06:30:35.198   06 Jun 2027 06:30:36.547             1.349           674.500
       153   06 Jun 2027 06:31:00.288   06 Jun 2027 06:31:07.304             7.016          3508.000
       154   06 Jun 2027 06:32:02.426   06 Jun 2027 06:32:03.472             1.046           523.000
       155   06 Jun 2027 06:32:10.944   06 Jun 2027 06:32:15.468             4.524          2262.000
       156   06 Jun 2027 06:32:45.267   06 Jun 2027 06:32:51.582             6.315          3157.500
       157   06 Jun 2027 06:33:51.342   06 Jun 2027 06:33:53.032             1.690           845.000
       158   06 Jun 2027 06:34:10.142   06 Jun 2027 06:34:10.209             0.067            33.500
       159   06 Jun 2027 08:03:40.354   06 Jun 2027 08:03:49.388             9.034          4517.000
       160   06 Jun 2027 08:04:26.060   06 Jun 2027 08:04:42.952            16.892          8446.000
       161   06 Jun 2027 08:06:17.412   06 Jun 2027 08:06:30.767            13.355          6677.500
       162   06 Jun 2027 08:08:03.239   06 Jun 2027 08:08:04.301             1.062           531.000
       163   06 Jun 2027 08:08:20.623   06 Jun 2027 08:08:40.704            20.081         10040.500
       164   06 Jun 2027 08:10:42.756   06 Jun 2027 08:10:45.446             2.690          1345.000
       165   06 Jun 2027 08:10:59.114   06 Jun 2027 08:11:03.150             4.036          2018.000
       166   07 Jun 2027 03:27:51.309   07 Jun 2027 03:27:52.839             1.530           765.000
       167   07 Jun 2027 03:28:16.844   07 Jun 2027 03:28:20.540             3.696          1848.000
       168   07 Jun 2027 03:28:44.215   07 Jun 2027 03:28:54.401            10.186          5093.000
       169   07 Jun 2027 03:29:35.708   07 Jun 2027 03:29:38.580             2.872          1436.000
       170   07 Jun 2027 03:30:11.206   07 Jun 2027 03:30:27.810            16.604          8302.000
       171   07 Jun 2027 03:31:54.677   07 Jun 2027 03:31:55.620             0.943           471.500
       172   07 Jun 2027 03:32:03.754   07 Jun 2027 03:32:06.160             2.406          1203.000
       173   07 Jun 2027 03:32:29.141   07 Jun 2027 03:32:31.335             2.194          1097.000
       174   07 Jun 2027 03:32:40.636   07 Jun 2027 03:32:50.901            10.265          5132.500
       175   07 Jun 2027 03:34:01.941   07 Jun 2027 03:34:03.281             1.340           670.000
       176   07 Jun 2027 03:34:32.646   07 Jun 2027 03:34:42.335             9.689          4844.500
       177   07 Jun 2027 05:04:35.901   07 Jun 2027 05:04:42.401             6.500          3250.000
       178   07 Jun 2027 05:05:11.866   07 Jun 2027 05:05:14.986             3.120          1560.000
       179   07 Jun 2027 05:06:42.474   07 Jun 2027 05:06:58.244            15.770          7885.000
       180   07 Jun 2027 05:08:04.509   07 Jun 2027 05:08:09.533             5.024          2512.000
       181   07 Jun 2027 05:08:47.507   07 Jun 2027 05:08:48.238             0.731           365.500
       182   07 Jun 2027 05:09:39.000   07 Jun 2027 05:09:44.512             5.512          2756.000
       183   07 Jun 2027 05:10:07.450   07 Jun 2027 05:10:17.975            10.525          5262.500
       184   07 Jun 2027 06:42:34.453   07 Jun 2027 06:42:38.367             3.914          1957.000
       185   07 Jun 2027 06:43:15.837   07 Jun 2027 06:43:16.296             0.459           229.500
       186   07 Jun 2027 06:43:42.416   07 Jun 2027 06:43:48.001             5.585          2792.500
       187   07 Jun 2027 06:44:14.121   07 Jun 2027 06:44:14.904             0.783           391.500
       188   07 Jun 2027 06:44:45.720   07 Jun 2027 06:44:47.408             1.688           844.000
       189   07 Jun 2027 06:45:48.800   07 Jun 2027 06:46:08.168            19.368          9684.000
       190   07 Jun 2027 08:16:12.192   07 Jun 2027 08:16:33.730            21.538         10769.000
       191   07 Jun 2027 08:17:36.324   07 Jun 2027 08:17:39.140             2.816          1408.000
       192   07 Jun 2027 08:18:18.457   07 Jun 2027 08:18:19.503             1.046           523.000
       193   07 Jun 2027 08:18:27.279   07 Jun 2027 08:18:33.567             6.288          3144.000
       194   07 Jun 2027 08:20:17.567   07 Jun 2027 08:20:19.188             1.621           810.500
       195   07 Jun 2027 08:21:03.709   07 Jun 2027 08:21:13.999            10.290          5145.000
       196   07 Jun 2027 08:22:14.538   07 Jun 2027 08:22:26.597            12.059          6029.500
       197   07 Jun 2027 08:23:20.958   07 Jun 2027 08:23:36.682            15.724          7862.000
       198   08 Jun 2027 03:39:44.683   08 Jun 2027 03:39:44.727             0.044            22.000
       199   08 Jun 2027 03:40:09.780   08 Jun 2027 03:40:12.977             3.197          1598.500
       200   08 Jun 2027 03:40:45.003   08 Jun 2027 03:40:50.555             5.552          2776.000
       201   08 Jun 2027 03:41:20.131   08 Jun 2027 03:41:23.609             3.478          1739.000
       202   08 Jun 2027 03:41:53.337   08 Jun 2027 03:41:59.680             6.343          3171.500
       203   08 Jun 2027 03:42:38.448   08 Jun 2027 03:42:43.376             4.928          2464.000
       204   08 Jun 2027 03:43:22.754   08 Jun 2027 03:43:24.210             1.456           728.000
       205   08 Jun 2027 03:43:34.495   08 Jun 2027 03:43:51.390            16.895          8447.500
       206   08 Jun 2027 03:45:00.034   08 Jun 2027 03:45:02.159             2.125          1062.500
       207   08 Jun 2027 03:45:49.859   08 Jun 2027 03:45:51.330             1.471           735.500
       208   08 Jun 2027 03:46:27.643   08 Jun 2027 03:46:33.910             6.267          3133.500
       209   08 Jun 2027 05:16:28.725   08 Jun 2027 05:16:43.184            14.459          7229.500
       210   08 Jun 2027 05:17:05.775   08 Jun 2027 05:17:19.640            13.865          6932.500
       211   08 Jun 2027 05:19:23.461   08 Jun 2027 05:19:27.410             3.949          1974.500
       212   08 Jun 2027 05:19:52.816   08 Jun 2027 05:19:54.198             1.382           691.000
       213   08 Jun 2027 05:20:00.010   08 Jun 2027 05:20:03.013             3.003          1501.500
       214   08 Jun 2027 05:20:58.827   08 Jun 2027 05:21:11.371            12.544          6272.000
       215   08 Jun 2027 05:21:21.581   08 Jun 2027 05:21:23.155             1.574           787.000
       216   08 Jun 2027 05:21:35.613   08 Jun 2027 05:21:43.796             8.183          4091.500
       217   08 Jun 2027 05:22:47.683   08 Jun 2027 05:22:48.564             0.881           440.500
       218   08 Jun 2027 05:23:03.314   08 Jun 2027 05:23:12.085             8.771          4385.500
       219   08 Jun 2027 06:54:22.181   08 Jun 2027 06:54:26.132             3.951          1975.500
       220   08 Jun 2027 06:54:52.864   08 Jun 2027 06:55:05.737            12.873          6436.500
       221   08 Jun 2027 06:56:06.148   08 Jun 2027 06:56:07.415             1.267           633.500
       222   08 Jun 2027 06:56:14.699   08 Jun 2027 06:56:16.813             2.114          1057.000
       223   08 Jun 2027 06:56:56.154   08 Jun 2027 06:56:59.409             3.255          1627.500
       224   08 Jun 2027 06:57:18.828   08 Jun 2027 06:57:29.146            10.318          5159.000
       225   08 Jun 2027 06:58:20.537   08 Jun 2027 06:58:24.560             4.023          2011.500
       226   08 Jun 2027 08:30:19.828   08 Jun 2027 08:30:24.515             4.687          2343.500
       227   08 Jun 2027 08:30:30.406   08 Jun 2027 08:30:35.516             5.110          2555.000
       228   08 Jun 2027 08:30:59.509   08 Jun 2027 08:30:59.509             0.000             0.000
       229   08 Jun 2027 08:31:41.935   08 Jun 2027 08:31:56.481            14.546          7273.000
       230   08 Jun 2027 08:32:41.773   08 Jun 2027 08:32:41.773             0.000             0.000
       231   08 Jun 2027 08:33:03.931   08 Jun 2027 08:33:05.300             1.369           684.500
       232   08 Jun 2027 08:33:20.169   08 Jun 2027 08:33:24.783             4.614          2307.000
       233   09 Jun 2027 03:51:52.694   09 Jun 2027 03:51:58.882             6.188          3094.000
       234   09 Jun 2027 03:52:54.935   09 Jun 2027 03:53:05.090            10.155          5077.500
       235   09 Jun 2027 03:54:08.061   09 Jun 2027 03:54:22.164            14.103          7051.500
       236   09 Jun 2027 03:55:57.306   09 Jun 2027 03:55:57.504             0.198            99.000
       237   09 Jun 2027 03:57:32.313   09 Jun 2027 03:57:39.677             7.364          3682.000
       238   09 Jun 2027 03:58:45.393   09 Jun 2027 03:58:58.014            12.621          6310.500
       239   09 Jun 2027 05:29:07.254   09 Jun 2027 05:29:07.707             0.453           226.500
       240   09 Jun 2027 05:30:15.779   09 Jun 2027 05:30:19.153             3.374          1687.000
       241   09 Jun 2027 05:30:48.091   09 Jun 2027 05:30:48.093             0.002             1.000
       242   09 Jun 2027 05:31:17.447   09 Jun 2027 05:31:26.712             9.265          4632.500
       243   09 Jun 2027 05:31:53.714   09 Jun 2027 05:31:55.885             2.171          1085.500
       244   09 Jun 2027 05:32:02.405   09 Jun 2027 05:32:03.635             1.230           615.000
       245   09 Jun 2027 05:32:37.106   09 Jun 2027 05:32:39.806             2.700          1350.000
       246   09 Jun 2027 05:32:52.172   09 Jun 2027 05:33:01.507             9.335          4667.500
       247   09 Jun 2027 05:34:10.502   09 Jun 2027 05:34:16.629             6.127          3063.500
       248   09 Jun 2027 05:34:53.301   09 Jun 2027 05:34:59.162             5.861          2930.500
       249   09 Jun 2027 07:05:48.496   09 Jun 2027 07:06:02.797            14.301          7150.500
       250   09 Jun 2027 07:07:25.997   09 Jun 2027 07:07:41.153            15.156          7578.000
       251   09 Jun 2027 07:08:43.963   09 Jun 2027 07:08:51.409             7.446          3723.000
       252   09 Jun 2027 07:09:44.227   09 Jun 2027 07:09:54.101             9.874          4937.000
       253   09 Jun 2027 07:10:37.229   09 Jun 2027 07:10:39.365             2.136          1068.000
       254   09 Jun 2027 08:41:00.823   09 Jun 2027 08:41:03.469             2.646          1323.000
       255   09 Jun 2027 08:41:10.179   09 Jun 2027 08:41:10.179             0.000             0.000
       256   09 Jun 2027 08:42:36.634   09 Jun 2027 08:42:41.639             5.005          2502.500
       257   09 Jun 2027 08:43:51.226   09 Jun 2027 08:44:08.826            17.600          8800.000
       258   10 Jun 2027 04:04:17.816   10 Jun 2027 04:04:18.750             0.934           467.000
       259   10 Jun 2027 04:04:59.812   10 Jun 2027 04:05:17.534            17.722          8861.000
       260   10 Jun 2027 04:06:32.042   10 Jun 2027 04:06:37.514             5.472          2736.000
       261   10 Jun 2027 04:06:46.425   10 Jun 2027 04:06:56.984            10.559          5279.500
       262   10 Jun 2027 04:07:58.103   10 Jun 2027 04:08:02.300             4.197          2098.500
       263   10 Jun 2027 04:08:57.299   10 Jun 2027 04:09:00.653             3.354          1677.000
       264   10 Jun 2027 04:09:28.775   10 Jun 2027 04:09:33.599             4.824          2412.000
       265   10 Jun 2027 04:10:01.630   10 Jun 2027 04:10:24.163            22.533         11266.500
       266   10 Jun 2027 05:41:16.315   10 Jun 2027 05:41:37.470            21.155         10577.500
       267   10 Jun 2027 05:42:26.577   10 Jun 2027 05:42:27.770             1.193           596.500
       268   10 Jun 2027 05:42:28.831   10 Jun 2027 05:42:30.944             2.113          1056.500
       269   10 Jun 2027 05:43:34.277   10 Jun 2027 05:43:51.576            17.299          8649.500
       270   10 Jun 2027 05:45:30.004   10 Jun 2027 05:45:42.526            12.522          6261.000
       271   10 Jun 2027 07:18:03.310   10 Jun 2027 07:18:17.825            14.515          7257.500
       272   10 Jun 2027 07:19:26.655   10 Jun 2027 07:19:37.057            10.402          5201.000
       273   10 Jun 2027 07:20:20.365   10 Jun 2027 07:20:20.643             0.278           139.000
       274   10 Jun 2027 07:21:05.539   10 Jun 2027 07:21:12.657             7.118          3559.000
       275   10 Jun 2027 07:21:35.231   10 Jun 2027 07:21:47.996            12.765          6382.500
       276   10 Jun 2027 08:56:13.823   10 Jun 2027 08:56:21.967             8.144          4072.000
       277   10 Jun 2027 08:57:07.115   10 Jun 2027 08:57:08.976             1.861           930.500
       278   11 Jun 2027 04:16:43.724   11 Jun 2027 04:16:45.424             1.700           850.000
       279   11 Jun 2027 04:17:07.073   11 Jun 2027 04:17:27.881            20.808         10404.000
       280   11 Jun 2027 04:18:37.295   11 Jun 2027 04:18:38.668             1.373           686.500
       281   11 Jun 2027 04:19:01.840   11 Jun 2027 04:19:08.784             6.944          3472.000
       282   11 Jun 2027 04:20:01.456   11 Jun 2027 04:20:01.492             0.036            18.000
       283   11 Jun 2027 04:20:14.919   11 Jun 2027 04:20:17.172             2.253          1126.500
       284   11 Jun 2027 04:20:26.366   11 Jun 2027 04:20:43.934            17.568          8784.000
       285   11 Jun 2027 04:22:03.026   11 Jun 2027 04:22:09.767             6.741          3370.500
       286   11 Jun 2027 04:22:43.918   11 Jun 2027 04:22:49.130             5.212          2606.000
       287   11 Jun 2027 05:54:17.742   11 Jun 2027 05:54:19.413             1.671           835.500
       288   11 Jun 2027 05:54:29.500   11 Jun 2027 05:54:30.318             0.818           409.000
       289   11 Jun 2027 05:54:48.746   11 Jun 2027 05:54:53.219             4.473          2236.500
       290   11 Jun 2027 05:55:11.834   11 Jun 2027 05:55:15.962             4.128          2064.000
       291   11 Jun 2027 05:56:19.627   11 Jun 2027 05:56:19.806             0.179            89.500
       292   11 Jun 2027 05:56:22.565   11 Jun 2027 05:56:31.586             9.021          4510.500
       293   11 Jun 2027 05:57:10.307   11 Jun 2027 05:57:11.309             1.002           501.000
       294   11 Jun 2027 05:57:21.967   11 Jun 2027 05:57:24.470             2.503          1251.500
       295   11 Jun 2027 05:57:37.994   11 Jun 2027 05:57:40.885             2.891          1445.500
       296   11 Jun 2027 05:58:15.860   11 Jun 2027 05:58:21.835             5.975          2987.500
       297   11 Jun 2027 07:30:21.049   11 Jun 2027 07:30:21.652             0.603           301.500
       298   11 Jun 2027 07:30:27.981   11 Jun 2027 07:30:29.866             1.885           942.500
       299   11 Jun 2027 07:30:52.029   11 Jun 2027 07:30:52.190             0.161            80.500
       300   11 Jun 2027 07:31:36.006   11 Jun 2027 07:31:36.200             0.194            97.000
       301   11 Jun 2027 07:32:28.961   11 Jun 2027 07:32:31.497             2.536          1268.000
       302   11 Jun 2027 07:32:49.921   11 Jun 2027 07:32:54.847             4.926          2463.000
       303   11 Jun 2027 07:33:42.965   11 Jun 2027 07:33:47.738             4.773          2386.500
       304   11 Jun 2027 07:33:57.134   11 Jun 2027 07:34:00.603             3.469          1734.500
       305   12 Jun 2027 04:28:55.282   12 Jun 2027 04:29:11.152            15.870          7935.000
       306   12 Jun 2027 04:30:15.612   12 Jun 2027 04:30:19.400             3.788          1894.000
       307   12 Jun 2027 04:30:27.384   12 Jun 2027 04:30:32.748             5.364          2682.000
       308   12 Jun 2027 04:31:43.746   12 Jun 2027 04:31:49.769             6.023          3011.500
       309   12 Jun 2027 04:32:14.128   12 Jun 2027 04:32:15.795             1.667           833.500
       310   12 Jun 2027 04:32:23.187   12 Jun 2027 04:32:27.930             4.743          2371.500
       311   12 Jun 2027 04:33:22.025   12 Jun 2027 04:33:24.056             2.031          1015.500
       312   12 Jun 2027 04:33:28.260   12 Jun 2027 04:33:28.289             0.029            14.500
       313   12 Jun 2027 04:34:02.955   12 Jun 2027 04:34:05.889             2.934          1467.000
       314   12 Jun 2027 04:34:32.345   12 Jun 2027 04:34:36.089             3.744          1872.000
       315   12 Jun 2027 04:34:44.335   12 Jun 2027 04:34:49.015             4.680          2340.000
       316   12 Jun 2027 06:06:21.345   12 Jun 2027 06:06:21.989             0.644           322.000
       317   12 Jun 2027 06:06:27.805   12 Jun 2027 06:06:29.930             2.125          1062.500
       318   12 Jun 2027 06:07:03.752   12 Jun 2027 06:07:04.112             0.360           180.000
       319   12 Jun 2027 06:08:00.028   12 Jun 2027 06:08:02.047             2.019          1009.500
       320   12 Jun 2027 06:08:17.828   12 Jun 2027 06:08:19.309             1.481           740.500
       321   12 Jun 2027 06:08:35.942   12 Jun 2027 06:08:40.242             4.300          2150.000
       322   12 Jun 2027 06:08:58.728   12 Jun 2027 06:08:59.087             0.359           179.500
       323   12 Jun 2027 06:09:27.710   12 Jun 2027 06:09:38.856            11.146          5573.000
       324   12 Jun 2027 06:10:25.184   12 Jun 2027 06:10:28.117             2.933          1466.500
       325   12 Jun 2027 06:10:43.883   12 Jun 2027 06:10:49.366             5.483          2741.500
       326   12 Jun 2027 07:42:25.115   12 Jun 2027 07:42:46.817            21.702         10851.000
       327   12 Jun 2027 07:44:20.169   12 Jun 2027 07:44:22.102             1.933           966.500
       328   12 Jun 2027 07:45:05.608   12 Jun 2027 07:45:12.988             7.380          3690.000
       329   12 Jun 2027 07:46:16.732   12 Jun 2027 07:46:20.036             3.304          1652.000
       330   12 Jun 2027 07:46:48.638   12 Jun 2027 07:46:51.602             2.964          1482.000
       331   13 Jun 2027 03:04:04.619   13 Jun 2027 03:04:15.897            11.278          5639.000
       332   13 Jun 2027 03:05:02.166   13 Jun 2027 03:05:06.380             4.214          2107.000
       333   13 Jun 2027 03:05:29.744   13 Jun 2027 03:05:30.671             0.927           463.500
       334   13 Jun 2027 03:06:24.934   13 Jun 2027 03:06:32.492             7.558          3779.000
       335   13 Jun 2027 03:07:13.021   13 Jun 2027 03:07:22.137             9.116          4558.000
       336   13 Jun 2027 03:08:17.607   13 Jun 2027 03:08:21.337             3.730          1865.000
       337   13 Jun 2027 03:08:40.277   13 Jun 2027 03:08:41.656             1.379           689.500
       338   13 Jun 2027 03:09:12.007   13 Jun 2027 03:09:16.250             4.243          2121.500
       339   13 Jun 2027 03:09:49.729   13 Jun 2027 03:09:55.419             5.690          2845.000
       340   13 Jun 2027 03:10:41.809   13 Jun 2027 03:10:47.042             5.233          2616.500
       341   13 Jun 2027 04:40:34.838   13 Jun 2027 04:40:43.754             8.916          4458.000
       342   13 Jun 2027 04:41:39.240   13 Jun 2027 04:41:40.554             1.314           657.000
       343   13 Jun 2027 04:41:56.573   13 Jun 2027 04:42:05.612             9.039          4519.500
       344   13 Jun 2027 04:42:50.634   13 Jun 2027 04:43:02.498            11.864          5932.000
       345   13 Jun 2027 04:44:01.028   13 Jun 2027 04:44:05.676             4.648          2324.000
       346   13 Jun 2027 04:44:29.632   13 Jun 2027 04:44:31.285             1.653           826.500
       347   13 Jun 2027 04:44:38.819   13 Jun 2027 04:44:42.885             4.066          2033.000
       348   13 Jun 2027 04:45:13.513   13 Jun 2027 04:45:15.741             2.228          1114.000
       349   13 Jun 2027 04:45:21.303   13 Jun 2027 04:45:21.603             0.300           150.000
       350   13 Jun 2027 04:45:48.924   13 Jun 2027 04:45:49.797             0.873           436.500
       351   13 Jun 2027 04:46:34.006   13 Jun 2027 04:46:53.208            19.202          9601.000
       352   13 Jun 2027 06:18:52.520   13 Jun 2027 06:18:54.397             1.877           938.500
       353   13 Jun 2027 06:19:29.151   13 Jun 2027 06:19:37.366             8.215          4107.500
       354   13 Jun 2027 06:20:21.950   13 Jun 2027 06:20:30.672             8.722          4361.000
       355   13 Jun 2027 06:21:31.485   13 Jun 2027 06:21:39.757             8.272          4136.000
       356   13 Jun 2027 06:22:23.261   13 Jun 2027 06:22:26.975             3.714          1857.000
       357   13 Jun 2027 07:54:18.337   13 Jun 2027 07:54:22.244             3.907          1953.500
       358   13 Jun 2027 07:54:51.880   13 Jun 2027 07:54:53.922             2.042          1021.000
       359   13 Jun 2027 07:55:14.119   13 Jun 2027 07:55:15.928             1.809           904.500
       360   13 Jun 2027 07:56:24.935   13 Jun 2027 07:56:25.554             0.619           309.500
       361   13 Jun 2027 07:56:31.150   13 Jun 2027 07:56:35.698             4.548          2274.000
       362   13 Jun 2027 07:56:57.500   13 Jun 2027 07:57:14.179            16.679          8339.500
       363   13 Jun 2027 07:58:45.378   13 Jun 2027 07:58:46.211             0.833           416.500
       364   13 Jun 2027 07:58:50.967   13 Jun 2027 07:58:57.901             6.934          3467.000
