uniorb/output/strategy_2/Camera/Camera_KinoSat_111603.txt

KinoSat_111603
-------------------------
    Access    *     Start Time (UTCG)     *     Stop Time (UTCG)  *   Duration (s) *   Data (Mbytes)
         1   01 Jun 2027 03:33:44.241   01 Jun 2027 03:34:14.339            30.098         15049.000
         2   01 Jun 2027 03:34:21.621   01 Jun 2027 03:34:45.080            23.459         11729.500
         3   01 Jun 2027 03:34:50.756   01 Jun 2027 03:36:14.764            84.008         42004.000
         4   01 Jun 2027 03:36:33.256   01 Jun 2027 03:36:39.854             6.598          3299.000
         5   01 Jun 2027 03:36:46.775   01 Jun 2027 03:37:11.808            25.033         12516.500
         6   01 Jun 2027 03:37:37.329   01 Jun 2027 03:38:31.916            54.587         27293.500
         7   01 Jun 2027 03:39:02.324   01 Jun 2027 03:39:27.647            25.323         12661.500
         8   01 Jun 2027 03:39:29.669   01 Jun 2027 03:39:36.291             6.622          3311.000
         9   01 Jun 2027 05:13:39.798   01 Jun 2027 05:15:33.982           114.184         57092.000
        10   01 Jun 2027 06:35:17.069   01 Jun 2027 06:36:27.005            69.936         34968.000
        11   01 Jun 2027 08:11:42.767   01 Jun 2027 08:14:29.263           166.496         83248.000
        12   01 Jun 2027 09:46:51.002   01 Jun 2027 09:47:27.708            36.706         18353.000
        13   01 Jun 2027 09:48:13.583   01 Jun 2027 09:49:29.644            76.061         38030.500
        14   01 Jun 2027 09:49:54.681   01 Jun 2027 09:50:00.886             6.205          3102.500
        15   01 Jun 2027 09:50:01.406   01 Jun 2027 09:50:35.220            33.814         16907.000
        16   01 Jun 2027 09:53:33.005   01 Jun 2027 09:53:38.951             5.946          2973.000
        17   01 Jun 2027 11:23:11.938   01 Jun 2027 11:24:40.825            88.887         44443.500
        18   01 Jun 2027 11:26:30.009   01 Jun 2027 11:26:41.650            11.641          5820.500
        19   01 Jun 2027 11:27:34.432   01 Jun 2027 11:27:38.636             4.204          2102.000
        20   01 Jun 2027 11:28:48.330   01 Jun 2027 11:28:51.278             2.948          1474.000
        21   02 Jun 2027 03:45:40.625   02 Jun 2027 03:46:34.736            54.111         27055.500
        22   02 Jun 2027 03:46:47.428   02 Jun 2027 03:48:22.861            95.433         47716.500
        23   02 Jun 2027 03:49:21.752   02 Jun 2027 03:50:22.216            60.464         30232.000
        24   02 Jun 2027 03:51:03.851   02 Jun 2027 03:51:03.851             0.000             0.000
        25   02 Jun 2027 03:51:18.780   02 Jun 2027 03:51:37.841            19.061          9530.500
        26   02 Jun 2027 05:23:55.845   02 Jun 2027 05:24:32.182            36.337         18168.500
        27   02 Jun 2027 05:24:45.053   02 Jun 2027 05:25:16.025            30.972         15486.000
        28   02 Jun 2027 05:25:29.432   02 Jun 2027 05:26:06.904            37.472         18736.000
        29   02 Jun 2027 05:26:17.336   02 Jun 2027 05:26:53.149            35.813         17906.500
        30   02 Jun 2027 05:27:17.534   02 Jun 2027 05:27:34.830            17.296          8648.000
        31   02 Jun 2027 06:47:16.412   02 Jun 2027 06:48:34.632            78.220         39110.000
        32   02 Jun 2027 08:23:53.115   02 Jun 2027 08:25:33.998           100.883         50441.500
        33   02 Jun 2027 08:26:14.356   02 Jun 2027 08:26:18.803             4.447          2223.500
        34   02 Jun 2027 08:26:53.924   02 Jun 2027 08:27:04.032            10.108          4121.564
        35   02 Jun 2027 09:59:03.148   02 Jun 2027 09:59:15.411            12.263          4979.406
        36   02 Jun 2027 09:59:31.656   02 Jun 2027 09:59:37.096             5.440           507.656
        37   02 Jun 2027 10:04:07.760   02 Jun 2027 10:04:07.760             0.000             0.000
        38   02 Jun 2027 10:05:25.976   02 Jun 2027 10:05:39.125            13.149          6574.500
        39   02 Jun 2027 11:35:20.365   02 Jun 2027 11:35:39.008            18.643          7002.063
        40   02 Jun 2027 11:35:48.929   02 Jun 2027 11:35:49.929             1.000           163.813
        41   02 Jun 2027 11:38:01.253   02 Jun 2027 11:38:08.052             6.799          3072.906
        42   02 Jun 2027 11:38:50.608   02 Jun 2027 11:38:54.643             4.035          1034.531
        43   02 Jun 2027 11:39:28.054   02 Jun 2027 11:39:32.556             4.502           857.719
        44   02 Jun 2027 11:39:43.281   02 Jun 2027 11:39:44.560             1.279           174.000
        45   02 Jun 2027 11:39:52.242   02 Jun 2027 11:39:52.242             0.000             0.000
        46   02 Jun 2027 11:40:49.237   02 Jun 2027 11:40:53.955             4.718          2011.250
        47   02 Jun 2027 11:41:04.640   02 Jun 2027 11:41:07.293             2.653           333.906
        48   02 Jun 2027 11:41:26.794   02 Jun 2027 11:41:28.127             1.333           413.531
        49   03 Jun 2027 03:58:46.277   03 Jun 2027 04:00:54.129           127.852         63926.000
        50   03 Jun 2027 04:01:00.711   03 Jun 2027 04:01:34.625            33.914         16957.000
        51   03 Jun 2027 04:02:11.744   03 Jun 2027 04:02:35.407            23.663         11831.500
        52   03 Jun 2027 04:03:05.237   03 Jun 2027 04:03:09.243             4.006          2003.000
        53   03 Jun 2027 04:03:20.385   03 Jun 2027 04:03:46.053            25.668         12834.000
        54   03 Jun 2027 04:05:39.117   03 Jun 2027 04:05:50.983            11.866          5933.000
        55   03 Jun 2027 05:25:08.593   03 Jun 2027 05:25:13.998             5.405          2702.500
        56   03 Jun 2027 05:35:52.504   03 Jun 2027 05:37:05.275            72.771         36023.500
        57   03 Jun 2027 05:37:33.412   03 Jun 2027 05:37:37.047             3.635           670.375
        58   03 Jun 2027 05:37:43.034   03 Jun 2027 05:37:43.203             0.169            72.156
        59   03 Jun 2027 05:38:09.421   03 Jun 2027 05:38:09.421             0.000             0.000
        60   03 Jun 2027 05:38:48.073   03 Jun 2027 05:38:52.231             4.158          1500.062
        61   03 Jun 2027 05:39:23.867   03 Jun 2027 05:39:25.122             1.255           218.875
        62   03 Jun 2027 06:59:52.695   03 Jun 2027 07:00:05.812            13.117          6367.313
        63   03 Jun 2027 07:01:58.911   03 Jun 2027 07:02:08.441             9.530          3450.906
        64   03 Jun 2027 08:35:37.344   03 Jun 2027 08:35:45.258             7.914          3895.906
        65   03 Jun 2027 08:37:42.778   03 Jun 2027 08:37:50.695             7.917          3401.000
        66   03 Jun 2027 08:38:26.312   03 Jun 2027 08:38:28.663             2.351          1113.031
        67   03 Jun 2027 10:10:30.908   03 Jun 2027 10:10:42.402            11.494          5645.156
        68   03 Jun 2027 10:11:20.052   03 Jun 2027 10:11:26.440             6.388          1176.562
        69   03 Jun 2027 10:12:12.814   03 Jun 2027 10:12:16.151             3.337           980.125
        70   03 Jun 2027 10:13:25.611   03 Jun 2027 10:13:27.914             2.303          1151.500
        71   03 Jun 2027 10:13:34.765   03 Jun 2027 10:13:38.664             3.899          1233.219
        72   03 Jun 2027 10:13:47.655   03 Jun 2027 10:13:48.567             0.912           280.969
        73   03 Jun 2027 10:13:56.427   03 Jun 2027 10:14:04.649             8.222           196.594
        74   03 Jun 2027 10:14:53.154   03 Jun 2027 10:15:00.854             7.700          1218.437
        75   03 Jun 2027 10:15:09.202   03 Jun 2027 10:15:10.768             1.566            16.219
        76   03 Jun 2027 10:15:46.300   03 Jun 2027 10:15:48.993             2.693          1065.125
        77   03 Jun 2027 10:16:05.491   03 Jun 2027 10:16:07.393             1.902           156.844
        78   03 Jun 2027 10:17:16.481   03 Jun 2027 10:17:22.595             6.114          2159.000
        79   03 Jun 2027 10:17:35.802   03 Jun 2027 10:17:36.350             0.548           274.000
        80   03 Jun 2027 11:47:03.984   03 Jun 2027 11:47:15.009            11.025          5491.125
        81   03 Jun 2027 11:47:22.128   03 Jun 2027 11:47:23.133             1.005           182.438
        82   03 Jun 2027 11:47:30.657   03 Jun 2027 11:47:35.154             4.497           235.125
        83   03 Jun 2027 11:47:50.499   03 Jun 2027 11:47:51.607             1.108           148.500
        84   03 Jun 2027 11:48:09.459   03 Jun 2027 11:48:10.652             1.193           445.438
        85   03 Jun 2027 11:48:27.297   03 Jun 2027 11:48:32.386             5.089           248.594
        86   03 Jun 2027 11:49:29.861   03 Jun 2027 11:49:32.478             2.617          1090.719
        87   03 Jun 2027 11:50:52.742   03 Jun 2027 11:50:56.664             3.922          1961.000
        88   03 Jun 2027 11:51:55.051   03 Jun 2027 11:51:57.719             2.668          1334.000
        89   03 Jun 2027 11:52:16.608   03 Jun 2027 11:52:19.675             3.067          1331.375
        90   04 Jun 2027 04:10:54.801   04 Jun 2027 04:13:52.769           177.968         88984.000
        91   04 Jun 2027 04:15:52.151   04 Jun 2027 04:16:14.730            22.579         11289.500
        92   04 Jun 2027 04:17:55.489   04 Jun 2027 04:18:29.605            34.116         17058.000
        93   04 Jun 2027 05:36:26.138   04 Jun 2027 05:37:11.587            45.449         22724.500
        94   04 Jun 2027 05:37:17.194   04 Jun 2027 05:37:36.982            19.788          9894.000
        95   04 Jun 2027 05:47:50.662   04 Jun 2027 05:48:04.572            13.910          6955.000
        96   04 Jun 2027 05:48:16.895   04 Jun 2027 05:48:35.569            18.674          7438.062
        97   04 Jun 2027 05:48:51.258   04 Jun 2027 05:48:54.422             3.164           250.344
        98   04 Jun 2027 05:49:13.814   04 Jun 2027 05:49:14.049             0.235           117.500
        99   04 Jun 2027 07:10:28.375   04 Jun 2027 07:10:44.808            16.433          7611.563
       100   04 Jun 2027 07:12:01.652   04 Jun 2027 07:12:07.082             5.430          1452.375
       101   04 Jun 2027 07:12:24.556   04 Jun 2027 07:12:29.887             5.331           399.031
       102   04 Jun 2027 07:13:47.105   04 Jun 2027 07:13:54.461             7.356          2251.406
       103   04 Jun 2027 07:14:21.788   04 Jun 2027 07:14:25.325             3.537           725.875
       104   04 Jun 2027 08:45:51.636   04 Jun 2027 08:46:01.934            10.298          4396.344
       105   04 Jun 2027 08:47:23.002   04 Jun 2027 08:47:25.879             2.877          1283.563
       106   04 Jun 2027 08:49:24.839   04 Jun 2027 08:49:24.839             0.000             0.000
       107   04 Jun 2027 08:50:14.682   04 Jun 2027 08:50:21.304             6.622          3311.000
       108   04 Jun 2027 08:50:46.653   04 Jun 2027 08:50:53.114             6.461          2239.250
       109   04 Jun 2027 08:51:42.359   04 Jun 2027 08:51:42.359             0.000             0.000
       110   04 Jun 2027 08:51:44.658   04 Jun 2027 08:51:47.965             3.307           873.719
       111   04 Jun 2027 10:22:18.479   04 Jun 2027 10:22:32.497            14.018          5789.812
       112   04 Jun 2027 10:25:45.539   04 Jun 2027 10:25:46.829             1.290           645.000
       113   04 Jun 2027 10:28:06.296   04 Jun 2027 10:28:26.085            19.789          9550.844
       114   04 Jun 2027 10:29:08.847   04 Jun 2027 10:29:12.730             3.883          1336.312
       115   04 Jun 2027 10:29:32.262   04 Jun 2027 10:29:39.580             7.318           258.062
       116   04 Jun 2027 11:59:25.122   04 Jun 2027 11:59:38.621            13.499          6749.500
       117   04 Jun 2027 11:59:53.797   04 Jun 2027 11:59:56.427             2.630          1209.844
       118   05 Jun 2027 04:23:20.696   05 Jun 2027 04:25:59.208           158.512         79256.000
       119   05 Jun 2027 04:26:19.067   05 Jun 2027 04:26:41.050            21.983         10991.500
       120   05 Jun 2027 04:27:19.407   05 Jun 2027 04:27:21.991             2.584          1292.000
       121   05 Jun 2027 04:27:24.308   05 Jun 2027 04:27:47.643            23.335         11667.500
       122   05 Jun 2027 04:28:34.855   05 Jun 2027 04:29:01.231            26.376         13188.000
       123   05 Jun 2027 04:29:08.379   05 Jun 2027 04:29:16.148             7.769          3884.500
       124   05 Jun 2027 05:47:44.892   05 Jun 2027 05:48:12.080            27.188         13594.000
       125   05 Jun 2027 05:48:16.962   05 Jun 2027 05:48:45.230            28.268         14134.000
       126   05 Jun 2027 05:59:50.039   05 Jun 2027 06:00:31.550            41.511         19570.719
       127   05 Jun 2027 07:22:07.128   05 Jun 2027 07:22:15.056             7.928          3964.000
       128   05 Jun 2027 07:22:33.323   05 Jun 2027 07:22:37.657             4.334          1632.125
       129   05 Jun 2027 07:22:53.818   05 Jun 2027 07:22:56.478             2.660           505.031
       130   05 Jun 2027 07:24:01.777   05 Jun 2027 07:24:05.396             3.619          1775.875
       131   05 Jun 2027 07:24:22.531   05 Jun 2027 07:24:23.166             0.635           229.906
       132   05 Jun 2027 07:25:37.708   05 Jun 2027 07:25:43.722             6.014          1973.875
       133   05 Jun 2027 07:26:24.669   05 Jun 2027 07:26:24.669             0.000             0.000
       134   05 Jun 2027 07:26:31.419   05 Jun 2027 07:26:35.709             4.290          1058.156
       135   05 Jun 2027 08:57:00.960   05 Jun 2027 08:57:11.607            10.647          4257.938
       136   05 Jun 2027 08:57:32.501   05 Jun 2027 08:57:38.798             6.297           445.844
       137   05 Jun 2027 08:58:35.634   05 Jun 2027 08:58:38.651             3.017          1167.750
       138   05 Jun 2027 09:00:41.436   05 Jun 2027 09:00:52.088            10.652          3693.250
       139   05 Jun 2027 09:02:21.900   05 Jun 2027 09:02:30.361             8.461          2532.125
       140   05 Jun 2027 09:02:54.159   05 Jun 2027 09:02:54.159             0.000             0.000
       141   05 Jun 2027 09:03:32.588   05 Jun 2027 09:03:37.140             4.552          1836.844
       142   05 Jun 2027 09:03:44.303   05 Jun 2027 09:03:46.829             2.526           222.281
       143   05 Jun 2027 10:34:33.734   05 Jun 2027 10:34:48.529            14.795          5240.188
       144   05 Jun 2027 10:35:21.051   05 Jun 2027 10:35:25.731             4.680           321.844
       145   05 Jun 2027 10:35:38.131   05 Jun 2027 10:35:42.276             4.145           226.188
       146   05 Jun 2027 10:36:22.701   05 Jun 2027 10:36:25.338             2.637          1262.875
       147   05 Jun 2027 10:37:32.378   05 Jun 2027 10:37:37.228             4.850          1834.969
       148   05 Jun 2027 10:38:06.552   05 Jun 2027 10:38:06.552             0.000             0.000
       149   05 Jun 2027 10:40:04.323   05 Jun 2027 10:40:15.464            11.141          4561.750
       150   05 Jun 2027 10:40:41.953   05 Jun 2027 10:40:45.432             3.479           773.687
       151   05 Jun 2027 10:41:02.131   05 Jun 2027 10:41:02.639             0.508           174.312
       152   05 Jun 2027 10:41:23.971   05 Jun 2027 10:41:27.093             3.122           479.969
       153   06 Jun 2027 03:00:00.000   06 Jun 2027 03:00:03.912             3.912          1956.000
       154   06 Jun 2027 03:00:29.206   06 Jun 2027 03:00:45.425            16.219          8109.500
       155   06 Jun 2027 03:01:17.869   06 Jun 2027 03:01:19.001             1.132           566.000
       156   06 Jun 2027 03:01:23.068   06 Jun 2027 03:01:44.079            21.011         10505.500
       157   06 Jun 2027 03:02:11.026   06 Jun 2027 03:02:35.584            24.558         12279.000
       158   06 Jun 2027 04:35:25.297   06 Jun 2027 04:38:08.159           162.862         81431.000
       159   06 Jun 2027 04:38:38.004   06 Jun 2027 04:39:10.688            32.684         16342.000
       160   06 Jun 2027 04:39:26.344   06 Jun 2027 04:39:26.344             0.000             0.000
       161   06 Jun 2027 04:39:58.023   06 Jun 2027 04:39:58.292             0.269           134.500
       162   06 Jun 2027 04:40:07.911   06 Jun 2027 04:40:34.887            26.976         13488.000
       163   06 Jun 2027 04:41:50.138   06 Jun 2027 04:42:06.710            16.572          8286.000
       164   06 Jun 2027 05:59:43.756   06 Jun 2027 06:00:13.362            29.606         14803.000
       165   06 Jun 2027 06:01:26.782   06 Jun 2027 06:01:26.782             0.000             0.000
       166   06 Jun 2027 06:01:38.695   06 Jun 2027 06:01:38.953             0.258           129.000
       167   06 Jun 2027 06:12:05.169   06 Jun 2027 06:12:20.303            15.134          7541.375
       168   06 Jun 2027 07:33:37.509   06 Jun 2027 07:33:49.119            11.610          5708.625
       169   06 Jun 2027 07:36:09.500   06 Jun 2027 07:36:15.927             6.427          2700.625
       170   06 Jun 2027 07:36:57.285   06 Jun 2027 07:37:00.648             3.363          1033.000
       171   06 Jun 2027 07:37:17.983   06 Jun 2027 07:37:22.157             4.174           371.313
       172   06 Jun 2027 07:37:28.499   06 Jun 2027 07:37:28.499             0.000             0.000
       173   06 Jun 2027 07:38:46.273   06 Jun 2027 07:38:51.776             5.503          2559.000
       174   06 Jun 2027 09:08:31.902   06 Jun 2027 09:08:40.326             8.424          3304.656
       175   06 Jun 2027 09:09:21.329   06 Jun 2027 09:09:25.425             4.096           254.844
       176   06 Jun 2027 09:11:29.899   06 Jun 2027 09:11:34.552             4.653          1733.312
       177   06 Jun 2027 09:12:15.802   06 Jun 2027 09:12:18.383             2.581           399.031
       178   06 Jun 2027 09:13:01.919   06 Jun 2027 09:13:06.392             4.473          1144.156
       179   06 Jun 2027 09:15:29.039   06 Jun 2027 09:15:33.918             4.879          2096.188
       180   06 Jun 2027 09:16:00.330   06 Jun 2027 09:16:04.169             3.839           825.375
       181   06 Jun 2027 09:17:00.029   06 Jun 2027 09:17:02.478             2.449          1196.406
       182   06 Jun 2027 10:46:28.554   06 Jun 2027 10:46:37.462             8.908          4454.000
       183   06 Jun 2027 10:49:26.827   06 Jun 2027 10:49:43.236            16.409          7295.000
       184   06 Jun 2027 10:50:32.568   06 Jun 2027 10:50:37.343             4.775           839.219
       185   06 Jun 2027 10:50:39.133   06 Jun 2027 10:50:40.576             1.443            55.937
       186   06 Jun 2027 10:51:41.867   06 Jun 2027 10:51:45.519             3.652          1815.219
       187   06 Jun 2027 10:52:04.570   06 Jun 2027 10:52:07.186             2.616           595.344
       188   06 Jun 2027 10:52:32.338   06 Jun 2027 10:52:34.676             2.338           554.313
       189   06 Jun 2027 10:53:10.631   06 Jun 2027 10:53:15.297             4.666          1030.969
       190   07 Jun 2027 03:09:19.721   07 Jun 2027 03:10:43.424            83.703         41851.500
       191   07 Jun 2027 03:10:51.924   07 Jun 2027 03:11:17.797            25.873         12936.500
       192   07 Jun 2027 03:11:28.913   07 Jun 2027 03:11:57.147            28.234         14117.000
       193   07 Jun 2027 03:12:51.357   07 Jun 2027 03:12:54.849             3.492          1746.000
       194   07 Jun 2027 03:14:25.808   07 Jun 2027 03:14:43.650            17.842          8921.000
       195   07 Jun 2027 03:14:50.410   07 Jun 2027 03:14:55.796             5.386          2693.000
       196   07 Jun 2027 04:47:51.238   07 Jun 2027 04:48:26.798            35.560         17780.000
       197   07 Jun 2027 04:48:33.544   07 Jun 2027 04:49:06.268            32.724         16362.000
       198   07 Jun 2027 04:49:50.869   07 Jun 2027 04:51:08.811            77.942         37990.375
       199   07 Jun 2027 04:52:07.840   07 Jun 2027 04:52:11.546             3.706          1444.406
       200   07 Jun 2027 04:52:37.953   07 Jun 2027 04:52:40.121             2.168            39.937
       201   07 Jun 2027 06:11:39.998   07 Jun 2027 06:11:45.676             5.678          2839.000
       202   07 Jun 2027 06:12:15.313   07 Jun 2027 06:12:24.318             9.005          4502.500
       203   07 Jun 2027 06:13:17.056   07 Jun 2027 06:13:21.455             4.399          2199.500
       204   07 Jun 2027 07:47:39.311   07 Jun 2027 07:47:46.746             7.435          3717.500
       205   07 Jun 2027 07:48:26.393   07 Jun 2027 07:48:39.242            12.849          3167.719
       206   07 Jun 2027 07:49:35.906   07 Jun 2027 07:49:40.605             4.699          1412.063
       207   07 Jun 2027 07:50:29.756   07 Jun 2027 07:50:33.532             3.776          1146.969
       208   07 Jun 2027 09:21:26.139   07 Jun 2027 09:21:37.011            10.872          4522.281
       209   07 Jun 2027 09:23:03.105   07 Jun 2027 09:23:10.682             7.577           792.656
       210   07 Jun 2027 09:23:35.727   07 Jun 2027 09:23:38.893             3.166           141.344
       211   07 Jun 2027 09:24:27.699   07 Jun 2027 09:24:30.943             3.244          1341.906
       212   07 Jun 2027 09:27:43.572   07 Jun 2027 09:27:55.743            12.171          5673.281
       213   07 Jun 2027 09:28:14.401   07 Jun 2027 09:28:16.241             1.840           147.594
       214   07 Jun 2027 09:29:12.639   07 Jun 2027 09:29:15.915             3.276          1541.187
       215   07 Jun 2027 10:58:42.562   07 Jun 2027 10:59:02.752            20.190          7596.281
       216   07 Jun 2027 10:59:19.897   07 Jun 2027 10:59:23.284             3.387           246.500
       217   07 Jun 2027 11:00:05.735   07 Jun 2027 11:00:14.742             9.007          1326.594
       218   07 Jun 2027 11:03:29.886   07 Jun 2027 11:03:43.023            13.137          6098.250
       219   07 Jun 2027 11:03:49.973   07 Jun 2027 11:03:50.523             0.550            79.031
       220   07 Jun 2027 11:05:00.309   07 Jun 2027 11:05:04.614             4.305          2152.500
       221   07 Jun 2027 11:05:22.539   07 Jun 2027 11:05:23.700             1.161           580.500
       222   08 Jun 2027 03:21:53.301   08 Jun 2027 03:22:05.192            11.891          5945.500
       223   08 Jun 2027 03:22:17.737   08 Jun 2027 03:22:19.874             2.137          1068.500
       224   08 Jun 2027 03:22:58.206   08 Jun 2027 03:25:02.085           123.879         61939.500
       225   08 Jun 2027 03:25:44.482   08 Jun 2027 03:26:53.618            69.136         34568.000
       226   08 Jun 2027 03:27:03.042   08 Jun 2027 03:27:10.294             7.252          3626.000
       227   08 Jun 2027 05:00:09.740   08 Jun 2027 05:01:19.694            69.954         34977.000
       228   08 Jun 2027 05:01:41.910   08 Jun 2027 05:02:01.431            19.521          9760.500
       229   08 Jun 2027 05:02:17.274   08 Jun 2027 05:02:19.816             2.542           697.469
       230   08 Jun 2027 05:02:49.898   08 Jun 2027 05:02:50.905             1.007           503.500
       231   08 Jun 2027 05:02:58.487   08 Jun 2027 05:03:02.384             3.897           270.969
       232   08 Jun 2027 05:03:30.493   08 Jun 2027 05:03:32.384             1.891           669.750
       233   08 Jun 2027 05:03:37.857   08 Jun 2027 05:03:38.189             0.332           125.656
       234   08 Jun 2027 05:04:16.833   08 Jun 2027 05:04:19.343             2.510           371.812
       235   08 Jun 2027 05:04:41.507   08 Jun 2027 05:04:42.789             1.282           641.000
       236   08 Jun 2027 06:23:31.717   08 Jun 2027 06:23:46.671            14.954          6995.250
       237   08 Jun 2027 06:24:49.460   08 Jun 2027 06:24:52.540             3.080          1460.437
       238   08 Jun 2027 06:25:15.610   08 Jun 2027 06:25:19.326             3.716           611.500
       239   08 Jun 2027 06:25:49.973   08 Jun 2027 06:25:52.009             2.036           211.062
       240   08 Jun 2027 07:59:53.939   08 Jun 2027 08:00:06.597            12.658          6039.000
       241   08 Jun 2027 08:00:26.543   08 Jun 2027 08:00:28.465             1.922            36.344
       242   08 Jun 2027 08:00:29.929   08 Jun 2027 08:00:31.365             1.436            45.750
       243   08 Jun 2027 08:01:19.378   08 Jun 2027 08:01:26.128             6.750          1500.406
       244   08 Jun 2027 08:01:35.012   08 Jun 2027 08:01:35.391             0.379           138.563
       245   08 Jun 2027 08:01:47.817   08 Jun 2027 08:01:49.192             1.375           388.313
       246   08 Jun 2027 08:02:32.257   08 Jun 2027 08:02:35.103             2.846          1345.781
       247   08 Jun 2027 09:32:11.020   08 Jun 2027 09:32:20.808             9.788          4488.062
       248   08 Jun 2027 09:36:29.827   08 Jun 2027 09:36:41.538            11.711          3492.250
       249   08 Jun 2027 09:37:11.669   08 Jun 2027 09:37:11.669             0.000             0.000
       250   08 Jun 2027 09:39:08.067   08 Jun 2027 09:39:18.040             9.973          4548.844
       251   08 Jun 2027 09:39:32.919   08 Jun 2027 09:39:33.200             0.281            54.438
       252   08 Jun 2027 09:39:53.023   08 Jun 2027 09:39:57.022             3.999           619.469
       253   08 Jun 2027 09:40:31.654   08 Jun 2027 09:40:34.395             2.741           511.344
       254   08 Jun 2027 09:41:02.000   08 Jun 2027 09:41:04.029             2.029           862.656
       255   08 Jun 2027 09:41:55.007   08 Jun 2027 09:41:57.485             2.478          1239.000
       256   08 Jun 2027 11:11:02.301   08 Jun 2027 11:11:15.517            13.216          5793.625
       257   08 Jun 2027 11:11:25.556   08 Jun 2027 11:11:26.925             1.369           298.594
       258   08 Jun 2027 11:11:53.575   08 Jun 2027 11:11:55.404             1.829           447.219
       259   08 Jun 2027 11:12:39.432   08 Jun 2027 11:12:46.750             7.318           980.187
       260   08 Jun 2027 11:13:22.184   08 Jun 2027 11:13:25.307             3.123           482.438
       261   08 Jun 2027 11:13:36.965   08 Jun 2027 11:13:38.615             1.650           149.250
       262   08 Jun 2027 11:14:00.223   08 Jun 2027 11:14:05.205             4.982           471.031
       263   08 Jun 2027 11:14:42.856   08 Jun 2027 11:14:51.360             8.504           911.000
       264   08 Jun 2027 11:15:02.430   08 Jun 2027 11:15:03.269             0.839           345.781
       265   08 Jun 2027 11:15:25.980   08 Jun 2027 11:15:28.246             2.266           500.219
       266   08 Jun 2027 11:15:29.328   08 Jun 2027 11:15:31.257             1.929            33.812
       267   08 Jun 2027 11:15:45.046   08 Jun 2027 11:15:46.683             1.637           304.594
       268   08 Jun 2027 11:16:03.603   08 Jun 2027 11:16:05.421             1.818           210.313
       269   08 Jun 2027 11:17:05.101   08 Jun 2027 11:17:09.921             4.820          1615.250
       270   08 Jun 2027 11:17:23.818   08 Jun 2027 11:17:25.530             1.712           434.281
       271   09 Jun 2027 03:34:00.136   09 Jun 2027 03:34:32.882            32.746         16373.000
       272   09 Jun 2027 03:34:36.442   09 Jun 2027 03:35:01.402            24.960         12480.000
       273   09 Jun 2027 03:35:07.139   09 Jun 2027 03:36:39.628            92.489         46244.500
       274   09 Jun 2027 03:36:57.127   09 Jun 2027 03:37:28.200            31.073         15536.500
       275   09 Jun 2027 03:37:54.859   09 Jun 2027 03:38:39.405            44.546         22273.000
       276   09 Jun 2027 03:39:38.538   09 Jun 2027 03:40:11.536            32.998         16499.000
       277   09 Jun 2027 05:13:02.427   09 Jun 2027 05:14:13.184            70.757         33201.250
       278   09 Jun 2027 05:14:40.521   09 Jun 2027 05:14:40.521             0.000             0.000
       279   09 Jun 2027 05:15:26.713   09 Jun 2027 05:15:32.548             5.835          1830.781
       280   09 Jun 2027 05:15:53.280   09 Jun 2027 05:15:57.243             3.963           647.875
       281   09 Jun 2027 06:35:35.310   09 Jun 2027 06:35:52.247            16.937          8107.406
       282   09 Jun 2027 06:36:50.488   09 Jun 2027 06:36:50.488             0.000             0.000
       283   09 Jun 2027 06:37:39.148   09 Jun 2027 06:37:43.550             4.402          2201.000
       284   09 Jun 2027 06:38:13.760   09 Jun 2027 06:38:17.033             3.273          1636.500
       285   09 Jun 2027 08:12:04.682   09 Jun 2027 08:12:13.717             9.035          2614.063
       286   09 Jun 2027 08:12:53.931   09 Jun 2027 08:12:54.333             0.402           201.000
       287   09 Jun 2027 08:13:08.270   09 Jun 2027 08:13:16.129             7.859          1163.532
       288   09 Jun 2027 08:13:53.482   09 Jun 2027 08:13:57.416             3.934           632.406
       289   09 Jun 2027 09:47:09.510   09 Jun 2027 09:47:22.796            13.286          4332.313
       290   09 Jun 2027 09:48:15.106   09 Jun 2027 09:48:15.106             0.000             0.000
       291   09 Jun 2027 09:48:24.262   09 Jun 2027 09:48:30.538             6.276          1268.719
       292   09 Jun 2027 09:50:50.334   09 Jun 2027 09:51:04.029            13.695          4334.000
       293   09 Jun 2027 09:51:56.404   09 Jun 2027 09:51:58.871             2.467          1039.969
       294   09 Jun 2027 09:53:03.894   09 Jun 2027 09:53:07.219             3.325          1277.781
       295   09 Jun 2027 09:53:24.244   09 Jun 2027 09:53:25.351             1.107           532.031
       296   09 Jun 2027 09:53:42.704   09 Jun 2027 09:53:45.866             3.162           542.281
       297   09 Jun 2027 11:23:30.967   09 Jun 2027 11:23:44.163            13.196          5571.375
       298   09 Jun 2027 11:25:20.275   09 Jun 2027 11:25:24.958             4.683          2281.156
       299   09 Jun 2027 11:26:16.530   09 Jun 2027 11:26:21.114             4.584          1278.656
       300   09 Jun 2027 11:27:08.024   09 Jun 2027 11:27:08.942             0.918           323.844
       301   09 Jun 2027 11:27:27.941   09 Jun 2027 11:27:28.470             0.529            23.000
       302   09 Jun 2027 11:27:49.448   09 Jun 2027 11:27:50.252             0.804           402.000
       303   09 Jun 2027 11:28:05.238   09 Jun 2027 11:28:07.757             2.519           721.875
       304   09 Jun 2027 11:29:07.654   09 Jun 2027 11:29:11.484             3.830          1865.563
       305   09 Jun 2027 11:29:45.907   09 Jun 2027 11:29:51.185             5.278          1075.719
       306   10 Jun 2027 03:45:57.967   10 Jun 2027 03:46:45.440            47.473         23736.500
       307   10 Jun 2027 03:47:04.446   10 Jun 2027 03:48:37.148            92.702         46351.000
       308   10 Jun 2027 03:49:39.306   10 Jun 2027 03:50:36.792            57.486         28743.000
       309   10 Jun 2027 03:50:38.483   10 Jun 2027 03:50:47.368             8.885          4442.500
       310   10 Jun 2027 03:50:57.848   10 Jun 2027 03:51:19.335            21.487         10743.500
       311   10 Jun 2027 05:24:11.775   10 Jun 2027 05:24:45.053            33.278         16639.000
       312   10 Jun 2027 05:24:45.520   10 Jun 2027 05:24:49.370             3.850          1925.000
       313   10 Jun 2027 05:25:01.837   10 Jun 2027 05:25:30.586            28.749         14374.500
       314   10 Jun 2027 05:25:44.225   10 Jun 2027 05:25:59.345            15.120          7560.000
       315   10 Jun 2027 05:26:31.308   10 Jun 2027 05:26:42.200            10.892          3827.624
       316   10 Jun 2027 05:27:14.998   10 Jun 2027 05:27:20.105             5.107           562.500
       317   10 Jun 2027 05:27:50.832   10 Jun 2027 05:27:51.145             0.313           156.500
       318   10 Jun 2027 06:47:32.199   10 Jun 2027 06:47:49.125            16.926          6752.938
       319   10 Jun 2027 06:48:32.608   10 Jun 2027 06:48:32.608             0.000             0.000
       320   10 Jun 2027 06:49:01.296   10 Jun 2027 06:49:02.620             1.324           662.000
       321   10 Jun 2027 06:50:14.418   10 Jun 2027 06:50:25.568            11.150          3080.625
       322   10 Jun 2027 08:24:09.937   10 Jun 2027 08:24:20.607            10.670          4521.000
       323   10 Jun 2027 08:24:31.938   10 Jun 2027 08:24:33.672             1.734           153.469
       324   10 Jun 2027 08:24:54.183   10 Jun 2027 08:24:55.945             1.762            32.938
       325   10 Jun 2027 08:26:11.707   10 Jun 2027 08:26:18.857             7.150          2367.563
       326   10 Jun 2027 08:27:11.389   10 Jun 2027 08:27:14.185             2.796          1103.125
       327   10 Jun 2027 08:27:33.454   10 Jun 2027 08:27:33.454             0.000             0.000
       328   10 Jun 2027 09:59:19.901   10 Jun 2027 09:59:30.446            10.545          4207.250
       329   10 Jun 2027 10:00:33.096   10 Jun 2027 10:00:37.113             4.017          1903.031
       330   10 Jun 2027 10:01:00.511   10 Jun 2027 10:01:02.652             2.141           345.125
       331   10 Jun 2027 10:01:35.118   10 Jun 2027 10:01:37.677             2.559           216.719
       332   10 Jun 2027 10:03:07.868   10 Jun 2027 10:03:13.216             5.348          2196.406
       333   10 Jun 2027 10:03:32.032   10 Jun 2027 10:03:33.783             1.751           588.000
       334   10 Jun 2027 10:03:36.577   10 Jun 2027 10:03:38.975             2.398            87.312
       335   10 Jun 2027 10:04:00.244   10 Jun 2027 10:04:06.620             6.376           664.656
       336   10 Jun 2027 10:05:42.259   10 Jun 2027 10:05:47.540             5.281          2400.938
       337   10 Jun 2027 11:35:36.163   10 Jun 2027 11:35:49.168            13.005          6270.969
       338   10 Jun 2027 11:36:28.773   10 Jun 2027 11:36:33.978             5.205           838.031
       339   10 Jun 2027 11:37:22.982   10 Jun 2027 11:37:29.947             6.965          1412.875
       340   10 Jun 2027 11:38:11.039   10 Jun 2027 11:38:17.870             6.831           848.375
       341   10 Jun 2027 11:39:21.611   10 Jun 2027 11:39:26.910             5.299          1897.000
       342   10 Jun 2027 11:39:28.157   10 Jun 2027 11:39:28.471             0.314            38.969
       343   10 Jun 2027 11:39:43.099   10 Jun 2027 11:39:44.196             1.097           457.125
       344   10 Jun 2027 11:39:59.150   10 Jun 2027 11:40:00.663             1.513           134.031
       345   10 Jun 2027 11:40:06.905   10 Jun 2027 11:40:08.570             1.665           173.313
       346   10 Jun 2027 11:40:52.036   10 Jun 2027 11:40:56.426             4.390          1358.312
       347   10 Jun 2027 11:41:17.894   10 Jun 2027 11:41:22.539             4.645           590.906
       348   11 Jun 2027 03:59:03.392   11 Jun 2027 04:01:35.064           151.672         75836.000
       349   11 Jun 2027 04:02:31.651   11 Jun 2027 04:03:20.714            49.063         24531.500
       350   11 Jun 2027 04:04:00.536   11 Jun 2027 04:04:17.822            17.286          8643.000
       351   11 Jun 2027 04:05:57.149   11 Jun 2027 04:06:40.621            43.472         21736.000
       352   11 Jun 2027 05:25:22.891   11 Jun 2027 05:25:34.635            11.744          5872.000
       353   11 Jun 2027 05:36:09.298   11 Jun 2027 05:37:03.652            54.354         27177.000
       354   11 Jun 2027 05:37:14.635   11 Jun 2027 05:37:20.835             6.200           915.969
       355   11 Jun 2027 05:37:41.234   11 Jun 2027 05:37:44.593             3.359           459.344
       356   11 Jun 2027 05:38:15.493   11 Jun 2027 05:38:15.493             0.000             0.000
       357   11 Jun 2027 05:39:02.820   11 Jun 2027 05:39:07.729             4.909          2444.594
       358   11 Jun 2027 07:00:08.513   11 Jun 2027 07:00:19.783            11.270          5461.594
       359   11 Jun 2027 07:01:00.709   11 Jun 2027 07:01:00.709             0.000             0.000
       360   11 Jun 2027 07:02:14.598   11 Jun 2027 07:02:22.885             8.287          3370.781
       361   11 Jun 2027 08:35:53.634   11 Jun 2027 08:36:03.687            10.053          4774.031
       362   11 Jun 2027 08:38:02.225   11 Jun 2027 08:38:04.912             2.687          1343.500
       363   11 Jun 2027 08:38:28.509   11 Jun 2027 08:38:37.504             8.995          2904.594
       364   11 Jun 2027 08:39:21.521   11 Jun 2027 08:39:24.428             2.907          1375.531
       365   11 Jun 2027 10:11:16.403   11 Jun 2027 10:11:26.508            10.105          5052.500
       366   11 Jun 2027 10:11:36.938   11 Jun 2027 10:11:44.088             7.150           472.250
       367   11 Jun 2027 10:12:45.453   11 Jun 2027 10:12:53.784             8.331           754.063
       368   11 Jun 2027 10:13:55.002   11 Jun 2027 10:14:04.842             9.840          1131.250
       369   11 Jun 2027 10:14:51.701   11 Jun 2027 10:15:04.828            13.127          1447.188
       370   11 Jun 2027 10:15:08.037   11 Jun 2027 10:15:09.205             1.168            48.656
       371   11 Jun 2027 10:15:37.229   11 Jun 2027 10:15:39.867             2.638           875.750
       372   11 Jun 2027 10:16:04.402   11 Jun 2027 10:16:08.652             4.250           447.063
       373   11 Jun 2027 10:16:39.248   11 Jun 2027 10:16:41.679             2.431           593.313
       374   11 Jun 2027 10:17:07.836   11 Jun 2027 10:17:09.514             1.678           817.406
       375   11 Jun 2027 10:17:40.878   11 Jun 2027 10:17:42.430             1.552           753.813
       376   11 Jun 2027 11:47:20.490   11 Jun 2027 11:47:38.496            18.006          6929.687
       377   11 Jun 2027 11:47:48.596   11 Jun 2027 11:47:49.892             1.296           296.750
       378   11 Jun 2027 11:48:09.014   11 Jun 2027 11:48:09.482             0.468           217.000
       379   11 Jun 2027 11:50:16.356   11 Jun 2027 11:50:26.368            10.012          3873.469
       380   11 Jun 2027 11:50:45.039   11 Jun 2027 11:50:52.054             7.015           397.313
       381   11 Jun 2027 11:51:00.443   11 Jun 2027 11:51:02.213             1.770           146.656
       382   11 Jun 2027 11:51:06.877   11 Jun 2027 11:51:07.607             0.730           145.750
       383   11 Jun 2027 11:51:24.917   11 Jun 2027 11:51:27.123             2.206           503.469
       384   11 Jun 2027 11:52:13.116   11 Jun 2027 11:52:17.920             4.804          1401.875
       385   11 Jun 2027 11:52:47.301   11 Jun 2027 11:52:50.216             2.915           697.125
       386   12 Jun 2027 04:11:23.977   12 Jun 2027 04:14:13.089           169.112         84556.000
       387   12 Jun 2027 04:14:15.153   12 Jun 2027 04:14:27.163            12.010          6005.000
       388   12 Jun 2027 04:15:27.325   12 Jun 2027 04:15:39.368            12.043          6021.500
       389   12 Jun 2027 04:15:48.294   12 Jun 2027 04:16:06.734            18.440          9220.000
       390   12 Jun 2027 04:16:29.577   12 Jun 2027 04:16:29.577             0.000             0.000
       391   12 Jun 2027 04:18:13.386   12 Jun 2027 04:18:45.179            31.793         15896.500
       392   12 Jun 2027 05:36:39.605   12 Jun 2027 05:37:26.818            47.213         23606.500
       393   12 Jun 2027 05:48:07.790   12 Jun 2027 05:48:54.312            46.522         22989.719
       394   12 Jun 2027 05:49:08.099   12 Jun 2027 05:49:10.892             2.793           307.156
       395   12 Jun 2027 05:49:28.274   12 Jun 2027 05:49:30.344             2.070           497.406
       396   12 Jun 2027 07:10:46.989   12 Jun 2027 07:11:04.599            17.610          7973.375
       397   12 Jun 2027 07:12:22.771   12 Jun 2027 07:12:29.986             7.215          1465.531
       398   12 Jun 2027 07:12:37.255   12 Jun 2027 07:12:37.760             0.505           225.406
       399   12 Jun 2027 07:13:02.578   12 Jun 2027 07:13:02.578             0.000             0.000
       400   12 Jun 2027 07:14:14.221   12 Jun 2027 07:14:25.945            11.724          2927.250
       401   12 Jun 2027 07:15:06.004   12 Jun 2027 07:15:06.004             0.000             0.000
       402   12 Jun 2027 07:15:21.542   12 Jun 2027 07:15:26.044             4.502          1323.594
       403   12 Jun 2027 08:46:06.906   12 Jun 2027 08:46:12.651             5.745          2872.500
       404   12 Jun 2027 08:47:02.056   12 Jun 2027 08:47:02.056             0.000             0.000
       405   12 Jun 2027 08:47:38.942   12 Jun 2027 08:47:56.114            17.172          2649.438
       406   12 Jun 2027 08:48:58.532   12 Jun 2027 08:49:04.296             5.764          1888.625
       407   12 Jun 2027 08:49:39.888   12 Jun 2027 08:49:41.716             1.828           888.156
       408   12 Jun 2027 08:50:11.241   12 Jun 2027 08:50:16.566             5.325           350.438
       409   12 Jun 2027 08:50:47.950   12 Jun 2027 08:50:51.699             3.749           422.875
       410   12 Jun 2027 08:51:34.557   12 Jun 2027 08:51:38.044             3.487           942.594
       411   12 Jun 2027 10:22:37.188   12 Jun 2027 10:22:47.522            10.334          4191.844
       412   12 Jun 2027 10:24:34.678   12 Jun 2027 10:24:34.678             0.000             0.000
       413   12 Jun 2027 10:25:52.852   12 Jun 2027 10:26:03.409            10.557          5278.500
       414   12 Jun 2027 10:27:04.232   12 Jun 2027 10:27:10.396             6.164          2224.406
       415   12 Jun 2027 10:27:39.773   12 Jun 2027 10:27:40.559             0.786           393.000
       416   12 Jun 2027 10:28:42.533   12 Jun 2027 10:28:46.521             3.988          1994.000
       417   12 Jun 2027 10:28:50.483   12 Jun 2027 10:28:50.483             0.000             0.000
       418   12 Jun 2027 10:29:08.439   12 Jun 2027 10:29:11.153             2.714          1139.438
       419   12 Jun 2027 10:29:40.280   12 Jun 2027 10:29:44.881             4.601           707.406
       420   12 Jun 2027 11:59:41.794   12 Jun 2027 11:59:57.219            15.425          7712.500
       421   13 Jun 2027 04:23:39.465   13 Jun 2027 04:26:09.542           150.077         75038.500
       422   13 Jun 2027 04:26:54.309   13 Jun 2027 04:28:21.678            87.369         43684.500
       423   13 Jun 2027 04:28:51.459   13 Jun 2027 04:29:16.309            24.850         12425.000
       424   13 Jun 2027 04:30:13.339   13 Jun 2027 04:30:43.855            30.516         15258.000
       425   13 Jun 2027 05:47:54.760   13 Jun 2027 05:48:07.926            13.166          6583.000
       426   13 Jun 2027 05:49:54.238   13 Jun 2027 05:49:54.238             0.000             0.000
       427   13 Jun 2027 05:50:01.875   13 Jun 2027 05:50:03.777             1.902           951.000
       428   13 Jun 2027 06:00:07.072   13 Jun 2027 06:00:56.744            49.672         24706.156
       429   13 Jun 2027 07:22:23.028   13 Jun 2027 07:22:34.856            11.828          5265.906
       430   13 Jun 2027 07:23:28.620   13 Jun 2027 07:23:29.726             1.106           553.000
       431   13 Jun 2027 07:25:41.275   13 Jun 2027 07:25:48.828             7.553          3371.282
       432   13 Jun 2027 07:27:02.653   13 Jun 2027 07:27:02.653             0.000             0.000
       433   13 Jun 2027 08:57:16.456   13 Jun 2027 08:57:24.962             8.506          3825.938
       434   13 Jun 2027 08:58:16.138   13 Jun 2027 08:58:21.026             4.888          1267.844
       435   13 Jun 2027 08:59:40.719   13 Jun 2027 08:59:46.682             5.963          2401.062
       436   13 Jun 2027 09:00:56.551   13 Jun 2027 09:00:59.392             2.841          1057.656
       437   13 Jun 2027 09:02:35.954   13 Jun 2027 09:02:35.954             0.000             0.000
       438   13 Jun 2027 09:03:10.651   13 Jun 2027 09:03:12.166             1.515           757.500
       439   13 Jun 2027 09:03:50.664   13 Jun 2027 09:03:59.938             9.274          4547.406
       440   13 Jun 2027 09:05:20.810   13 Jun 2027 09:05:26.498             5.688          2202.156
       441   13 Jun 2027 10:34:50.442   13 Jun 2027 10:35:03.163            12.721          4457.063
       442   13 Jun 2027 10:35:31.573   13 Jun 2027 10:35:36.073             4.500           694.500
       443   13 Jun 2027 10:35:52.080   13 Jun 2027 10:35:53.546             1.466           500.219
       444   13 Jun 2027 10:36:18.462   13 Jun 2027 10:36:21.400             2.938           778.625
       445   13 Jun 2027 10:36:44.464   13 Jun 2027 10:36:50.231             5.767           720.750
       446   13 Jun 2027 10:37:35.829   13 Jun 2027 10:37:38.518             2.689           614.125
       447   13 Jun 2027 10:38:57.295   13 Jun 2027 10:39:02.214             4.919          2398.500
       448   13 Jun 2027 10:39:13.469   13 Jun 2027 10:39:14.597             1.128           252.062
       449   13 Jun 2027 10:39:19.682   13 Jun 2027 10:39:24.258             4.576           158.906
       450   13 Jun 2027 10:40:27.824   13 Jun 2027 10:40:31.052             3.228          1222.594
       451   13 Jun 2027 10:40:41.552   13 Jun 2027 10:40:52.227            10.675           328.125
       452   13 Jun 2027 10:41:16.734   13 Jun 2027 10:41:18.261             1.527           686.906
       453   13 Jun 2027 10:41:39.729   13 Jun 2027 10:41:39.729             0.000             0.000
       454   13 Jun 2027 10:42:01.349   13 Jun 2027 10:42:03.969             2.620          1189.000
       455   13 Jun 2027 10:42:10.548   13 Jun 2027 10:42:10.629             0.081            40.500
