uniorb/output/strategy_2/Camera/Camera_KinoSat_110309.txt

KinoSat_110309
-------------------------
    Access    *     Start Time (UTCG)     *     Stop Time (UTCG)  *   Duration (s) *   Data (Mbytes)
         1   01 Jun 2027 03:18:23.544   01 Jun 2027 03:18:29.104             5.560          2780.000
         2   01 Jun 2027 03:19:01.956   01 Jun 2027 03:19:03.348             1.392           696.000
         3   01 Jun 2027 03:19:49.921   01 Jun 2027 03:19:50.787             0.866           433.000
         4   01 Jun 2027 03:20:05.574   01 Jun 2027 03:20:08.182             2.608          1304.000
         5   01 Jun 2027 03:20:35.805   01 Jun 2027 03:20:50.389            14.584          7292.000
         6   01 Jun 2027 03:21:40.344   01 Jun 2027 03:21:43.014             2.670          1335.000
         7   01 Jun 2027 03:22:37.858   01 Jun 2027 03:22:41.546             3.688          1844.000
         8   01 Jun 2027 03:22:51.670   01 Jun 2027 03:22:55.391             3.721          1860.500
         9   01 Jun 2027 03:23:16.805   01 Jun 2027 03:23:25.049             8.244          4122.000
        10   01 Jun 2027 03:23:37.882   01 Jun 2027 03:23:39.214             1.332           666.000
        11   01 Jun 2027 03:24:06.441   01 Jun 2027 03:24:09.348             2.907          1453.500
        12   01 Jun 2027 03:24:22.641   01 Jun 2027 03:24:25.654             3.013          1506.500
        13   01 Jun 2027 03:24:58.820   01 Jun 2027 03:25:08.315             9.495          4747.500
        14   01 Jun 2027 04:54:31.693   01 Jun 2027 04:54:53.477            21.784         10892.000
        15   01 Jun 2027 04:55:35.565   01 Jun 2027 04:55:43.425             7.860          3930.000
        16   01 Jun 2027 04:55:55.325   01 Jun 2027 04:55:58.760             3.435          1717.500
        17   01 Jun 2027 04:56:57.512   01 Jun 2027 04:57:00.593             3.081          1540.500
        18   01 Jun 2027 04:57:16.192   01 Jun 2027 04:57:23.975             7.783          3891.500
        19   01 Jun 2027 04:58:44.414   01 Jun 2027 04:58:45.782             1.368           684.000
        20   01 Jun 2027 04:59:10.582   01 Jun 2027 04:59:13.647             3.065          1532.500
        21   01 Jun 2027 04:59:15.278   01 Jun 2027 04:59:24.190             8.912          4456.000
        22   01 Jun 2027 04:59:57.179   01 Jun 2027 05:00:08.999            11.820          5910.000
        23   01 Jun 2027 06:32:15.941   01 Jun 2027 06:32:25.195             9.254          4627.000
        24   01 Jun 2027 06:33:20.536   01 Jun 2027 06:33:23.170             2.634          1317.000
        25   01 Jun 2027 06:33:42.514   01 Jun 2027 06:33:48.121             5.607          2803.500
        26   01 Jun 2027 06:34:13.749   01 Jun 2027 06:34:15.166             1.417           708.500
        27   01 Jun 2027 06:34:39.482   01 Jun 2027 06:34:41.467             1.985           992.500
        28   01 Jun 2027 06:35:21.512   01 Jun 2027 06:35:24.553             3.041          1520.500
        29   01 Jun 2027 06:35:58.493   01 Jun 2027 06:36:01.788             3.295          1647.500
        30   01 Jun 2027 06:36:30.709   01 Jun 2027 06:36:31.129             0.420           210.000
        31   01 Jun 2027 08:08:21.397   01 Jun 2027 08:08:23.542             2.145          1072.500
        32   01 Jun 2027 08:09:11.290   01 Jun 2027 08:09:14.863             3.573          1786.500
        33   01 Jun 2027 08:09:38.466   01 Jun 2027 08:09:49.376            10.910          5455.000
        34   01 Jun 2027 08:10:48.724   01 Jun 2027 08:10:57.601             8.877          4438.500
        35   01 Jun 2027 08:12:14.243   01 Jun 2027 08:12:22.613             8.370          4185.000
        36   02 Jun 2027 03:30:40.994   02 Jun 2027 03:30:42.111             1.117           558.500
        37   02 Jun 2027 03:31:33.310   02 Jun 2027 03:31:35.111             1.801           900.500
        38   02 Jun 2027 03:31:49.511   02 Jun 2027 03:31:51.283             1.772           886.000
        39   02 Jun 2027 03:32:10.949   02 Jun 2027 03:32:13.646             2.697          1348.500
        40   02 Jun 2027 03:32:29.828   02 Jun 2027 03:32:29.836             0.008             4.000
        41   02 Jun 2027 03:32:30.789   02 Jun 2027 03:32:31.551             0.762           381.000
        42   02 Jun 2027 03:32:51.507   02 Jun 2027 03:32:53.295             1.788           894.000
        43   02 Jun 2027 03:33:29.978   02 Jun 2027 03:33:33.702             3.724          1862.000
        44   02 Jun 2027 03:33:45.333   02 Jun 2027 03:33:49.509             4.176          2088.000
        45   02 Jun 2027 03:33:59.382   02 Jun 2027 03:34:02.305             2.923          1461.500
        46   02 Jun 2027 03:34:26.280   02 Jun 2027 03:34:32.236             5.956          2978.000
        47   02 Jun 2027 03:35:06.281   02 Jun 2027 03:35:06.404             0.123            61.500
        48   02 Jun 2027 03:35:34.939   02 Jun 2027 03:35:40.113             5.174          2587.000
        49   02 Jun 2027 03:36:08.687   02 Jun 2027 03:36:09.254             0.567           283.500
        50   02 Jun 2027 03:36:56.203   02 Jun 2027 03:36:58.378             2.175          1087.500
        51   02 Jun 2027 03:37:12.251   02 Jun 2027 03:37:17.116             4.865          2432.500
        52   02 Jun 2027 05:07:04.071   02 Jun 2027 05:07:35.189            31.118         15559.000
        53   02 Jun 2027 05:10:06.132   02 Jun 2027 05:10:10.308             4.176          2088.000
        54   02 Jun 2027 05:10:39.056   02 Jun 2027 05:10:39.265             0.209           104.500
        55   02 Jun 2027 05:11:03.549   02 Jun 2027 05:11:18.727            15.178          7589.000
        56   02 Jun 2027 05:12:43.862   02 Jun 2027 05:12:57.277            13.415          6707.500
        57   02 Jun 2027 06:44:21.229   02 Jun 2027 06:44:25.381             4.152          2076.000
        58   02 Jun 2027 06:45:08.517   02 Jun 2027 06:45:12.937             4.420          2210.000
        59   02 Jun 2027 06:45:49.470   02 Jun 2027 06:45:50.700             1.230           615.000
        60   02 Jun 2027 06:46:15.266   02 Jun 2027 06:46:20.459             5.193          2596.500
        61   02 Jun 2027 06:46:51.974   02 Jun 2027 06:46:57.026             5.052          2526.000
        62   02 Jun 2027 06:47:29.495   02 Jun 2027 06:47:34.740             5.245          2622.500
        63   02 Jun 2027 06:48:34.913   02 Jun 2027 06:48:45.102            10.189          5094.500
        64   02 Jun 2027 08:20:34.204   02 Jun 2027 08:20:35.455             1.251           625.500
        65   02 Jun 2027 08:20:48.009   02 Jun 2027 08:20:53.626             5.617          2808.500
        66   02 Jun 2027 08:21:42.838   02 Jun 2027 08:21:44.799             1.961           980.500
        67   02 Jun 2027 08:22:11.096   02 Jun 2027 08:22:22.356            11.260          5630.000
        68   02 Jun 2027 08:24:10.028   02 Jun 2027 08:24:19.106             9.078          4539.000
        69   02 Jun 2027 08:24:58.612   02 Jun 2027 08:25:00.784             2.172          1086.000
        70   02 Jun 2027 08:25:15.470   02 Jun 2027 08:25:18.138             2.668          1334.000
        71   03 Jun 2027 03:42:18.799   03 Jun 2027 03:42:25.243             6.444          3222.000
        72   03 Jun 2027 03:42:38.323   03 Jun 2027 03:43:04.611            26.288         13144.000
        73   03 Jun 2027 03:45:40.054   03 Jun 2027 03:45:41.729             1.675           837.500
        74   03 Jun 2027 03:45:51.125   03 Jun 2027 03:45:55.354             4.229          2114.500
        75   03 Jun 2027 03:46:05.487   03 Jun 2027 03:46:05.675             0.188            94.000
        76   03 Jun 2027 03:46:14.090   03 Jun 2027 03:46:14.714             0.624           312.000
        77   03 Jun 2027 03:46:18.901   03 Jun 2027 03:46:19.139             0.238           119.000
        78   03 Jun 2027 03:46:50.857   03 Jun 2027 03:46:58.041             7.184          3592.000
        79   03 Jun 2027 03:47:39.097   03 Jun 2027 03:47:43.759             4.662          2331.000
        80   03 Jun 2027 03:48:16.442   03 Jun 2027 03:48:36.073            19.631          9815.500
        81   03 Jun 2027 05:18:38.299   03 Jun 2027 05:18:42.677             4.378          2189.000
        82   03 Jun 2027 05:19:14.841   03 Jun 2027 05:19:33.635            18.794          9397.000
        83   03 Jun 2027 05:20:47.883   03 Jun 2027 05:20:47.940             0.057            28.500
        84   03 Jun 2027 05:20:50.617   03 Jun 2027 05:21:02.509            11.892          5946.000
        85   03 Jun 2027 05:22:23.337   03 Jun 2027 05:22:25.582             2.245          1122.500
        86   03 Jun 2027 05:22:27.759   03 Jun 2027 05:22:31.287             3.528          1764.000
        87   03 Jun 2027 05:23:20.463   03 Jun 2027 05:23:24.866             4.403          2201.500
        88   03 Jun 2027 05:23:54.947   03 Jun 2027 05:24:04.327             9.380          4690.000
        89   03 Jun 2027 06:56:54.240   03 Jun 2027 06:57:09.293            15.053          7526.500
        90   03 Jun 2027 06:58:15.886   03 Jun 2027 06:58:16.849             0.963           481.500
        91   03 Jun 2027 06:58:46.738   03 Jun 2027 06:58:49.925             3.187          1593.500
        92   03 Jun 2027 06:59:07.777   03 Jun 2027 06:59:08.351             0.574           287.000
        93   03 Jun 2027 06:59:23.985   03 Jun 2027 06:59:28.628             4.643          2321.500
        94   03 Jun 2027 07:00:14.351   03 Jun 2027 07:00:15.843             1.492           746.000
        95   03 Jun 2027 08:32:14.845   03 Jun 2027 08:32:21.808             6.963          3481.500
        96   03 Jun 2027 08:33:27.778   03 Jun 2027 08:33:33.789             6.011          3005.500
        97   03 Jun 2027 08:34:21.752   03 Jun 2027 08:34:24.344             2.592          1296.000
        98   03 Jun 2027 08:34:55.653   03 Jun 2027 08:35:10.748            15.095          7547.500
        99   03 Jun 2027 08:36:13.769   03 Jun 2027 08:36:20.096             6.327          3163.500
       100   03 Jun 2027 08:36:46.866   03 Jun 2027 08:36:51.369             4.503          2251.500
       101   03 Jun 2027 08:37:02.829   03 Jun 2027 08:37:10.783             7.954          3977.000
       102   04 Jun 2027 03:53:52.342   04 Jun 2027 03:53:55.065             2.723          1361.500
       103   04 Jun 2027 03:54:17.803   04 Jun 2027 03:54:20.246             2.443          1221.500
       104   04 Jun 2027 03:54:30.135   04 Jun 2027 03:54:32.579             2.444          1222.000
       105   04 Jun 2027 03:54:52.325   04 Jun 2027 03:55:09.261            16.936          8468.000
       106   04 Jun 2027 03:55:55.361   04 Jun 2027 03:55:56.201             0.840           420.000
       107   04 Jun 2027 03:56:33.414   04 Jun 2027 03:56:41.306             7.892          3946.000
       108   04 Jun 2027 03:58:11.577   04 Jun 2027 03:58:12.230             0.653           326.500
       109   04 Jun 2027 03:58:45.155   04 Jun 2027 03:58:48.212             3.057          1528.500
       110   04 Jun 2027 03:59:36.945   04 Jun 2027 03:59:40.502             3.557          1778.500
       111   04 Jun 2027 04:00:09.701   04 Jun 2027 04:00:10.371             0.670           335.000
       112   04 Jun 2027 04:00:14.788   04 Jun 2027 04:00:24.515             9.727          4863.500
       113   04 Jun 2027 04:01:04.375   04 Jun 2027 04:01:06.323             1.948           974.000
       114   04 Jun 2027 05:30:58.234   04 Jun 2027 05:31:01.823             3.589          1794.500
       115   04 Jun 2027 05:31:23.403   04 Jun 2027 05:31:38.843            15.440          7720.000
       116   04 Jun 2027 05:32:44.552   04 Jun 2027 05:32:49.132             4.580          2290.000
       117   04 Jun 2027 05:33:17.847   04 Jun 2027 05:33:25.469             7.622          3811.000
       118   04 Jun 2027 05:34:19.418   04 Jun 2027 05:34:22.560             3.142          1571.000
       119   04 Jun 2027 05:34:44.821   04 Jun 2027 05:34:57.446            12.625          6312.500
       120   04 Jun 2027 05:35:50.160   04 Jun 2027 05:35:54.969             4.809          2404.500
       121   04 Jun 2027 05:37:03.357   04 Jun 2027 05:37:09.283             5.926          2963.000
       122   04 Jun 2027 07:08:56.479   04 Jun 2027 07:09:05.322             8.843          4421.500
       123   04 Jun 2027 07:09:41.288   04 Jun 2027 07:10:03.885            22.597         11298.500
       124   04 Jun 2027 07:11:28.125   04 Jun 2027 07:11:28.986             0.861           430.500
       125   04 Jun 2027 07:11:52.738   04 Jun 2027 07:11:54.435             1.697           848.500
       126   04 Jun 2027 07:12:19.118   04 Jun 2027 07:12:25.163             6.045          3022.500
       127   04 Jun 2027 08:42:05.335   04 Jun 2027 08:42:34.583            29.248         14624.000
       128   04 Jun 2027 08:44:59.832   04 Jun 2027 08:45:11.712            11.880          5940.000
       129   04 Jun 2027 08:46:06.251   04 Jun 2027 08:46:12.076             5.825          2912.500
       130   04 Jun 2027 08:47:19.363   04 Jun 2027 08:47:24.272             4.909          2454.500
       131   04 Jun 2027 08:48:00.668   04 Jun 2027 08:48:02.050             1.382           691.000
       132   04 Jun 2027 08:48:14.240   04 Jun 2027 08:48:15.086             0.846           423.000
       133   04 Jun 2027 08:48:33.158   04 Jun 2027 08:48:39.176             6.018          3009.000
       134   04 Jun 2027 08:49:03.547   04 Jun 2027 08:49:17.384            13.837          6918.500
       135   04 Jun 2027 08:49:56.307   04 Jun 2027 08:50:01.614             5.307          2653.500
       136   05 Jun 2027 04:06:11.920   05 Jun 2027 04:06:22.582            10.662          5331.000
       137   05 Jun 2027 04:07:20.514   05 Jun 2027 04:07:26.248             5.734          2867.000
       138   05 Jun 2027 04:08:01.606   05 Jun 2027 04:08:19.499            17.893          8946.500
       139   05 Jun 2027 04:09:40.256   05 Jun 2027 04:09:43.354             3.098          1549.000
       140   05 Jun 2027 04:10:05.381   05 Jun 2027 04:10:05.472             0.091            45.500
       141   05 Jun 2027 04:10:11.048   05 Jun 2027 04:10:17.837             6.789          3394.500
       142   05 Jun 2027 04:10:46.268   05 Jun 2027 04:10:50.032             3.764          1882.000
       143   05 Jun 2027 04:11:37.321   05 Jun 2027 04:11:44.400             7.079          3539.500
       144   05 Jun 2027 04:12:12.187   05 Jun 2027 04:12:12.187             0.000             0.000
       145   05 Jun 2027 04:12:17.445   05 Jun 2027 04:12:24.568             7.123          3561.500
       146   05 Jun 2027 04:12:49.712   05 Jun 2027 04:12:49.712             0.000             0.000
       147   05 Jun 2027 04:13:12.222   05 Jun 2027 04:13:26.263            14.041          7020.500
       148   05 Jun 2027 04:13:30.326   05 Jun 2027 04:13:30.799             0.473           236.500
       149   05 Jun 2027 05:42:59.636   05 Jun 2027 05:43:13.678            14.042          7021.000
       150   05 Jun 2027 05:44:12.090   05 Jun 2027 05:44:37.787            25.697         12848.500
       151   05 Jun 2027 05:46:27.734   05 Jun 2027 05:46:32.778             5.044          2522.000
       152   05 Jun 2027 05:47:36.171   05 Jun 2027 05:47:45.969             9.798          4899.000
       153   05 Jun 2027 05:48:29.433   05 Jun 2027 05:48:41.988            12.555          6277.500
       154   05 Jun 2027 05:49:15.516   05 Jun 2027 05:49:19.190             3.674          1837.000
       155   05 Jun 2027 07:20:56.730   05 Jun 2027 07:21:10.770            14.040          7020.000
       156   05 Jun 2027 07:22:08.958   05 Jun 2027 07:22:15.234             6.276          3138.000
       157   05 Jun 2027 07:23:21.175   05 Jun 2027 07:23:21.815             0.640           320.000
       158   05 Jun 2027 07:23:40.347   05 Jun 2027 07:23:42.827             2.480          1240.000
       159   05 Jun 2027 07:23:58.061   05 Jun 2027 07:24:02.496             4.435          2217.500
       160   05 Jun 2027 08:54:32.481   05 Jun 2027 08:54:47.579            15.098          7549.000
       161   05 Jun 2027 08:55:09.168   05 Jun 2027 08:55:30.466            21.298         10649.000
       162   05 Jun 2027 08:58:16.537   05 Jun 2027 08:58:26.915            10.378          5189.000
       163   05 Jun 2027 08:59:50.493   05 Jun 2027 08:59:50.805             0.312           156.000
       164   05 Jun 2027 09:00:09.016   05 Jun 2027 09:00:14.351             5.335          2667.500
       165   05 Jun 2027 09:01:15.394   05 Jun 2027 09:01:28.119            12.725          6362.500
       166   05 Jun 2027 09:01:45.188   05 Jun 2027 09:01:45.188             0.000             0.000
       167   06 Jun 2027 04:18:05.756   06 Jun 2027 04:18:12.476             6.720          3360.000
       168   06 Jun 2027 04:18:45.478   06 Jun 2027 04:18:55.592            10.114          5057.000
       169   06 Jun 2027 04:20:22.321   06 Jun 2027 04:20:27.900             5.579          2789.500
       170   06 Jun 2027 04:21:34.215   06 Jun 2027 04:21:39.528             5.313          2656.500
       171   06 Jun 2027 04:22:13.932   06 Jun 2027 04:22:19.439             5.507          2753.500
       172   06 Jun 2027 04:22:52.969   06 Jun 2027 04:22:58.607             5.638          2819.000
       173   06 Jun 2027 04:24:26.438   06 Jun 2027 04:24:38.121            11.683          5841.500
       174   06 Jun 2027 04:25:16.486   06 Jun 2027 04:25:16.486             0.000             0.000
       175   06 Jun 2027 05:54:50.229   06 Jun 2027 05:54:59.200             8.971          4485.500
       176   06 Jun 2027 05:55:03.158   06 Jun 2027 05:55:20.615            17.457          8728.500
       177   06 Jun 2027 05:57:04.398   06 Jun 2027 05:57:17.501            13.103          6551.500
       178   06 Jun 2027 05:57:38.993   06 Jun 2027 05:57:48.516             9.523          4761.500
       179   06 Jun 2027 05:59:05.517   06 Jun 2027 05:59:11.482             5.965          2982.500
       180   06 Jun 2027 06:00:12.218   06 Jun 2027 06:00:12.708             0.490           245.000
       181   06 Jun 2027 06:00:50.779   06 Jun 2027 06:01:11.095            20.316         10158.000
       182   06 Jun 2027 07:32:58.823   06 Jun 2027 07:33:01.535             2.712          1356.000
       183   06 Jun 2027 07:33:19.449   06 Jun 2027 07:33:35.455            16.006          8003.000
       184   06 Jun 2027 07:34:39.510   06 Jun 2027 07:34:43.310             3.800          1900.000
       185   06 Jun 2027 07:35:04.517   06 Jun 2027 07:35:08.650             4.133          2066.500
       186   06 Jun 2027 07:35:09.494   06 Jun 2027 07:35:18.593             9.099          4549.500
       187   06 Jun 2027 07:36:45.653   06 Jun 2027 07:37:01.446            15.793          7896.500
       188   06 Jun 2027 09:06:49.526   06 Jun 2027 09:06:59.438             9.912          4956.000
       189   06 Jun 2027 09:07:39.579   06 Jun 2027 09:07:48.896             9.317          4658.500
       190   06 Jun 2027 09:08:32.689   06 Jun 2027 09:08:41.995             9.306          4653.000
       191   06 Jun 2027 09:09:55.689   06 Jun 2027 09:09:59.243             3.554          1777.000
       192   06 Jun 2027 09:10:28.394   06 Jun 2027 09:10:28.622             0.228           114.000
       193   06 Jun 2027 09:11:12.145   06 Jun 2027 09:11:19.288             7.143          3571.500
       194   06 Jun 2027 09:11:59.740   06 Jun 2027 09:12:05.281             5.541          2770.500
       195   06 Jun 2027 09:12:29.474   06 Jun 2027 09:12:32.097             2.623          1311.500
       196   06 Jun 2027 09:12:37.299   06 Jun 2027 09:12:45.135             7.836          3918.000
       197   07 Jun 2027 03:00:00.000   07 Jun 2027 03:00:06.337             6.337          3168.500
       198   07 Jun 2027 03:00:36.743   07 Jun 2027 03:00:44.087             7.344          3672.000
       199   07 Jun 2027 03:01:31.261   07 Jun 2027 03:01:35.238             3.977          1988.500
       200   07 Jun 2027 04:30:12.607   07 Jun 2027 04:30:35.353            22.746         11373.000
       201   07 Jun 2027 04:31:25.416   07 Jun 2027 04:31:33.512             8.096          4048.000
       202   07 Jun 2027 04:33:18.824   07 Jun 2027 04:33:24.196             5.372          2686.000
       203   07 Jun 2027 04:33:57.000   07 Jun 2027 04:33:59.798             2.798          1399.000
       204   07 Jun 2027 04:34:13.423   07 Jun 2027 04:34:16.880             3.457          1728.500
       205   07 Jun 2027 04:34:34.215   07 Jun 2027 04:34:34.864             0.649           324.500
       206   07 Jun 2027 04:34:52.863   07 Jun 2027 04:35:01.717             8.854          4427.000
       207   07 Jun 2027 04:36:02.167   07 Jun 2027 04:36:03.826             1.659           829.500
       208   07 Jun 2027 04:37:01.321   07 Jun 2027 04:37:05.762             4.441          2220.500
       209   07 Jun 2027 06:07:15.518   07 Jun 2027 06:07:20.316             4.798          2399.000
       210   07 Jun 2027 06:07:29.373   07 Jun 2027 06:07:29.521             0.148            74.000
       211   07 Jun 2027 06:08:46.048   07 Jun 2027 06:08:50.776             4.728          2364.000
       212   07 Jun 2027 06:09:18.535   07 Jun 2027 06:09:20.578             2.043          1021.500
       213   07 Jun 2027 06:09:37.668   07 Jun 2027 06:09:40.153             2.485          1242.500
       214   07 Jun 2027 06:10:27.869   07 Jun 2027 06:10:31.497             3.628          1814.000
       215   07 Jun 2027 06:11:14.619   07 Jun 2027 06:11:16.816             2.197          1098.500
       216   07 Jun 2027 06:11:45.998   07 Jun 2027 06:11:49.812             3.814          1907.000
       217   07 Jun 2027 06:12:10.621   07 Jun 2027 06:12:35.471            24.850         12425.000
       218   07 Jun 2027 07:44:12.232   07 Jun 2027 07:44:12.270             0.038            19.000
       219   07 Jun 2027 07:44:23.215   07 Jun 2027 07:44:23.219             0.004             2.000
       220   07 Jun 2027 07:44:41.789   07 Jun 2027 07:44:48.955             7.166          3583.000
       221   07 Jun 2027 07:45:33.339   07 Jun 2027 07:45:36.344             3.005          1502.500
       222   07 Jun 2027 07:46:10.934   07 Jun 2027 07:46:12.279             1.345           672.500
       223   07 Jun 2027 07:46:37.003   07 Jun 2027 07:46:51.839            14.836          7418.000
       224   07 Jun 2027 07:47:59.953   07 Jun 2027 07:48:01.895             1.942           971.000
       225   07 Jun 2027 07:48:39.353   07 Jun 2027 07:48:56.164            16.811          8405.500
       226   07 Jun 2027 09:19:16.637   07 Jun 2027 09:19:18.248             1.611           805.500
       227   07 Jun 2027 09:20:56.233   07 Jun 2027 09:20:57.172             0.939           469.500
       228   07 Jun 2027 09:22:43.428   07 Jun 2027 09:22:50.041             6.613          3306.500
       229   07 Jun 2027 09:23:38.893   07 Jun 2027 09:23:41.087             2.194          1097.000
       230   07 Jun 2027 09:23:55.198   07 Jun 2027 09:23:57.713             2.515          1257.500
       231   08 Jun 2027 03:03:45.723   08 Jun 2027 03:04:00.416            14.693          7346.500
       232   08 Jun 2027 03:05:09.973   08 Jun 2027 03:05:15.717             5.744          2872.000
       233   08 Jun 2027 03:05:52.476   08 Jun 2027 03:06:02.134             9.658          4829.000
       234   08 Jun 2027 03:06:45.313   08 Jun 2027 03:06:59.497            14.184          7092.000
       235   08 Jun 2027 03:08:07.117   08 Jun 2027 03:08:09.950             2.833          1416.500
       236   08 Jun 2027 03:09:04.477   08 Jun 2027 03:09:07.079             2.602          1301.000
       237   08 Jun 2027 03:09:46.174   08 Jun 2027 03:09:50.706             4.532          2266.000
       238   08 Jun 2027 03:11:02.613   08 Jun 2027 03:11:14.130            11.517          5758.500
       239   08 Jun 2027 03:12:48.646   08 Jun 2027 03:12:55.007             6.361          3180.500
       240   08 Jun 2027 03:13:17.849   08 Jun 2027 03:13:25.097             7.248          3624.000
       241   08 Jun 2027 04:42:38.885   08 Jun 2027 04:42:43.505             4.620          2310.000
       242   08 Jun 2027 04:42:50.124   08 Jun 2027 04:42:50.826             0.702           351.000
       243   08 Jun 2027 04:43:16.599   08 Jun 2027 04:44:01.420            44.821         22410.500
       244   08 Jun 2027 04:47:04.796   08 Jun 2027 04:47:06.665             1.869           934.500
       245   08 Jun 2027 04:47:18.250   08 Jun 2027 04:47:39.441            21.191         10595.500
       246   08 Jun 2027 04:49:07.903   08 Jun 2027 04:49:20.001            12.098          6049.000
       247   08 Jun 2027 06:19:35.589   08 Jun 2027 06:19:48.659            13.070          6535.000
       248   08 Jun 2027 06:19:55.201   08 Jun 2027 06:19:59.181             3.980          1990.000
       249   08 Jun 2027 06:20:13.771   08 Jun 2027 06:20:34.211            20.440         10220.000
       250   08 Jun 2027 06:22:45.333   08 Jun 2027 06:22:51.208             5.875          2937.500
       251   08 Jun 2027 06:23:27.430   08 Jun 2027 06:23:31.027             3.597          1798.500
       252   08 Jun 2027 06:23:47.570   08 Jun 2027 06:23:50.381             2.811          1405.500
       253   08 Jun 2027 06:24:33.695   08 Jun 2027 06:24:43.115             9.420          4710.000
       254   08 Jun 2027 07:56:25.679   08 Jun 2027 07:56:42.124            16.445          8222.500
       255   08 Jun 2027 07:58:06.100   08 Jun 2027 07:58:08.803             2.703          1351.500
       256   08 Jun 2027 07:59:02.514   08 Jun 2027 07:59:05.792             3.278          1639.000
       257   08 Jun 2027 08:00:33.778   08 Jun 2027 08:00:38.183             4.405          2202.500
       258   08 Jun 2027 09:34:31.412   08 Jun 2027 09:34:31.602             0.190            95.000
       259   08 Jun 2027 09:34:34.349   08 Jun 2027 09:34:56.754            22.405         11202.500
       260   09 Jun 2027 03:18:38.338   09 Jun 2027 03:18:45.448             7.110          3555.000
       261   09 Jun 2027 03:19:17.915   09 Jun 2027 03:19:27.055             9.140          4570.000
       262   09 Jun 2027 03:20:08.666   09 Jun 2027 03:20:13.745             5.079          2539.500
       263   09 Jun 2027 03:20:52.377   09 Jun 2027 03:20:58.919             6.542          3271.000
       264   09 Jun 2027 03:21:35.269   09 Jun 2027 03:21:40.425             5.156          2578.000
       265   09 Jun 2027 03:22:17.414   09 Jun 2027 03:22:25.616             8.202          4101.000
       266   09 Jun 2027 03:23:39.475   09 Jun 2027 03:23:54.884            15.409          7704.500
       267   09 Jun 2027 03:24:37.788   09 Jun 2027 03:24:37.788             0.000             0.000
       268   09 Jun 2027 03:25:26.597   09 Jun 2027 03:25:31.233             4.636          2318.000
       269   09 Jun 2027 04:54:47.989   09 Jun 2027 04:54:52.733             4.744          2372.000
       270   09 Jun 2027 04:55:57.964   09 Jun 2027 04:56:10.820            12.856          6428.000
       271   09 Jun 2027 04:57:03.331   09 Jun 2027 04:57:05.504             2.173          1086.500
       272   09 Jun 2027 04:57:39.757   09 Jun 2027 04:57:47.051             7.294          3647.000
       273   09 Jun 2027 04:58:09.220   09 Jun 2027 04:58:19.550            10.330          5165.000
       274   09 Jun 2027 04:59:56.467   09 Jun 2027 05:00:04.365             7.898          3949.000
       275   09 Jun 2027 05:00:46.994   09 Jun 2027 05:00:58.917            11.923          5961.500
       276   09 Jun 2027 06:32:31.127   09 Jun 2027 06:32:39.771             8.644          4322.000
       277   09 Jun 2027 06:33:34.513   09 Jun 2027 06:33:35.217             0.704           352.000
       278   09 Jun 2027 06:34:30.113   09 Jun 2027 06:34:43.236            13.123          6561.500
       279   09 Jun 2027 06:35:55.714   09 Jun 2027 06:35:57.815             2.101          1050.500
       280   09 Jun 2027 06:36:09.146   09 Jun 2027 06:36:14.860             5.714          2857.000
       281   09 Jun 2027 06:36:44.798   09 Jun 2027 06:36:45.399             0.601           300.500
       282   09 Jun 2027 08:08:36.342   09 Jun 2027 08:08:37.925             1.583           791.500
       283   09 Jun 2027 08:08:53.938   09 Jun 2027 08:08:55.491             1.553           776.500
       284   09 Jun 2027 08:09:20.779   09 Jun 2027 08:09:28.538             7.759          3879.500
       285   09 Jun 2027 08:09:55.243   09 Jun 2027 08:09:55.243             0.000             0.000
       286   09 Jun 2027 08:10:11.718   09 Jun 2027 08:10:13.193             1.475           737.500
       287   09 Jun 2027 08:10:26.182   09 Jun 2027 08:10:27.224             1.042           521.000
       288   09 Jun 2027 08:10:52.070   09 Jun 2027 08:10:55.425             3.355          1677.500
       289   09 Jun 2027 08:11:12.203   09 Jun 2027 08:11:30.330            18.127          9063.500
       290   09 Jun 2027 08:12:24.742   09 Jun 2027 08:12:28.905             4.163          2081.500
       291   10 Jun 2027 03:30:55.843   10 Jun 2027 03:30:57.010             1.167           583.500
       292   10 Jun 2027 03:31:47.824   10 Jun 2027 03:31:49.787             1.963           981.500
       293   10 Jun 2027 03:32:04.192   10 Jun 2027 03:32:07.235             3.043          1521.500
       294   10 Jun 2027 03:32:26.504   10 Jun 2027 03:32:30.337             3.833          1916.500
       295   10 Jun 2027 03:32:45.940   10 Jun 2027 03:32:46.555             0.615           307.500
       296   10 Jun 2027 03:33:06.515   10 Jun 2027 03:33:09.738             3.223          1611.500
       297   10 Jun 2027 03:34:04.423   10 Jun 2027 03:34:15.209            10.786          5393.000
       298   10 Jun 2027 03:35:24.990   10 Jun 2027 03:35:32.308             7.318          3659.000
       299   10 Jun 2027 03:36:01.890   10 Jun 2027 03:36:06.266             4.376          2188.000
       300   10 Jun 2027 03:36:35.477   10 Jun 2027 03:36:39.534             4.057          2028.500
       301   10 Jun 2027 03:37:05.797   10 Jun 2027 03:37:11.421             5.624          2812.000
       302   10 Jun 2027 03:37:19.666   10 Jun 2027 03:37:23.890             4.224          2112.000
       303   10 Jun 2027 03:37:27.922   10 Jun 2027 03:37:31.796             3.874          1937.000
       304   10 Jun 2027 05:07:18.384   10 Jun 2027 05:07:49.552            31.168         15584.000
       305   10 Jun 2027 05:10:19.495   10 Jun 2027 05:10:21.201             1.706           853.000
       306   10 Jun 2027 05:11:19.315   10 Jun 2027 05:11:36.088            16.773          8386.500
       307   10 Jun 2027 05:13:02.479   10 Jun 2027 05:13:11.763             9.284          4642.000
       308   10 Jun 2027 06:44:35.887   10 Jun 2027 06:44:39.831             3.944          1972.000
       309   10 Jun 2027 06:45:22.686   10 Jun 2027 06:45:30.523             7.837          3918.500
       310   10 Jun 2027 06:46:05.005   10 Jun 2027 06:46:08.156             3.151          1575.500
       311   10 Jun 2027 06:46:22.172   10 Jun 2027 06:46:29.921             7.749          3874.500
       312   10 Jun 2027 06:47:10.719   10 Jun 2027 06:47:12.163             1.444           722.000
       313   10 Jun 2027 06:47:30.582   10 Jun 2027 06:47:34.859             4.277          2138.500
       314   10 Jun 2027 06:48:04.011   10 Jun 2027 06:48:07.028             3.017          1508.500
       315   10 Jun 2027 06:48:33.123   10 Jun 2027 06:48:37.217             4.094          2047.000
       316   10 Jun 2027 06:49:10.822   10 Jun 2027 06:49:12.755             1.933           966.500
       317   10 Jun 2027 08:20:48.718   10 Jun 2027 08:20:50.473             1.755           877.500
       318   10 Jun 2027 08:21:02.551   10 Jun 2027 08:21:05.351             2.800          1400.000
       319   10 Jun 2027 08:21:22.555   10 Jun 2027 08:21:22.804             0.249           124.500
       320   10 Jun 2027 08:22:01.787   10 Jun 2027 08:22:07.602             5.815          2907.500
       321   10 Jun 2027 08:23:53.143   10 Jun 2027 08:23:53.364             0.221           110.500
       322   10 Jun 2027 08:24:17.019   10 Jun 2027 08:24:20.607             3.588          1794.000
       323   10 Jun 2027 08:24:48.120   10 Jun 2027 08:24:51.045             2.925          1462.500
       324   10 Jun 2027 08:25:14.454   10 Jun 2027 08:25:22.140             7.686          3843.000
       325   11 Jun 2027 03:42:32.954   11 Jun 2027 03:42:34.703             1.749           874.500
       326   11 Jun 2027 03:42:53.389   11 Jun 2027 03:43:19.555            26.166         13083.000
       327   11 Jun 2027 03:45:54.703   11 Jun 2027 03:46:06.054            11.351          5675.500
       328   11 Jun 2027 03:47:02.760   11 Jun 2027 03:47:05.368             2.608          1304.000
       329   11 Jun 2027 03:47:10.055   11 Jun 2027 03:47:12.718             2.663          1331.500
       330   11 Jun 2027 03:47:34.862   11 Jun 2027 03:47:53.817            18.955          9477.500
       331   11 Jun 2027 03:48:25.831   11 Jun 2027 03:48:25.831             0.000             0.000
       332   11 Jun 2027 03:49:10.456   11 Jun 2027 03:49:14.918             4.462          2231.000
       333   11 Jun 2027 05:18:52.928   11 Jun 2027 05:18:55.821             2.893          1446.500
       334   11 Jun 2027 05:19:05.822   11 Jun 2027 05:19:09.365             3.543          1771.500
       335   11 Jun 2027 05:19:29.243   11 Jun 2027 05:19:29.389             0.146            73.000
       336   11 Jun 2027 05:19:49.163   11 Jun 2027 05:19:58.144             8.981          4490.500
       337   11 Jun 2027 05:20:38.952   11 Jun 2027 05:20:50.096            11.144          5572.000
       338   11 Jun 2027 05:21:33.833   11 Jun 2027 05:21:50.105            16.272          8136.000
       339   11 Jun 2027 05:23:20.231   11 Jun 2027 05:23:35.081            14.850          7425.000
       340   11 Jun 2027 05:25:00.894   11 Jun 2027 05:25:15.273            14.379          7189.500
       341   11 Jun 2027 06:57:09.323   11 Jun 2027 06:57:24.357            15.034          7517.000
       342   11 Jun 2027 06:58:33.364   11 Jun 2027 06:58:39.877             6.513          3256.500
       343   11 Jun 2027 06:59:23.191   11 Jun 2027 06:59:38.682            15.491          7745.500
       344   11 Jun 2027 06:59:58.997   11 Jun 2027 07:00:00.568             1.571           785.500
       345   11 Jun 2027 07:00:11.899   11 Jun 2027 07:00:11.899             0.000             0.000
       346   11 Jun 2027 08:32:29.899   11 Jun 2027 08:32:36.667             6.768          3384.000
       347   11 Jun 2027 08:33:42.221   11 Jun 2027 08:33:48.668             6.447          3223.500
       348   11 Jun 2027 08:34:58.383   11 Jun 2027 08:35:03.017             4.634          2317.000
       349   11 Jun 2027 08:35:33.476   11 Jun 2027 08:35:55.413            21.937         10968.500
       350   11 Jun 2027 08:37:36.764   11 Jun 2027 08:37:49.236            12.472          6236.000
       351   12 Jun 2027 03:54:06.881   12 Jun 2027 03:54:09.694             2.813          1406.500
       352   12 Jun 2027 03:54:32.889   12 Jun 2027 03:54:33.059             0.170            85.000
       353   12 Jun 2027 03:54:46.285   12 Jun 2027 03:54:47.333             1.048           524.000
       354   12 Jun 2027 03:54:55.910   12 Jun 2027 03:55:07.121            11.211          5605.500
       355   12 Jun 2027 03:55:45.953   12 Jun 2027 03:55:45.953             0.000             0.000
       356   12 Jun 2027 03:55:55.267   12 Jun 2027 03:56:06.853            11.586          5793.000
       357   12 Jun 2027 03:56:26.719   12 Jun 2027 03:56:32.192             5.473          2736.500
       358   12 Jun 2027 03:57:55.044   12 Jun 2027 03:57:58.385             3.341          1670.500
       359   12 Jun 2027 03:58:13.971   12 Jun 2027 03:58:15.531             1.560           780.000
       360   12 Jun 2027 03:58:29.553   12 Jun 2027 03:58:31.035             1.482           741.000
       361   12 Jun 2027 03:58:45.505   12 Jun 2027 03:58:52.921             7.416          3708.000
       362   12 Jun 2027 03:59:39.250   12 Jun 2027 03:59:48.795             9.545          4772.500
       363   12 Jun 2027 04:00:30.460   12 Jun 2027 04:00:39.783             9.323          4661.500
       364   12 Jun 2027 04:01:18.867   12 Jun 2027 04:01:22.600             3.733          1866.500
       365   12 Jun 2027 05:31:13.021   12 Jun 2027 05:31:17.942             4.921          2460.500
       366   12 Jun 2027 05:31:38.954   12 Jun 2027 05:31:56.074            17.120          8560.000
       367   12 Jun 2027 05:33:04.201   12 Jun 2027 05:33:09.143             4.942          2471.000
       368   12 Jun 2027 05:33:30.745   12 Jun 2027 05:33:42.909            12.164          6082.000
       369   12 Jun 2027 05:34:03.425   12 Jun 2027 05:34:18.602            15.177          7588.500
       370   12 Jun 2027 05:35:47.617   12 Jun 2027 05:36:04.791            17.174          8587.000
       371   12 Jun 2027 05:36:37.871   12 Jun 2027 05:36:43.482             5.611          2805.500
       372   12 Jun 2027 05:36:59.049   12 Jun 2027 05:37:10.960            11.911          5955.500
       373   12 Jun 2027 07:09:11.211   12 Jun 2027 07:09:22.541            11.330          5665.000
       374   12 Jun 2027 07:09:47.067   12 Jun 2027 07:09:51.307             4.240          2120.000
       375   12 Jun 2027 07:10:30.785   12 Jun 2027 07:10:31.068             0.283           141.500
       376   12 Jun 2027 07:10:57.158   12 Jun 2027 07:11:08.044            10.886          5443.000
       377   12 Jun 2027 07:12:24.075   12 Jun 2027 07:12:24.769             0.694           347.000
       378   12 Jun 2027 08:42:20.072   12 Jun 2027 08:42:50.144            30.072         15036.000
       379   12 Jun 2027 08:45:18.647   12 Jun 2027 08:45:26.549             7.902          3951.000
       380   12 Jun 2027 08:46:24.738   12 Jun 2027 08:46:28.508             3.770          1885.000
       381   12 Jun 2027 08:47:09.882   12 Jun 2027 08:47:17.220             7.338          3669.000
       382   12 Jun 2027 08:48:09.202   12 Jun 2027 08:48:11.554             2.352          1176.000
       383   12 Jun 2027 08:48:24.233   12 Jun 2027 08:48:26.163             1.930           965.000
       384   12 Jun 2027 08:48:34.700   12 Jun 2027 08:48:34.717             0.017             8.500
       385   12 Jun 2027 08:48:41.475   12 Jun 2027 08:48:48.985             7.510          3755.000
       386   12 Jun 2027 08:49:49.247   12 Jun 2027 08:49:49.517             0.270           135.000
       387   12 Jun 2027 08:49:56.200   12 Jun 2027 08:50:01.733             5.533          2766.500
       388   13 Jun 2027 04:06:26.690   13 Jun 2027 04:06:39.035            12.345          6172.500
       389   13 Jun 2027 04:06:57.195   13 Jun 2027 04:06:57.909             0.714           357.000
       390   13 Jun 2027 04:07:41.690   13 Jun 2027 04:07:45.525             3.835          1917.500
       391   13 Jun 2027 04:08:18.504   13 Jun 2027 04:08:35.044            16.540          8270.000
       392   13 Jun 2027 04:09:54.890   13 Jun 2027 04:09:58.112             3.222          1611.000
       393   13 Jun 2027 04:10:20.277   13 Jun 2027 04:10:22.267             1.990           995.000
       394   13 Jun 2027 04:10:58.905   13 Jun 2027 04:11:02.966             4.061          2030.500
       395   13 Jun 2027 04:12:12.360   13 Jun 2027 04:12:14.841             2.481          1240.500
       396   13 Jun 2027 04:12:28.364   13 Jun 2027 04:12:28.944             0.580           290.000
       397   13 Jun 2027 04:12:32.726   13 Jun 2027 04:12:39.125             6.399          3199.500
       398   13 Jun 2027 04:13:28.432   13 Jun 2027 04:13:40.996            12.564          6282.000
       399   13 Jun 2027 04:13:45.086   13 Jun 2027 04:13:45.563             0.477           238.500
       400   13 Jun 2027 05:43:14.268   13 Jun 2027 05:43:29.252            14.984          7492.000
       401   13 Jun 2027 05:44:27.169   13 Jun 2027 05:44:56.298            29.129         14564.500
       402   13 Jun 2027 05:47:02.799   13 Jun 2027 05:47:06.409             3.610          1805.000
       403   13 Jun 2027 05:47:27.755   13 Jun 2027 05:47:28.428             0.673           336.500
       404   13 Jun 2027 05:47:41.370   13 Jun 2027 05:47:44.061             2.691          1345.500
       405   13 Jun 2027 05:48:16.743   13 Jun 2027 05:48:41.111            24.368         12184.000
       406   13 Jun 2027 07:21:11.436   13 Jun 2027 07:21:17.951             6.515          3257.500
       407   13 Jun 2027 07:21:27.935   13 Jun 2027 07:21:34.065             6.130          3065.000
       408   13 Jun 2027 07:22:18.239   13 Jun 2027 07:22:19.745             1.506           753.000
       409   13 Jun 2027 07:22:36.512   13 Jun 2027 07:22:46.087             9.575          4787.500
       410   13 Jun 2027 07:23:35.920   13 Jun 2027 07:23:36.393             0.473           236.500
       411   13 Jun 2027 07:23:55.246   13 Jun 2027 07:23:59.320             4.074          2037.000
       412   13 Jun 2027 07:24:16.161   13 Jun 2027 07:24:18.514             2.353          1176.500
       413   13 Jun 2027 07:24:29.147   13 Jun 2027 07:24:48.451            19.304          9652.000
       414   13 Jun 2027 08:54:47.387   13 Jun 2027 08:55:02.500            15.113          7556.500
       415   13 Jun 2027 08:56:47.110   13 Jun 2027 08:56:52.002             4.892          2446.000
       416   13 Jun 2027 08:57:12.771   13 Jun 2027 08:57:16.145             3.374          1687.000
       417   13 Jun 2027 08:57:50.557   13 Jun 2027 08:58:00.840            10.283          5141.500
       418   13 Jun 2027 08:58:41.645   13 Jun 2027 08:58:41.645             0.000             0.000
       419   13 Jun 2027 08:58:45.058   13 Jun 2027 08:58:52.199             7.141          3570.500
       420   13 Jun 2027 08:59:36.051   13 Jun 2027 08:59:39.440             3.389          1694.500
       421   13 Jun 2027 09:00:21.263   13 Jun 2027 09:00:21.399             0.136            68.000
       422   13 Jun 2027 09:00:36.188   13 Jun 2027 09:00:46.860            10.672          5336.000
       423   13 Jun 2027 09:01:30.095   13 Jun 2027 09:01:42.645            12.550          6275.000
