uniorb/output/strategy_2/Camera/Camera_KinoSat_110402.txt

KinoSat_110402
-------------------------
    Access    *     Start Time (UTCG)     *     Stop Time (UTCG)  *   Duration (s) *   Data (Mbytes)
         1   01 Jun 2027 04:20:47.205   01 Jun 2027 04:21:08.546            21.341         10670.500
         2   01 Jun 2027 04:22:37.954   01 Jun 2027 04:22:41.414             3.460          1730.000
         3   01 Jun 2027 04:22:50.694   01 Jun 2027 04:22:57.587             6.893          3446.500
         4   01 Jun 2027 04:23:19.911   01 Jun 2027 04:23:24.999             5.088          2544.000
         5   01 Jun 2027 04:23:55.760   01 Jun 2027 04:23:56.277             0.517           258.500
         6   01 Jun 2027 04:23:57.716   01 Jun 2027 04:23:58.120             0.404           202.000
         7   01 Jun 2027 04:24:32.409   01 Jun 2027 04:24:34.394             1.985           992.500
         8   01 Jun 2027 04:24:51.177   01 Jun 2027 04:24:55.429             4.252          2126.000
         9   01 Jun 2027 04:25:27.317   01 Jun 2027 04:25:44.063            16.746          8373.000
        10   01 Jun 2027 04:27:21.644   01 Jun 2027 04:27:39.347            17.703          8851.500
        11   01 Jun 2027 05:57:06.403   01 Jun 2027 05:57:20.233            13.830          6915.000
        12   01 Jun 2027 05:58:17.314   01 Jun 2027 05:58:22.918             5.604          2802.000
        13   01 Jun 2027 05:59:21.899   01 Jun 2027 05:59:22.845             0.946           473.000
        14   01 Jun 2027 06:00:02.960   01 Jun 2027 06:00:15.253            12.293          6146.500
        15   01 Jun 2027 06:00:30.055   01 Jun 2027 06:00:35.263             5.208          2604.000
        16   01 Jun 2027 06:02:38.798   01 Jun 2027 06:02:41.693             2.895          1447.500
        17   01 Jun 2027 06:02:48.702   01 Jun 2027 06:02:48.702             0.000             0.000
        18   01 Jun 2027 06:03:14.478   01 Jun 2027 06:03:24.584            10.106          5053.000
        19   01 Jun 2027 07:35:21.950   01 Jun 2027 07:35:27.512             5.562          2781.000
        20   01 Jun 2027 07:36:02.591   01 Jun 2027 07:36:09.878             7.287          3643.500
        21   01 Jun 2027 07:37:22.638   01 Jun 2027 07:37:23.034             0.396           198.000
        22   01 Jun 2027 07:37:47.359   01 Jun 2027 07:37:48.861             1.502           751.000
        23   01 Jun 2027 07:38:35.326   01 Jun 2027 07:38:38.429             3.103          1551.500
        24   01 Jun 2027 07:39:02.878   01 Jun 2027 07:39:02.884             0.006             3.000
        25   01 Jun 2027 09:10:42.542   01 Jun 2027 09:10:42.997             0.455           227.500
        26   01 Jun 2027 09:10:55.543   01 Jun 2027 09:10:56.335             0.792           396.000
        27   01 Jun 2027 09:11:11.042   01 Jun 2027 09:11:44.515            33.473         16736.500
        28   01 Jun 2027 09:14:12.346   01 Jun 2027 09:14:12.754             0.408           204.000
        29   01 Jun 2027 09:15:14.442   01 Jun 2027 09:15:26.781            12.339          6169.500
        30   02 Jun 2027 03:00:00.000   02 Jun 2027 03:00:04.636             4.636          2318.000
        31   02 Jun 2027 03:00:36.965   02 Jun 2027 03:00:43.884             6.919          3459.500
        32   02 Jun 2027 03:01:13.768   02 Jun 2027 03:01:18.357             4.589          2294.500
        33   02 Jun 2027 03:01:45.651   02 Jun 2027 03:01:59.376            13.725          6862.500
        34   02 Jun 2027 04:32:20.446   02 Jun 2027 04:32:23.096             2.650          1325.000
        35   02 Jun 2027 04:32:57.816   02 Jun 2027 04:32:59.817             2.001          1000.500
        36   02 Jun 2027 04:33:25.097   02 Jun 2027 04:33:38.379            13.282          6641.000
        37   02 Jun 2027 04:34:36.911   02 Jun 2027 04:34:39.378             2.467          1233.500
        38   02 Jun 2027 04:35:15.359   02 Jun 2027 04:35:33.821            18.462          9231.000
        39   02 Jun 2027 04:36:56.017   02 Jun 2027 04:37:06.469            10.452          5226.000
        40   02 Jun 2027 04:39:25.934   02 Jun 2027 04:39:44.458            18.524          9262.000
        41   02 Jun 2027 04:39:53.697   02 Jun 2027 04:39:54.565             0.868           434.000
        42   02 Jun 2027 06:09:26.207   02 Jun 2027 06:09:38.285            12.078          6039.000
        43   02 Jun 2027 06:10:30.254   02 Jun 2027 06:10:31.741             1.487           743.500
        44   02 Jun 2027 06:11:23.906   02 Jun 2027 06:11:46.404            22.498         11249.000
        45   02 Jun 2027 06:13:16.918   02 Jun 2027 06:13:21.667             4.749          2374.500
        46   02 Jun 2027 06:13:52.186   02 Jun 2027 06:14:02.532            10.346          5173.000
        47   02 Jun 2027 06:14:45.816   02 Jun 2027 06:14:46.155             0.339           169.500
        48   02 Jun 2027 06:14:56.753   02 Jun 2027 06:15:02.000             5.247          2623.500
        49   02 Jun 2027 06:15:45.272   02 Jun 2027 06:15:48.531             3.259          1629.500
        50   02 Jun 2027 07:47:24.465   02 Jun 2027 07:47:28.993             4.528          2264.000
        51   02 Jun 2027 07:47:53.165   02 Jun 2027 07:47:53.495             0.330           165.000
        52   02 Jun 2027 07:48:54.467   02 Jun 2027 07:48:59.093             4.626          2313.000
        53   02 Jun 2027 07:49:34.952   02 Jun 2027 07:49:37.874             2.922          1461.000
        54   02 Jun 2027 07:49:50.284   02 Jun 2027 07:49:53.596             3.312          1656.000
        55   02 Jun 2027 07:50:08.297   02 Jun 2027 07:50:31.776            23.479         11739.500
        56   02 Jun 2027 09:20:33.309   02 Jun 2027 09:21:06.422            33.113         16556.500
        57   02 Jun 2027 09:23:46.148   02 Jun 2027 09:23:46.639             0.491           245.500
        58   02 Jun 2027 09:24:06.634   02 Jun 2027 09:24:12.022             5.388          2694.000
        59   02 Jun 2027 09:24:38.625   02 Jun 2027 09:24:43.253             4.628          2314.000
        60   02 Jun 2027 09:25:16.198   02 Jun 2027 09:25:22.764             6.566          3283.000
        61   02 Jun 2027 09:26:13.773   02 Jun 2027 09:26:17.103             3.330          1665.000
        62   02 Jun 2027 09:26:43.803   02 Jun 2027 09:26:47.500             3.697          1848.500
        63   02 Jun 2027 09:27:16.472   02 Jun 2027 09:27:19.604             3.132          1566.000
        64   02 Jun 2027 09:27:40.759   02 Jun 2027 09:27:45.387             4.628          2314.000
        65   02 Jun 2027 09:28:06.223   02 Jun 2027 09:28:16.251            10.028          5014.000
        66   03 Jun 2027 03:07:15.603   03 Jun 2027 03:07:18.248             2.645          1322.500
        67   03 Jun 2027 03:07:41.913   03 Jun 2027 03:07:49.329             7.416          3708.000
        68   03 Jun 2027 03:08:20.473   03 Jun 2027 03:08:27.922             7.449          3724.500
        69   03 Jun 2027 03:08:59.246   03 Jun 2027 03:08:59.478             0.232           116.000
        70   03 Jun 2027 03:09:19.614   03 Jun 2027 03:09:30.518            10.904          5452.000
        71   03 Jun 2027 03:10:15.494   03 Jun 2027 03:10:16.209             0.715           357.500
        72   03 Jun 2027 03:10:30.264   03 Jun 2027 03:10:43.395            13.131          6565.500
        73   03 Jun 2027 03:12:53.856   03 Jun 2027 03:13:05.518            11.662          5831.000
        74   03 Jun 2027 03:13:54.823   03 Jun 2027 03:14:00.086             5.263          2631.500
        75   03 Jun 2027 03:15:11.037   03 Jun 2027 03:15:12.888             1.851           925.500
        76   03 Jun 2027 04:44:39.681   03 Jun 2027 04:44:46.733             7.052          3526.000
        77   03 Jun 2027 04:45:09.051   03 Jun 2027 04:45:18.936             9.885          4942.500
        78   03 Jun 2027 04:46:18.881   03 Jun 2027 04:46:32.508            13.627          6813.500
        79   03 Jun 2027 04:47:36.694   03 Jun 2027 04:47:38.291             1.597           798.500
        80   03 Jun 2027 04:48:01.271   03 Jun 2027 04:48:02.704             1.433           716.500
        81   03 Jun 2027 04:48:16.951   03 Jun 2027 04:48:19.432             2.481          1240.500
        82   03 Jun 2027 04:48:37.790   03 Jun 2027 04:48:40.821             3.031          1515.500
        83   03 Jun 2027 04:49:01.625   03 Jun 2027 04:49:29.288            27.663         13831.500
        84   03 Jun 2027 04:51:16.518   03 Jun 2027 04:51:19.906             3.388          1694.000
        85   03 Jun 2027 04:51:40.926   03 Jun 2027 04:51:42.591             1.665           832.500
        86   03 Jun 2027 04:51:58.248   03 Jun 2027 04:51:58.718             0.470           235.000
        87   03 Jun 2027 06:21:27.645   03 Jun 2027 06:21:35.096             7.451          3725.500
        88   03 Jun 2027 06:22:22.569   03 Jun 2027 06:22:25.159             2.590          1295.000
        89   03 Jun 2027 06:22:45.617   03 Jun 2027 06:23:06.431            20.814         10407.000
        90   03 Jun 2027 06:24:32.010   03 Jun 2027 06:24:33.411             1.401           700.500
        91   03 Jun 2027 06:24:59.557   03 Jun 2027 06:25:00.645             1.088           544.000
        92   03 Jun 2027 06:25:06.920   03 Jun 2027 06:25:07.114             0.194            97.000
        93   03 Jun 2027 06:25:19.558   03 Jun 2027 06:25:20.994             1.436           718.000
        94   03 Jun 2027 06:26:01.750   03 Jun 2027 06:26:01.840             0.090            45.000
        95   03 Jun 2027 06:26:03.441   03 Jun 2027 06:26:05.589             2.148          1074.000
        96   03 Jun 2027 06:26:50.258   03 Jun 2027 06:26:52.910             2.652          1326.000
        97   03 Jun 2027 06:27:05.217   03 Jun 2027 06:27:24.814            19.597          9798.500
        98   03 Jun 2027 06:27:43.500   03 Jun 2027 06:27:46.257             2.757          1378.500
        99   03 Jun 2027 07:59:24.682   03 Jun 2027 07:59:26.614             1.932           966.000
       100   03 Jun 2027 07:59:46.743   03 Jun 2027 07:59:55.340             8.597          4298.500
       101   03 Jun 2027 08:00:51.965   03 Jun 2027 08:01:00.361             8.396          4198.000
       102   03 Jun 2027 08:01:48.661   03 Jun 2027 08:01:52.903             4.242          2121.000
       103   03 Jun 2027 08:02:22.968   03 Jun 2027 08:02:27.574             4.606          2303.000
       104   03 Jun 2027 08:03:00.710   03 Jun 2027 08:03:01.332             0.622           311.000
       105   03 Jun 2027 09:33:00.372   03 Jun 2027 09:33:03.970             3.598          1799.000
       106   03 Jun 2027 09:33:25.625   03 Jun 2027 09:33:33.352             7.727          3863.500
       107   03 Jun 2027 09:34:34.267   03 Jun 2027 09:34:52.296            18.029          9014.500
       108   03 Jun 2027 09:37:03.702   03 Jun 2027 09:37:04.247             0.545           272.500
       109   03 Jun 2027 09:37:26.583   03 Jun 2027 09:37:36.718            10.135          5067.500
       110   03 Jun 2027 09:38:23.887   03 Jun 2027 09:38:25.981             2.094          1047.000
       111   03 Jun 2027 09:39:00.139   03 Jun 2027 09:39:04.601             4.462          2231.000
       112   03 Jun 2027 09:39:23.874   03 Jun 2027 09:39:28.814             4.940          2470.000
       113   03 Jun 2027 09:40:16.278   03 Jun 2027 09:40:18.305             2.027          1013.500
       114   04 Jun 2027 03:18:44.073   04 Jun 2027 03:18:47.903             3.830          1915.000
       115   04 Jun 2027 03:18:57.243   04 Jun 2027 03:18:57.243             0.000             0.000
       116   04 Jun 2027 03:19:17.010   04 Jun 2027 03:19:17.694             0.684           342.000
       117   04 Jun 2027 03:19:52.476   04 Jun 2027 03:19:59.067             6.591          3295.500
       118   04 Jun 2027 03:20:35.483   04 Jun 2027 03:20:37.637             2.154          1077.000
       119   04 Jun 2027 03:20:53.726   04 Jun 2027 03:21:00.514             6.788          3394.000
       120   04 Jun 2027 03:22:16.355   04 Jun 2027 03:22:29.840            13.485          6742.500
       121   04 Jun 2027 03:23:32.054   04 Jun 2027 03:23:32.797             0.743           371.500
       122   04 Jun 2027 03:23:42.557   04 Jun 2027 03:23:44.334             1.777           888.500
       123   04 Jun 2027 03:24:18.023   04 Jun 2027 03:24:18.036             0.013             6.500
       124   04 Jun 2027 03:24:30.075   04 Jun 2027 03:24:31.560             1.485           742.500
       125   04 Jun 2027 03:25:20.619   04 Jun 2027 03:25:27.380             6.761          3380.500
       126   04 Jun 2027 03:26:00.423   04 Jun 2027 03:26:01.466             1.043           521.500
       127   04 Jun 2027 03:26:30.020   04 Jun 2027 03:26:33.551             3.531          1765.500
       128   04 Jun 2027 03:27:03.811   04 Jun 2027 03:27:04.085             0.274           137.000
       129   04 Jun 2027 03:27:08.143   04 Jun 2027 03:27:08.435             0.292           146.000
       130   04 Jun 2027 03:27:24.520   04 Jun 2027 03:27:26.499             1.979           989.500
       131   04 Jun 2027 04:56:33.703   04 Jun 2027 04:56:51.905            18.202          9101.000
       132   04 Jun 2027 04:58:05.172   04 Jun 2027 04:58:12.018             6.846          3423.000
       133   04 Jun 2027 04:59:05.021   04 Jun 2027 04:59:17.654            12.633          6316.500
       134   04 Jun 2027 05:00:27.135   04 Jun 2027 05:00:28.003             0.868           434.000
       135   04 Jun 2027 05:00:38.587   04 Jun 2027 05:00:40.786             2.199          1099.500
       136   04 Jun 2027 05:01:12.087   04 Jun 2027 05:01:27.354            15.267          7633.500
       137   04 Jun 2027 05:02:34.168   04 Jun 2027 05:02:42.641             8.473          4236.500
       138   04 Jun 2027 05:03:21.980   04 Jun 2027 05:03:24.094             2.114          1057.000
       139   04 Jun 2027 06:33:18.110   04 Jun 2027 06:33:23.181             5.071          2535.500
       140   04 Jun 2027 06:33:54.298   04 Jun 2027 06:34:01.991             7.693          3846.500
       141   04 Jun 2027 06:35:21.531   04 Jun 2027 06:35:23.278             1.747           873.500
       142   04 Jun 2027 06:36:01.410   04 Jun 2027 06:36:09.690             8.280          4140.000
       143   04 Jun 2027 06:36:55.876   04 Jun 2027 06:36:58.755             2.879          1439.500
       144   04 Jun 2027 06:37:28.766   04 Jun 2027 06:37:30.652             1.886           943.000
       145   04 Jun 2027 06:38:12.504   04 Jun 2027 06:38:14.343             1.839           919.500
       146   04 Jun 2027 06:38:46.566   04 Jun 2027 06:38:52.763             6.197          3098.500
       147   04 Jun 2027 06:39:18.480   04 Jun 2027 06:39:37.821            19.341          9670.500
       148   04 Jun 2027 08:11:26.711   04 Jun 2027 08:11:29.718             3.007          1503.500
       149   04 Jun 2027 08:12:56.513   04 Jun 2027 08:13:01.801             5.288          2644.000
       150   04 Jun 2027 08:13:14.994   04 Jun 2027 08:13:23.694             8.700          4350.000
       151   04 Jun 2027 08:14:07.754   04 Jun 2027 08:14:09.488             1.734           867.000
       152   04 Jun 2027 08:14:43.998   04 Jun 2027 08:14:51.117             7.119          3559.500
       153   04 Jun 2027 09:45:17.334   04 Jun 2027 09:45:27.360            10.026          5013.000
       154   04 Jun 2027 09:46:27.507   04 Jun 2027 09:46:28.779             1.272           636.000
       155   04 Jun 2027 09:46:57.309   04 Jun 2027 09:47:00.130             2.821          1410.500
       156   04 Jun 2027 09:47:19.850   04 Jun 2027 09:47:26.089             6.239          3119.500
       157   04 Jun 2027 09:48:03.782   04 Jun 2027 09:48:15.789            12.007          6003.500
       158   04 Jun 2027 09:49:37.059   04 Jun 2027 09:49:44.235             7.176          3588.000
       159   04 Jun 2027 09:50:02.177   04 Jun 2027 09:50:05.002             2.825          1412.500
       160   04 Jun 2027 09:50:32.398   04 Jun 2027 09:50:32.886             0.488           244.000
       161   04 Jun 2027 09:50:39.841   04 Jun 2027 09:50:41.864             2.023          1011.500
       162   04 Jun 2027 09:50:57.534   04 Jun 2027 09:51:06.104             8.570          4285.000
       163   05 Jun 2027 03:31:32.540   05 Jun 2027 03:31:45.333            12.793          6396.500
       164   05 Jun 2027 03:32:45.785   05 Jun 2027 03:32:51.668             5.883          2941.500
       165   05 Jun 2027 03:33:23.992   05 Jun 2027 03:33:27.401             3.409          1704.500
       166   05 Jun 2027 03:34:02.018   05 Jun 2027 03:34:17.772            15.754          7877.000
       167   05 Jun 2027 03:35:23.625   05 Jun 2027 03:35:24.943             1.318           659.000
       168   05 Jun 2027 03:35:44.565   05 Jun 2027 03:35:51.076             6.511          3255.500
       169   05 Jun 2027 03:36:38.653   05 Jun 2027 03:36:39.166             0.513           256.500
       170   05 Jun 2027 03:36:43.283   05 Jun 2027 03:36:47.031             3.748          1874.000
       171   05 Jun 2027 03:37:17.551   05 Jun 2027 03:37:20.817             3.266          1633.000
       172   05 Jun 2027 03:37:50.446   05 Jun 2027 03:37:53.804             3.358          1679.000
       173   05 Jun 2027 03:38:11.649   05 Jun 2027 03:38:12.141             0.492           246.000
       174   05 Jun 2027 03:38:16.644   05 Jun 2027 03:38:19.830             3.186          1593.000
       175   05 Jun 2027 03:38:34.213   05 Jun 2027 03:38:36.445             2.232          1116.000
       176   05 Jun 2027 03:39:03.203   05 Jun 2027 03:39:10.067             6.864          3432.000
       177   05 Jun 2027 03:39:25.775   05 Jun 2027 03:39:25.775             0.000             0.000
       178   05 Jun 2027 05:08:40.356   05 Jun 2027 05:08:44.556             4.200          2100.000
       179   05 Jun 2027 05:09:25.198   05 Jun 2027 05:09:31.860             6.662          3331.000
       180   05 Jun 2027 05:09:52.553   05 Jun 2027 05:09:55.039             2.486          1243.000
       181   05 Jun 2027 05:10:36.902   05 Jun 2027 05:10:46.163             9.261          4630.500
       182   05 Jun 2027 05:11:42.206   05 Jun 2027 05:11:43.760             1.554           777.000
       183   05 Jun 2027 05:12:47.151   05 Jun 2027 05:13:09.441            22.290         11145.000
       184   05 Jun 2027 05:14:36.873   05 Jun 2027 05:14:38.631             1.758           879.000
       185   05 Jun 2027 05:15:15.262   05 Jun 2027 05:15:19.330             4.068          2034.000
       186   05 Jun 2027 05:15:43.636   05 Jun 2027 05:15:45.862             2.226          1113.000
       187   05 Jun 2027 06:45:43.374   05 Jun 2027 06:45:53.178             9.804          4902.000
       188   05 Jun 2027 06:47:41.281   05 Jun 2027 06:47:44.362             3.081          1540.500
       189   05 Jun 2027 06:48:23.745   05 Jun 2027 06:48:25.325             1.580           790.000
       190   05 Jun 2027 06:48:58.866   05 Jun 2027 06:49:06.826             7.960          3980.000
       191   05 Jun 2027 06:50:04.020   05 Jun 2027 06:50:07.073             3.053          1526.500
       192   05 Jun 2027 06:50:10.425   05 Jun 2027 06:50:13.897             3.472          1736.000
       193   05 Jun 2027 06:50:41.583   05 Jun 2027 06:50:48.747             7.164          3582.000
       194   05 Jun 2027 06:51:19.357   05 Jun 2027 06:51:22.882             3.525          1762.500
       195   05 Jun 2027 08:22:40.626   05 Jun 2027 08:22:43.457             2.831          1415.500
       196   05 Jun 2027 08:22:57.059   05 Jun 2027 08:22:57.649             0.590           295.000
       197   05 Jun 2027 08:23:15.200   05 Jun 2027 08:23:19.068             3.868          1934.000
       198   05 Jun 2027 08:23:36.268   05 Jun 2027 08:23:38.971             2.703          1351.500
       199   05 Jun 2027 08:24:46.403   05 Jun 2027 08:24:46.496             0.093            46.500
       200   05 Jun 2027 08:25:13.458   05 Jun 2027 08:25:13.646             0.188            94.000
       201   05 Jun 2027 08:25:35.597   05 Jun 2027 08:25:36.844             1.247           623.500
       202   05 Jun 2027 08:26:07.796   05 Jun 2027 08:26:08.177             0.381           190.500
       203   05 Jun 2027 08:26:21.712   05 Jun 2027 08:26:23.945             2.233          1116.500
       204   05 Jun 2027 08:26:34.675   05 Jun 2027 08:26:35.153             0.478           239.000
       205   05 Jun 2027 08:27:07.931   05 Jun 2027 08:27:08.361             0.430           215.000
       206   05 Jun 2027 08:27:12.180   05 Jun 2027 08:27:29.505            17.325          8662.500
       207   05 Jun 2027 09:57:44.314   05 Jun 2027 09:58:01.020            16.706          8353.000
       208   05 Jun 2027 09:59:24.098   05 Jun 2027 09:59:25.194             1.096           548.000
       209   05 Jun 2027 09:59:45.996   05 Jun 2027 10:00:05.887            19.891          9945.500
       210   05 Jun 2027 10:01:37.671   05 Jun 2027 10:01:57.062            19.391          9695.500
       211   06 Jun 2027 03:43:47.020   06 Jun 2027 03:43:47.637             0.617           308.500
       212   06 Jun 2027 03:43:59.961   06 Jun 2027 03:44:01.887             1.926           963.000
       213   06 Jun 2027 03:44:27.688   06 Jun 2027 03:44:35.522             7.834          3917.000
       214   06 Jun 2027 03:45:50.091   06 Jun 2027 03:45:51.647             1.556           778.000
       215   06 Jun 2027 03:46:30.447   06 Jun 2027 03:46:34.428             3.981          1990.500
       216   06 Jun 2027 03:46:39.243   06 Jun 2027 03:46:39.771             0.528           264.000
       217   06 Jun 2027 03:47:09.090   06 Jun 2027 03:47:11.722             2.632          1316.000
       218   06 Jun 2027 03:47:43.666   06 Jun 2027 03:47:44.156             0.490           245.000
       219   06 Jun 2027 03:48:10.957   06 Jun 2027 03:48:23.462            12.505          6252.500
       220   06 Jun 2027 03:49:36.339   06 Jun 2027 03:49:38.907             2.568          1284.000
       221   06 Jun 2027 03:50:27.609   06 Jun 2027 03:50:29.315             1.706           853.000
       222   06 Jun 2027 03:50:41.699   06 Jun 2027 03:50:50.572             8.873          4436.500
       223   06 Jun 2027 03:51:27.288   06 Jun 2027 03:51:32.159             4.871          2435.500
       224   06 Jun 2027 03:51:59.735   06 Jun 2027 03:52:02.199             2.464          1232.000
       225   06 Jun 2027 05:21:06.639   06 Jun 2027 05:21:18.615            11.976          5988.000
       226   06 Jun 2027 05:21:38.412   06 Jun 2027 05:21:47.271             8.859          4429.500
       227   06 Jun 2027 05:23:07.499   06 Jun 2027 05:23:13.517             6.018          3009.000
       228   06 Jun 2027 05:24:03.709   06 Jun 2027 05:24:07.631             3.922          1961.000
       229   06 Jun 2027 05:24:46.903   06 Jun 2027 05:24:48.802             1.899           949.500
       230   06 Jun 2027 05:26:07.130   06 Jun 2027 05:26:14.638             7.508          3754.000
       231   06 Jun 2027 05:26:48.098   06 Jun 2027 05:27:00.854            12.756          6378.000
       232   06 Jun 2027 06:58:03.385   06 Jun 2027 06:58:07.749             4.364          2182.000
       233   06 Jun 2027 06:58:22.977   06 Jun 2027 06:59:03.541            40.564         20282.000
       234   06 Jun 2027 07:01:47.629   06 Jun 2027 07:01:49.582             1.953           976.500
       235   06 Jun 2027 07:02:01.606   06 Jun 2027 07:02:14.004            12.398          6199.000
       236   06 Jun 2027 07:03:03.985   06 Jun 2027 07:03:05.586             1.601           800.500
       237   06 Jun 2027 08:34:53.779   06 Jun 2027 08:34:59.017             5.238          2619.000
       238   06 Jun 2027 08:36:28.879   06 Jun 2027 08:36:34.038             5.159          2579.500
       239   06 Jun 2027 08:37:05.074   06 Jun 2027 08:37:09.080             4.006          2003.000
       240   06 Jun 2027 08:37:26.723   06 Jun 2027 08:37:28.927             2.204          1102.000
       241   06 Jun 2027 08:37:42.126   06 Jun 2027 08:37:49.053             6.927          3463.500
       242   06 Jun 2027 08:38:47.990   06 Jun 2027 08:39:05.465            17.475          8737.500
       243   06 Jun 2027 10:12:35.065   06 Jun 2027 10:12:37.538             2.473          1236.500
       244   06 Jun 2027 10:13:10.509   06 Jun 2027 10:13:38.505            27.996         13998.000
       245   07 Jun 2027 03:57:06.177   07 Jun 2027 03:57:15.239             9.062          4531.000
       246   07 Jun 2027 03:57:52.764   07 Jun 2027 03:57:56.361             3.597          1798.500
       247   07 Jun 2027 03:58:28.168   07 Jun 2027 03:58:39.379            11.211          5605.500
       248   07 Jun 2027 03:59:40.094   07 Jun 2027 03:59:40.930             0.836           418.000
       249   07 Jun 2027 03:59:53.581   07 Jun 2027 03:59:53.955             0.374           187.000
       250   07 Jun 2027 04:00:30.060   07 Jun 2027 04:00:40.816            10.756          5378.000
       251   07 Jun 2027 04:02:07.662   07 Jun 2027 04:02:09.938             2.276          1138.000
       252   07 Jun 2027 04:02:44.308   07 Jun 2027 04:02:50.385             6.077          3038.500
       253   07 Jun 2027 04:03:35.019   07 Jun 2027 04:03:44.243             9.224          4612.000
       254   07 Jun 2027 04:03:54.546   07 Jun 2027 04:03:57.787             3.241          1620.500
       255   07 Jun 2027 05:33:14.408   07 Jun 2027 05:33:16.251             1.843           921.500
       256   07 Jun 2027 05:33:42.634   07 Jun 2027 05:33:51.344             8.710          4355.000
       257   07 Jun 2027 05:34:21.576   07 Jun 2027 05:34:49.766            28.190         14095.000
       258   07 Jun 2027 05:36:49.872   07 Jun 2027 05:37:03.245            13.373          6686.500
       259   07 Jun 2027 05:38:10.229   07 Jun 2027 05:38:11.766             1.537           768.500
       260   07 Jun 2027 05:38:34.173   07 Jun 2027 05:38:42.660             8.487          4243.500
       261   07 Jun 2027 05:39:03.720   07 Jun 2027 05:39:19.909            16.189          8094.500
       262   07 Jun 2027 07:10:58.629   07 Jun 2027 07:11:03.949             5.320          2660.000
       263   07 Jun 2027 07:11:11.952   07 Jun 2027 07:11:13.632             1.680           840.000
       264   07 Jun 2027 07:12:03.473   07 Jun 2027 07:12:05.662             2.189          1094.500
       265   07 Jun 2027 07:12:28.114   07 Jun 2027 07:12:32.126             4.012          2006.000
       266   07 Jun 2027 07:13:11.413   07 Jun 2027 07:13:16.143             4.730          2365.000
       267   07 Jun 2027 07:14:27.699   07 Jun 2027 07:14:35.272             7.573          3786.500
       268   07 Jun 2027 07:15:08.251   07 Jun 2027 07:15:11.801             3.550          1775.000
       269   07 Jun 2027 08:47:04.053   07 Jun 2027 08:47:11.312             7.259          3629.500
       270   07 Jun 2027 08:48:02.283   07 Jun 2027 08:48:02.824             0.541           270.500
       271   07 Jun 2027 08:48:46.795   07 Jun 2027 08:48:50.417             3.622          1811.000
       272   07 Jun 2027 08:49:16.363   07 Jun 2027 08:49:17.418             1.055           527.500
       273   07 Jun 2027 08:49:24.388   07 Jun 2027 08:49:24.715             0.327           163.500
       274   07 Jun 2027 08:49:54.304   07 Jun 2027 08:49:56.020             1.716           858.000
       275   07 Jun 2027 08:50:49.959   07 Jun 2027 08:50:59.940             9.981          4990.500
       276   08 Jun 2027 04:09:23.632   08 Jun 2027 04:09:25.331             1.699           849.500
       277   08 Jun 2027 04:09:34.776   08 Jun 2027 04:09:40.661             5.885          2942.500
       278   08 Jun 2027 04:10:33.274   08 Jun 2027 04:10:39.812             6.538          3269.000
       279   08 Jun 2027 04:11:26.705   08 Jun 2027 04:11:35.277             8.572          4286.000
       280   08 Jun 2027 04:12:24.876   08 Jun 2027 04:12:40.194            15.318          7659.000
       281   08 Jun 2027 04:13:03.163   08 Jun 2027 04:13:08.698             5.535          2767.500
       282   08 Jun 2027 04:13:16.367   08 Jun 2027 04:13:39.933            23.566         11783.000
       283   08 Jun 2027 04:15:47.625   08 Jun 2027 04:15:51.311             3.686          1843.000
       284   08 Jun 2027 04:15:59.148   08 Jun 2027 04:15:59.717             0.569           284.500
       285   08 Jun 2027 05:45:46.650   08 Jun 2027 05:46:04.655            18.005          9002.500
       286   08 Jun 2027 05:47:05.691   08 Jun 2027 05:47:10.886             5.195          2597.500
       287   08 Jun 2027 05:47:49.328   08 Jun 2027 05:47:59.237             9.909          4954.500
       288   08 Jun 2027 05:48:42.939   08 Jun 2027 05:48:52.894             9.955          4977.500
       289   08 Jun 2027 05:49:37.812   08 Jun 2027 05:49:52.803            14.991          7495.500
       290   08 Jun 2027 05:50:58.518   08 Jun 2027 05:50:58.781             0.263           131.500
       291   08 Jun 2027 05:51:01.794   08 Jun 2027 05:51:10.327             8.533          4266.500
       292   08 Jun 2027 07:23:03.841   08 Jun 2027 07:23:05.554             1.713           856.500
       293   08 Jun 2027 07:23:37.925   08 Jun 2027 07:23:46.848             8.923          4461.500
       294   08 Jun 2027 07:24:04.683   08 Jun 2027 07:24:15.380            10.697          5348.500
       295   08 Jun 2027 07:25:22.320   08 Jun 2027 07:25:27.586             5.266          2633.000
       296   08 Jun 2027 07:26:00.592   08 Jun 2027 07:26:00.844             0.252           126.000
       297   08 Jun 2027 07:26:34.029   08 Jun 2027 07:26:38.704             4.675          2337.500
       298   08 Jun 2027 07:27:00.145   08 Jun 2027 07:27:07.748             7.603          3801.500
       299   08 Jun 2027 07:27:38.707   08 Jun 2027 07:27:40.486             1.779           889.500
       300   08 Jun 2027 08:59:16.798   08 Jun 2027 08:59:28.194            11.396          5698.000
       301   08 Jun 2027 09:00:24.779   08 Jun 2027 09:00:30.882             6.103          3051.500
       302   08 Jun 2027 09:01:51.616   08 Jun 2027 09:01:52.221             0.605           302.500
       303   08 Jun 2027 09:03:07.464   08 Jun 2027 09:03:12.290             4.826          2413.000
       304   08 Jun 2027 09:03:41.517   08 Jun 2027 09:03:52.106            10.589          5294.500
       305   09 Jun 2027 04:21:01.360   09 Jun 2027 04:21:11.026             9.666          4833.000
       306   09 Jun 2027 04:22:25.975   09 Jun 2027 04:22:35.127             9.152          4576.000
       307   09 Jun 2027 04:22:43.570   09 Jun 2027 04:22:52.644             9.074          4537.000
       308   09 Jun 2027 04:24:01.680   09 Jun 2027 04:24:12.341            10.661          5330.500
       309   09 Jun 2027 04:24:59.412   09 Jun 2027 04:25:00.810             1.398           699.000
       310   09 Jun 2027 04:25:05.555   09 Jun 2027 04:25:10.194             4.639          2319.500
       311   09 Jun 2027 04:25:43.784   09 Jun 2027 04:25:49.643             5.859          2929.500
       312   09 Jun 2027 04:26:21.952   09 Jun 2027 04:26:26.329             4.377          2188.500
       313   09 Jun 2027 04:26:46.459   09 Jun 2027 04:26:48.361             1.902           951.000
       314   09 Jun 2027 04:27:28.460   09 Jun 2027 04:27:29.238             0.778           389.000
       315   09 Jun 2027 04:27:32.824   09 Jun 2027 04:27:36.312             3.488          1744.000
       316   09 Jun 2027 04:27:38.434   09 Jun 2027 04:27:54.822            16.388          8194.000
       317   09 Jun 2027 05:57:20.896   09 Jun 2027 05:57:26.496             5.600          2800.000
       318   09 Jun 2027 05:58:28.167   09 Jun 2027 05:58:33.649             5.482          2741.000
       319   09 Jun 2027 05:58:55.614   09 Jun 2027 05:58:57.462             1.848           924.000
       320   09 Jun 2027 05:59:08.813   09 Jun 2027 05:59:21.895            13.082          6541.000
       321   09 Jun 2027 06:00:18.947   09 Jun 2027 06:00:30.153            11.206          5603.000
       322   09 Jun 2027 06:00:44.786   09 Jun 2027 06:00:53.423             8.637          4318.500
       323   09 Jun 2027 06:02:53.342   09 Jun 2027 06:03:06.137            12.795          6397.500
       324   09 Jun 2027 07:35:36.883   09 Jun 2027 07:35:44.119             7.236          3618.000
       325   09 Jun 2027 07:36:17.216   09 Jun 2027 07:36:24.584             7.368          3684.000
       326   09 Jun 2027 07:37:37.362   09 Jun 2027 07:37:37.785             0.423           211.500
       327   09 Jun 2027 07:38:02.112   09 Jun 2027 07:38:03.329             1.217           608.500
       328   09 Jun 2027 07:38:50.163   09 Jun 2027 07:38:53.047             2.884          1442.000
       329   09 Jun 2027 07:39:17.932   09 Jun 2027 07:39:26.296             8.364          4182.000
       330   09 Jun 2027 09:10:57.477   09 Jun 2027 09:11:03.103             5.626          2813.000
       331   09 Jun 2027 09:12:01.277   09 Jun 2027 09:12:03.640             2.363          1181.500
       332   09 Jun 2027 09:12:21.790   09 Jun 2027 09:12:31.059             9.269          4634.500
       333   09 Jun 2027 09:13:22.850   09 Jun 2027 09:13:33.604            10.754          5377.000
       334   09 Jun 2027 09:14:16.628   09 Jun 2027 09:14:26.757            10.129          5064.500
       335   09 Jun 2027 09:15:29.117   09 Jun 2027 09:15:29.641             0.524           262.000
       336   09 Jun 2027 09:15:43.564   09 Jun 2027 09:15:45.583             2.019          1009.500
       337   09 Jun 2027 09:16:05.009   09 Jun 2027 09:16:05.311             0.302           151.000
       338   09 Jun 2027 09:16:20.258   09 Jun 2027 09:16:27.642             7.384          3692.000
       339   10 Jun 2027 03:00:00.000   10 Jun 2027 03:00:00.599             0.599           299.500
       340   10 Jun 2027 03:00:07.901   10 Jun 2027 03:00:09.725             1.824           912.000
       341   10 Jun 2027 03:00:20.388   10 Jun 2027 03:00:34.291            13.903          6951.500
       342   10 Jun 2027 04:32:34.929   10 Jun 2027 04:32:37.664             2.735          1367.500
       343   10 Jun 2027 04:33:13.754   10 Jun 2027 04:33:13.876             0.122            61.000
       344   10 Jun 2027 04:33:39.962   10 Jun 2027 04:33:49.832             9.870          4935.000
       345   10 Jun 2027 04:34:50.994   10 Jun 2027 04:34:51.350             0.356           178.000
       346   10 Jun 2027 04:35:03.095   10 Jun 2027 04:35:17.214            14.119          7059.500
       347   10 Jun 2027 04:36:31.728   10 Jun 2027 04:36:32.365             0.637           318.500
       348   10 Jun 2027 04:36:40.394   10 Jun 2027 04:36:43.262             2.868          1434.000
       349   10 Jun 2027 04:37:33.568   10 Jun 2027 04:37:44.695            11.127          5563.500
       350   10 Jun 2027 04:38:11.924   10 Jun 2027 04:38:16.785             4.861          2430.500
       351   10 Jun 2027 04:38:58.134   10 Jun 2027 04:39:03.968             5.834          2917.000
       352   10 Jun 2027 04:39:26.118   10 Jun 2027 04:39:33.757             7.639          3819.500
       353   10 Jun 2027 06:09:40.837   10 Jun 2027 06:09:46.739             5.902          2951.000
       354   10 Jun 2027 06:10:22.179   10 Jun 2027 06:10:40.699            18.520          9260.000
       355   10 Jun 2027 06:12:05.199   10 Jun 2027 06:12:12.076             6.877          3438.500
       356   10 Jun 2027 06:12:43.685   10 Jun 2027 06:12:46.070             2.385          1192.500
       357   10 Jun 2027 06:13:03.131   10 Jun 2027 06:13:09.770             6.639          3319.500
       358   10 Jun 2027 06:13:37.321   10 Jun 2027 06:13:37.825             0.504           252.000
       359   10 Jun 2027 06:14:07.835   10 Jun 2027 06:14:17.274             9.439          4719.500
       360   10 Jun 2027 06:15:00.664   10 Jun 2027 06:15:03.600             2.936          1468.000
       361   10 Jun 2027 06:15:31.725   10 Jun 2027 06:15:32.983             1.258           629.000
       362   10 Jun 2027 07:47:39.074   10 Jun 2027 07:47:41.443             2.369          1184.500
       363   10 Jun 2027 07:48:07.632   10 Jun 2027 07:48:08.160             0.528           264.000
       364   10 Jun 2027 07:49:10.341   10 Jun 2027 07:49:17.119             6.778          3389.000
       365   10 Jun 2027 07:49:46.595   10 Jun 2027 07:49:49.725             3.130          1565.000
       366   10 Jun 2027 07:49:53.735   10 Jun 2027 07:49:57.819             4.084          2042.000
       367   10 Jun 2027 07:51:02.915   10 Jun 2027 07:51:05.572             2.657          1328.500
       368   10 Jun 2027 07:51:18.816   10 Jun 2027 07:51:21.325             2.509          1254.500
       369   10 Jun 2027 07:51:32.627   10 Jun 2027 07:51:34.676             2.049          1024.500
       370   10 Jun 2027 09:20:47.934   10 Jun 2027 09:21:38.020            50.086         25043.000
       371   10 Jun 2027 09:25:16.068   10 Jun 2027 09:25:31.429            15.361          7680.500
       372   10 Jun 2027 09:26:58.380   10 Jun 2027 09:26:59.047             0.667           333.500
       373   10 Jun 2027 09:27:11.672   10 Jun 2027 09:27:26.897            15.225          7612.500
       374   11 Jun 2027 03:07:29.986   11 Jun 2027 03:07:32.913             2.927          1463.500
       375   11 Jun 2027 03:07:58.010   11 Jun 2027 03:08:03.830             5.820          2910.000
       376   11 Jun 2027 03:08:35.364   11 Jun 2027 03:08:35.432             0.068            34.000
       377   11 Jun 2027 03:08:58.039   11 Jun 2027 03:09:13.840            15.801          7900.500
       378   11 Jun 2027 03:10:30.001   11 Jun 2027 03:10:30.152             0.151            75.500
       379   11 Jun 2027 03:10:31.151   11 Jun 2027 03:10:32.384             1.233           616.500
       380   11 Jun 2027 03:10:53.643   11 Jun 2027 03:11:09.369            15.726          7863.000
       381   11 Jun 2027 03:12:34.753   11 Jun 2027 03:12:49.002            14.249          7124.500
       382   11 Jun 2027 03:14:27.285   11 Jun 2027 03:14:28.635             1.350           675.000
       383   11 Jun 2027 03:15:25.606   11 Jun 2027 03:15:26.229             0.623           311.500
       384   11 Jun 2027 03:15:35.050   11 Jun 2027 03:15:36.215             1.165           582.500
       385   11 Jun 2027 04:44:54.525   11 Jun 2027 04:45:02.653             8.128          4064.000
       386   11 Jun 2027 04:45:26.094   11 Jun 2027 04:45:33.960             7.866          3933.000
       387   11 Jun 2027 04:46:33.358   11 Jun 2027 04:46:38.947             5.589          2794.500
       388   11 Jun 2027 04:47:35.023   11 Jun 2027 04:47:39.447             4.424          2212.000
       389   11 Jun 2027 04:48:16.959   11 Jun 2027 04:48:17.329             0.370           185.000
       390   11 Jun 2027 04:48:31.573   11 Jun 2027 04:48:34.165             2.592          1296.000
       391   11 Jun 2027 04:48:44.757   11 Jun 2027 04:48:45.227             0.470           235.000
       392   11 Jun 2027 04:48:55.521   11 Jun 2027 04:48:59.717             4.196          2098.000
       393   11 Jun 2027 04:49:49.633   11 Jun 2027 04:49:56.290             6.657          3328.500
       394   11 Jun 2027 04:50:04.082   11 Jun 2027 04:50:06.243             2.161          1080.500
       395   11 Jun 2027 04:50:29.625   11 Jun 2027 04:50:30.269             0.644           322.000
       396   11 Jun 2027 04:51:12.895   11 Jun 2027 04:51:16.531             3.636          1818.000
       397   11 Jun 2027 04:51:36.932   11 Jun 2027 04:51:39.704             2.772          1386.000
       398   11 Jun 2027 04:51:57.374   11 Jun 2027 04:52:13.115            15.741          7870.500
       399   11 Jun 2027 06:21:42.223   11 Jun 2027 06:21:50.288             8.065          4032.500
       400   11 Jun 2027 06:22:37.134   11 Jun 2027 06:22:39.851             2.717          1358.500
       401   11 Jun 2027 06:23:02.980   11 Jun 2027 06:23:22.072            19.092          9546.000
       402   11 Jun 2027 06:23:59.770   11 Jun 2027 06:24:13.025            13.255          6627.500
       403   11 Jun 2027 06:26:00.329   11 Jun 2027 06:26:03.240             2.911          1455.500
       404   11 Jun 2027 06:27:39.335   11 Jun 2027 06:27:45.175             5.840          2920.000
       405   11 Jun 2027 07:59:39.316   11 Jun 2027 07:59:39.572             0.256           128.000
       406   11 Jun 2027 07:59:48.427   11 Jun 2027 07:59:51.726             3.299          1649.500
       407   11 Jun 2027 08:01:09.466   11 Jun 2027 08:01:15.222             5.756          2878.000
       408   11 Jun 2027 08:02:03.455   11 Jun 2027 08:02:09.489             6.034          3017.000
       409   11 Jun 2027 08:02:39.740   11 Jun 2027 08:02:42.225             2.485          1242.500
       410   11 Jun 2027 08:02:53.588   11 Jun 2027 08:03:01.278             7.690          3845.000
       411   11 Jun 2027 09:33:15.075   11 Jun 2027 09:33:18.749             3.674          1837.000
       412   11 Jun 2027 09:33:40.285   11 Jun 2027 09:33:48.014             7.729          3864.500
       413   11 Jun 2027 09:34:48.835   11 Jun 2027 09:35:07.114            18.279          9139.500
       414   11 Jun 2027 09:37:16.728   11 Jun 2027 09:37:19.344             2.616          1308.000
       415   11 Jun 2027 09:37:51.366   11 Jun 2027 09:37:56.406             5.040          2520.000
       416   11 Jun 2027 09:38:17.525   11 Jun 2027 09:38:27.435             9.910          4955.000
       417   11 Jun 2027 09:39:14.957   11 Jun 2027 09:39:21.278             6.321          3160.500
       418   11 Jun 2027 09:40:00.265   11 Jun 2027 09:40:07.578             7.313          3656.500
       419   12 Jun 2027 03:18:58.544   12 Jun 2027 03:19:02.967             4.423          2211.500
       420   12 Jun 2027 03:19:31.525   12 Jun 2027 03:19:33.367             1.842           921.000
       421   12 Jun 2027 03:20:07.468   12 Jun 2027 03:20:10.815             3.347          1673.500
       422   12 Jun 2027 03:20:37.899   12 Jun 2027 03:20:50.208            12.309          6154.500
       423   12 Jun 2027 03:21:40.921   12 Jun 2027 03:21:41.847             0.926           463.000
       424   12 Jun 2027 03:21:59.009   12 Jun 2027 03:22:03.293             4.284          2142.000
       425   12 Jun 2027 03:23:09.613   12 Jun 2027 03:23:15.635             6.022          3011.000
       426   12 Jun 2027 03:23:49.161   12 Jun 2027 03:23:52.894             3.733          1866.500
       427   12 Jun 2027 03:24:07.940   12 Jun 2027 03:24:13.056             5.116          2558.000
       428   12 Jun 2027 03:24:56.017   12 Jun 2027 03:24:57.467             1.450           725.000
       429   12 Jun 2027 03:25:14.537   12 Jun 2027 03:25:19.096             4.559          2279.500
       430   12 Jun 2027 03:25:52.628   12 Jun 2027 03:26:05.459            12.831          6415.500
       431   12 Jun 2027 03:27:18.421   12 Jun 2027 03:27:21.287             2.866          1433.000
       432   12 Jun 2027 03:27:35.579   12 Jun 2027 03:27:37.332             1.753           876.500
       433   12 Jun 2027 03:27:42.591   12 Jun 2027 03:27:42.608             0.017             8.500
       434   12 Jun 2027 03:27:50.671   12 Jun 2027 03:28:01.809            11.138          5569.000
       435   12 Jun 2027 04:56:48.341   12 Jun 2027 04:56:51.310             2.969          1484.500
       436   12 Jun 2027 04:57:13.130   12 Jun 2027 04:57:20.108             6.978          3489.000
       437   12 Jun 2027 04:57:53.193   12 Jun 2027 04:57:55.365             2.172          1086.000
       438   12 Jun 2027 04:58:13.366   12 Jun 2027 04:58:17.991             4.625          2312.500
       439   12 Jun 2027 04:58:48.805   12 Jun 2027 04:59:15.694            26.889         13444.500
       440   12 Jun 2027 05:01:52.658   12 Jun 2027 05:01:55.693             3.035          1517.500
       441   12 Jun 2027 05:02:40.471   12 Jun 2027 05:02:45.398             4.927          2463.500
       442   12 Jun 2027 05:03:16.775   12 Jun 2027 05:03:37.191            20.416         10208.000
       443   12 Jun 2027 06:33:32.817   12 Jun 2027 06:33:44.189            11.372          5686.000
       444   12 Jun 2027 06:35:34.369   12 Jun 2027 06:35:35.530             1.161           580.500
       445   12 Jun 2027 06:35:56.330   12 Jun 2027 06:35:56.973             0.643           321.500
       446   12 Jun 2027 06:36:08.452   12 Jun 2027 06:36:13.922             5.470          2735.000
       447   12 Jun 2027 06:36:48.943   12 Jun 2027 06:36:55.053             6.110          3055.000
       448   12 Jun 2027 06:37:19.731   12 Jun 2027 06:37:22.732             3.001          1500.500
       449   12 Jun 2027 06:37:46.397   12 Jun 2027 06:37:46.647             0.250           125.000
       450   12 Jun 2027 06:37:48.149   12 Jun 2027 06:37:51.611             3.462          1731.000
       451   12 Jun 2027 06:38:49.619   12 Jun 2027 06:39:09.862            20.243         10121.500
       452   12 Jun 2027 08:11:41.408   12 Jun 2027 08:11:47.134             5.726          2863.000
       453   12 Jun 2027 08:12:26.949   12 Jun 2027 08:12:37.148            10.199          5099.500
       454   12 Jun 2027 08:13:26.321   12 Jun 2027 08:13:30.870             4.549          2274.500
       455   12 Jun 2027 08:13:59.911   12 Jun 2027 08:14:02.107             2.196          1098.000
       456   12 Jun 2027 08:14:14.285   12 Jun 2027 08:14:18.375             4.090          2045.000
       457   12 Jun 2027 08:15:00.162   12 Jun 2027 08:15:05.837             5.675          2837.500
       458   12 Jun 2027 09:45:32.110   12 Jun 2027 09:45:42.021             9.911          4955.500
       459   12 Jun 2027 09:46:41.367   12 Jun 2027 09:46:43.358             1.991           995.500
       460   12 Jun 2027 09:47:12.263   12 Jun 2027 09:47:14.423             2.160          1080.000
       461   12 Jun 2027 09:47:16.445   12 Jun 2027 09:47:35.658            19.213          9606.500
       462   12 Jun 2027 09:49:29.624   12 Jun 2027 09:49:51.710            22.086         11043.000
       463   12 Jun 2027 09:51:27.567   12 Jun 2027 09:51:29.053             1.486           743.000
       464   12 Jun 2027 09:51:46.269   12 Jun 2027 09:51:48.969             2.700          1350.000
       465   13 Jun 2027 03:31:46.728   13 Jun 2027 03:32:01.465            14.737          7368.500
       466   13 Jun 2027 03:32:32.539   13 Jun 2027 03:32:40.307             7.768          3884.000
       467   13 Jun 2027 03:33:29.007   13 Jun 2027 03:33:29.007             0.000             0.000
       468   13 Jun 2027 03:34:06.103   13 Jun 2027 03:34:08.023             1.920           960.000
       469   13 Jun 2027 03:34:46.372   13 Jun 2027 03:34:46.460             0.088            44.000
       470   13 Jun 2027 03:35:06.694   13 Jun 2027 03:35:10.739             4.045          2022.500
       471   13 Jun 2027 03:35:27.585   13 Jun 2027 03:35:33.440             5.855          2927.500
       472   13 Jun 2027 03:35:53.604   13 Jun 2027 03:35:55.179             1.575           787.500
       473   13 Jun 2027 03:36:35.953   13 Jun 2027 03:36:40.285             4.332          2166.000
       474   13 Jun 2027 03:37:15.842   13 Jun 2027 03:37:27.240            11.398          5699.000
       475   13 Jun 2027 03:38:46.689   13 Jun 2027 03:38:50.871             4.182          2091.000
       476   13 Jun 2027 03:39:17.839   13 Jun 2027 03:39:25.554             7.715          3857.500
       477   13 Jun 2027 05:08:55.187   13 Jun 2027 05:08:58.696             3.509          1754.500
       478   13 Jun 2027 05:09:41.982   13 Jun 2027 05:09:54.402            12.420          6210.000
       479   13 Jun 2027 05:10:52.003   13 Jun 2027 05:11:00.954             8.951          4475.500
       480   13 Jun 2027 05:11:58.017   13 Jun 2027 05:11:58.024             0.007             3.500
       481   13 Jun 2027 05:12:00.993   13 Jun 2027 05:12:02.077             1.084           542.000
       482   13 Jun 2027 05:12:41.742   13 Jun 2027 05:12:43.545             1.803           901.500
       483   13 Jun 2027 05:13:31.325   13 Jun 2027 05:13:39.557             8.232          4116.000
       484   13 Jun 2027 05:13:55.171   13 Jun 2027 05:13:55.704             0.533           266.500
       485   13 Jun 2027 05:14:04.401   13 Jun 2027 05:14:16.151            11.750          5875.000
       486   13 Jun 2027 05:14:26.839   13 Jun 2027 05:14:28.091             1.252           626.000
       487   13 Jun 2027 05:15:48.340   13 Jun 2027 05:15:49.595             1.255           627.500
       488   13 Jun 2027 06:45:58.095   13 Jun 2027 06:46:08.380            10.285          5142.500
       489   13 Jun 2027 06:47:55.986   13 Jun 2027 06:47:58.462             2.476          1238.000
       490   13 Jun 2027 06:48:39.203   13 Jun 2027 06:48:44.832             5.629          2814.500
       491   13 Jun 2027 06:49:13.516   13 Jun 2027 06:49:21.498             7.982          3991.000
       492   13 Jun 2027 06:50:18.691   13 Jun 2027 06:50:25.379             6.688          3344.000
       493   13 Jun 2027 06:51:09.970   13 Jun 2027 06:51:17.498             7.528          3764.000
       494   13 Jun 2027 06:51:55.591   13 Jun 2027 06:51:56.527             0.936           468.000
       495   13 Jun 2027 08:22:54.788   13 Jun 2027 08:22:56.677             1.889           944.500
       496   13 Jun 2027 08:22:58.369   13 Jun 2027 08:22:59.299             0.930           465.000
       497   13 Jun 2027 08:23:12.319   13 Jun 2027 08:23:12.887             0.568           284.000
       498   13 Jun 2027 08:23:29.895   13 Jun 2027 08:23:34.197             4.302          2151.000
       499   13 Jun 2027 08:23:52.856   13 Jun 2027 08:23:57.066             4.210          2105.000
       500   13 Jun 2027 08:24:59.329   13 Jun 2027 08:25:00.461             1.132           566.000
       501   13 Jun 2027 08:25:20.963   13 Jun 2027 08:25:28.059             7.096          3548.000
       502   13 Jun 2027 08:26:04.708   13 Jun 2027 08:26:10.558             5.850          2925.000
       503   13 Jun 2027 08:26:36.350   13 Jun 2027 08:26:36.553             0.203           101.500
       504   13 Jun 2027 08:26:50.380   13 Jun 2027 08:26:53.051             2.671          1335.500
       505   13 Jun 2027 08:27:44.013   13 Jun 2027 08:27:45.038             1.025           512.500
       506   13 Jun 2027 09:57:59.211   13 Jun 2027 09:58:23.372            24.161         12080.500
       507   13 Jun 2027 10:00:21.685   13 Jun 2027 10:00:28.355             6.670          3335.000
       508   13 Jun 2027 10:01:02.811   13 Jun 2027 10:01:12.529             9.718          4859.000
       509   13 Jun 2027 10:01:52.325   13 Jun 2027 10:02:13.344            21.019         10509.500
