uniorb/output/strategy_2/Camera/Camera_KinoSat_111106.txt

KinoSat_111106
-------------------------
    Access    *     Start Time (UTCG)     *     Stop Time (UTCG)  *   Duration (s) *   Data (Mbytes)
         1   01 Jun 2027 03:26:02.879   01 Jun 2027 03:26:40.486            37.607         18803.500
         2   01 Jun 2027 03:27:10.411   01 Jun 2027 03:29:38.215           147.804         73902.000
         3   01 Jun 2027 04:50:07.544   01 Jun 2027 04:51:16.091            68.547         34273.500
         4   01 Jun 2027 04:52:21.406   01 Jun 2027 04:52:29.845             8.439          4219.500
         5   01 Jun 2027 06:25:53.505   01 Jun 2027 06:26:26.137            32.632         16316.000
         6   01 Jun 2027 06:26:32.719   01 Jun 2027 06:27:01.742            29.023         14511.500
         7   01 Jun 2027 06:28:07.496   01 Jun 2027 06:29:50.741           103.245         51622.500
         8   01 Jun 2027 08:00:51.213   01 Jun 2027 08:03:30.888           159.675         79837.500
         9   01 Jun 2027 08:03:43.773   01 Jun 2027 08:03:54.391            10.618          5309.000
        10   01 Jun 2027 08:06:16.758   01 Jun 2027 08:06:18.198             1.440           720.000
        11   01 Jun 2027 08:07:40.538   01 Jun 2027 08:07:53.757            13.219          6609.500
        12   01 Jun 2027 09:37:04.238   01 Jun 2027 09:39:41.356           157.118         78559.000
        13   01 Jun 2027 11:15:24.565   01 Jun 2027 11:17:03.305            98.740         49370.000
        14   01 Jun 2027 11:18:26.605   01 Jun 2027 11:18:34.726             8.121          4060.500
        15   01 Jun 2027 11:19:05.372   01 Jun 2027 11:19:15.444            10.072          5036.000
        16   02 Jun 2027 03:26:51.832   02 Jun 2027 03:26:54.477             2.645          1322.500
        17   02 Jun 2027 03:27:36.199   02 Jun 2027 03:27:36.380             0.181            90.500
        18   02 Jun 2027 03:37:58.965   02 Jun 2027 03:39:41.878           102.913         51456.500
        19   02 Jun 2027 03:39:54.935   02 Jun 2027 03:41:18.182            83.247         41623.500
        20   02 Jun 2027 05:00:56.049   02 Jun 2027 05:01:40.600            44.551         22275.500
        21   02 Jun 2027 05:02:25.350   02 Jun 2027 05:02:25.350             0.000             0.000
        22   02 Jun 2027 05:02:51.565   02 Jun 2027 05:03:04.530            12.965          6482.500
        23   02 Jun 2027 05:04:46.432   02 Jun 2027 05:04:46.432             0.000             0.000
        24   02 Jun 2027 06:36:22.841   02 Jun 2027 06:36:40.767            17.926          8963.000
        25   02 Jun 2027 06:37:38.701   02 Jun 2027 06:38:48.121            69.420         34710.000
        26   02 Jun 2027 06:40:06.282   02 Jun 2027 06:41:46.344           100.062         50031.000
        27   02 Jun 2027 08:12:24.196   02 Jun 2027 08:14:20.893           116.697         58101.001
        28   02 Jun 2027 08:16:44.417   02 Jun 2027 08:16:54.815            10.398          4158.375
        29   02 Jun 2027 08:18:03.474   02 Jun 2027 08:18:05.723             2.249          1124.500
        30   02 Jun 2027 08:18:29.130   02 Jun 2027 08:18:29.130             0.000             0.000
        31   02 Jun 2027 08:18:41.722   02 Jun 2027 08:18:45.949             4.227          2046.562
        32   02 Jun 2027 08:18:54.536   02 Jun 2027 08:18:56.985             2.449           235.250
        33   02 Jun 2027 08:19:06.480   02 Jun 2027 08:19:10.030             3.550            14.969
        34   02 Jun 2027 09:49:26.234   02 Jun 2027 09:49:51.318            25.084         11492.875
        35   02 Jun 2027 09:50:15.578   02 Jun 2027 09:50:18.554             2.976           526.812
        36   02 Jun 2027 09:51:43.836   02 Jun 2027 09:51:46.006             2.170           633.375
        37   02 Jun 2027 09:52:05.741   02 Jun 2027 09:52:06.999             1.258           229.000
        38   02 Jun 2027 09:52:36.712   02 Jun 2027 09:52:39.145             2.433           634.281
        39   02 Jun 2027 09:53:30.630   02 Jun 2027 09:53:31.493             0.863           431.500
        40   02 Jun 2027 09:54:02.608   02 Jun 2027 09:54:06.726             4.118          1653.875
        41   02 Jun 2027 09:54:08.657   02 Jun 2027 09:54:12.372             3.715            54.719
        42   02 Jun 2027 09:54:20.674   02 Jun 2027 09:54:20.876             0.202           101.000
        43   02 Jun 2027 09:54:45.022   02 Jun 2027 09:54:48.302             3.280           810.500
        44   02 Jun 2027 09:55:19.842   02 Jun 2027 09:55:19.842             0.000             0.000
        45   02 Jun 2027 09:55:23.330   02 Jun 2027 09:55:24.933             1.603           369.187
        46   02 Jun 2027 09:55:29.687   02 Jun 2027 09:55:30.653             0.966           148.563
        47   02 Jun 2027 11:27:26.029   02 Jun 2027 11:27:42.006            15.977          7917.625
        48   02 Jun 2027 11:28:25.390   02 Jun 2027 11:28:34.467             9.077          1355.750
        49   02 Jun 2027 11:28:45.814   02 Jun 2027 11:28:49.565             3.751           325.844
        50   02 Jun 2027 11:30:36.012   02 Jun 2027 11:30:44.632             8.620          2720.000
        51   02 Jun 2027 11:31:00.294   02 Jun 2027 11:31:01.511             1.217           489.438
        52   02 Jun 2027 11:31:18.845   02 Jun 2027 11:31:21.823             2.978           102.125
        53   03 Jun 2027 03:38:18.289   03 Jun 2027 03:39:28.892            70.603         35301.500
        54   03 Jun 2027 03:39:29.067   03 Jun 2027 03:39:29.067             0.000             0.000
        55   03 Jun 2027 03:50:00.760   03 Jun 2027 03:51:20.227            79.467         39733.500
        56   03 Jun 2027 05:12:13.644   03 Jun 2027 05:13:26.565            72.921         36460.500
        57   03 Jun 2027 05:14:15.681   03 Jun 2027 05:14:35.239            19.558          9779.000
        58   03 Jun 2027 05:14:39.142   03 Jun 2027 05:14:50.897            11.755          5877.500
        59   03 Jun 2027 05:16:33.327   03 Jun 2027 05:16:47.413            14.086          7043.000
        60   03 Jun 2027 06:47:20.371   03 Jun 2027 06:47:55.175            34.804         16799.219
        61   03 Jun 2027 06:48:25.190   03 Jun 2027 06:48:27.638             2.448           704.188
        62   03 Jun 2027 06:49:44.297   03 Jun 2027 06:49:44.297             0.000             0.000
        63   03 Jun 2027 06:49:53.035   03 Jun 2027 06:49:56.474             3.439          1464.281
        64   03 Jun 2027 06:50:24.437   03 Jun 2027 06:50:29.244             4.807           415.937
        65   03 Jun 2027 06:50:46.251   03 Jun 2027 06:50:47.620             1.369           514.437
        66   03 Jun 2027 06:51:44.776   03 Jun 2027 06:51:48.945             4.169          1386.531
        67   03 Jun 2027 06:52:42.031   03 Jun 2027 06:52:44.459             2.428           552.219
        68   03 Jun 2027 06:53:07.461   03 Jun 2027 06:53:14.191             6.730           553.000
        69   03 Jun 2027 06:53:32.463   03 Jun 2027 06:53:32.463             0.000             0.000
        70   03 Jun 2027 06:53:45.401   03 Jun 2027 06:53:47.229             1.828           481.125
        71   03 Jun 2027 08:24:34.976   03 Jun 2027 08:24:47.199            12.223          5830.563
        72   03 Jun 2027 08:25:25.320   03 Jun 2027 08:25:27.964             2.644           916.062
        73   03 Jun 2027 08:26:54.699   03 Jun 2027 08:26:58.215             3.516          1047.844
        74   03 Jun 2027 08:27:19.184   03 Jun 2027 08:27:21.148             1.964           486.812
        75   03 Jun 2027 08:27:45.307   03 Jun 2027 08:27:46.385             1.078           277.281
        76   03 Jun 2027 08:28:06.130   03 Jun 2027 08:28:11.248             5.118           435.844
        77   03 Jun 2027 08:28:59.853   03 Jun 2027 08:29:01.981             2.128           668.125
        78   03 Jun 2027 08:29:31.223   03 Jun 2027 08:29:33.999             2.776           315.875
        79   03 Jun 2027 08:30:19.945   03 Jun 2027 08:30:23.015             3.070          1300.031
        80   03 Jun 2027 08:30:52.057   03 Jun 2027 08:30:54.428             2.371           602.156
        81   03 Jun 2027 08:31:12.805   03 Jun 2027 08:31:13.922             1.117           550.375
        82   03 Jun 2027 10:01:30.006   03 Jun 2027 10:01:48.610            18.604          8040.375
        83   03 Jun 2027 10:03:20.734   03 Jun 2027 10:03:28.541             7.807          2055.250
        84   03 Jun 2027 10:03:50.264   03 Jun 2027 10:03:51.652             1.388           604.781
        85   03 Jun 2027 10:04:24.101   03 Jun 2027 10:04:26.175             2.074           642.063
        86   03 Jun 2027 10:04:53.620   03 Jun 2027 10:04:58.773             5.153           257.562
        87   03 Jun 2027 10:05:21.169   03 Jun 2027 10:05:23.219             2.050           118.250
        88   03 Jun 2027 10:05:45.618   03 Jun 2027 10:05:47.556             1.938           699.969
        89   03 Jun 2027 10:06:10.016   03 Jun 2027 10:06:16.151             6.135           603.250
        90   03 Jun 2027 10:07:18.422   03 Jun 2027 10:07:22.100             3.678          1776.219
        91   03 Jun 2027 11:39:25.514   03 Jun 2027 11:39:38.908            13.394          6514.906
        92   03 Jun 2027 11:40:02.262   03 Jun 2027 11:40:03.869             1.607           729.812
        93   03 Jun 2027 11:40:48.904   03 Jun 2027 11:40:51.989             3.085           885.969
        94   03 Jun 2027 11:40:59.245   03 Jun 2027 11:40:59.796             0.551           106.031
        95   03 Jun 2027 11:41:39.490   03 Jun 2027 11:41:44.138             4.648          1107.250
        96   03 Jun 2027 11:42:39.113   03 Jun 2027 11:42:42.850             3.737          1556.281
        97   03 Jun 2027 11:43:15.404   03 Jun 2027 11:43:20.037             4.633          1017.313
        98   04 Jun 2027 03:49:46.750   04 Jun 2027 03:51:01.135            74.385         37192.500
        99   04 Jun 2027 03:51:19.170   04 Jun 2027 03:51:56.434            37.264         18632.000
       100   04 Jun 2027 04:01:57.476   04 Jun 2027 04:02:36.109            38.633         19316.500
       101   04 Jun 2027 05:23:59.233   04 Jun 2027 05:25:19.917            80.684         40342.000
       102   04 Jun 2027 05:26:01.938   04 Jun 2027 05:26:33.575            31.637         15818.500
       103   04 Jun 2027 05:27:07.910   04 Jun 2027 05:27:12.233             4.323          2161.500
       104   04 Jun 2027 05:27:29.513   04 Jun 2027 05:27:34.963             5.450          2725.000
       105   04 Jun 2027 06:58:49.761   04 Jun 2027 06:59:45.074            55.313         26513.937
       106   04 Jun 2027 07:00:45.502   04 Jun 2027 07:00:51.264             5.762          1372.250
       107   04 Jun 2027 07:01:25.532   04 Jun 2027 07:01:27.993             2.461          1008.000
       108   04 Jun 2027 07:01:54.002   04 Jun 2027 07:01:56.849             2.847           676.875
       109   04 Jun 2027 07:03:00.755   04 Jun 2027 07:03:06.499             5.744          1867.906
       110   04 Jun 2027 07:04:18.238   04 Jun 2027 07:04:24.456             6.218          2157.250
       111   04 Jun 2027 07:04:45.124   04 Jun 2027 07:04:46.556             1.432           645.875
       112   04 Jun 2027 07:05:13.154   04 Jun 2027 07:05:14.179             1.025           131.063
       113   04 Jun 2027 07:05:54.723   04 Jun 2027 07:05:58.315             3.592          1070.281
       114   04 Jun 2027 07:06:07.319   04 Jun 2027 07:06:09.363             2.044           281.375
       115   04 Jun 2027 07:06:40.333   04 Jun 2027 07:06:42.198             1.865           931.594
       116   04 Jun 2027 07:07:34.685   04 Jun 2027 07:07:38.223             3.538          1565.844
       117   04 Jun 2027 08:36:36.046   04 Jun 2027 08:36:47.731            11.685          5692.406
       118   04 Jun 2027 08:37:28.540   04 Jun 2027 08:37:29.538             0.998           499.000
       119   04 Jun 2027 08:38:43.281   04 Jun 2027 08:38:49.534             6.253          2853.000
       120   04 Jun 2027 08:39:26.846   04 Jun 2027 08:39:29.466             2.620           495.844
       121   04 Jun 2027 08:39:44.352   04 Jun 2027 08:39:46.434             2.082           454.406
       122   04 Jun 2027 08:40:30.447   04 Jun 2027 08:40:33.772             3.325           761.969
       123   04 Jun 2027 08:41:09.947   04 Jun 2027 08:41:14.465             4.518           769.125
       124   04 Jun 2027 08:42:37.417   04 Jun 2027 08:42:42.737             5.320          2045.375
       125   04 Jun 2027 08:43:50.942   04 Jun 2027 08:43:55.305             4.363          2131.406
       126   04 Jun 2027 08:43:57.232   04 Jun 2027 08:43:58.231             0.999            60.219
       127   04 Jun 2027 08:43:58.967   04 Jun 2027 08:44:01.699             2.732            20.937
       128   04 Jun 2027 10:13:21.556   04 Jun 2027 10:13:39.213            17.657          7451.437
       129   04 Jun 2027 10:14:24.750   04 Jun 2027 10:14:28.232             3.482          1285.781
       130   04 Jun 2027 10:15:37.799   04 Jun 2027 10:15:43.700             5.901          1729.563
       131   04 Jun 2027 10:16:11.750   04 Jun 2027 10:16:14.882             3.132           654.000
       132   04 Jun 2027 10:17:31.759   04 Jun 2027 10:17:35.497             3.738          1869.000
       133   04 Jun 2027 10:17:43.756   04 Jun 2027 10:17:46.674             2.918           791.500
       134   04 Jun 2027 10:17:54.177   04 Jun 2027 10:17:57.695             3.518           198.906
       135   04 Jun 2027 10:18:14.413   04 Jun 2027 10:18:16.590             2.177           354.062
       136   04 Jun 2027 10:18:42.442   04 Jun 2027 10:18:44.640             2.198           732.719
       137   04 Jun 2027 10:18:44.697   04 Jun 2027 10:18:46.880             2.183             1.781
       138   04 Jun 2027 10:19:10.212   04 Jun 2027 10:19:16.893             6.681           138.375
       139   04 Jun 2027 10:19:25.944   04 Jun 2027 10:19:26.566             0.622           232.188
       140   04 Jun 2027 10:19:34.234   04 Jun 2027 10:19:39.811             5.577           239.625
       141   04 Jun 2027 10:20:00.546   04 Jun 2027 10:20:00.546             0.000             0.000
       142   04 Jun 2027 11:51:26.712   04 Jun 2027 11:51:51.187            24.475          6622.875
       143   04 Jun 2027 11:51:55.857   04 Jun 2027 11:51:56.015             0.158            79.000
       144   04 Jun 2027 11:52:23.312   04 Jun 2027 11:52:26.911             3.599           919.969
       145   04 Jun 2027 11:53:18.690   04 Jun 2027 11:53:18.773             0.083            41.500
       146   04 Jun 2027 11:53:35.092   04 Jun 2027 11:53:37.841             2.749          1291.969
       147   04 Jun 2027 11:54:04.093   04 Jun 2027 11:54:18.444            14.351           820.375
       148   04 Jun 2027 11:55:12.498   04 Jun 2027 11:55:15.990             3.492          1649.812
       149   04 Jun 2027 11:55:22.146   04 Jun 2027 11:55:25.010             2.864           180.469
       150   04 Jun 2027 11:55:25.856   04 Jun 2027 11:55:26.843             0.987            26.437
       151   05 Jun 2027 04:01:48.584   05 Jun 2027 04:03:06.095            77.511         38755.500
       152   05 Jun 2027 04:03:36.383   05 Jun 2027 04:03:44.941             8.558          4279.000
       153   05 Jun 2027 05:37:46.229   05 Jun 2027 05:40:31.401           165.172         82586.000
       154   05 Jun 2027 05:41:00.714   05 Jun 2027 05:41:00.714             0.000             0.000
       155   05 Jun 2027 07:11:35.685   05 Jun 2027 07:12:35.109            59.424         29041.906
       156   05 Jun 2027 07:12:56.537   05 Jun 2027 07:13:01.864             5.327           506.500
       157   05 Jun 2027 07:13:38.390   05 Jun 2027 07:13:47.680             9.290           794.125
       158   05 Jun 2027 07:14:15.325   05 Jun 2027 07:14:15.969             0.644           258.562
       159   05 Jun 2027 07:14:46.640   05 Jun 2027 07:14:53.768             7.128           950.469
       160   05 Jun 2027 07:16:10.999   05 Jun 2027 07:16:17.303             6.304          2198.250
       161   05 Jun 2027 07:16:48.117   05 Jun 2027 07:16:52.432             4.315           754.313
       162   05 Jun 2027 07:18:26.231   05 Jun 2027 07:18:31.151             4.920          2373.750
       163   05 Jun 2027 07:18:38.036   05 Jun 2027 07:18:38.709             0.673           206.344
       164   05 Jun 2027 07:19:06.956   05 Jun 2027 07:19:09.687             2.731           882.719
       165   05 Jun 2027 08:48:39.673   05 Jun 2027 08:48:54.209            14.536          7257.750
       166   05 Jun 2027 08:51:21.779   05 Jun 2027 08:51:29.721             7.942          3293.313
       167   05 Jun 2027 08:52:47.267   05 Jun 2027 08:52:49.385             2.118          1059.000
       168   05 Jun 2027 08:53:56.096   05 Jun 2027 08:54:01.913             5.817          2644.719
       169   05 Jun 2027 08:55:31.359   05 Jun 2027 08:55:36.504             5.145          2391.438
       170   05 Jun 2027 08:55:38.476   05 Jun 2027 08:55:41.321             2.845            12.500
       171   05 Jun 2027 10:25:35.297   05 Jun 2027 10:25:51.258            15.961          7925.031
       172   05 Jun 2027 10:27:11.856   05 Jun 2027 10:27:16.727             4.871          1946.063
       173   05 Jun 2027 10:27:24.618   05 Jun 2027 10:27:27.182             2.564           246.594
       174   05 Jun 2027 10:27:59.755   05 Jun 2027 10:28:01.124             1.369           669.438
       175   05 Jun 2027 10:28:21.579   05 Jun 2027 10:28:28.304             6.725           639.219
       176   05 Jun 2027 10:28:37.548   05 Jun 2027 10:28:38.793             1.245           288.875
       177   05 Jun 2027 10:29:20.709   05 Jun 2027 10:29:23.943             3.234          1306.500
       178   05 Jun 2027 10:29:42.385   05 Jun 2027 10:29:45.425             3.040           501.250
       179   05 Jun 2027 10:30:23.616   05 Jun 2027 10:30:28.346             4.730          1193.469
       180   05 Jun 2027 10:31:37.197   05 Jun 2027 10:31:43.104             5.907          2024.187
       181   06 Jun 2027 04:13:42.636   06 Jun 2027 04:15:05.313            82.677         41338.500
       182   06 Jun 2027 04:15:15.352   06 Jun 2027 04:15:29.856            14.504          7252.000
       183   06 Jun 2027 05:50:05.129   06 Jun 2027 05:52:55.000           169.871         84935.500
       184   06 Jun 2027 07:23:33.824   06 Jun 2027 07:24:22.653            48.829         23342.406
       185   06 Jun 2027 07:24:59.726   06 Jun 2027 07:25:01.859             2.133           595.031
       186   06 Jun 2027 07:25:53.199   06 Jun 2027 07:25:54.176             0.977           259.094
       187   06 Jun 2027 07:27:31.623   06 Jun 2027 07:27:39.130             7.507          3045.219
       188   06 Jun 2027 07:27:57.465   06 Jun 2027 07:27:58.944             1.479           303.000
       189   06 Jun 2027 07:28:01.274   06 Jun 2027 07:28:03.375             2.101            72.813
       190   06 Jun 2027 07:28:25.121   06 Jun 2027 07:28:25.420             0.299            71.562
       191   06 Jun 2027 07:29:08.400   06 Jun 2027 07:29:11.345             2.945          1310.313
       192   06 Jun 2027 07:30:09.475   06 Jun 2027 07:30:15.038             5.563          1816.562
       193   06 Jun 2027 07:30:44.608   06 Jun 2027 07:30:48.981             4.373           924.063
       194   06 Jun 2027 07:31:19.209   06 Jun 2027 07:31:19.700             0.491           245.500
       195   06 Jun 2027 07:31:32.811   06 Jun 2027 07:31:35.497             2.686           953.875
       196   06 Jun 2027 07:32:02.789   06 Jun 2027 07:32:04.773             1.984           852.875
       197   06 Jun 2027 09:01:06.110   06 Jun 2027 09:01:19.772            13.662          6753.938
       198   06 Jun 2027 09:02:29.900   06 Jun 2027 09:02:32.576             2.676          1288.656
       199   06 Jun 2027 09:03:31.384   06 Jun 2027 09:03:38.663             7.279          1089.500
       200   06 Jun 2027 09:04:22.815   06 Jun 2027 09:04:25.275             2.460           935.906
       201   06 Jun 2027 09:04:45.232   06 Jun 2027 09:04:46.672             1.440           599.344
       202   06 Jun 2027 09:05:29.745   06 Jun 2027 09:05:32.625             2.880          1331.656
       203   06 Jun 2027 09:05:49.920   06 Jun 2027 09:05:51.434             1.514           343.156
       204   06 Jun 2027 09:06:01.958   06 Jun 2027 09:06:03.278             1.320           279.000
       205   06 Jun 2027 09:06:15.045   06 Jun 2027 09:06:16.372             1.327           367.719
       206   06 Jun 2027 09:06:35.529   06 Jun 2027 09:06:38.488             2.959           261.969
       207   06 Jun 2027 09:07:14.296   06 Jun 2027 09:07:20.647             6.351           926.000
       208   06 Jun 2027 10:38:00.908   06 Jun 2027 10:38:23.307            22.399          8671.312
       209   06 Jun 2027 10:39:56.972   06 Jun 2027 10:40:01.954             4.982           216.531
       210   06 Jun 2027 10:41:27.274   06 Jun 2027 10:41:28.816             1.542           704.438
       211   06 Jun 2027 10:41:35.038   06 Jun 2027 10:41:38.951             3.913           194.437
       212   06 Jun 2027 10:42:19.583   06 Jun 2027 10:42:24.263             4.680          1079.281
       213   06 Jun 2027 10:43:05.598   06 Jun 2027 10:43:11.182             5.584          1272.313
       214   06 Jun 2027 10:43:28.052   06 Jun 2027 10:43:30.654             2.602           174.531
       215   06 Jun 2027 10:43:35.289   06 Jun 2027 10:43:35.289             0.000             0.000
       216   07 Jun 2027 03:01:57.542   07 Jun 2027 03:03:11.500            73.958         36979.000
       217   07 Jun 2027 03:03:39.581   07 Jun 2027 03:03:41.347             1.766           883.000
       218   07 Jun 2027 03:04:11.823   07 Jun 2027 03:04:34.147            22.324         11162.000
       219   07 Jun 2027 03:05:52.314   07 Jun 2027 03:06:13.855            21.541         10770.500
       220   07 Jun 2027 04:25:32.721   07 Jun 2027 04:26:21.394            48.673         24336.500
       221   07 Jun 2027 04:26:40.600   07 Jun 2027 04:26:46.020             5.420          2710.000
       222   07 Jun 2027 04:26:51.687   07 Jun 2027 04:27:04.502            12.815          6407.500
       223   07 Jun 2027 06:02:06.914   07 Jun 2027 06:04:21.612           134.698         67349.000
       224   07 Jun 2027 06:05:03.606   07 Jun 2027 06:05:17.799            14.193          7096.500
       225   07 Jun 2027 07:36:36.664   07 Jun 2027 07:36:50.177            13.513          6668.938
       226   07 Jun 2027 07:37:31.997   07 Jun 2027 07:37:36.194             4.197           911.906
       227   07 Jun 2027 07:38:00.973   07 Jun 2027 07:38:06.904             5.931           352.187
       228   07 Jun 2027 07:38:22.025   07 Jun 2027 07:38:22.264             0.239           119.500
       229   07 Jun 2027 07:38:37.450   07 Jun 2027 07:38:40.725             3.275           622.813
       230   07 Jun 2027 07:38:50.195   07 Jun 2027 07:38:51.605             1.410           159.344
       231   07 Jun 2027 07:39:43.288   07 Jun 2027 07:39:46.551             3.263          1574.281
       232   07 Jun 2027 07:40:37.318   07 Jun 2027 07:40:39.968             2.650           514.063
       233   07 Jun 2027 07:41:16.663   07 Jun 2027 07:41:16.663             0.000             0.000
       234   07 Jun 2027 07:41:22.820   07 Jun 2027 07:41:30.631             7.811           911.187
       235   07 Jun 2027 07:42:28.258   07 Jun 2027 07:42:32.512             4.254           493.938
       236   07 Jun 2027 07:42:44.672   07 Jun 2027 07:42:46.690             2.018           358.406
       237   07 Jun 2027 07:43:32.452   07 Jun 2027 07:43:34.129             1.677           838.500
       238   07 Jun 2027 07:43:56.433   07 Jun 2027 07:43:59.948             3.515          1288.562
       239   07 Jun 2027 09:13:13.227   07 Jun 2027 09:13:27.745            14.518          6187.437
       240   07 Jun 2027 09:14:50.392   07 Jun 2027 09:14:53.126             2.734           816.313
       241   07 Jun 2027 09:15:56.406   07 Jun 2027 09:15:58.038             1.632           415.625
       242   07 Jun 2027 09:16:17.333   07 Jun 2027 09:16:25.403             8.070           602.969
       243   07 Jun 2027 09:17:29.971   07 Jun 2027 09:17:34.555             4.584          1696.094
       244   07 Jun 2027 09:17:50.377   07 Jun 2027 09:17:51.024             0.647           304.250
       245   07 Jun 2027 09:18:19.238   07 Jun 2027 09:18:21.813             2.575           881.688
       246   07 Jun 2027 09:19:05.466   07 Jun 2027 09:19:12.181             6.715           993.938
       247   07 Jun 2027 09:19:44.221   07 Jun 2027 09:19:47.549             3.328          1001.250
       248   07 Jun 2027 10:50:55.397   07 Jun 2027 10:51:14.547            19.150          8478.281
       249   07 Jun 2027 10:51:33.102   07 Jun 2027 10:51:34.815             1.713           579.844
       250   07 Jun 2027 10:52:14.275   07 Jun 2027 10:52:19.477             5.202          1157.438
       251   07 Jun 2027 10:52:49.407   07 Jun 2027 10:52:53.419             4.012           740.125
       252   07 Jun 2027 10:54:09.424   07 Jun 2027 10:54:18.637             9.213          2375.156
       253   07 Jun 2027 10:54:22.570   07 Jun 2027 10:54:26.264             3.694           122.906
       254   07 Jun 2027 10:54:56.133   07 Jun 2027 10:54:59.035             2.902           932.563
       255   08 Jun 2027 03:14:22.589   08 Jun 2027 03:14:49.324            26.735         13367.500
       256   08 Jun 2027 03:15:10.598   08 Jun 2027 03:16:12.232            61.634         30817.000
       257   08 Jun 2027 03:16:44.307   08 Jun 2027 03:18:10.456            86.149         43074.500
       258   08 Jun 2027 04:37:43.929   08 Jun 2027 04:38:27.737            43.808         21904.000
       259   08 Jun 2027 04:39:20.358   08 Jun 2027 04:39:31.574            11.216          5608.000
       260   08 Jun 2027 04:40:34.058   08 Jun 2027 04:40:45.571            11.513          5756.500
       261   08 Jun 2027 06:14:15.656   08 Jun 2027 06:15:25.659            70.003         35001.500
       262   08 Jun 2027 06:15:28.419   08 Jun 2027 06:15:34.469             6.050           115.501
       263   08 Jun 2027 06:17:19.607   08 Jun 2027 06:17:29.754            10.147          3088.906
       264   08 Jun 2027 07:49:24.806   08 Jun 2027 07:49:36.374            11.568          5022.031
       265   08 Jun 2027 07:50:24.864   08 Jun 2027 07:50:28.055             3.191          1408.875
       266   08 Jun 2027 07:51:05.474   08 Jun 2027 07:51:10.405             4.931           437.656
       267   08 Jun 2027 07:51:55.434   08 Jun 2027 07:52:01.243             5.809          1172.719
       268   08 Jun 2027 07:52:48.427   08 Jun 2027 07:52:50.635             2.208           952.906
       269   08 Jun 2027 07:53:23.035   08 Jun 2027 07:53:27.555             4.520           839.875
       270   08 Jun 2027 07:53:58.619   08 Jun 2027 07:54:03.050             4.431           296.000
       271   08 Jun 2027 07:54:42.575   08 Jun 2027 07:54:47.880             5.305           842.031
       272   08 Jun 2027 07:55:36.552   08 Jun 2027 07:55:43.566             7.014          1521.000
       273   08 Jun 2027 07:55:48.567   08 Jun 2027 07:55:50.972             2.405           156.281
       274   08 Jun 2027 09:25:48.621   08 Jun 2027 09:26:03.922            15.301          5576.375
       275   08 Jun 2027 09:26:21.641   08 Jun 2027 09:26:22.585             0.944            46.469
       276   08 Jun 2027 09:27:36.755   08 Jun 2027 09:27:38.778             2.023           537.844
       277   08 Jun 2027 09:28:19.539   08 Jun 2027 09:28:21.513             1.974           780.594
       278   08 Jun 2027 09:30:04.896   08 Jun 2027 09:30:12.091             7.195          3230.719
       279   08 Jun 2027 09:31:15.607   08 Jun 2027 09:31:20.135             4.528          1984.875
       280   08 Jun 2027 09:31:22.101   08 Jun 2027 09:31:23.821             1.720            61.438
       281   08 Jun 2027 11:03:02.243   08 Jun 2027 11:03:20.011            17.768          7062.969
       282   08 Jun 2027 11:03:32.983   08 Jun 2027 11:03:35.534             2.551           190.781
       283   08 Jun 2027 11:04:20.732   08 Jun 2027 11:04:30.592             9.860          1174.938
       284   08 Jun 2027 11:04:43.763   08 Jun 2027 11:04:44.784             1.021           411.594
       285   08 Jun 2027 11:04:51.090   08 Jun 2027 11:05:05.395            14.305           179.406
       286   08 Jun 2027 11:06:12.685   08 Jun 2027 11:06:16.428             3.743          1871.500
       287   08 Jun 2027 11:06:49.460   08 Jun 2027 11:06:56.356             6.896          1201.719
       288   09 Jun 2027 03:26:18.220   09 Jun 2027 03:26:56.080            37.860         18930.000
       289   09 Jun 2027 03:27:25.661   09 Jun 2027 03:29:54.662           149.001         74500.500
       290   09 Jun 2027 04:50:20.314   09 Jun 2027 04:50:50.619            30.305         15152.500
       291   09 Jun 2027 04:50:59.802   09 Jun 2027 04:51:06.925             7.123          3561.500
       292   09 Jun 2027 04:51:38.203   09 Jun 2027 04:51:44.528             6.325          3162.500
       293   09 Jun 2027 06:26:08.682   09 Jun 2027 06:26:40.377            31.695         15847.500
       294   09 Jun 2027 06:26:47.951   09 Jun 2027 06:27:20.295            32.344         16172.000
       295   09 Jun 2027 06:27:44.329   09 Jun 2027 06:27:46.821             2.492          1202.688
       296   09 Jun 2027 06:28:28.611   09 Jun 2027 06:28:32.580             3.969          1305.937
       297   09 Jun 2027 06:28:53.057   09 Jun 2027 06:28:56.960             3.903           454.438
       298   09 Jun 2027 06:29:38.715   09 Jun 2027 06:29:42.607             3.892           846.281
       299   09 Jun 2027 08:01:06.125   09 Jun 2027 08:01:15.634             9.509          4739.000
       300   09 Jun 2027 08:02:28.929   09 Jun 2027 08:02:33.077             4.148          1897.688
       301   09 Jun 2027 08:02:52.345   09 Jun 2027 08:02:53.357             1.012            14.562
       302   09 Jun 2027 08:04:11.099   09 Jun 2027 08:04:13.807             2.708          1354.000
       303   09 Jun 2027 08:04:58.428   09 Jun 2027 08:05:03.334             4.906          2178.500
       304   09 Jun 2027 08:05:31.221   09 Jun 2027 08:05:35.242             4.021           871.469
       305   09 Jun 2027 08:05:54.829   09 Jun 2027 08:05:56.420             1.591           539.469
       306   09 Jun 2027 08:07:42.853   09 Jun 2027 08:07:46.331             3.478          1739.000
       307   09 Jun 2027 09:37:20.400   09 Jun 2027 09:37:40.780            20.380          9299.500
       308   09 Jun 2027 09:39:32.717   09 Jun 2027 09:39:36.643             3.926           290.750
       309   09 Jun 2027 09:40:17.213   09 Jun 2027 09:40:20.931             3.718           475.156
       310   09 Jun 2027 09:40:50.104   09 Jun 2027 09:40:52.947             2.843           911.656
       311   09 Jun 2027 09:41:56.763   09 Jun 2027 09:42:01.143             4.380          1994.250
       312   09 Jun 2027 09:43:08.859   09 Jun 2027 09:43:18.353             9.494          1973.844
       313   09 Jun 2027 09:43:38.667   09 Jun 2027 09:43:38.678             0.011             5.500
       314   09 Jun 2027 11:15:40.143   09 Jun 2027 11:15:56.875            16.732          7667.312
       315   09 Jun 2027 11:16:10.309   09 Jun 2027 11:16:11.328             1.019           241.437
       316   09 Jun 2027 11:17:01.571   09 Jun 2027 11:17:09.187             7.616          1232.375
       317   09 Jun 2027 11:17:28.455   09 Jun 2027 11:17:31.222             2.767           412.219
       318   09 Jun 2027 11:17:48.801   09 Jun 2027 11:17:48.801             0.000             0.000
       319   09 Jun 2027 11:18:03.403   09 Jun 2027 11:18:06.143             2.740           901.938
       320   09 Jun 2027 11:18:24.186   09 Jun 2027 11:18:25.702             1.516           442.844
       321   09 Jun 2027 11:19:11.874   09 Jun 2027 11:19:13.821             1.947           973.500
       322   10 Jun 2027 03:27:05.807   10 Jun 2027 03:27:50.826            45.019         22509.500
       323   10 Jun 2027 03:38:14.298   10 Jun 2027 03:39:56.688           102.390         51195.000
       324   10 Jun 2027 03:40:12.209   10 Jun 2027 03:41:08.701            56.492         28246.000
       325   10 Jun 2027 05:01:11.104   10 Jun 2027 05:02:24.223            73.119         36559.500
       326   10 Jun 2027 06:36:28.513   10 Jun 2027 06:36:57.152            28.639         14319.500
       327   10 Jun 2027 06:37:53.368   10 Jun 2027 06:37:57.286             3.918          1959.000
       328   10 Jun 2027 06:38:02.033   10 Jun 2027 06:38:04.756             2.723          1361.500
       329   10 Jun 2027 06:39:16.323   10 Jun 2027 06:39:23.730             7.407          3703.500
       330   10 Jun 2027 06:40:04.284   10 Jun 2027 06:40:04.284             0.000             0.000
       331   10 Jun 2027 06:40:16.566   10 Jun 2027 06:40:20.877             4.311          2010.437
       332   10 Jun 2027 06:40:56.283   10 Jun 2027 06:40:57.942             1.659           524.531
       333   10 Jun 2027 06:41:23.115   10 Jun 2027 06:41:25.012             1.897           780.844
       334   10 Jun 2027 06:42:17.248   10 Jun 2027 06:42:23.145             5.897          1533.750
       335   10 Jun 2027 08:12:39.157   10 Jun 2027 08:12:49.161            10.004          4044.875
       336   10 Jun 2027 08:14:12.345   10 Jun 2027 08:14:15.108             2.763          1374.906
       337   10 Jun 2027 08:14:45.008   10 Jun 2027 08:14:46.377             1.369           351.531
       338   10 Jun 2027 08:15:16.607   10 Jun 2027 08:15:20.031             3.424           944.687
       339   10 Jun 2027 08:16:04.092   10 Jun 2027 08:16:04.092             0.000             0.000
       340   10 Jun 2027 08:17:00.430   10 Jun 2027 08:17:11.890            11.460          2715.313
       341   10 Jun 2027 08:17:44.217   10 Jun 2027 08:17:46.325             2.108           636.500
       342   10 Jun 2027 08:18:40.185   10 Jun 2027 08:18:43.216             3.031          1230.125
       343   10 Jun 2027 08:19:38.090   10 Jun 2027 08:19:44.995             6.905          1714.813
       344   10 Jun 2027 09:49:41.897   10 Jun 2027 09:50:01.326            19.429          7817.656
       345   10 Jun 2027 09:52:40.211   10 Jun 2027 09:52:42.568             2.357          1130.531
       346   10 Jun 2027 09:53:09.097   10 Jun 2027 09:53:10.792             1.695           611.750
       347   10 Jun 2027 09:53:17.706   10 Jun 2027 09:53:19.611             1.905           216.063
       348   10 Jun 2027 09:53:24.653   10 Jun 2027 09:53:25.739             1.086           141.719
       349   10 Jun 2027 09:54:35.529   10 Jun 2027 09:54:38.997             3.468          1563.812
       350   10 Jun 2027 11:27:41.435   10 Jun 2027 11:27:58.486            17.051          8254.125
       351   10 Jun 2027 11:28:42.729   10 Jun 2027 11:28:50.225             7.496          1382.594
       352   10 Jun 2027 11:29:18.501   10 Jun 2027 11:29:20.763             2.262           561.375
       353   10 Jun 2027 11:29:33.075   10 Jun 2027 11:29:33.075             0.000             0.000
       354   10 Jun 2027 11:29:51.881   10 Jun 2027 11:29:53.034             1.153           576.500
       355   10 Jun 2027 11:30:13.591   10 Jun 2027 11:30:19.048             5.457           998.000
       356   10 Jun 2027 11:30:31.035   10 Jun 2027 11:30:32.218             1.183           255.594
       357   10 Jun 2027 11:31:32.693   10 Jun 2027 11:31:36.261             3.568          1784.000
       358   11 Jun 2027 03:38:34.001   11 Jun 2027 03:38:50.638            16.637          8318.500
       359   11 Jun 2027 03:39:47.914   11 Jun 2027 03:40:04.569            16.655          8327.500
       360   11 Jun 2027 03:50:16.401   11 Jun 2027 03:51:35.145            78.744         39372.000
       361   11 Jun 2027 05:12:29.564   11 Jun 2027 05:13:41.516            71.952         35976.000
       362   11 Jun 2027 05:14:30.803   11 Jun 2027 05:15:31.861            61.058         30529.000
       363   11 Jun 2027 05:16:42.318   11 Jun 2027 05:17:03.136            20.818         10409.000
       364   11 Jun 2027 06:47:35.259   11 Jun 2027 06:48:20.038            44.779         22230.281
       365   11 Jun 2027 06:48:37.769   11 Jun 2027 06:48:42.596             4.827           245.844
       366   11 Jun 2027 06:50:06.216   11 Jun 2027 06:50:10.724             4.508          2254.000
       367   11 Jun 2027 06:51:17.004   11 Jun 2027 06:51:22.717             5.713          2414.938
       368   11 Jun 2027 06:52:40.065   11 Jun 2027 06:52:45.270             5.205          2417.125
       369   11 Jun 2027 06:53:45.722   11 Jun 2027 06:53:48.918             3.196          1446.000
       370   11 Jun 2027 06:54:36.273   11 Jun 2027 06:54:37.349             1.076           538.000
       371   11 Jun 2027 06:55:31.739   11 Jun 2027 06:55:40.881             9.142          1870.813
       372   11 Jun 2027 08:24:51.662   11 Jun 2027 08:25:03.688            12.026          4596.469
       373   11 Jun 2027 08:25:42.710   11 Jun 2027 08:25:42.710             0.000             0.000
       374   11 Jun 2027 08:26:52.608   11 Jun 2027 08:27:00.906             8.298          3092.875
       375   11 Jun 2027 08:27:20.799   11 Jun 2027 08:27:22.049             1.250           311.594
       376   11 Jun 2027 08:27:29.903   11 Jun 2027 08:27:35.524             5.621           204.719
       377   11 Jun 2027 08:27:41.836   11 Jun 2027 08:27:46.489             4.653           177.594
       378   11 Jun 2027 08:28:00.639   11 Jun 2027 08:28:04.529             3.890           222.031
       379   11 Jun 2027 08:29:02.129   11 Jun 2027 08:29:07.401             5.272          1648.094
       380   11 Jun 2027 08:29:34.328   11 Jun 2027 08:29:37.143             2.815           603.344
       381   11 Jun 2027 08:30:56.762   11 Jun 2027 08:31:02.836             6.074          2431.875
       382   11 Jun 2027 08:31:10.043   11 Jun 2027 08:31:10.396             0.353           176.500
       383   11 Jun 2027 08:31:55.064   11 Jun 2027 08:31:55.064             0.000             0.000
       384   11 Jun 2027 10:01:44.871   11 Jun 2027 10:01:58.927            14.056          7028.000
       385   11 Jun 2027 10:02:24.320   11 Jun 2027 10:02:32.392             8.072          2614.969
       386   11 Jun 2027 10:02:37.414   11 Jun 2027 10:02:38.678             1.264            95.875
       387   11 Jun 2027 10:03:47.956   11 Jun 2027 10:03:52.160             4.204          1476.750
       388   11 Jun 2027 10:04:00.759   11 Jun 2027 10:04:01.105             0.346           152.250
       389   11 Jun 2027 10:04:58.085   11 Jun 2027 10:05:01.193             3.108          1554.000
       390   11 Jun 2027 10:05:08.295   11 Jun 2027 10:05:13.569             5.274           311.375
       391   11 Jun 2027 10:05:52.530   11 Jun 2027 10:05:54.865             2.335           923.656
       392   11 Jun 2027 10:06:36.238   11 Jun 2027 10:06:41.943             5.705          1285.844
       393   11 Jun 2027 11:39:41.180   11 Jun 2027 11:39:52.791            11.611          5805.500
       394   11 Jun 2027 11:40:08.515   11 Jun 2027 11:40:10.148             1.633           816.500
       395   11 Jun 2027 11:40:36.901   11 Jun 2027 11:40:40.389             3.488           937.593
       396   11 Jun 2027 11:41:10.740   11 Jun 2027 11:41:13.512             2.772           948.469
       397   11 Jun 2027 11:41:29.431   11 Jun 2027 11:41:30.516             1.085           497.469
       398   11 Jun 2027 11:41:54.142   11 Jun 2027 11:41:56.582             2.440           735.406
       399   11 Jun 2027 11:42:53.711   11 Jun 2027 11:42:59.192             5.481          1463.969
       400   11 Jun 2027 11:43:30.613   11 Jun 2027 11:43:34.038             3.425           981.906
       401   12 Jun 2027 03:50:02.990   12 Jun 2027 03:51:15.741            72.751         36375.500
       402   12 Jun 2027 04:02:13.130   12 Jun 2027 04:02:51.101            37.971         18985.500
       403   12 Jun 2027 05:24:14.582   12 Jun 2027 05:25:35.015            80.433         40216.500
       404   12 Jun 2027 05:26:17.120   12 Jun 2027 05:27:00.856            43.736         21868.000
       405   12 Jun 2027 05:28:44.840   12 Jun 2027 05:29:19.611            34.771         17385.500
       406   12 Jun 2027 06:59:04.303   12 Jun 2027 06:59:49.743            45.440         22359.625
       407   12 Jun 2027 07:00:16.118   12 Jun 2027 07:00:16.118             0.000             0.000
       408   12 Jun 2027 07:00:55.535   12 Jun 2027 07:00:59.900             4.365          2056.000
       409   12 Jun 2027 07:02:18.836   12 Jun 2027 07:02:25.802             6.966          2466.750
       410   12 Jun 2027 07:02:44.570   12 Jun 2027 07:02:45.198             0.628           299.969
       411   12 Jun 2027 07:02:56.485   12 Jun 2027 07:02:56.485             0.000             0.000
       412   12 Jun 2027 07:03:01.175   12 Jun 2027 07:03:02.282             1.107           248.844
       413   12 Jun 2027 07:04:33.658   12 Jun 2027 07:04:40.138             6.480          2385.531
       414   12 Jun 2027 07:05:02.532   12 Jun 2027 07:05:02.532             0.000             0.000
       415   12 Jun 2027 07:05:47.737   12 Jun 2027 07:05:52.699             4.962          2112.469
       416   12 Jun 2027 07:06:13.982   12 Jun 2027 07:06:17.621             3.639           665.094
       417   12 Jun 2027 07:06:46.331   12 Jun 2027 07:06:46.331             0.000             0.000
       418   12 Jun 2027 07:06:52.675   12 Jun 2027 07:06:54.809             2.134           983.594
       419   12 Jun 2027 08:36:51.316   12 Jun 2027 08:37:04.773            13.457          6487.219
       420   12 Jun 2027 08:37:47.124   12 Jun 2027 08:37:51.065             3.941           978.812
       421   12 Jun 2027 08:38:34.926   12 Jun 2027 08:38:38.253             3.327          1109.563
       422   12 Jun 2027 08:38:48.083   12 Jun 2027 08:38:48.450             0.367           183.500
       423   12 Jun 2027 08:38:59.657   12 Jun 2027 08:39:01.484             1.827           471.906
       424   12 Jun 2027 08:39:48.131   12 Jun 2027 08:39:50.533             2.402          1201.000
       425   12 Jun 2027 08:40:46.498   12 Jun 2027 08:40:51.240             4.742          2005.625
       426   12 Jun 2027 08:41:03.466   12 Jun 2027 08:41:05.192             1.726           382.062
       427   12 Jun 2027 08:41:08.344   12 Jun 2027 08:41:08.457             0.113            30.969
       428   12 Jun 2027 08:42:04.186   12 Jun 2027 08:42:06.582             2.396           558.938
       429   12 Jun 2027 08:42:52.329   12 Jun 2027 08:42:57.777             5.448           891.094
       430   12 Jun 2027 08:43:19.911   12 Jun 2027 08:43:25.363             5.452           691.687
       431   12 Jun 2027 08:43:58.787   12 Jun 2027 08:44:03.973             5.186           890.156
       432   12 Jun 2027 08:44:11.564   12 Jun 2027 08:44:13.117             1.553            33.094
       433   12 Jun 2027 08:44:13.690   12 Jun 2027 08:44:16.229             2.539            17.906
       434   12 Jun 2027 10:13:36.324   12 Jun 2027 10:13:55.777            19.453          7126.781
       435   12 Jun 2027 10:15:10.973   12 Jun 2027 10:15:12.949             1.976           876.187
       436   12 Jun 2027 10:16:06.335   12 Jun 2027 10:16:11.266             4.931           360.563
       437   12 Jun 2027 10:16:31.313   12 Jun 2027 10:16:32.600             1.287           507.750
       438   12 Jun 2027 10:17:12.801   12 Jun 2027 10:17:18.671             5.870          1256.281
       439   12 Jun 2027 10:18:02.096   12 Jun 2027 10:18:03.684             1.588           794.000
       440   12 Jun 2027 10:18:11.515   12 Jun 2027 10:18:18.974             7.459           628.031
       441   12 Jun 2027 10:18:29.839   12 Jun 2027 10:18:33.341             3.502           173.531
       442   12 Jun 2027 10:18:56.971   12 Jun 2027 10:18:58.712             1.741           728.375
       443   12 Jun 2027 10:19:01.018   12 Jun 2027 10:19:02.264             1.246            72.062
       444   12 Jun 2027 10:19:22.375   12 Jun 2027 10:19:25.095             2.720           628.469
       445   12 Jun 2027 10:19:42.715   12 Jun 2027 10:19:42.715             0.000             0.000
       446   12 Jun 2027 10:19:58.650   12 Jun 2027 10:20:04.414             5.764          1048.594
       447   12 Jun 2027 10:20:18.385   12 Jun 2027 10:20:21.791             3.406           378.406
       448   12 Jun 2027 11:51:42.123   12 Jun 2027 11:52:05.627            23.504          6657.344
       449   12 Jun 2027 11:52:10.728   12 Jun 2027 11:52:12.494             1.766           159.406
       450   12 Jun 2027 11:52:39.817   12 Jun 2027 11:52:41.929             2.112           846.281
       451   12 Jun 2027 11:53:34.018   12 Jun 2027 11:53:34.835             0.817           408.500
       452   12 Jun 2027 11:53:49.847   12 Jun 2027 11:53:52.044             2.197           900.500
       453   12 Jun 2027 11:54:02.514   12 Jun 2027 11:54:04.168             1.654           234.938
       454   12 Jun 2027 11:54:32.877   12 Jun 2027 11:54:34.364             1.487           667.625
       455   12 Jun 2027 11:55:28.420   12 Jun 2027 11:55:31.568             3.148          1574.000
       456   12 Jun 2027 11:55:38.845   12 Jun 2027 11:55:39.872             1.027           342.656
       457   12 Jun 2027 11:55:41.400   12 Jun 2027 11:55:41.400             0.000             0.000
       458   13 Jun 2027 04:02:03.494   13 Jun 2027 04:03:19.496            76.002         38001.000
       459   13 Jun 2027 05:38:01.569   13 Jun 2027 05:41:04.264           182.695         91347.500
       460   13 Jun 2027 07:11:50.900   13 Jun 2027 07:12:48.105            57.205         27742.094
       461   13 Jun 2027 07:13:14.256   13 Jun 2027 07:13:17.124             2.868           560.250
       462   13 Jun 2027 07:14:31.884   13 Jun 2027 07:14:31.884             0.000             0.000
       463   13 Jun 2027 07:14:56.541   13 Jun 2027 07:14:59.308             2.767          1035.656
       464   13 Jun 2027 07:15:28.900   13 Jun 2027 07:15:28.900             0.000             0.000
       465   13 Jun 2027 07:16:39.635   13 Jun 2027 07:16:46.397             6.762          3009.156
       466   13 Jun 2027 07:17:27.755   13 Jun 2027 07:17:27.755             0.000             0.000
       467   13 Jun 2027 07:17:46.037   13 Jun 2027 07:17:53.465             7.428          1266.406
       468   13 Jun 2027 07:18:44.270   13 Jun 2027 07:18:44.270             0.000             0.000
       469   13 Jun 2027 07:19:24.805   13 Jun 2027 07:19:31.131             6.326          2731.125
       470   13 Jun 2027 07:20:03.106   13 Jun 2027 07:20:06.841             3.735           999.219
       471   13 Jun 2027 08:48:56.435   13 Jun 2027 08:49:17.681            21.246          8549.969
       472   13 Jun 2027 08:50:47.690   13 Jun 2027 08:50:49.022             1.332           229.187
       473   13 Jun 2027 08:53:04.395   13 Jun 2027 08:53:13.366             8.971          4192.031
       474   13 Jun 2027 08:53:40.840   13 Jun 2027 08:53:45.838             4.998           858.562
       475   13 Jun 2027 08:54:03.665   13 Jun 2027 08:54:06.010             2.345           467.969
       476   13 Jun 2027 08:54:21.615   13 Jun 2027 08:54:23.048             1.433           487.656
       477   13 Jun 2027 08:54:43.583   13 Jun 2027 08:54:45.432             1.849           337.406
       478   13 Jun 2027 08:55:12.587   13 Jun 2027 08:55:16.026             3.439           703.125
       479   13 Jun 2027 08:55:36.528   13 Jun 2027 08:55:42.719             6.191           156.781
       480   13 Jun 2027 08:56:05.602   13 Jun 2027 08:56:09.174             3.572           715.094
       481   13 Jun 2027 10:25:58.486   13 Jun 2027 10:26:15.252            16.766          7151.500
       482   13 Jun 2027 10:26:35.116   13 Jun 2027 10:26:37.795             2.679           594.156
       483   13 Jun 2027 10:27:06.622   13 Jun 2027 10:27:12.386             5.764           625.844
       484   13 Jun 2027 10:27:41.192   13 Jun 2027 10:27:44.266             3.074           900.188
       485   13 Jun 2027 10:28:15.475   13 Jun 2027 10:28:22.099             6.624           691.156
       486   13 Jun 2027 10:28:51.941   13 Jun 2027 10:28:53.514             1.573           488.937
       487   13 Jun 2027 10:29:36.764   13 Jun 2027 10:29:44.242             7.478          1351.563
       488   13 Jun 2027 10:30:34.266   13 Jun 2027 10:30:37.662             3.396          1470.375
       489   13 Jun 2027 10:31:09.633   13 Jun 2027 10:31:10.331             0.698           349.000
       490   13 Jun 2027 10:31:49.467   13 Jun 2027 10:31:53.730             4.263          1853.969
       491   13 Jun 2027 10:31:58.033   13 Jun 2027 10:32:00.718             2.685           134.469
