uniorb/output/strategy_2/Camera/Camera_KinoSat_111405.txt

KinoSat_111405
-------------------------
    Access    *     Start Time (UTCG)     *     Stop Time (UTCG)  *   Duration (s) *   Data (Mbytes)
         1   01 Jun 2027 03:23:20.329   01 Jun 2027 03:25:36.927           136.598         68299.000
         2   01 Jun 2027 03:25:39.383   01 Jun 2027 03:25:47.702             8.319          4159.500
         3   01 Jun 2027 03:25:57.846   01 Jun 2027 03:26:01.080             3.234          1617.000
         4   01 Jun 2027 03:27:03.974   01 Jun 2027 03:27:35.970            31.996         15998.000
         5   01 Jun 2027 03:28:05.479   01 Jun 2027 03:28:45.893            40.414         20207.000
         6   01 Jun 2027 03:29:07.184   01 Jun 2027 03:29:20.066            12.882          6441.000
         7   01 Jun 2027 03:29:41.953   01 Jun 2027 03:29:56.053            14.100          7050.000
         8   01 Jun 2027 04:48:35.156   01 Jun 2027 04:49:04.545            29.389         14694.500
         9   01 Jun 2027 05:00:04.074   01 Jun 2027 05:01:42.134            98.060         49030.000
        10   01 Jun 2027 06:22:43.330   01 Jun 2027 06:23:42.326            58.996         29498.000
        11   01 Jun 2027 06:24:19.086   01 Jun 2027 06:24:33.069            13.983          6991.500
        12   01 Jun 2027 06:26:25.874   01 Jun 2027 06:26:36.697            10.823          5411.500
        13   01 Jun 2027 07:58:03.089   01 Jun 2027 07:59:02.105            59.016         29508.000
        14   01 Jun 2027 07:59:35.243   01 Jun 2027 08:00:46.512            71.269         35634.500
        15   01 Jun 2027 08:00:47.551   01 Jun 2027 08:01:10.490            22.939         11469.500
        16   01 Jun 2027 08:03:00.676   01 Jun 2027 08:03:30.888            30.212         15106.000
        17   01 Jun 2027 08:03:54.391   01 Jun 2027 08:03:54.391             0.000             0.000
        18   01 Jun 2027 09:34:33.635   01 Jun 2027 09:35:18.157            44.522         22261.000
        19   01 Jun 2027 09:36:46.386   01 Jun 2027 09:37:50.736            64.350         32175.000
        20   01 Jun 2027 09:41:15.136   01 Jun 2027 09:42:03.131            47.995         23997.500
        21   01 Jun 2027 11:11:38.134   01 Jun 2027 11:13:36.277           118.143         59071.500
        22   01 Jun 2027 11:15:54.587   01 Jun 2027 11:15:57.395             2.808          1404.000
        23   02 Jun 2027 03:35:34.220   02 Jun 2027 03:37:05.554            91.334         45667.000
        24   02 Jun 2027 03:37:11.754   02 Jun 2027 03:38:02.304            50.550         25275.000
        25   02 Jun 2027 03:38:53.421   02 Jun 2027 03:39:07.362            13.941          6970.500
        26   02 Jun 2027 03:39:37.826   02 Jun 2027 03:40:02.626            24.800         12400.000
        27   02 Jun 2027 03:41:28.189   02 Jun 2027 03:41:43.257            15.068          7534.000
        28   02 Jun 2027 03:42:23.638   02 Jun 2027 03:42:40.035            16.397          8198.500
        29   02 Jun 2027 04:59:50.995   02 Jun 2027 05:00:32.905            41.910         20955.000
        30   02 Jun 2027 05:12:03.308   02 Jun 2027 05:13:01.893            58.585         29292.500
        31   02 Jun 2027 06:34:19.290   02 Jun 2027 06:35:25.922            66.632         33316.000
        32   02 Jun 2027 06:36:14.900   02 Jun 2027 06:36:46.665            31.765         15882.500
        33   02 Jun 2027 06:37:08.322   02 Jun 2027 06:37:08.322             0.000             0.000
        34   02 Jun 2027 06:38:25.471   02 Jun 2027 06:38:49.129            23.658         11829.000
        35   02 Jun 2027 06:39:13.002   02 Jun 2027 06:39:35.269            22.267         11133.500
        36   02 Jun 2027 08:09:12.754   02 Jun 2027 08:10:53.410           100.656         50328.000
        37   02 Jun 2027 08:11:33.343   02 Jun 2027 08:11:36.530             3.187          1593.500
        38   02 Jun 2027 08:11:49.372   02 Jun 2027 08:11:49.372             0.000             0.000
        39   02 Jun 2027 08:13:11.137   02 Jun 2027 08:13:23.630            12.493          6246.500
        40   02 Jun 2027 08:15:16.545   02 Jun 2027 08:15:19.988             3.443          1721.500
        41   02 Jun 2027 08:16:07.087   02 Jun 2027 08:16:17.395            10.308          4964.686
        42   02 Jun 2027 09:46:46.718   02 Jun 2027 09:47:01.560            14.842          6142.719
        43   02 Jun 2027 09:47:24.250   02 Jun 2027 09:47:25.081             0.831           301.094
        44   02 Jun 2027 09:48:04.767   02 Jun 2027 09:48:12.487             7.720          1149.375
        45   02 Jun 2027 09:49:00.439   02 Jun 2027 09:49:04.967             4.528          1073.937
        46   02 Jun 2027 09:49:58.720   02 Jun 2027 09:50:02.063             3.343          1512.500
        47   02 Jun 2027 09:51:01.740   02 Jun 2027 09:51:09.759             8.019          1442.563
        48   02 Jun 2027 09:51:58.413   02 Jun 2027 09:52:03.883             5.470          1412.594
        49   02 Jun 2027 09:53:08.882   02 Jun 2027 09:53:16.332             7.450          1973.156
        50   02 Jun 2027 11:23:29.345   02 Jun 2027 11:23:52.030            22.685          9138.906
        51   02 Jun 2027 11:25:47.192   02 Jun 2027 11:25:48.673             1.481           740.500
        52   02 Jun 2027 11:26:28.886   02 Jun 2027 11:26:39.042            10.156          1774.125
        53   02 Jun 2027 11:27:05.145   02 Jun 2027 11:27:10.416             5.271           420.656
        54   02 Jun 2027 11:27:50.899   02 Jun 2027 11:27:53.463             2.564          1265.094
        55   02 Jun 2027 11:28:20.706   02 Jun 2027 11:28:25.390             4.684           851.344
        56   02 Jun 2027 11:28:56.988   02 Jun 2027 11:29:03.218             6.230           987.437
        57   02 Jun 2027 11:29:38.378   02 Jun 2027 11:29:38.479             0.101            50.500
        58   02 Jun 2027 11:29:49.859   02 Jun 2027 11:29:58.570             8.711          1297.219
        59   03 Jun 2027 03:47:38.991   03 Jun 2027 03:50:48.585           189.594         94797.000
        60   03 Jun 2027 03:51:06.002   03 Jun 2027 03:51:17.456            11.454          5727.000
        61   03 Jun 2027 03:51:44.777   03 Jun 2027 03:51:45.983             1.206           603.000
        62   03 Jun 2027 03:52:01.006   03 Jun 2027 03:52:45.636            44.630         22315.000
        63   03 Jun 2027 03:52:47.445   03 Jun 2027 03:52:47.445             0.000             0.000
        64   03 Jun 2027 03:54:21.532   03 Jun 2027 03:54:21.532             0.000             0.000
        65   03 Jun 2027 05:11:56.789   03 Jun 2027 05:12:44.504            47.715         23857.500
        66   03 Jun 2027 05:24:18.779   03 Jun 2027 05:24:36.378            17.599          8799.500
        67   03 Jun 2027 06:45:48.415   03 Jun 2027 06:46:21.712            33.297         13297.343
        68   03 Jun 2027 06:47:51.470   03 Jun 2027 06:47:58.152             6.682          2127.844
        69   03 Jun 2027 06:48:46.827   03 Jun 2027 06:48:49.676             2.849          1380.344
        70   03 Jun 2027 06:49:14.197   03 Jun 2027 06:49:15.560             1.363           681.500
        71   03 Jun 2027 06:50:23.190   03 Jun 2027 06:50:29.244             6.054          2188.813
        72   03 Jun 2027 06:50:33.032   03 Jun 2027 06:50:33.032             0.000             0.000
        73   03 Jun 2027 06:50:42.047   03 Jun 2027 06:50:43.534             1.487           322.094
        74   03 Jun 2027 08:20:43.422   03 Jun 2027 08:20:56.455            13.033          6449.406
        75   03 Jun 2027 08:21:38.768   03 Jun 2027 08:21:41.084             2.316          1137.250
        76   03 Jun 2027 08:22:50.736   03 Jun 2027 08:22:54.504             3.768          1884.000
        77   03 Jun 2027 08:23:18.818   03 Jun 2027 08:23:22.022             3.204          1048.562
        78   03 Jun 2027 08:24:10.046   03 Jun 2027 08:24:16.317             6.271           771.406
        79   03 Jun 2027 08:24:27.013   03 Jun 2027 08:24:28.773             1.760           334.250
        80   03 Jun 2027 08:25:25.320   03 Jun 2027 08:25:25.320             0.000             0.000
        81   03 Jun 2027 08:26:36.069   03 Jun 2027 08:26:43.403             7.334          3126.969
        82   03 Jun 2027 08:28:00.754   03 Jun 2027 08:28:05.723             4.969          2064.219
        83   03 Jun 2027 08:28:17.507   03 Jun 2027 08:28:18.719             1.212           368.250
        84   03 Jun 2027 08:29:40.340   03 Jun 2027 08:29:46.372             6.032          2458.313
        85   03 Jun 2027 09:58:40.793   03 Jun 2027 09:58:55.085            14.292          6175.719
        86   03 Jun 2027 09:59:25.656   03 Jun 2027 09:59:29.510             3.854           946.250
        87   03 Jun 2027 10:00:09.516   03 Jun 2027 10:00:11.891             2.375          1163.406
        88   03 Jun 2027 10:00:36.946   03 Jun 2027 10:00:38.148             1.202           601.000
        89   03 Jun 2027 10:01:42.713   03 Jun 2027 10:01:48.610             5.897          2039.781
        90   03 Jun 2027 10:02:14.966   03 Jun 2027 10:02:17.745             2.779           556.687
        91   03 Jun 2027 10:02:20.556   03 Jun 2027 10:02:22.934             2.378            77.312
        92   03 Jun 2027 10:03:01.643   03 Jun 2027 10:03:04.163             2.520           641.219
        93   03 Jun 2027 10:03:30.911   03 Jun 2027 10:03:32.589             1.678           704.969
        94   03 Jun 2027 10:03:40.730   03 Jun 2027 10:03:41.095             0.365            97.344
        95   03 Jun 2027 10:04:28.306   03 Jun 2027 10:04:31.825             3.519          1447.406
        96   03 Jun 2027 10:04:39.607   03 Jun 2027 10:04:42.866             3.259           222.875
        97   03 Jun 2027 10:04:52.617   03 Jun 2027 10:04:53.620             1.003           304.719
        98   03 Jun 2027 10:05:36.685   03 Jun 2027 10:05:39.783             3.098           996.344
        99   03 Jun 2027 11:35:35.419   03 Jun 2027 11:35:48.567            13.148          6165.156
       100   03 Jun 2027 11:36:13.734   03 Jun 2027 11:36:14.385             0.651           297.687
       101   03 Jun 2027 11:36:55.324   03 Jun 2027 11:36:58.651             3.327           567.750
       102   03 Jun 2027 11:37:29.764   03 Jun 2027 11:37:30.452             0.688            97.937
       103   03 Jun 2027 11:37:47.455   03 Jun 2027 11:37:48.595             1.140           300.781
       104   03 Jun 2027 11:37:59.358   03 Jun 2027 11:38:02.275             2.917           279.625
       105   03 Jun 2027 11:38:44.079   03 Jun 2027 11:38:59.624            15.545           938.563
       106   03 Jun 2027 11:39:20.925   03 Jun 2027 11:39:25.514             4.589           514.063
       107   03 Jun 2027 11:39:53.632   03 Jun 2027 11:39:56.489             2.857           628.000
       108   03 Jun 2027 11:41:17.046   03 Jun 2027 11:41:21.615             4.569          1931.125
       109   03 Jun 2027 11:41:39.490   03 Jun 2027 11:41:39.490             0.000             0.000
       110   03 Jun 2027 11:41:52.418   03 Jun 2027 11:41:55.094             2.676           884.219
       111   04 Jun 2027 04:00:04.202   04 Jun 2027 04:02:38.418           154.216         77108.000
       112   04 Jun 2027 04:03:03.449   04 Jun 2027 04:03:09.810             6.361          3180.500
       113   04 Jun 2027 04:03:17.556   04 Jun 2027 04:03:53.642            36.086         18043.000
       114   04 Jun 2027 04:04:35.019   04 Jun 2027 04:05:01.583            26.564         13282.000
       115   04 Jun 2027 05:23:52.664   04 Jun 2027 05:24:38.700            46.036         23018.000
       116   04 Jun 2027 06:59:52.536   04 Jun 2027 07:00:42.204            49.668         24834.000
       117   04 Jun 2027 07:00:44.664   04 Jun 2027 07:00:45.502             0.838           419.000
       118   04 Jun 2027 07:00:53.276   04 Jun 2027 07:00:56.422             3.146          1113.126
       119   04 Jun 2027 07:02:00.982   04 Jun 2027 07:02:03.226             2.244          1122.000
       120   04 Jun 2027 07:02:31.068   04 Jun 2027 07:02:34.961             3.893          1056.281
       121   04 Jun 2027 08:33:36.905   04 Jun 2027 08:33:52.691            15.786          4670.719
       122   04 Jun 2027 08:34:24.358   04 Jun 2027 08:34:25.684             1.326           574.781
       123   04 Jun 2027 08:34:43.487   04 Jun 2027 08:34:47.788             4.301           556.344
       124   04 Jun 2027 08:35:17.738   04 Jun 2027 08:35:19.670             1.932           705.563
       125   04 Jun 2027 08:36:11.456   04 Jun 2027 08:36:15.015             3.559          1618.313
       126   04 Jun 2027 08:36:58.196   04 Jun 2027 08:37:09.654            11.458          1349.406
       127   04 Jun 2027 08:38:17.545   04 Jun 2027 08:38:22.827             5.282          2075.938
       128   04 Jun 2027 08:39:23.147   04 Jun 2027 08:39:26.846             3.699          1734.687
       129   04 Jun 2027 08:39:35.052   04 Jun 2027 08:39:35.322             0.270           135.000
       130   04 Jun 2027 08:40:28.904   04 Jun 2027 08:40:33.772             4.868          1708.062
       131   04 Jun 2027 08:41:31.965   04 Jun 2027 08:41:35.587             3.622          1811.000
       132   04 Jun 2027 08:42:07.212   04 Jun 2027 08:42:11.064             3.852           995.813
       133   04 Jun 2027 10:11:02.034   04 Jun 2027 10:11:17.942            15.908          6434.531
       134   04 Jun 2027 10:11:22.025   04 Jun 2027 10:11:22.240             0.215            29.687
       135   04 Jun 2027 10:12:00.325   04 Jun 2027 10:12:02.395             2.070           109.906
       136   04 Jun 2027 10:12:34.725   04 Jun 2027 10:12:40.683             5.958           932.531
       137   04 Jun 2027 10:13:22.736   04 Jun 2027 10:13:25.943             3.207          1239.344
       138   04 Jun 2027 10:13:43.236   04 Jun 2027 10:13:47.228             3.992           288.813
       139   04 Jun 2027 10:14:06.144   04 Jun 2027 10:14:11.990             5.846           579.531
       140   04 Jun 2027 10:14:27.245   04 Jun 2027 10:14:28.232             0.987            77.969
       141   04 Jun 2027 10:15:31.568   04 Jun 2027 10:15:33.929             2.361          1180.500
       142   04 Jun 2027 10:15:35.730   04 Jun 2027 10:15:36.685             0.955           421.344
       143   04 Jun 2027 10:15:50.822   04 Jun 2027 10:15:53.639             2.817           362.844
       144   04 Jun 2027 10:16:14.972   04 Jun 2027 10:16:17.660             2.688           472.000
       145   04 Jun 2027 10:17:33.281   04 Jun 2027 10:17:37.331             4.050          1775.500
       146   04 Jun 2027 10:17:42.460   04 Jun 2027 10:17:42.756             0.296           145.844
       147   04 Jun 2027 11:48:05.658   04 Jun 2027 11:48:22.483            16.825          7667.844
       148   04 Jun 2027 11:49:48.691   04 Jun 2027 11:49:54.992             6.301          2132.562
       149   04 Jun 2027 11:50:11.761   04 Jun 2027 11:50:17.121             5.360           337.781
       150   04 Jun 2027 11:51:20.611   04 Jun 2027 11:51:23.415             2.804          1402.000
       151   04 Jun 2027 11:51:35.734   04 Jun 2027 11:51:35.734             0.000             0.000
       152   04 Jun 2027 11:52:03.594   04 Jun 2027 11:52:07.516             3.922          1837.656
       153   04 Jun 2027 11:53:18.773   04 Jun 2027 11:53:23.566             4.793          2178.063
       154   05 Jun 2027 04:12:22.716   05 Jun 2027 04:16:23.749           241.033        120516.500
       155   05 Jun 2027 04:16:24.815   05 Jun 2027 04:16:24.815             0.000             0.000
       156   05 Jun 2027 04:16:51.634   05 Jun 2027 04:16:55.880             4.246          2123.000
       157   05 Jun 2027 05:35:44.272   05 Jun 2027 05:36:40.395            56.123         28061.500
       158   05 Jun 2027 07:12:07.069   05 Jun 2027 07:12:54.856            47.787         23614.000
       159   05 Jun 2027 07:13:12.978   05 Jun 2027 07:13:14.552             1.574           513.781
       160   05 Jun 2027 07:14:11.147   05 Jun 2027 07:14:14.246             3.099          1512.344
       161   05 Jun 2027 07:14:16.225   05 Jun 2027 07:14:16.225             0.000             0.000
       162   05 Jun 2027 07:14:38.287   05 Jun 2027 07:14:42.012             3.725           717.563
       163   05 Jun 2027 08:46:11.367   05 Jun 2027 08:46:20.131             8.764          3752.625
       164   05 Jun 2027 08:47:49.643   05 Jun 2027 08:47:53.132             3.489          1698.187
       165   05 Jun 2027 08:48:04.888   05 Jun 2027 08:48:06.288             1.400           362.937
       166   05 Jun 2027 08:49:27.806   05 Jun 2027 08:49:32.305             4.499          2162.813
       167   05 Jun 2027 08:50:05.127   05 Jun 2027 08:50:09.767             4.640          1025.687
       168   05 Jun 2027 08:51:00.930   05 Jun 2027 08:51:03.433             2.503          1148.937
       169   05 Jun 2027 08:51:27.142   05 Jun 2027 08:51:29.721             2.579           740.906
       170   05 Jun 2027 08:52:39.298   05 Jun 2027 08:52:47.137             7.839          1651.187
       171   05 Jun 2027 08:52:55.554   05 Jun 2027 08:52:56.846             1.292           261.563
       172   05 Jun 2027 08:53:11.813   05 Jun 2027 08:53:11.813             0.000             0.000
       173   05 Jun 2027 08:53:37.242   05 Jun 2027 08:53:42.599             5.357          1262.375
       174   05 Jun 2027 08:54:00.945   05 Jun 2027 08:54:02.271             1.326           485.281
       175   05 Jun 2027 10:23:15.473   05 Jun 2027 10:23:27.527            12.054          5889.969
       176   05 Jun 2027 10:23:47.325   05 Jun 2027 10:23:48.571             1.246           320.406
       177   05 Jun 2027 10:25:22.329   05 Jun 2027 10:25:27.745             5.416          1960.563
       178   05 Jun 2027 10:25:45.116   05 Jun 2027 10:25:48.671             3.555           308.437
       179   05 Jun 2027 10:26:01.378   05 Jun 2027 10:26:06.385             5.007           316.250
       180   05 Jun 2027 10:26:28.173   05 Jun 2027 10:26:31.067             2.894           594.094
       181   05 Jun 2027 10:28:01.124   05 Jun 2027 10:28:06.296             5.172          2036.531
       182   05 Jun 2027 10:28:21.060   05 Jun 2027 10:28:21.579             0.519           259.500
       183   05 Jun 2027 10:28:31.503   05 Jun 2027 10:28:34.014             2.511           343.375
       184   05 Jun 2027 10:28:38.901   05 Jun 2027 10:28:42.848             3.947            78.531
       185   05 Jun 2027 10:29:18.451   05 Jun 2027 10:29:20.709             2.258           268.781
       186   05 Jun 2027 10:29:50.692   05 Jun 2027 10:29:52.988             2.296           936.969
       187   06 Jun 2027 04:25:15.584   06 Jun 2027 04:27:45.626           150.042         75021.000
       188   06 Jun 2027 04:28:11.925   06 Jun 2027 04:28:11.925             0.000             0.000
       189   06 Jun 2027 04:28:20.482   06 Jun 2027 04:28:49.501            29.019         14509.500
       190   06 Jun 2027 05:47:48.733   06 Jun 2027 05:49:20.326            91.593         45796.500
       191   06 Jun 2027 07:24:17.710   06 Jun 2027 07:25:05.381            47.671         23493.812
       192   06 Jun 2027 07:25:24.346   06 Jun 2027 07:25:24.359             0.013             6.500
       193   06 Jun 2027 07:26:23.626   06 Jun 2027 07:26:27.061             3.435          1717.500
       194   06 Jun 2027 07:26:39.318   06 Jun 2027 07:26:41.681             2.363           929.938
       195   06 Jun 2027 08:59:23.223   06 Jun 2027 08:59:35.988            12.765          4573.094
       196   06 Jun 2027 08:59:56.076   06 Jun 2027 08:59:59.608             3.532           415.656
       197   06 Jun 2027 09:00:29.696   06 Jun 2027 09:00:31.176             1.480           615.594
       198   06 Jun 2027 09:01:01.675   06 Jun 2027 09:01:06.110             4.435           669.687
       199   06 Jun 2027 09:02:49.036   06 Jun 2027 09:02:56.520             7.484          1970.469
       200   06 Jun 2027 09:04:47.675   06 Jun 2027 09:04:55.787             8.112          3275.844
       201   06 Jun 2027 09:05:38.939   06 Jun 2027 09:05:38.939             0.000             0.000
       202   06 Jun 2027 09:05:43.635   06 Jun 2027 09:05:49.830             6.195          1219.906
       203   06 Jun 2027 09:06:06.224   06 Jun 2027 09:06:08.929             2.705           509.500
       204   06 Jun 2027 10:35:45.442   06 Jun 2027 10:35:57.024            11.582          5783.000
       205   06 Jun 2027 10:37:36.693   06 Jun 2027 10:37:44.921             8.228          1915.500
       206   06 Jun 2027 10:37:54.237   06 Jun 2027 10:37:54.917             0.680           291.125
       207   06 Jun 2027 10:37:59.903   06 Jun 2027 10:38:00.908             1.005           155.813
       208   06 Jun 2027 10:38:07.712   06 Jun 2027 10:38:10.084             2.372           169.281
       209   06 Jun 2027 10:38:30.814   06 Jun 2027 10:38:32.350             1.536           647.812
       210   06 Jun 2027 10:39:00.492   06 Jun 2027 10:39:03.378             2.886           387.688
       211   06 Jun 2027 10:39:44.740   06 Jun 2027 10:39:45.900             1.160           565.719
       212   06 Jun 2027 10:40:20.910   06 Jun 2027 10:40:23.254             2.344          1021.375
       213   06 Jun 2027 10:40:31.069   06 Jun 2027 10:40:35.931             4.862           232.250
       214   06 Jun 2027 10:40:44.394   06 Jun 2027 10:40:46.720             2.326           218.875
       215   06 Jun 2027 10:41:22.486   06 Jun 2027 10:41:27.274             4.788          1003.500
       216   06 Jun 2027 10:41:28.816   06 Jun 2027 10:41:28.844             0.028            14.000
       217   06 Jun 2027 10:41:35.013   06 Jun 2027 10:41:38.951             3.938           226.969
       218   06 Jun 2027 10:41:45.046   06 Jun 2027 10:41:46.930             1.884            33.656
       219   07 Jun 2027 03:00:00.000   07 Jun 2027 03:00:07.963             7.963          3981.500
       220   07 Jun 2027 03:00:21.492   07 Jun 2027 03:00:46.798            25.306         12653.000
       221   07 Jun 2027 03:01:21.090   07 Jun 2027 03:01:50.492            29.402         14701.000
       222   07 Jun 2027 03:02:15.789   07 Jun 2027 03:02:20.014             4.225          2112.500
       223   07 Jun 2027 03:03:11.500   07 Jun 2027 03:03:17.762             6.262          3131.000
       224   07 Jun 2027 03:03:42.191   07 Jun 2027 03:03:49.004             6.813          3406.500
       225   07 Jun 2027 04:36:24.583   07 Jun 2027 04:37:02.283            37.700         18850.000
       226   07 Jun 2027 04:37:14.707   07 Jun 2027 04:39:11.544           116.837         58418.500
       227   07 Jun 2027 05:59:53.342   07 Jun 2027 06:01:04.726            71.384         35692.000
       228   07 Jun 2027 07:36:22.244   07 Jun 2027 07:36:36.027            13.783          6341.844
       229   07 Jun 2027 07:37:02.816   07 Jun 2027 07:37:07.154             4.338           697.188
       230   07 Jun 2027 07:37:49.845   07 Jun 2027 07:37:51.447             1.602           751.281
       231   07 Jun 2027 07:38:38.516   07 Jun 2027 07:38:38.516             0.000             0.000
       232   07 Jun 2027 07:38:58.710   07 Jun 2027 07:39:06.619             7.909          2101.969
       233   07 Jun 2027 09:11:32.633   07 Jun 2027 09:11:40.336             7.703          3660.000
       234   07 Jun 2027 09:11:46.410   07 Jun 2027 09:11:48.997             2.587           189.812
       235   07 Jun 2027 09:13:01.323   07 Jun 2027 09:13:02.857             1.534           767.000
       236   07 Jun 2027 09:13:05.650   07 Jun 2027 09:13:13.227             7.577          1377.750
       237   07 Jun 2027 09:13:58.449   07 Jun 2027 09:14:05.769             7.320          1254.688
       238   07 Jun 2027 09:15:40.606   07 Jun 2027 09:15:46.452             5.846          2408.094
       239   07 Jun 2027 09:15:58.038   07 Jun 2027 09:16:01.069             3.031           362.062
       240   07 Jun 2027 09:16:06.461   07 Jun 2027 09:16:16.150             9.689            45.438
       241   07 Jun 2027 09:17:03.566   07 Jun 2027 09:17:09.612             6.046          1444.781
       242   07 Jun 2027 09:17:54.949   07 Jun 2027 09:17:58.977             4.028           780.563
       243   07 Jun 2027 10:47:45.608   07 Jun 2027 10:48:00.546            14.938          6976.125
       244   07 Jun 2027 10:49:03.473   07 Jun 2027 10:49:14.738            11.265          1951.156
       245   07 Jun 2027 10:49:38.243   07 Jun 2027 10:49:39.971             1.728           584.813
       246   07 Jun 2027 10:49:52.293   07 Jun 2027 10:49:53.699             1.406           308.187
       247   07 Jun 2027 10:50:26.437   07 Jun 2027 10:50:32.100             5.663           892.969
       248   07 Jun 2027 10:51:49.238   07 Jun 2027 10:51:54.725             5.487          2044.844
       249   07 Jun 2027 10:52:53.691   07 Jun 2027 10:53:01.549             7.858          1841.969
       250   07 Jun 2027 10:53:24.392   07 Jun 2027 10:53:26.393             2.001           567.625
       251   07 Jun 2027 10:53:35.363   07 Jun 2027 10:53:35.363             0.000             0.000
       252   07 Jun 2027 10:53:48.716   07 Jun 2027 10:53:51.863             3.147           697.594
       253   08 Jun 2027 03:11:16.238   08 Jun 2027 03:13:59.070           162.832         81416.000
       254   08 Jun 2027 03:15:01.207   08 Jun 2027 03:15:19.287            18.080          9040.000
       255   08 Jun 2027 03:17:32.655   08 Jun 2027 03:17:40.359             7.704          3852.000
       256   08 Jun 2027 03:18:10.456   08 Jun 2027 03:18:10.557             0.101            50.500
       257   08 Jun 2027 03:18:35.218   08 Jun 2027 03:19:05.988            30.770         15385.000
       258   08 Jun 2027 04:37:32.611   08 Jun 2027 04:37:49.871            17.260          8630.000
       259   08 Jun 2027 04:48:22.117   08 Jun 2027 04:49:56.927            94.810         47261.219
       260   08 Jun 2027 04:51:49.317   08 Jun 2027 04:51:52.584             3.267          1633.500
       261   08 Jun 2027 06:12:20.216   08 Jun 2027 06:12:34.702            14.486          5990.000
       262   08 Jun 2027 06:13:58.924   08 Jun 2027 06:14:03.711             4.787          2347.125
       263   08 Jun 2027 06:14:42.825   08 Jun 2027 06:14:50.583             7.758           536.375
       264   08 Jun 2027 07:48:06.515   08 Jun 2027 07:48:15.457             8.942          4302.688
       265   08 Jun 2027 07:49:27.030   08 Jun 2027 07:49:36.374             9.344          2034.031
       266   08 Jun 2027 07:49:49.990   08 Jun 2027 07:49:50.362             0.372           174.719
       267   08 Jun 2027 07:50:26.121   08 Jun 2027 07:50:28.055             1.934           420.281
       268   08 Jun 2027 07:50:48.504   08 Jun 2027 07:50:51.469             2.965           386.500
       269   08 Jun 2027 07:51:05.474   08 Jun 2027 07:51:10.405             4.931           437.656
       270   08 Jun 2027 09:22:52.721   08 Jun 2027 09:23:02.936            10.215          3843.031
       271   08 Jun 2027 09:23:18.102   08 Jun 2027 09:23:19.622             1.520           274.969
       272   08 Jun 2027 09:25:03.596   08 Jun 2027 09:25:11.234             7.638          2993.750
       273   08 Jun 2027 09:26:13.945   08 Jun 2027 09:26:17.598             3.653          1210.031
       274   08 Jun 2027 09:26:20.154   08 Jun 2027 09:26:21.641             1.487            79.875
       275   08 Jun 2027 09:27:19.544   08 Jun 2027 09:27:23.627             4.083          1809.469
       276   08 Jun 2027 09:28:46.892   08 Jun 2027 09:28:46.892             0.000             0.000
       277   08 Jun 2027 09:29:44.130   08 Jun 2027 09:29:52.283             8.153          4076.500
       278   08 Jun 2027 09:30:12.091   08 Jun 2027 09:30:14.931             2.840           661.344
       279   08 Jun 2027 10:59:33.339   08 Jun 2027 10:59:49.641            16.302          7467.563
       280   08 Jun 2027 11:00:06.919   08 Jun 2027 11:00:08.489             1.570           202.125
       281   08 Jun 2027 11:01:33.716   08 Jun 2027 11:01:40.114             6.398          2136.625
       282   08 Jun 2027 11:02:03.709   08 Jun 2027 11:02:05.068             1.359           647.375
       283   08 Jun 2027 11:02:13.110   08 Jun 2027 11:02:14.724             1.614           239.656
       284   08 Jun 2027 11:02:50.268   08 Jun 2027 11:02:52.157             1.889           618.000
       285   08 Jun 2027 11:03:30.702   08 Jun 2027 11:03:32.983             2.281          1140.500
       286   08 Jun 2027 11:04:08.393   08 Jun 2027 11:04:16.156             7.763          1112.688
       287   08 Jun 2027 11:04:31.882   08 Jun 2027 11:04:34.568             2.686           348.438
       288   08 Jun 2027 11:04:45.349   08 Jun 2027 11:04:51.090             5.741           287.125
       289   08 Jun 2027 11:05:47.882   08 Jun 2027 11:05:50.272             2.390          1195.000
       290   08 Jun 2027 11:05:55.783   08 Jun 2027 11:05:57.093             1.310           655.000
       291   09 Jun 2027 03:23:36.761   09 Jun 2027 03:25:53.650           136.889         68444.500
       292   09 Jun 2027 03:27:14.072   09 Jun 2027 03:27:18.447             4.375          2187.500
       293   09 Jun 2027 03:27:52.359   09 Jun 2027 03:28:22.914            30.555         15277.500
       294   09 Jun 2027 03:29:01.883   09 Jun 2027 03:29:39.453            37.570         18785.000
       295   09 Jun 2027 03:29:59.115   09 Jun 2027 03:30:07.017             7.902          3951.000
       296   09 Jun 2027 03:30:12.391   09 Jun 2027 03:30:31.442            19.051          9525.500
       297   09 Jun 2027 04:48:48.711   09 Jun 2027 04:49:13.895            25.184         12592.000
       298   09 Jun 2027 05:00:20.562   09 Jun 2027 05:01:26.188            65.626         32778.219
       299   09 Jun 2027 06:22:59.362   09 Jun 2027 06:23:17.412            18.050          5091.094
       300   09 Jun 2027 06:25:04.798   09 Jun 2027 06:25:09.295             4.497          1897.000
       301   09 Jun 2027 06:26:42.075   09 Jun 2027 06:26:44.092             2.017          1008.500
       302   09 Jun 2027 06:26:53.459   09 Jun 2027 06:27:01.177             7.718          1863.031
       303   09 Jun 2027 07:58:11.277   09 Jun 2027 07:58:21.654            10.377          3945.844
       304   09 Jun 2027 07:59:08.919   09 Jun 2027 07:59:12.753             3.834          1477.031
       305   09 Jun 2027 08:00:01.316   09 Jun 2027 08:00:01.316             0.000             0.000
       306   09 Jun 2027 08:00:09.625   09 Jun 2027 08:00:20.900            11.275          1594.406
       307   09 Jun 2027 08:01:35.045   09 Jun 2027 08:01:38.608             3.563          1778.813
       308   09 Jun 2027 08:02:51.879   09 Jun 2027 08:02:57.444             5.565          2201.656
       309   09 Jun 2027 08:04:11.099   09 Jun 2027 08:04:13.578             2.479          1239.500
       310   09 Jun 2027 09:34:51.814   09 Jun 2027 09:35:02.772            10.958          4853.656
       311   09 Jun 2027 09:37:03.815   09 Jun 2027 09:37:20.400            16.585          3742.875
       312   09 Jun 2027 09:38:16.286   09 Jun 2027 09:38:18.453             2.167           745.406
       313   09 Jun 2027 09:38:37.946   09 Jun 2027 09:38:40.085             2.139           349.531
       314   09 Jun 2027 09:39:24.525   09 Jun 2027 09:39:25.564             1.039           519.500
       315   09 Jun 2027 09:39:31.773   09 Jun 2027 09:39:36.643             4.870           565.093
       316   09 Jun 2027 09:39:52.646   09 Jun 2027 09:39:54.012             1.366           500.094
       317   09 Jun 2027 09:40:06.277   09 Jun 2027 09:40:11.570             5.293           312.719
       318   09 Jun 2027 09:40:44.069   09 Jun 2027 09:40:45.389             1.320           660.000
       319   09 Jun 2027 09:41:30.531   09 Jun 2027 09:41:34.398             3.867          1589.937
       320   09 Jun 2027 09:41:53.685   09 Jun 2027 09:41:54.306             0.621           304.188
       321   09 Jun 2027 09:42:17.997   09 Jun 2027 09:42:19.479             1.482           663.563
       322   09 Jun 2027 11:11:54.525   09 Jun 2027 11:12:10.044            15.519          7638.656
       323   09 Jun 2027 11:12:28.163   09 Jun 2027 11:12:29.037             0.874           125.406
       324   09 Jun 2027 11:13:06.237   09 Jun 2027 11:13:10.176             3.939           574.250
       325   09 Jun 2027 11:13:19.673   09 Jun 2027 11:13:24.088             4.415           107.969
       326   09 Jun 2027 11:14:13.542   09 Jun 2027 11:14:18.832             5.290          1419.500
       327   09 Jun 2027 11:15:12.694   09 Jun 2027 11:15:13.331             0.637           318.500
       328   09 Jun 2027 11:15:17.191   09 Jun 2027 11:15:23.451             6.260          1022.344
       329   09 Jun 2027 11:16:18.727   09 Jun 2027 11:16:22.135             3.408          1484.969
       330   09 Jun 2027 11:17:15.264   09 Jun 2027 11:17:18.686             3.422          1597.125
       331   09 Jun 2027 11:17:58.587   09 Jun 2027 11:18:01.948             3.361          1246.906
       332   10 Jun 2027 03:35:52.252   10 Jun 2027 03:38:41.658           169.406         84703.000
       333   10 Jun 2027 03:39:10.270   10 Jun 2027 03:39:10.941             0.671           335.500
       334   10 Jun 2027 03:39:54.216   10 Jun 2027 03:41:05.382            71.166         35583.000
       335   10 Jun 2027 05:00:06.461   10 Jun 2027 05:00:49.043            42.582         21291.000
       336   10 Jun 2027 05:01:00.659   10 Jun 2027 05:01:15.416            14.757          7378.500
       337   10 Jun 2027 05:12:19.740   10 Jun 2027 05:12:54.375            34.635         16396.344
       338   10 Jun 2027 06:34:35.014   10 Jun 2027 06:34:43.613             8.599          4123.687
       339   10 Jun 2027 06:35:27.068   10 Jun 2027 06:35:30.713             3.645          1235.000
       340   10 Jun 2027 06:36:30.482   10 Jun 2027 06:36:34.516             4.034          1721.344
       341   10 Jun 2027 06:36:48.329   10 Jun 2027 06:36:49.822             1.493           256.750
       342   10 Jun 2027 06:37:24.254   10 Jun 2027 06:37:24.254             0.000             0.000
       343   10 Jun 2027 06:38:40.615   10 Jun 2027 06:38:55.769            15.154          3368.844
       344   10 Jun 2027 08:09:27.661   10 Jun 2027 08:09:39.195            11.534          5391.875
       345   10 Jun 2027 08:10:06.153   10 Jun 2027 08:10:08.550             2.397           120.875
       346   10 Jun 2027 08:11:20.869   10 Jun 2027 08:11:24.477             3.608          1507.375
       347   10 Jun 2027 08:12:35.651   10 Jun 2027 08:12:39.157             3.506          1408.844
       348   10 Jun 2027 08:13:11.221   10 Jun 2027 08:13:13.881             2.660           974.813
       349   10 Jun 2027 08:13:40.836   10 Jun 2027 08:13:47.199             6.363           842.344
       350   10 Jun 2027 08:15:38.991   10 Jun 2027 08:15:42.673             3.682          1569.156
       351   10 Jun 2027 08:16:24.434   10 Jun 2027 08:16:25.972             1.538           769.000
       352   10 Jun 2027 08:17:31.367   10 Jun 2027 08:17:35.238             3.871          1767.719
       353   10 Jun 2027 09:47:02.141   10 Jun 2027 09:47:18.880            16.739          8031.313
       354   10 Jun 2027 09:47:38.670   10 Jun 2027 09:47:38.895             0.225           112.500
       355   10 Jun 2027 09:50:07.233   10 Jun 2027 09:50:17.642            10.409          4678.656
       356   10 Jun 2027 09:51:17.668   10 Jun 2027 09:51:24.507             6.839          1411.750
       357   10 Jun 2027 09:52:16.311   10 Jun 2027 09:52:19.549             3.238          1497.344
       358   10 Jun 2027 09:53:20.118   10 Jun 2027 09:53:24.653             4.535          1833.719
       359   10 Jun 2027 09:53:24.707   10 Jun 2027 09:53:25.739             1.032             1.688
       360   10 Jun 2027 09:53:57.643   10 Jun 2027 09:53:58.324             0.681           340.500
       361   10 Jun 2027 11:23:44.921   10 Jun 2027 11:23:57.685            12.764          6156.688
       362   10 Jun 2027 11:25:25.654   10 Jun 2027 11:25:32.164             6.510          1080.594
       363   10 Jun 2027 11:26:04.588   10 Jun 2027 11:26:04.901             0.313            24.031
       364   10 Jun 2027 11:26:30.350   10 Jun 2027 11:26:31.268             0.918           459.000
       365   10 Jun 2027 11:26:43.466   10 Jun 2027 11:26:43.466             0.000             0.000
       366   10 Jun 2027 11:27:08.234   10 Jun 2027 11:27:18.213             9.979          1491.469
       367   10 Jun 2027 11:27:58.486   10 Jun 2027 11:28:04.885             6.399          1258.531
       368   10 Jun 2027 11:28:50.225   10 Jun 2027 11:28:53.418             3.193          1388.500
       369   10 Jun 2027 11:30:03.274   10 Jun 2027 11:30:05.680             2.406          1203.000
       370   10 Jun 2027 11:30:21.127   10 Jun 2027 11:30:22.798             1.671           722.000
       371   11 Jun 2027 03:47:56.911   11 Jun 2027 03:49:52.697           115.786         57893.000
       372   11 Jun 2027 03:51:05.357   11 Jun 2027 03:51:56.142            50.785         25392.500
       373   11 Jun 2027 03:52:00.988   11 Jun 2027 03:53:00.210            59.222         29611.000
       374   11 Jun 2027 03:53:45.167   11 Jun 2027 03:53:45.167             0.000             0.000
       375   11 Jun 2027 03:54:01.816   11 Jun 2027 03:54:23.688            21.872         10936.000
       376   11 Jun 2027 05:12:12.433   11 Jun 2027 05:12:51.970            39.537         19768.500
       377   11 Jun 2027 05:13:57.237   11 Jun 2027 05:14:06.339             9.102          4551.000
       378   11 Jun 2027 05:24:40.662   11 Jun 2027 05:24:51.595            10.933          5466.500
       379   11 Jun 2027 06:46:03.490   11 Jun 2027 06:46:29.134            25.644         12009.874
       380   11 Jun 2027 06:48:06.270   11 Jun 2027 06:48:10.422             4.152          1670.250
       381   11 Jun 2027 06:48:42.732   11 Jun 2027 06:48:44.242             1.510           709.188
       382   11 Jun 2027 06:49:29.836   11 Jun 2027 06:49:31.595             1.759           879.500
       383   11 Jun 2027 06:50:38.304   11 Jun 2027 06:50:43.640             5.336          2314.125
       384   11 Jun 2027 06:50:58.783   11 Jun 2027 06:51:01.369             2.586           303.687
       385   11 Jun 2027 06:51:25.458   11 Jun 2027 06:51:25.458             0.000             0.000
       386   11 Jun 2027 08:20:57.785   11 Jun 2027 08:21:10.853            13.068          6210.719
       387   11 Jun 2027 08:21:53.702   11 Jun 2027 08:21:55.899             2.197          1043.000
       388   11 Jun 2027 08:23:07.954   11 Jun 2027 08:23:13.617             5.663          2173.062
       389   11 Jun 2027 08:24:16.611   11 Jun 2027 08:24:16.861             0.250           125.000
       390   11 Jun 2027 08:25:28.795   11 Jun 2027 08:25:42.275            13.480          3847.500
       391   11 Jun 2027 08:26:52.608   11 Jun 2027 08:26:57.971             5.363          2184.312
       392   11 Jun 2027 08:27:53.534   11 Jun 2027 08:27:59.427             5.893          1723.156
       393   11 Jun 2027 08:28:09.390   11 Jun 2027 08:28:10.051             0.661           273.469
       394   11 Jun 2027 08:28:53.080   11 Jun 2027 08:28:58.134             5.054          1137.250
       395   11 Jun 2027 08:29:47.168   11 Jun 2027 08:29:55.191             8.023          1532.313
       396   11 Jun 2027 09:58:56.926   11 Jun 2027 09:59:11.349            14.423          6483.000
       397   11 Jun 2027 10:01:02.290   11 Jun 2027 10:01:09.090             6.800          3335.219
       398   11 Jun 2027 10:01:49.312   11 Jun 2027 10:01:55.014             5.702          1255.688
       399   11 Jun 2027 10:02:59.140   11 Jun 2027 10:03:03.507             4.367          2003.937
       400   11 Jun 2027 10:04:20.979   11 Jun 2027 10:04:25.009             4.030          2015.000
       401   11 Jun 2027 10:05:32.007   11 Jun 2027 10:05:37.226             5.219          2210.719
       402   11 Jun 2027 10:05:42.358   11 Jun 2027 10:05:45.461             3.103           160.375
       403   11 Jun 2027 10:06:09.097   11 Jun 2027 10:06:13.147             4.050           517.719
       404   11 Jun 2027 11:35:53.356   11 Jun 2027 11:36:05.846            12.490          6143.187
       405   11 Jun 2027 11:36:29.832   11 Jun 2027 11:36:32.643             2.811           377.531
       406   11 Jun 2027 11:36:54.882   11 Jun 2027 11:36:58.180             3.298           694.969
       407   11 Jun 2027 11:37:52.814   11 Jun 2027 11:37:55.637             2.823           329.063
       408   11 Jun 2027 11:38:09.555   11 Jun 2027 11:38:14.096             4.541           155.094
       409   11 Jun 2027 11:38:19.086   11 Jun 2027 11:38:28.376             9.290           155.937
       410   11 Jun 2027 11:39:46.510   11 Jun 2027 11:39:51.520             5.010          2404.531
       411   11 Jun 2027 11:39:57.302   11 Jun 2027 11:39:58.974             1.672           180.688
       412   11 Jun 2027 11:40:17.109   11 Jun 2027 11:40:18.136             1.027           264.188
       413   11 Jun 2027 11:40:44.574   11 Jun 2027 11:40:47.909             3.335           795.625
       414   11 Jun 2027 11:41:02.400   11 Jun 2027 11:41:05.529             3.129           452.844
       415   11 Jun 2027 11:41:32.598   11 Jun 2027 11:41:33.513             0.915           371.781
       416   11 Jun 2027 11:41:54.142   11 Jun 2027 11:41:54.142             0.000             0.000
       417   11 Jun 2027 11:42:07.469   11 Jun 2027 11:42:09.880             2.411           830.375
       418   12 Jun 2027 04:00:20.148   12 Jun 2027 04:02:59.397           159.249         79624.500
       419   12 Jun 2027 04:03:16.106   12 Jun 2027 04:03:59.507            43.401         21700.500
       420   12 Jun 2027 04:04:49.583   12 Jun 2027 04:05:18.415            28.832         14416.000
       421   12 Jun 2027 05:24:08.470   12 Jun 2027 05:24:54.824            46.354         23177.000
       422   12 Jun 2027 07:00:21.035   12 Jun 2027 07:01:06.175            45.140         22050.532
       423   12 Jun 2027 07:02:19.027   12 Jun 2027 07:02:25.802             6.775          2125.687
       424   12 Jun 2027 07:02:53.212   12 Jun 2027 07:02:54.603             1.391           570.031
       425   12 Jun 2027 08:33:52.745   12 Jun 2027 08:34:07.886            15.141          4513.406
       426   12 Jun 2027 08:35:28.998   12 Jun 2027 08:35:31.325             2.327           529.531
       427   12 Jun 2027 08:36:17.970   12 Jun 2027 08:36:23.985             6.015          1277.500
       428   12 Jun 2027 08:36:56.220   12 Jun 2027 08:36:58.490             2.270           976.125
       429   12 Jun 2027 08:37:47.124   12 Jun 2027 08:37:47.124             0.000             0.000
       430   12 Jun 2027 08:38:51.816   12 Jun 2027 08:38:59.657             7.841          3000.437
       431   12 Jun 2027 08:39:48.131   12 Jun 2027 08:39:48.131             0.000             0.000
       432   12 Jun 2027 08:39:50.533   12 Jun 2027 08:39:54.446             3.913          1532.781
       433   12 Jun 2027 08:40:58.114   12 Jun 2027 08:41:03.466             5.352          1063.719
       434   12 Jun 2027 08:42:27.133   12 Jun 2027 08:42:28.027             0.894           447.000
       435   12 Jun 2027 10:11:18.751   12 Jun 2027 10:11:33.198            14.447          6445.187
       436   12 Jun 2027 10:11:46.947   12 Jun 2027 10:11:48.878             1.931           323.313
       437   12 Jun 2027 10:12:50.056   12 Jun 2027 10:12:56.542             6.486           949.469
       438   12 Jun 2027 10:13:38.053   12 Jun 2027 10:13:41.026             2.973          1179.938
       439   12 Jun 2027 10:14:41.561   12 Jun 2027 10:14:44.819             3.258          1345.000
       440   12 Jun 2027 10:15:54.797   12 Jun 2027 10:15:58.519             3.722          1788.281
       441   12 Jun 2027 10:16:15.065   12 Jun 2027 10:16:16.269             1.204           448.156
       442   12 Jun 2027 10:16:24.525   12 Jun 2027 10:16:25.209             0.684           158.656
       443   12 Jun 2027 10:16:59.789   12 Jun 2027 10:17:01.838             2.049           992.469
       444   12 Jun 2027 10:17:34.428   12 Jun 2027 10:17:40.583             6.155           766.000
       445   12 Jun 2027 10:18:08.246   12 Jun 2027 10:18:11.515             3.269           864.469
       446   12 Jun 2027 11:48:22.355   12 Jun 2027 11:48:39.577            17.222          7682.375
       447   12 Jun 2027 11:50:04.647   12 Jun 2027 11:50:07.308             2.661          1330.500
       448   12 Jun 2027 11:50:15.690   12 Jun 2027 11:50:21.067             5.377          1049.156
       449   12 Jun 2027 11:51:37.640   12 Jun 2027 11:51:41.496             3.856          1928.000
       450   12 Jun 2027 11:52:12.736   12 Jun 2027 11:52:15.706             2.970          1260.094
       451   12 Jun 2027 11:53:07.142   12 Jun 2027 11:53:08.420             1.278           639.000
       452   12 Jun 2027 11:53:21.282   12 Jun 2027 11:53:24.562             3.280          1163.063
       453   12 Jun 2027 11:53:54.996   12 Jun 2027 11:53:56.824             1.828           881.125
       454   13 Jun 2027 04:12:38.406   13 Jun 2027 04:14:52.465           134.059         67029.500
       455   13 Jun 2027 04:15:12.224   13 Jun 2027 04:16:00.065            47.841         23920.500
       456   13 Jun 2027 05:36:00.206   13 Jun 2027 05:37:19.240            79.034         39517.000
       457   13 Jun 2027 07:12:24.174   13 Jun 2027 07:13:19.725            55.551         27775.500
       458   13 Jun 2027 07:13:40.319   13 Jun 2027 07:13:44.338             4.019           854.719
       459   13 Jun 2027 07:14:29.168   13 Jun 2027 07:14:31.884             2.716          1212.000
       460   13 Jun 2027 07:15:03.342   13 Jun 2027 07:15:08.601             5.259           983.062
       461   13 Jun 2027 08:44:36.259   13 Jun 2027 08:44:46.279            10.020          4072.687
       462   13 Jun 2027 08:46:30.198   13 Jun 2027 08:46:31.949             1.751           605.656
       463   13 Jun 2027 08:49:17.681   13 Jun 2027 08:49:22.748             5.067          2214.781
       464   13 Jun 2027 08:49:54.181   13 Jun 2027 08:49:54.239             0.058            29.000
       465   13 Jun 2027 08:50:20.725   13 Jun 2027 08:50:20.725             0.000             0.000
       466   13 Jun 2027 08:52:01.024   13 Jun 2027 08:52:10.415             9.391          4184.906
       467   13 Jun 2027 08:52:43.786   13 Jun 2027 08:52:52.156             8.370           296.344
       468   13 Jun 2027 08:53:13.366   13 Jun 2027 08:53:13.366             0.000             0.000
       469   13 Jun 2027 08:53:40.840   13 Jun 2027 08:53:45.838             4.998          1138.906
       470   13 Jun 2027 08:54:06.010   13 Jun 2027 08:54:10.250             4.240           630.375
       471   13 Jun 2027 08:54:23.376   13 Jun 2027 08:54:24.557             1.181           353.406
       472   13 Jun 2027 10:23:30.545   13 Jun 2027 10:23:42.876            12.331          5968.406
       473   13 Jun 2027 10:24:14.147   13 Jun 2027 10:24:18.124             3.977           712.750
       474   13 Jun 2027 10:24:56.512   13 Jun 2027 10:24:58.421             1.909           698.062
       475   13 Jun 2027 10:25:46.879   13 Jun 2027 10:25:47.863             0.984           152.719
       476   13 Jun 2027 10:26:15.252   13 Jun 2027 10:26:16.367             1.115           472.219
       477   13 Jun 2027 10:27:26.223   13 Jun 2027 10:27:33.437             7.214          1847.594
       478   13 Jun 2027 10:27:49.424   13 Jun 2027 10:27:51.117             1.693           371.000
       479   13 Jun 2027 10:27:53.358   13 Jun 2027 10:27:54.887             1.529            70.031
       480   13 Jun 2027 10:28:06.491   13 Jun 2027 10:28:11.612             5.121           172.281
       481   13 Jun 2027 10:28:44.196   13 Jun 2027 10:28:45.764             1.568           784.000
       482   13 Jun 2027 10:29:37.254   13 Jun 2027 10:29:44.242             6.988          1722.594
       483   13 Jun 2027 10:29:56.894   13 Jun 2027 10:29:58.570             1.676           395.375
