uniorb/output/strategy_2/Camera/Camera_KinoSat_111301.txt

KinoSat_111301
-------------------------
    Access    *     Start Time (UTCG)     *     Stop Time (UTCG)  *   Duration (s) *   Data (Mbytes)
         1   01 Jun 2027 04:06:26.890   01 Jun 2027 04:06:57.256            30.366         15183.000
         2   01 Jun 2027 04:07:15.819   01 Jun 2027 04:10:19.042           183.223         91611.500
         3   01 Jun 2027 05:29:49.379   01 Jun 2027 05:30:45.352            55.973         27986.500
         4   01 Jun 2027 05:32:56.463   01 Jun 2027 05:32:56.586             0.123            61.500
         5   01 Jun 2027 07:06:21.317   01 Jun 2027 07:09:20.270           178.953         89476.500
         6   01 Jun 2027 08:41:31.077   01 Jun 2027 08:43:15.997           104.920         52460.000
         7   01 Jun 2027 08:43:41.774   01 Jun 2027 08:44:37.209            55.435         27717.500
         8   01 Jun 2027 08:45:31.711   01 Jun 2027 08:46:09.581            37.870         18935.000
         9   01 Jun 2027 08:46:12.759   01 Jun 2027 08:46:17.370             4.611          2305.500
        10   01 Jun 2027 08:48:06.243   01 Jun 2027 08:48:07.736             1.493           746.500
        11   01 Jun 2027 10:17:56.216   01 Jun 2027 10:19:11.919            75.703         37851.500
        12   01 Jun 2027 10:20:30.158   01 Jun 2027 10:21:03.701            33.543         16771.500
        13   01 Jun 2027 10:22:29.395   01 Jun 2027 10:23:06.153            36.758         18379.000
        14   01 Jun 2027 11:55:09.708   01 Jun 2027 11:57:07.876           118.168         59084.000
        15   01 Jun 2027 11:57:10.552   01 Jun 2027 11:57:15.617             5.065          2532.500
        16   01 Jun 2027 11:59:01.305   01 Jun 2027 11:59:15.618            14.313          7156.500
        17   02 Jun 2027 04:18:23.636   02 Jun 2027 04:19:02.456            38.820         19410.000
        18   02 Jun 2027 04:19:27.565   02 Jun 2027 04:21:13.735           106.170         53085.000
        19   02 Jun 2027 05:42:25.021   02 Jun 2027 05:44:37.656           132.635         66317.500
        20   02 Jun 2027 07:18:14.267   02 Jun 2027 07:20:49.147           154.880         77440.000
        21   02 Jun 2027 08:53:10.914   02 Jun 2027 08:55:35.688           144.774         72247.719
        22   02 Jun 2027 08:57:15.164   02 Jun 2027 08:57:23.925             8.761          3108.625
        23   02 Jun 2027 08:58:46.422   02 Jun 2027 08:58:51.514             5.092          2245.000
        24   02 Jun 2027 09:00:02.230   02 Jun 2027 09:00:02.304             0.074            37.000
        25   02 Jun 2027 10:29:28.919   02 Jun 2027 10:29:48.272            19.353          9389.844
        26   02 Jun 2027 10:30:07.837   02 Jun 2027 10:30:09.172             1.335           169.500
        27   02 Jun 2027 10:31:38.630   02 Jun 2027 10:31:44.753             6.123          2188.187
        28   02 Jun 2027 10:31:57.909   02 Jun 2027 10:31:58.752             0.843           402.906
        29   02 Jun 2027 10:33:50.613   02 Jun 2027 10:33:55.492             4.879          2439.500
        30   02 Jun 2027 10:34:00.562   02 Jun 2027 10:34:07.217             6.655          1214.594
        31   02 Jun 2027 10:34:13.722   02 Jun 2027 10:34:17.250             3.528           203.281
        32   02 Jun 2027 10:34:33.931   02 Jun 2027 10:34:37.266             3.335           325.938
        33   02 Jun 2027 10:35:05.902   02 Jun 2027 10:35:12.692             6.790           703.219
        34   02 Jun 2027 10:35:53.145   02 Jun 2027 10:35:53.512             0.367           183.500
        35   03 Jun 2027 03:00:00.000   03 Jun 2027 03:00:14.111            14.111          7055.500
        36   03 Jun 2027 04:19:09.919   03 Jun 2027 04:19:58.385            48.466         24233.000
        37   03 Jun 2027 04:30:20.015   03 Jun 2027 04:32:01.231           101.216         50608.000
        38   03 Jun 2027 04:32:25.378   03 Jun 2027 04:33:37.711            72.333         36166.500
        39   03 Jun 2027 05:53:03.415   03 Jun 2027 05:53:35.646            32.231         16115.500
        40   03 Jun 2027 05:54:44.548   03 Jun 2027 05:54:51.657             7.109          3554.500
        41   03 Jun 2027 05:56:50.387   03 Jun 2027 05:56:55.639             5.252          2626.000
        42   03 Jun 2027 05:57:31.379   03 Jun 2027 05:57:33.462             2.083          1041.500
        43   03 Jun 2027 07:28:33.145   03 Jun 2027 07:29:06.384            33.239         16619.500
        44   03 Jun 2027 07:29:58.345   03 Jun 2027 07:30:15.216            16.871          8367.876
        45   03 Jun 2027 07:31:28.638   03 Jun 2027 07:31:35.061             6.423          2257.219
        46   03 Jun 2027 07:31:50.450   03 Jun 2027 07:31:52.968             2.518           272.969
        47   03 Jun 2027 07:32:35.179   03 Jun 2027 07:32:37.029             1.850           658.531
        48   03 Jun 2027 07:33:03.012   03 Jun 2027 07:33:04.633             1.621           615.000
        49   03 Jun 2027 07:33:26.011   03 Jun 2027 07:33:28.377             2.366           650.531
        50   03 Jun 2027 07:34:05.639   03 Jun 2027 07:34:07.554             1.915           810.281
        51   03 Jun 2027 09:04:44.105   03 Jun 2027 09:04:48.232             4.127          2063.500
        52   03 Jun 2027 09:05:06.300   03 Jun 2027 09:05:12.417             6.117          2123.656
        53   03 Jun 2027 09:05:43.667   03 Jun 2027 09:05:43.667             0.000             0.000
        54   03 Jun 2027 09:07:04.842   03 Jun 2027 09:07:13.176             8.334          3393.469
        55   03 Jun 2027 09:08:11.465   03 Jun 2027 09:08:13.770             2.305           753.156
        56   03 Jun 2027 09:08:54.009   03 Jun 2027 09:09:00.610             6.601          1129.250
        57   03 Jun 2027 09:10:45.262   03 Jun 2027 09:10:53.959             8.697          3187.250
        58   03 Jun 2027 09:11:09.485   03 Jun 2027 09:11:11.203             1.718           452.938
        59   03 Jun 2027 09:11:51.404   03 Jun 2027 09:11:53.612             2.208           802.750
        60   03 Jun 2027 10:41:48.400   03 Jun 2027 10:42:07.948            19.548          8715.719
        61   03 Jun 2027 10:43:20.051   03 Jun 2027 10:43:26.061             6.010          2238.500
        62   03 Jun 2027 10:44:18.888   03 Jun 2027 10:44:22.881             3.993          1540.969
        63   03 Jun 2027 10:45:04.643   03 Jun 2027 10:45:08.160             3.517          1021.250
        64   03 Jun 2027 10:45:45.260   03 Jun 2027 10:45:50.866             5.606           798.844
        65   03 Jun 2027 10:46:05.120   03 Jun 2027 10:46:08.418             3.298           401.750
        66   03 Jun 2027 10:46:11.004   03 Jun 2027 10:46:23.925            12.921            80.812
        67   03 Jun 2027 10:46:37.693   03 Jun 2027 10:46:39.308             1.615           430.250
        68   03 Jun 2027 10:47:52.373   03 Jun 2027 10:47:57.685             5.312          2218.437
        69   04 Jun 2027 03:05:48.208   04 Jun 2027 03:07:51.113           122.905         61452.500
        70   04 Jun 2027 03:08:14.626   04 Jun 2027 03:08:34.056            19.430          9715.000
        71   04 Jun 2027 03:09:31.429   04 Jun 2027 03:09:36.099             4.670          2335.000
        72   04 Jun 2027 03:11:38.780   04 Jun 2027 03:11:58.068            19.288          9644.000
        73   04 Jun 2027 04:30:39.839   04 Jun 2027 04:31:01.829            21.990         10995.000
        74   04 Jun 2027 04:42:22.945   04 Jun 2027 04:43:36.197            73.252         36626.000
        75   04 Jun 2027 06:04:35.651   04 Jun 2027 06:05:30.370            54.719         27359.500
        76   04 Jun 2027 06:06:36.438   04 Jun 2027 06:06:53.544            17.106          7891.281
        77   04 Jun 2027 06:07:19.603   04 Jun 2027 06:07:19.603             0.000             0.000
        78   04 Jun 2027 06:09:12.494   04 Jun 2027 06:09:12.494             0.000             0.000
        79   04 Jun 2027 07:39:39.977   04 Jun 2027 07:39:52.575            12.598          6174.906
        80   04 Jun 2027 07:41:15.777   04 Jun 2027 07:41:22.636             6.859          1837.438
        81   04 Jun 2027 07:41:43.074   04 Jun 2027 07:41:43.764             0.690           345.000
        82   04 Jun 2027 07:43:11.231   04 Jun 2027 07:43:25.366            14.135          2904.656
        83   04 Jun 2027 07:44:49.210   04 Jun 2027 07:44:58.220             9.010          2495.469
        84   04 Jun 2027 07:45:55.412   04 Jun 2027 07:46:01.513             6.101          1665.250
        85   04 Jun 2027 07:46:02.028   04 Jun 2027 07:46:04.494             2.466             5.031
        86   04 Jun 2027 07:46:33.299   04 Jun 2027 07:46:37.420             4.121           868.750
        87   04 Jun 2027 07:47:35.564   04 Jun 2027 07:47:37.964             2.400           860.750
        88   04 Jun 2027 09:17:01.369   04 Jun 2027 09:17:08.848             7.479          3739.500
        89   04 Jun 2027 09:19:04.673   04 Jun 2027 09:19:04.673             0.000             0.000
        90   04 Jun 2027 09:20:10.044   04 Jun 2027 09:20:21.743            11.699          5734.531
        91   04 Jun 2027 09:20:42.844   04 Jun 2027 09:20:47.914             5.070           494.719
        92   04 Jun 2027 09:21:48.727   04 Jun 2027 09:21:52.659             3.932          1364.312
        93   04 Jun 2027 09:22:06.433   04 Jun 2027 09:22:07.090             0.657           208.062
        94   04 Jun 2027 09:22:25.917   04 Jun 2027 09:22:32.930             7.013           467.344
        95   04 Jun 2027 09:22:41.380   04 Jun 2027 09:22:42.396             1.016           123.813
        96   04 Jun 2027 09:23:15.099   04 Jun 2027 09:23:15.099             0.000             0.000
        97   04 Jun 2027 09:23:41.306   04 Jun 2027 09:23:44.124             2.818          1340.375
        98   04 Jun 2027 09:24:05.029   04 Jun 2027 09:24:10.092             5.063           653.281
        99   04 Jun 2027 10:53:50.299   04 Jun 2027 10:54:04.291            13.992          6588.500
       100   04 Jun 2027 10:54:50.302   04 Jun 2027 10:54:54.973             4.671          1336.313
       101   04 Jun 2027 10:55:19.674   04 Jun 2027 10:55:24.201             4.527           318.219
       102   04 Jun 2027 10:56:27.710   04 Jun 2027 10:56:31.432             3.722          1861.000
       103   04 Jun 2027 10:57:44.354   04 Jun 2027 10:57:48.510             4.156          2078.000
       104   04 Jun 2027 10:58:31.424   04 Jun 2027 10:58:37.022             5.598          1623.031
       105   04 Jun 2027 10:59:42.513   04 Jun 2027 10:59:47.491             4.978          2041.062
       106   05 Jun 2027 03:17:56.785   05 Jun 2027 03:21:23.264           206.479        103239.500
       107   05 Jun 2027 03:24:39.669   05 Jun 2027 03:24:55.434            15.765          7882.500
       108   05 Jun 2027 04:42:10.095   05 Jun 2027 04:42:52.301            42.206         21103.000
       109   05 Jun 2027 04:43:02.913   05 Jun 2027 04:43:02.913             0.000             0.000
       110   05 Jun 2027 04:54:23.690   05 Jun 2027 04:54:55.503            31.813         15906.500
       111   05 Jun 2027 06:16:19.958   05 Jun 2027 06:16:47.098            27.140         13274.469
       112   05 Jun 2027 06:18:22.646   05 Jun 2027 06:18:26.489             3.843          1801.906
       113   05 Jun 2027 06:19:04.623   05 Jun 2027 06:19:07.479             2.856          1102.688
       114   05 Jun 2027 06:19:33.331   05 Jun 2027 06:19:33.331             0.000             0.000
       115   05 Jun 2027 06:20:02.154   05 Jun 2027 06:20:05.958             3.804          1708.344
       116   05 Jun 2027 06:20:14.455   05 Jun 2027 06:20:14.455             0.000             0.000
       117   05 Jun 2027 06:21:14.775   05 Jun 2027 06:21:22.497             7.722          2128.406
       118   05 Jun 2027 06:21:37.859   05 Jun 2027 06:21:37.859             0.000             0.000
       119   05 Jun 2027 07:51:08.198   05 Jun 2027 07:51:19.063            10.865          5277.531
       120   05 Jun 2027 07:52:00.862   05 Jun 2027 07:52:03.966             3.104          1174.406
       121   05 Jun 2027 07:52:58.448   05 Jun 2027 07:53:03.646             5.198          1656.375
       122   05 Jun 2027 07:53:34.050   05 Jun 2027 07:53:36.289             2.239           925.031
       123   05 Jun 2027 07:55:29.699   05 Jun 2027 07:55:39.545             9.846          3524.094
       124   05 Jun 2027 07:56:50.855   05 Jun 2027 07:56:59.394             8.539          2196.344
       125   05 Jun 2027 07:57:09.187   05 Jun 2027 07:57:10.142             0.955           306.031
       126   05 Jun 2027 07:57:45.683   05 Jun 2027 07:57:49.071             3.388           511.438
       127   05 Jun 2027 07:58:30.430   05 Jun 2027 07:58:34.649             4.219          1251.187
       128   05 Jun 2027 07:58:53.691   05 Jun 2027 07:58:57.379             3.688           595.062
       129   05 Jun 2027 09:28:57.042   05 Jun 2027 09:29:09.958            12.916          5759.000
       130   05 Jun 2027 09:31:59.504   05 Jun 2027 09:32:10.690            11.186          5261.031
       131   05 Jun 2027 09:32:15.316   05 Jun 2027 09:32:19.976             4.660            17.250
       132   05 Jun 2027 09:32:33.297   05 Jun 2027 09:32:37.674             4.377           367.156
       133   05 Jun 2027 09:33:10.220   05 Jun 2027 09:33:10.220             0.000             0.000
       134   05 Jun 2027 09:33:59.965   05 Jun 2027 09:34:05.503             5.538          1657.375
       135   05 Jun 2027 09:34:26.237   05 Jun 2027 09:34:30.180             3.943           647.937
       136   05 Jun 2027 09:34:56.747   05 Jun 2027 09:35:00.217             3.470           517.250
       137   05 Jun 2027 09:35:32.022   05 Jun 2027 09:35:34.520             2.498           984.437
       138   05 Jun 2027 09:35:40.561   05 Jun 2027 09:35:41.265             0.704            24.344
       139   05 Jun 2027 09:35:50.754   05 Jun 2027 09:35:53.822             3.068           296.531
       140   05 Jun 2027 09:36:18.206   05 Jun 2027 09:36:20.403             2.197           697.063
       141   05 Jun 2027 11:05:41.456   05 Jun 2027 11:05:48.340             6.884          3442.000
       142   05 Jun 2027 11:06:06.994   05 Jun 2027 11:06:17.451            10.457          3796.375
       143   05 Jun 2027 11:06:54.397   05 Jun 2027 11:06:56.759             2.362           275.688
       144   05 Jun 2027 11:07:24.704   05 Jun 2027 11:07:26.748             2.044           873.281
       145   05 Jun 2027 11:07:45.526   05 Jun 2027 11:07:46.605             1.079            36.219
       146   05 Jun 2027 11:08:11.699   05 Jun 2027 11:08:13.997             2.298           314.750
       147   05 Jun 2027 11:08:45.316   05 Jun 2027 11:08:46.249             0.933           466.500
       148   05 Jun 2027 11:09:53.440   05 Jun 2027 11:09:56.173             2.733          1366.500
       149   05 Jun 2027 11:10:11.137   05 Jun 2027 11:10:15.146             4.009          1203.594
       150   05 Jun 2027 11:10:22.864   05 Jun 2027 11:10:24.821             1.957           241.188
       151   05 Jun 2027 11:10:42.861   05 Jun 2027 11:10:51.415             8.554           305.063
       152   05 Jun 2027 11:11:35.204   05 Jun 2027 11:11:37.695             2.491          1188.938
       153   05 Jun 2027 11:12:11.279   05 Jun 2027 11:12:13.353             2.074           904.187
       154   05 Jun 2027 11:12:19.744   05 Jun 2027 11:12:21.599             1.855            91.531
       155   05 Jun 2027 11:12:27.256   05 Jun 2027 11:12:27.761             0.505           176.781
       156   06 Jun 2027 03:30:07.456   06 Jun 2027 03:31:23.711            76.255         38127.500
       157   06 Jun 2027 03:31:37.139   06 Jun 2027 03:33:32.422           115.283         57641.500
       158   06 Jun 2027 04:54:09.176   06 Jun 2027 04:55:04.667            55.491         27745.500
       159   06 Jun 2027 06:30:06.000   06 Jun 2027 06:31:07.304            61.304         30270.250
       160   06 Jun 2027 06:31:42.421   06 Jun 2027 06:31:45.919             3.498           990.281
       161   06 Jun 2027 06:32:13.688   06 Jun 2027 06:32:13.688             0.000             0.000
       162   06 Jun 2027 06:33:15.229   06 Jun 2027 06:33:21.141             5.912          2651.156
       163   06 Jun 2027 08:03:56.830   06 Jun 2027 08:04:12.046            15.216          4621.875
       164   06 Jun 2027 08:04:48.942   06 Jun 2027 08:04:49.291             0.349             0.500
       165   06 Jun 2027 08:05:22.632   06 Jun 2027 08:05:25.750             3.118          1035.281
       166   06 Jun 2027 08:06:08.083   06 Jun 2027 08:06:09.649             1.566           332.688
       167   06 Jun 2027 08:07:15.918   06 Jun 2027 08:07:20.459             4.541          1552.250
       168   06 Jun 2027 08:08:36.093   06 Jun 2027 08:08:40.704             4.611          2078.938
       169   06 Jun 2027 08:09:08.406   06 Jun 2027 08:09:10.854             2.448           564.438
       170   06 Jun 2027 08:09:35.023   06 Jun 2027 08:09:36.365             1.342           640.906
       171   06 Jun 2027 08:10:05.357   06 Jun 2027 08:10:07.079             1.722           499.219
       172   06 Jun 2027 08:10:45.840   06 Jun 2027 08:10:49.954             4.114          1038.969
       173   06 Jun 2027 08:11:43.980   06 Jun 2027 08:11:44.595             0.615           307.500
       174   06 Jun 2027 08:12:11.114   06 Jun 2027 08:12:17.038             5.924          2040.344
       175   06 Jun 2027 09:41:03.616   06 Jun 2027 09:41:17.437            13.821          6815.219
       176   06 Jun 2027 09:42:06.564   06 Jun 2027 09:42:07.961             1.397           491.031
       177   06 Jun 2027 09:43:45.106   06 Jun 2027 09:43:45.106             0.000             0.000
       178   06 Jun 2027 09:45:07.528   06 Jun 2027 09:45:18.942            11.414          3916.844
       179   06 Jun 2027 09:46:18.313   06 Jun 2027 09:46:22.445             4.132          1352.687
       180   06 Jun 2027 09:46:28.230   06 Jun 2027 09:46:31.477             3.247           114.969
       181   06 Jun 2027 09:46:55.892   06 Jun 2027 09:46:59.883             3.991           708.250
       182   06 Jun 2027 09:47:23.655   06 Jun 2027 09:47:23.885             0.230            55.906
       183   06 Jun 2027 09:47:31.462   06 Jun 2027 09:47:32.385             0.923           229.969
       184   06 Jun 2027 09:47:35.866   06 Jun 2027 09:47:41.057             5.191           108.781
       185   06 Jun 2027 09:47:52.388   06 Jun 2027 09:47:55.127             2.739           215.500
       186   06 Jun 2027 11:18:06.160   06 Jun 2027 11:18:23.941            17.781          8831.750
       187   06 Jun 2027 11:18:31.186   06 Jun 2027 11:18:35.523             4.337           105.562
       188   06 Jun 2027 11:19:30.661   06 Jun 2027 11:19:37.713             7.052          1561.469
       189   06 Jun 2027 11:20:10.140   06 Jun 2027 11:20:11.758             1.618           358.219
       190   06 Jun 2027 11:20:18.384   06 Jun 2027 11:20:19.725             1.341           161.531
       191   06 Jun 2027 11:20:47.854   06 Jun 2027 11:20:50.201             2.347           330.500
       192   06 Jun 2027 11:21:52.690   06 Jun 2027 11:22:06.066            13.376          1791.563
       193   06 Jun 2027 11:23:03.421   06 Jun 2027 11:23:09.825             6.404          1593.406
       194   06 Jun 2027 11:23:29.908   06 Jun 2027 11:23:29.908             0.000             0.000
       195   06 Jun 2027 11:23:38.398   06 Jun 2027 11:23:40.444             2.046           752.625
       196   06 Jun 2027 11:23:46.953   06 Jun 2027 11:23:48.389             1.436           188.469
       197   06 Jun 2027 11:24:08.458   06 Jun 2027 11:24:13.149             4.691           576.500
       198   07 Jun 2027 03:42:42.201   07 Jun 2027 03:45:56.466           194.265         97132.500
       199   07 Jun 2027 05:06:03.546   07 Jun 2027 05:07:06.895            63.349         31674.500
       200   07 Jun 2027 06:42:27.865   07 Jun 2027 06:43:16.296            48.431         24181.688
       201   07 Jun 2027 06:44:27.842   07 Jun 2027 06:44:36.639             8.797          1536.250
       202   07 Jun 2027 06:45:00.409   07 Jun 2027 06:45:02.197             1.788           503.156
       203   07 Jun 2027 08:16:08.350   07 Jun 2027 08:16:16.446             8.096          3931.438
       204   07 Jun 2027 08:16:57.523   07 Jun 2027 08:16:58.393             0.870           165.000
       205   07 Jun 2027 08:17:57.475   07 Jun 2027 08:18:01.296             3.821          1479.188
       206   07 Jun 2027 08:18:24.684   07 Jun 2027 08:18:26.724             2.040           249.000
       207   07 Jun 2027 08:18:39.173   07 Jun 2027 08:18:42.314             3.141           270.969
       208   07 Jun 2027 08:19:28.868   07 Jun 2027 08:19:33.597             4.729           582.437
       209   07 Jun 2027 08:19:49.432   07 Jun 2027 08:19:54.984             5.552           467.062
       210   07 Jun 2027 08:20:52.677   07 Jun 2027 08:20:56.519             3.842          1125.188
       211   07 Jun 2027 08:21:21.417   07 Jun 2027 08:21:23.499             2.082           778.062
       212   07 Jun 2027 08:22:49.890   07 Jun 2027 08:22:49.890             0.000             0.000
       213   07 Jun 2027 08:23:14.274   07 Jun 2027 08:23:20.958             6.684          3200.563
       214   07 Jun 2027 08:23:41.041   07 Jun 2027 08:23:47.414             6.373           627.594
       215   07 Jun 2027 08:24:00.347   07 Jun 2027 08:24:03.219             2.872           404.156
       216   07 Jun 2027 08:24:24.202   07 Jun 2027 08:24:25.808             1.606           180.719
       217   07 Jun 2027 09:53:29.775   07 Jun 2027 09:53:48.622            18.847          8487.312
       218   07 Jun 2027 09:54:18.309   07 Jun 2027 09:54:22.278             3.969            86.438
       219   07 Jun 2027 09:54:39.149   07 Jun 2027 09:54:39.892             0.743           129.625
       220   07 Jun 2027 09:55:08.916   07 Jun 2027 09:55:12.061             3.145           175.500
       221   07 Jun 2027 09:55:50.196   07 Jun 2027 09:55:55.773             5.577           990.187
       222   07 Jun 2027 09:56:24.890   07 Jun 2027 09:56:27.822             2.932           721.219
       223   07 Jun 2027 09:57:30.794   07 Jun 2027 09:57:38.285             7.491          1839.906
       224   07 Jun 2027 09:57:54.812   07 Jun 2027 09:57:56.123             1.311           388.813
       225   07 Jun 2027 09:58:08.436   07 Jun 2027 09:58:13.278             4.842           190.250
       226   07 Jun 2027 09:59:38.960   07 Jun 2027 09:59:44.331             5.371          2471.469
       227   07 Jun 2027 10:00:02.182   07 Jun 2027 10:00:03.722             1.540           557.844
       228   07 Jun 2027 11:30:26.850   07 Jun 2027 11:30:46.157            19.307          6813.500
       229   07 Jun 2027 11:31:48.574   07 Jun 2027 11:31:50.745             2.171           823.625
       230   07 Jun 2027 11:32:06.946   07 Jun 2027 11:32:06.946             0.000             0.000
       231   07 Jun 2027 11:32:30.272   07 Jun 2027 11:32:34.143             3.871          1235.219
       232   07 Jun 2027 11:33:04.151   07 Jun 2027 11:33:06.192             2.041           815.000
       233   07 Jun 2027 11:33:47.543   07 Jun 2027 11:33:49.817             2.274          1137.000
       234   07 Jun 2027 11:33:55.500   07 Jun 2027 11:33:56.205             0.705           332.813
       235   07 Jun 2027 11:34:11.924   07 Jun 2027 11:34:22.517            10.593           440.000
       236   07 Jun 2027 11:34:37.714   07 Jun 2027 11:34:41.066             3.352           406.625
       237   07 Jun 2027 11:35:47.087   07 Jun 2027 11:35:56.440             9.353          2041.594
       238   08 Jun 2027 03:54:20.014   08 Jun 2027 03:57:38.289           198.275         99137.500
       239   08 Jun 2027 03:58:32.465   08 Jun 2027 03:58:39.698             7.233          3616.500
       240   08 Jun 2027 05:17:50.931   08 Jun 2027 05:19:00.512            69.581         34790.500
       241   08 Jun 2027 05:19:09.479   08 Jun 2027 05:19:17.889             8.410          4205.000
       242   08 Jun 2027 06:54:29.645   08 Jun 2027 06:55:09.656            40.011         18724.500
       243   08 Jun 2027 06:55:28.695   08 Jun 2027 06:55:30.981             2.286           447.125
       244   08 Jun 2027 06:56:34.363   08 Jun 2027 06:56:38.293             3.930          1632.031
       245   08 Jun 2027 08:29:24.923   08 Jun 2027 08:29:39.128            14.205          4370.687
       246   08 Jun 2027 08:30:16.724   08 Jun 2027 08:30:17.911             1.187           228.469
       247   08 Jun 2027 08:30:44.851   08 Jun 2027 08:30:48.616             3.765           328.563
       248   08 Jun 2027 08:32:47.074   08 Jun 2027 08:32:52.913             5.839          2736.062
       249   08 Jun 2027 08:33:29.864   08 Jun 2027 08:33:32.698             2.834          1154.719
       250   08 Jun 2027 08:35:03.608   08 Jun 2027 08:35:07.887             4.279          2139.500
       251   08 Jun 2027 08:36:05.004   08 Jun 2027 08:36:07.228             2.224          1112.000
       252   08 Jun 2027 08:36:19.307   08 Jun 2027 08:36:22.268             2.961          1267.000
       253   08 Jun 2027 10:05:37.396   08 Jun 2027 10:05:53.455            16.059          6457.500
       254   08 Jun 2027 10:06:49.002   08 Jun 2027 10:06:52.203             3.201           969.625
       255   08 Jun 2027 10:07:31.820   08 Jun 2027 10:07:42.175            10.355           429.156
       256   08 Jun 2027 10:07:49.949   08 Jun 2027 10:07:51.509             1.560           242.844
       257   08 Jun 2027 10:08:18.235   08 Jun 2027 10:08:20.812             2.577           835.187
       258   08 Jun 2027 10:08:29.858   08 Jun 2027 10:08:33.454             3.596           282.687
       259   08 Jun 2027 10:08:48.792   08 Jun 2027 10:08:49.975             1.183           479.313
       260   08 Jun 2027 10:10:18.442   08 Jun 2027 10:10:23.801             5.359          2026.000
       261   08 Jun 2027 10:10:38.504   08 Jun 2027 10:10:39.622             1.118           421.781
       262   08 Jun 2027 10:11:31.195   08 Jun 2027 10:11:39.067             7.872          1557.750
       263   08 Jun 2027 10:12:10.959   08 Jun 2027 10:12:13.807             2.848           996.625
       264   08 Jun 2027 11:43:21.058   08 Jun 2027 11:43:35.059            14.001          6692.438
       265   08 Jun 2027 11:43:39.242   08 Jun 2027 11:43:42.014             2.772           130.719
       266   08 Jun 2027 11:44:16.280   08 Jun 2027 11:44:24.364             8.084          1070.812
       267   08 Jun 2027 11:45:25.934   08 Jun 2027 11:45:33.750             7.816          1924.063
       268   08 Jun 2027 11:46:44.062   08 Jun 2027 11:46:46.877             2.815          1407.500
       269   08 Jun 2027 11:46:49.282   08 Jun 2027 11:46:49.524             0.242           121.000
       270   08 Jun 2027 11:47:19.195   08 Jun 2027 11:47:27.262             8.067          1671.125
       271   08 Jun 2027 11:47:42.853   08 Jun 2027 11:47:44.725             1.872           487.219
       272   09 Jun 2027 04:06:42.846   09 Jun 2027 04:07:13.826            30.980         15490.000
       273   09 Jun 2027 04:07:32.378   09 Jun 2027 04:09:17.369           104.991         52495.500
       274   09 Jun 2027 04:10:02.169   09 Jun 2027 04:10:23.310            21.141         10570.500
       275   09 Jun 2027 05:30:05.392   09 Jun 2027 05:31:47.297           101.905         50952.500
       276   09 Jun 2027 07:06:37.167   09 Jun 2027 07:07:28.999            51.832         25223.531
       277   09 Jun 2027 07:07:52.777   09 Jun 2027 07:07:57.179             4.402           286.937
       278   09 Jun 2027 07:08:08.639   09 Jun 2027 07:08:10.086             1.447           231.062
       279   09 Jun 2027 07:08:46.624   09 Jun 2027 07:08:46.624             0.000             0.000
       280   09 Jun 2027 07:09:04.101   09 Jun 2027 07:09:08.188             4.087          1148.063
       281   09 Jun 2027 07:09:36.599   09 Jun 2027 07:09:38.704             2.105           826.656
       282   09 Jun 2027 08:41:47.317   09 Jun 2027 08:42:00.251            12.934          4773.375
       283   09 Jun 2027 08:42:33.057   09 Jun 2027 08:42:36.202             3.145          1025.188
       284   09 Jun 2027 08:43:01.290   09 Jun 2027 08:43:05.799             4.509           647.625
       285   09 Jun 2027 08:43:17.451   09 Jun 2027 08:43:18.146             0.695           279.969
       286   09 Jun 2027 08:44:09.058   09 Jun 2027 08:44:09.058             0.000             0.000
       287   09 Jun 2027 08:45:04.225   09 Jun 2027 08:45:13.768             9.543          3232.281
       288   09 Jun 2027 08:45:49.043   09 Jun 2027 08:45:51.824             2.781          1010.438
       289   09 Jun 2027 08:46:10.324   09 Jun 2027 08:46:11.501             1.177           528.750
       290   09 Jun 2027 08:46:24.660   09 Jun 2027 08:46:27.502             2.842           390.031
       291   09 Jun 2027 08:46:34.024   09 Jun 2027 08:46:36.629             2.605           203.812
       292   09 Jun 2027 08:47:12.072   09 Jun 2027 08:47:13.141             1.069           438.406
       293   09 Jun 2027 08:47:35.557   09 Jun 2027 08:47:36.910             1.353           656.531
       294   09 Jun 2027 08:47:44.166   09 Jun 2027 08:47:45.940             1.774            82.500
       295   09 Jun 2027 08:48:19.851   09 Jun 2027 08:48:22.522             2.671          1021.187
       296   09 Jun 2027 10:18:11.716   09 Jun 2027 10:18:24.342            12.626          6279.031
       297   09 Jun 2027 10:19:26.378   09 Jun 2027 10:19:28.718             2.340          1108.094
       298   09 Jun 2027 10:20:03.011   09 Jun 2027 10:20:04.566             1.555           777.500
       299   09 Jun 2027 10:20:05.754   09 Jun 2027 10:20:06.914             1.160           331.281
       300   09 Jun 2027 10:20:46.899   09 Jun 2027 10:20:55.503             8.604          1025.906
       301   09 Jun 2027 10:21:40.828   09 Jun 2027 10:21:45.936             5.108           726.406
       302   09 Jun 2027 10:22:00.091   09 Jun 2027 10:22:02.456             2.365           250.938
       303   09 Jun 2027 10:22:17.908   09 Jun 2027 10:22:19.499             1.591           332.063
       304   09 Jun 2027 10:23:19.791   09 Jun 2027 10:23:21.594             1.803           901.500
       305   09 Jun 2027 10:23:25.237   09 Jun 2027 10:23:29.914             4.677           623.687
       306   09 Jun 2027 10:23:40.875   09 Jun 2027 10:23:42.795             1.920           242.469
       307   09 Jun 2027 10:23:44.208   09 Jun 2027 10:23:47.593             3.385            29.406
       308   09 Jun 2027 11:55:27.572   09 Jun 2027 11:55:43.460            15.888          6988.094
       309   09 Jun 2027 11:55:45.814   09 Jun 2027 11:55:47.330             1.516            58.781
       310   09 Jun 2027 11:56:07.356   09 Jun 2027 11:56:07.847             0.491           245.500
       311   09 Jun 2027 11:56:30.165   09 Jun 2027 11:56:36.433             6.268           905.781
       312   09 Jun 2027 11:56:52.830   09 Jun 2027 11:56:54.905             2.075           512.406
       313   09 Jun 2027 11:57:33.128   09 Jun 2027 11:57:37.188             4.060          1119.406
       314   09 Jun 2027 11:57:49.644   09 Jun 2027 11:57:52.979             3.335           372.625
       315   09 Jun 2027 11:58:44.445   09 Jun 2027 11:58:47.440             2.995          1444.438
       316   09 Jun 2027 11:59:41.204   09 Jun 2027 11:59:42.235             1.031           515.500
       317   09 Jun 2027 11:59:57.877   09 Jun 2027 12:00:00.000             2.123          1061.500
       318   10 Jun 2027 04:18:39.618   10 Jun 2027 04:19:18.652            39.034         19517.000
       319   10 Jun 2027 04:19:41.684   10 Jun 2027 04:22:14.969           153.285         76642.500
       320   10 Jun 2027 05:42:07.913   10 Jun 2027 05:43:05.321            57.408         28704.000
       321   10 Jun 2027 07:18:30.123   10 Jun 2027 07:19:40.868            70.745         33714.625
       322   10 Jun 2027 07:20:54.227   10 Jun 2027 07:20:58.884             4.657          2288.250
       323   10 Jun 2027 07:21:42.038   10 Jun 2027 07:21:45.559             3.521          1172.375
       324   10 Jun 2027 08:53:26.071   10 Jun 2027 08:53:34.870             8.799          4078.125
       325   10 Jun 2027 08:54:01.709   10 Jun 2027 08:54:02.875             1.166           318.906
       326   10 Jun 2027 08:55:14.983   10 Jun 2027 08:55:20.281             5.298          1628.062
       327   10 Jun 2027 08:55:36.101   10 Jun 2027 08:55:36.101             0.000             0.000
       328   10 Jun 2027 08:56:08.774   10 Jun 2027 08:56:13.823             5.049          1472.750
       329   10 Jun 2027 08:57:19.052   10 Jun 2027 08:57:30.924            11.872          1769.219
       330   10 Jun 2027 08:57:57.743   10 Jun 2027 08:58:04.446             6.703           103.844
       331   10 Jun 2027 08:58:33.158   10 Jun 2027 08:58:34.826             1.668           445.312
       332   10 Jun 2027 08:58:47.646   10 Jun 2027 08:58:48.393             0.747           372.031
       333   10 Jun 2027 08:59:14.587   10 Jun 2027 08:59:18.070             3.483           728.875
       334   10 Jun 2027 09:00:28.204   10 Jun 2027 09:00:31.909             3.705          1852.500
       335   10 Jun 2027 10:29:45.372   10 Jun 2027 10:30:00.905            15.533          7563.375
       336   10 Jun 2027 10:30:58.698   10 Jun 2027 10:31:00.304             1.606           426.938
       337   10 Jun 2027 10:31:12.379   10 Jun 2027 10:31:15.311             2.932            29.312
       338   10 Jun 2027 10:31:48.796   10 Jun 2027 10:31:52.996             4.200            69.781
       339   10 Jun 2027 10:32:27.818   10 Jun 2027 10:32:33.046             5.228          1035.281
       340   10 Jun 2027 10:32:46.230   10 Jun 2027 10:32:47.382             1.152           157.438
       341   10 Jun 2027 10:32:48.261   10 Jun 2027 10:32:48.652             0.391            13.313
       342   10 Jun 2027 10:34:12.023   10 Jun 2027 10:34:23.522            11.499          2581.250
       343   10 Jun 2027 10:34:31.372   10 Jun 2027 10:34:34.745             3.373           245.312
       344   10 Jun 2027 10:34:51.095   10 Jun 2027 10:34:53.883             2.788           334.563
       345   10 Jun 2027 10:35:22.397   10 Jun 2027 10:35:27.489             5.092           727.563
       346   10 Jun 2027 10:35:50.676   10 Jun 2027 10:35:51.783             1.107           246.500
       347   10 Jun 2027 10:36:07.660   10 Jun 2027 10:36:09.549             1.889           138.750
       348   11 Jun 2027 03:00:00.000   11 Jun 2027 03:00:13.438            13.438          6719.000
       349   11 Jun 2027 03:00:29.545   11 Jun 2027 03:01:12.082            42.537         21268.500
       350   11 Jun 2027 04:19:23.592   11 Jun 2027 04:20:15.227            51.635         25817.500
       351   11 Jun 2027 04:30:35.992   11 Jun 2027 04:32:16.853           100.861         50430.500
       352   11 Jun 2027 04:32:44.550   11 Jun 2027 04:33:32.775            48.225         24112.500
       353   11 Jun 2027 05:53:12.676   11 Jun 2027 05:53:53.647            40.971         20485.500
       354   11 Jun 2027 05:55:07.273   11 Jun 2027 05:55:07.435             0.162            81.000
       355   11 Jun 2027 05:56:19.916   11 Jun 2027 05:56:55.582            35.666         17833.000
       356   11 Jun 2027 07:28:48.436   11 Jun 2027 07:29:01.347            12.911          6455.500
       357   11 Jun 2027 07:30:14.367   11 Jun 2027 07:30:17.576             3.209          1327.125
       358   11 Jun 2027 07:30:23.683   11 Jun 2027 07:30:25.516             1.833           153.656
       359   11 Jun 2027 07:31:45.853   11 Jun 2027 07:31:51.650             5.797          2502.500
       360   11 Jun 2027 07:32:05.052   11 Jun 2027 07:32:07.443             2.391           208.094
       361   11 Jun 2027 07:33:43.856   11 Jun 2027 07:33:47.738             3.882          1661.562
       362   11 Jun 2027 07:34:28.100   11 Jun 2027 07:34:31.703             3.603           960.719
       363   11 Jun 2027 09:04:59.510   11 Jun 2027 09:05:06.896             7.386          3508.125
       364   11 Jun 2027 09:05:30.940   11 Jun 2027 09:05:34.033             3.093           202.406
       365   11 Jun 2027 09:06:06.382   11 Jun 2027 09:06:13.689             7.307          1008.812
       366   11 Jun 2027 09:06:34.897   11 Jun 2027 09:06:36.392             1.495           597.844
       367   11 Jun 2027 09:08:03.361   11 Jun 2027 09:08:07.862             4.501          1293.687
       368   11 Jun 2027 09:09:12.560   11 Jun 2027 09:09:21.130             8.570          2012.188
       369   11 Jun 2027 09:11:02.013   11 Jun 2027 09:11:10.586             8.573          3152.594
       370   11 Jun 2027 09:11:18.066   11 Jun 2027 09:11:22.294             4.228           144.563
       371   11 Jun 2027 09:12:30.421   11 Jun 2027 09:12:34.708             4.287          2048.188
       372   11 Jun 2027 10:42:05.207   11 Jun 2027 10:42:23.582            18.375          8955.187
       373   11 Jun 2027 10:43:25.389   11 Jun 2027 10:43:31.959             6.570          1891.563
       374   11 Jun 2027 10:43:56.308   11 Jun 2027 10:43:57.771             1.463           644.125
       375   11 Jun 2027 10:44:18.898   11 Jun 2027 10:44:20.213             1.315           241.594
       376   11 Jun 2027 10:44:34.955   11 Jun 2027 10:44:37.017             2.062           308.625
       377   11 Jun 2027 10:44:48.232   11 Jun 2027 10:44:49.879             1.647           337.563
       378   11 Jun 2027 10:44:57.952   11 Jun 2027 10:45:01.090             3.138           186.500
       379   11 Jun 2027 10:45:55.996   11 Jun 2027 10:46:02.314             6.318          1484.563
       380   11 Jun 2027 10:46:24.797   11 Jun 2027 10:46:26.504             1.707           702.594
       381   11 Jun 2027 10:47:12.857   11 Jun 2027 10:47:20.509             7.652          1379.719
       382   11 Jun 2027 10:48:26.551   11 Jun 2027 10:48:26.893             0.342           171.000
       383   12 Jun 2027 03:06:04.283   12 Jun 2027 03:08:05.736           121.453         60726.500
       384   12 Jun 2027 03:09:13.015   12 Jun 2027 03:09:13.015             0.000             0.000
       385   12 Jun 2027 03:09:51.090   12 Jun 2027 03:09:57.550             6.460          3230.000
       386   12 Jun 2027 03:11:26.748   12 Jun 2027 03:12:15.309            48.561         24280.500
       387   12 Jun 2027 03:12:22.500   12 Jun 2027 03:12:45.526            23.026         11513.000
       388   12 Jun 2027 04:30:55.568   12 Jun 2027 04:31:19.123            23.555         11777.500
       389   12 Jun 2027 04:31:59.684   12 Jun 2027 04:32:13.891            14.207          7103.500
       390   12 Jun 2027 04:42:38.717   12 Jun 2027 04:43:48.367            69.650         34825.000
       391   12 Jun 2027 06:04:51.868   12 Jun 2027 06:05:35.521            43.653         21826.500
       392   12 Jun 2027 06:05:43.046   12 Jun 2027 06:05:47.027             3.981          1463.968
       393   12 Jun 2027 06:07:52.541   12 Jun 2027 06:08:02.047             9.506          3922.312
       394   12 Jun 2027 07:39:54.783   12 Jun 2027 07:40:07.543            12.760          5664.375
       395   12 Jun 2027 07:40:31.970   12 Jun 2027 07:40:35.014             3.044           296.281
       396   12 Jun 2027 07:41:16.845   12 Jun 2027 07:41:20.732             3.887          1307.219
       397   12 Jun 2027 07:41:24.473   12 Jun 2027 07:41:25.536             1.063           116.906
       398   12 Jun 2027 07:42:15.862   12 Jun 2027 07:42:18.934             3.072          1364.063
       399   12 Jun 2027 07:42:34.433   12 Jun 2027 07:42:37.935             3.502           484.344
       400   12 Jun 2027 07:43:08.147   12 Jun 2027 07:43:09.579             1.432           451.125
       401   12 Jun 2027 07:43:44.617   12 Jun 2027 07:43:46.543             1.926           500.687
       402   12 Jun 2027 07:45:05.201   12 Jun 2027 07:45:12.988             7.787          2458.063
       403   12 Jun 2027 07:45:43.579   12 Jun 2027 07:45:45.150             1.571           733.281
       404   12 Jun 2027 07:46:43.636   12 Jun 2027 07:46:48.221             4.585          1827.687
       405   12 Jun 2027 07:48:05.840   12 Jun 2027 07:48:10.254             4.414          1418.531
       406   12 Jun 2027 09:17:18.732   12 Jun 2027 09:17:26.988             8.256          4128.000
       407   12 Jun 2027 09:19:21.786   12 Jun 2027 09:19:30.297             8.511          3605.219
       408   12 Jun 2027 09:19:57.604   12 Jun 2027 09:20:02.376             4.772           437.687
       409   12 Jun 2027 09:20:28.256   12 Jun 2027 09:20:31.893             3.637           768.719
       410   12 Jun 2027 09:20:58.627   12 Jun 2027 09:21:01.241             2.614           835.437
       411   12 Jun 2027 09:21:22.896   12 Jun 2027 09:21:24.323             1.427           676.719
       412   12 Jun 2027 09:21:55.459   12 Jun 2027 09:21:57.442             1.983           608.531
       413   12 Jun 2027 09:22:16.314   12 Jun 2027 09:22:18.584             2.270           577.906
       414   12 Jun 2027 09:22:41.359   12 Jun 2027 09:22:43.937             2.578           400.687
       415   12 Jun 2027 09:23:35.313   12 Jun 2027 09:23:40.485             5.172          1605.500
       416   12 Jun 2027 09:23:40.764   12 Jun 2027 09:23:42.149             1.385             6.344
       417   12 Jun 2027 09:23:49.115   12 Jun 2027 09:23:53.985             4.870            62.812
       418   12 Jun 2027 09:24:25.165   12 Jun 2027 09:24:32.981             7.816           915.250
       419   12 Jun 2027 10:54:06.817   12 Jun 2027 10:54:20.015            13.198          6599.000
       420   12 Jun 2027 10:54:42.789   12 Jun 2027 10:54:45.264             2.475           821.406
       421   12 Jun 2027 10:55:22.267   12 Jun 2027 10:55:25.278             3.011           451.688
       422   12 Jun 2027 10:55:33.980   12 Jun 2027 10:55:40.169             6.189           271.938
       423   12 Jun 2027 10:56:46.141   12 Jun 2027 10:56:53.479             7.338          1995.750
       424   12 Jun 2027 10:57:09.230   12 Jun 2027 10:57:10.385             1.155           313.187
       425   12 Jun 2027 10:58:07.572   12 Jun 2027 10:58:11.627             4.055          1233.469
       426   12 Jun 2027 10:58:16.749   12 Jun 2027 10:58:17.473             0.724            20.156
       427   12 Jun 2027 10:59:47.132   12 Jun 2027 10:59:52.355             5.223          2611.500
       428   12 Jun 2027 11:00:27.805   12 Jun 2027 11:00:30.404             2.599          1242.313
       429   13 Jun 2027 03:18:04.535   13 Jun 2027 03:20:22.644           138.109         69054.500
       430   13 Jun 2027 03:21:12.894   13 Jun 2027 03:21:59.003            46.109         23054.500
       431   13 Jun 2027 03:22:03.641   13 Jun 2027 03:22:05.408             1.767           883.500
       432   13 Jun 2027 03:22:59.479   13 Jun 2027 03:23:32.387            32.908         16454.000
       433   13 Jun 2027 03:25:02.959   13 Jun 2027 03:25:10.514             7.555          3777.500
       434   13 Jun 2027 04:42:26.709   13 Jun 2027 04:43:08.126            41.417         20708.500
       435   13 Jun 2027 04:54:39.824   13 Jun 2027 04:55:11.509            31.685         15842.500
       436   13 Jun 2027 06:16:35.159   13 Jun 2027 06:17:14.520            39.361         19680.500
       437   13 Jun 2027 06:18:38.103   13 Jun 2027 06:18:46.498             8.395          3302.374
       438   13 Jun 2027 06:20:23.951   13 Jun 2027 06:20:28.993             5.042          2521.000
       439   13 Jun 2027 06:21:31.068   13 Jun 2027 06:21:37.031             5.963          2464.250
       440   13 Jun 2027 07:51:23.297   13 Jun 2027 07:51:37.011            13.714          5849.438
       441   13 Jun 2027 07:52:17.752   13 Jun 2027 07:52:20.251             2.499          1092.594
       442   13 Jun 2027 07:53:15.134   13 Jun 2027 07:53:18.703             3.569          1715.094
       443   13 Jun 2027 07:53:29.836   13 Jun 2027 07:53:34.011             4.175           219.531
       444   13 Jun 2027 07:53:52.127   13 Jun 2027 07:53:55.113             2.986           537.875
       445   13 Jun 2027 07:54:18.023   13 Jun 2027 07:54:20.356             2.333           715.938
       446   13 Jun 2027 07:55:46.852   13 Jun 2027 07:55:52.575             5.723          2075.187
       447   13 Jun 2027 07:57:07.107   13 Jun 2027 07:57:14.179             7.072          2172.781
       448   13 Jun 2027 07:58:16.877   13 Jun 2027 07:58:21.024             4.147          1674.500
       449   13 Jun 2027 07:58:30.093   13 Jun 2027 07:58:32.972             2.879           222.656
       450   13 Jun 2027 07:59:43.677   13 Jun 2027 07:59:48.760             5.083           914.875
       451   13 Jun 2027 09:29:13.007   13 Jun 2027 09:29:25.399            12.392          6080.906
       452   13 Jun 2027 09:32:15.084   13 Jun 2027 09:32:25.565            10.481          5181.969
       453   13 Jun 2027 09:32:30.426   13 Jun 2027 09:32:36.374             5.948             7.781
       454   13 Jun 2027 09:32:49.837   13 Jun 2027 09:32:53.790             3.953           420.719
       455   13 Jun 2027 09:33:29.012   13 Jun 2027 09:33:29.236             0.224           107.094
       456   13 Jun 2027 09:33:29.724   13 Jun 2027 09:33:29.874             0.150             2.500
       457   13 Jun 2027 09:33:59.358   13 Jun 2027 09:34:04.295             4.937           313.375
       458   13 Jun 2027 09:34:38.907   13 Jun 2027 09:34:40.627             1.720           725.937
       459   13 Jun 2027 09:35:56.950   13 Jun 2027 09:36:04.170             7.220          2368.562
       460   13 Jun 2027 09:36:11.462   13 Jun 2027 09:36:13.049             1.587           227.875
       461   13 Jun 2027 11:05:57.428   13 Jun 2027 11:06:19.165            21.737          9204.031
       462   13 Jun 2027 11:06:28.106   13 Jun 2027 11:06:32.612             4.506           169.844
       463   13 Jun 2027 11:07:11.842   13 Jun 2027 11:07:12.801             0.959           321.250
       464   13 Jun 2027 11:07:41.636   13 Jun 2027 11:07:43.531             1.895           841.688
       465   13 Jun 2027 11:08:01.243   13 Jun 2027 11:08:06.160             4.917            25.312
       466   13 Jun 2027 11:08:26.518   13 Jun 2027 11:08:30.567             4.049           297.531
       467   13 Jun 2027 11:08:53.753   13 Jun 2027 11:08:54.755             1.002           244.156
       468   13 Jun 2027 11:09:12.951   13 Jun 2027 11:09:19.549             6.598           435.500
       469   13 Jun 2027 11:10:08.293   13 Jun 2027 11:10:11.998             3.705          1523.250
       470   13 Jun 2027 11:10:57.086   13 Jun 2027 11:11:05.391             8.305          1409.000
       471   13 Jun 2027 11:12:07.224   13 Jun 2027 11:12:11.989             4.765          1469.250
       472   13 Jun 2027 11:12:31.480   13 Jun 2027 11:12:36.472             4.992           609.094
       473   13 Jun 2027 11:12:43.469   13 Jun 2027 11:12:43.505             0.036            18.000
