uniorb/output/strategy_2/Camera/Camera_KinoSat_110501.txt

KinoSat_110501
-------------------------
    Access    *     Start Time (UTCG)     *     Stop Time (UTCG)  *   Duration (s) *   Data (Mbytes)
         1   01 Jun 2027 04:23:08.289   01 Jun 2027 04:23:13.469             5.180          2590.000
         2   01 Jun 2027 04:24:55.469   01 Jun 2027 04:25:19.003            23.534         11767.000
         3   01 Jun 2027 04:27:45.234   01 Jun 2027 04:27:58.619            13.385          6692.500
         4   01 Jun 2027 04:28:53.942   01 Jun 2027 04:28:54.657             0.715           357.500
         5   01 Jun 2027 04:29:46.529   01 Jun 2027 04:29:48.272             1.743           871.500
         6   01 Jun 2027 04:30:43.239   01 Jun 2027 04:30:43.718             0.479           239.500
         7   01 Jun 2027 04:31:21.470   01 Jun 2027 04:31:22.771             1.301           650.500
         8   01 Jun 2027 04:31:33.704   01 Jun 2027 04:31:38.672             4.968          2484.000
         9   01 Jun 2027 04:32:06.345   01 Jun 2027 04:32:09.041             2.696          1348.000
        10   01 Jun 2027 04:32:50.922   01 Jun 2027 04:32:53.511             2.589          1294.500
        11   01 Jun 2027 06:01:59.981   01 Jun 2027 06:02:00.378             0.397           198.500
        12   01 Jun 2027 06:02:16.424   01 Jun 2027 06:02:24.901             8.477          4238.500
        13   01 Jun 2027 06:03:05.936   01 Jun 2027 06:03:26.780            20.844         10422.000
        14   01 Jun 2027 06:05:15.318   01 Jun 2027 06:05:18.531             3.213          1606.500
        15   01 Jun 2027 06:05:31.602   01 Jun 2027 06:05:40.373             8.771          4385.500
        16   01 Jun 2027 06:06:32.947   01 Jun 2027 06:06:35.131             2.184          1092.000
        17   01 Jun 2027 06:06:58.719   01 Jun 2027 06:07:01.314             2.595          1297.500
        18   01 Jun 2027 06:07:14.644   01 Jun 2027 06:07:16.182             1.538           769.000
        19   01 Jun 2027 06:08:07.817   01 Jun 2027 06:08:09.881             2.064          1032.000
        20   01 Jun 2027 06:08:30.796   01 Jun 2027 06:08:31.813             1.017           508.500
        21   01 Jun 2027 07:38:56.069   01 Jun 2027 07:39:19.110            23.041         11520.500
        22   01 Jun 2027 07:41:03.502   01 Jun 2027 07:41:08.870             5.368          2684.000
        23   01 Jun 2027 07:41:35.720   01 Jun 2027 07:41:35.807             0.087            43.500
        24   01 Jun 2027 07:41:37.882   01 Jun 2027 07:41:38.480             0.598           299.000
        25   01 Jun 2027 07:41:58.135   01 Jun 2027 07:42:03.992             5.857          2928.500
        26   01 Jun 2027 07:42:29.893   01 Jun 2027 07:42:35.058             5.165          2582.500
        27   01 Jun 2027 07:43:12.110   01 Jun 2027 07:43:13.192             1.082           541.000
        28   01 Jun 2027 09:15:42.657   01 Jun 2027 09:15:47.758             5.101          2550.500
        29   01 Jun 2027 09:16:15.747   01 Jun 2027 09:16:16.076             0.329           164.500
        30   01 Jun 2027 09:16:44.728   01 Jun 2027 09:16:55.909            11.181          5590.500
        31   01 Jun 2027 09:17:47.077   01 Jun 2027 09:17:57.514            10.437          5218.500
        32   01 Jun 2027 09:18:46.354   01 Jun 2027 09:18:57.702            11.348          5674.000
        33   01 Jun 2027 09:19:51.420   01 Jun 2027 09:20:05.912            14.492          7246.000
        34   01 Jun 2027 10:53:54.706   01 Jun 2027 10:54:10.218            15.512          7756.000
        35   02 Jun 2027 03:03:01.978   02 Jun 2027 03:03:03.026             1.048           524.000
        36   02 Jun 2027 03:03:24.233   02 Jun 2027 03:03:29.190             4.957          2478.500
        37   02 Jun 2027 03:03:54.574   02 Jun 2027 03:03:56.444             1.870           935.000
        38   02 Jun 2027 03:04:26.770   02 Jun 2027 03:04:30.421             3.651          1825.500
        39   02 Jun 2027 03:05:05.332   02 Jun 2027 03:05:10.586             5.254          2627.000
        40   02 Jun 2027 03:05:46.391   02 Jun 2027 03:05:53.667             7.276          3638.000
        41   02 Jun 2027 04:38:06.886   02 Jun 2027 04:38:22.989            16.103          8051.500
        42   02 Jun 2027 04:39:15.601   02 Jun 2027 04:39:25.934            10.333          5166.500
        43   02 Jun 2027 04:39:44.458   02 Jun 2027 04:39:53.697             9.239          4619.500
        44   02 Jun 2027 04:41:05.398   02 Jun 2027 04:41:05.694             0.296           148.000
        45   02 Jun 2027 04:41:08.690   02 Jun 2027 04:41:17.051             8.361          4180.500
        46   02 Jun 2027 04:41:43.842   02 Jun 2027 04:41:50.421             6.579          3289.500
        47   02 Jun 2027 04:41:53.140   02 Jun 2027 04:41:55.060             1.920           960.000
        48   02 Jun 2027 04:43:04.181   02 Jun 2027 04:43:07.369             3.188          1594.000
        49   02 Jun 2027 04:43:25.100   02 Jun 2027 04:43:27.059             1.959           979.500
        50   02 Jun 2027 04:43:41.003   02 Jun 2027 04:43:51.365            10.362          5181.000
        51   02 Jun 2027 04:44:45.183   02 Jun 2027 04:44:46.546             1.363           681.500
        52   02 Jun 2027 06:14:28.703   02 Jun 2027 06:14:38.281             9.578          4789.000
        53   02 Jun 2027 06:15:02.000   02 Jun 2027 06:15:44.200            42.200         21100.000
        54   02 Jun 2027 06:19:02.863   02 Jun 2027 06:19:02.873             0.010             5.000
        55   02 Jun 2027 06:19:39.138   02 Jun 2027 06:19:49.837            10.699          5349.500
        56   02 Jun 2027 06:20:34.609   02 Jun 2027 06:20:36.279             1.670           835.000
        57   02 Jun 2027 07:51:59.140   02 Jun 2027 07:51:59.709             0.569           284.500
        58   02 Jun 2027 07:52:13.481   02 Jun 2027 07:52:15.148             1.667           833.500
        59   02 Jun 2027 07:52:25.941   02 Jun 2027 07:52:33.346             7.405          3702.500
        60   02 Jun 2027 07:52:52.156   02 Jun 2027 07:53:02.244            10.088          5044.000
        61   02 Jun 2027 07:54:03.730   02 Jun 2027 07:54:11.666             7.936          3968.000
        62   02 Jun 2027 07:55:02.284   02 Jun 2027 07:55:02.614             0.330           165.000
        63   02 Jun 2027 07:55:21.692   02 Jun 2027 07:55:23.922             2.230          1115.000
        64   02 Jun 2027 09:28:03.770   02 Jun 2027 09:28:05.747             1.977           988.500
        65   02 Jun 2027 09:28:16.251   02 Jun 2027 09:28:21.113             4.862          2431.000
        66   02 Jun 2027 09:28:51.424   02 Jun 2027 09:28:59.482             8.058          4029.000
        67   02 Jun 2027 09:30:22.895   02 Jun 2027 09:30:27.245             4.350          2175.000
        68   02 Jun 2027 09:30:53.547   02 Jun 2027 09:30:58.773             5.226          2613.000
        69   02 Jun 2027 09:31:31.869   02 Jun 2027 09:31:51.079            19.210          9605.000
        70   03 Jun 2027 03:15:06.592   03 Jun 2027 03:15:10.629             4.037          2018.500
        71   03 Jun 2027 03:15:29.882   03 Jun 2027 03:15:31.806             1.924           962.000
        72   03 Jun 2027 03:15:42.189   03 Jun 2027 03:15:46.616             4.427          2213.500
        73   03 Jun 2027 03:16:56.639   03 Jun 2027 03:16:58.010             1.371           685.500
        74   03 Jun 2027 03:17:17.435   03 Jun 2027 03:17:34.804            17.369          8684.500
        75   03 Jun 2027 04:50:16.901   03 Jun 2027 04:50:17.416             0.515           257.500
        76   03 Jun 2027 04:50:42.689   03 Jun 2027 04:50:45.602             2.913          1456.500
        77   03 Jun 2027 04:51:30.409   03 Jun 2027 04:51:33.960             3.551          1775.500
        78   03 Jun 2027 04:51:58.790   03 Jun 2027 04:52:03.965             5.175          2587.500
        79   03 Jun 2027 04:53:22.088   03 Jun 2027 04:53:22.353             0.265           132.500
        80   03 Jun 2027 04:53:34.072   03 Jun 2027 04:53:44.002             9.930          4965.000
        81   03 Jun 2027 04:54:32.838   03 Jun 2027 04:54:36.143             3.305          1652.500
        82   03 Jun 2027 04:54:51.908   03 Jun 2027 04:54:52.496             0.588           294.000
        83   03 Jun 2027 04:55:21.759   03 Jun 2027 04:55:22.270             0.511           255.500
        84   03 Jun 2027 04:55:25.487   03 Jun 2027 04:55:27.240             1.753           876.500
        85   03 Jun 2027 04:55:41.020   03 Jun 2027 04:56:01.362            20.342         10171.000
        86   03 Jun 2027 06:26:31.947   03 Jun 2027 06:26:39.074             7.127          3563.500
        87   03 Jun 2027 06:27:46.257   03 Jun 2027 06:27:59.543            13.286          6643.000
        88   03 Jun 2027 06:29:13.361   03 Jun 2027 06:29:18.191             4.830          2415.000
        89   03 Jun 2027 06:29:42.108   03 Jun 2027 06:29:44.574             2.466          1233.000
        90   03 Jun 2027 06:29:58.981   03 Jun 2027 06:30:14.971            15.990          7995.000
        91   03 Jun 2027 06:31:19.840   03 Jun 2027 06:31:22.343             2.503          1251.500
        92   03 Jun 2027 06:31:50.563   03 Jun 2027 06:31:52.742             2.179          1089.500
        93   03 Jun 2027 06:32:30.310   03 Jun 2027 06:32:38.797             8.487          4243.500
        94   03 Jun 2027 08:04:04.653   03 Jun 2027 08:04:05.836             1.183           591.500
        95   03 Jun 2027 08:04:19.247   03 Jun 2027 08:04:21.801             2.554          1277.000
        96   03 Jun 2027 08:04:59.791   03 Jun 2027 08:05:07.867             8.076          4038.000
        97   03 Jun 2027 08:06:04.852   03 Jun 2027 08:06:14.577             9.725          4862.500
        98   03 Jun 2027 08:07:32.511   03 Jun 2027 08:07:33.412             0.901           450.500
        99   03 Jun 2027 08:08:08.239   03 Jun 2027 08:08:17.373             9.134          4567.000
       100   03 Jun 2027 09:40:05.967   03 Jun 2027 09:40:12.186             6.219          3109.500
       101   03 Jun 2027 09:40:46.550   03 Jun 2027 09:40:47.978             1.428           714.000
       102   03 Jun 2027 09:40:57.261   03 Jun 2027 09:41:12.004            14.743          7371.500
       103   03 Jun 2027 09:42:23.175   03 Jun 2027 09:42:25.671             2.496          1248.000
       104   03 Jun 2027 09:43:03.613   03 Jun 2027 09:43:08.493             4.880          2440.000
       105   03 Jun 2027 09:43:45.473   03 Jun 2027 09:43:55.619            10.146          5073.000
       106   03 Jun 2027 09:44:38.674   03 Jun 2027 09:44:38.877             0.203           101.500
       107   03 Jun 2027 09:44:51.632   03 Jun 2027 09:45:02.162            10.530          5265.000
       108   04 Jun 2027 03:26:50.201   04 Jun 2027 03:26:56.996             6.795          3397.500
       109   04 Jun 2027 03:27:26.499   04 Jun 2027 03:27:27.551             1.052           526.000
       110   04 Jun 2027 03:27:36.222   04 Jun 2027 03:27:40.477             4.255          2127.500
       111   04 Jun 2027 03:28:32.713   04 Jun 2027 03:28:50.841            18.128          9064.000
       112   04 Jun 2027 03:29:02.450   04 Jun 2027 03:29:02.624             0.174            87.000
       113   04 Jun 2027 03:30:05.504   04 Jun 2027 03:30:09.184             3.680          1840.000
       114   04 Jun 2027 03:30:42.653   04 Jun 2027 03:30:54.871            12.218          6109.000
       115   04 Jun 2027 05:01:41.426   04 Jun 2027 05:01:44.547             3.121          1560.500
       116   04 Jun 2027 05:02:06.592   04 Jun 2027 05:02:23.155            16.563          8281.500
       117   04 Jun 2027 05:03:00.058   04 Jun 2027 05:03:00.528             0.470           235.000
       118   04 Jun 2027 05:03:39.461   04 Jun 2027 05:03:50.277            10.816          5408.000
       119   04 Jun 2027 05:04:32.322   04 Jun 2027 05:04:57.131            24.809         12404.500
       120   04 Jun 2027 05:06:39.976   04 Jun 2027 05:07:00.784            20.808         10404.000
       121   04 Jun 2027 05:08:27.070   04 Jun 2027 05:08:27.346             0.276           138.000
       122   04 Jun 2027 05:08:48.315   04 Jun 2027 05:08:48.442             0.127            63.500
       123   04 Jun 2027 05:08:54.701   04 Jun 2027 05:08:57.681             2.980          1490.000
       124   04 Jun 2027 05:08:59.006   04 Jun 2027 05:09:00.195             1.189           594.500
       125   04 Jun 2027 06:38:17.094   04 Jun 2027 06:38:26.900             9.806          4903.000
       126   04 Jun 2027 06:39:08.545   04 Jun 2027 06:39:22.195            13.650          6825.000
       127   04 Jun 2027 06:40:19.175   04 Jun 2027 06:40:23.823             4.648          2324.000
       128   04 Jun 2027 06:40:31.446   04 Jun 2027 06:40:37.737             6.291          3145.500
       129   04 Jun 2027 06:41:34.919   04 Jun 2027 06:41:44.855             9.936          4968.000
       130   04 Jun 2027 06:42:35.147   04 Jun 2027 06:42:37.184             2.037          1018.500
       131   04 Jun 2027 06:42:45.358   04 Jun 2027 06:42:46.488             1.130           565.000
       132   04 Jun 2027 06:43:02.760   04 Jun 2027 06:43:03.723             0.963           481.500
       133   04 Jun 2027 06:43:23.699   04 Jun 2027 06:43:39.865            16.166          8083.000
       134   04 Jun 2027 08:16:34.701   04 Jun 2027 08:16:38.781             4.080          2040.000
       135   04 Jun 2027 08:17:03.808   04 Jun 2027 08:17:07.135             3.327          1663.500
       136   04 Jun 2027 08:17:39.357   04 Jun 2027 08:17:40.737             1.380           690.000
       137   04 Jun 2027 08:17:51.044   04 Jun 2027 08:18:05.328            14.284          7142.000
       138   04 Jun 2027 08:19:09.909   04 Jun 2027 08:19:17.091             7.182          3591.000
       139   04 Jun 2027 08:19:48.903   04 Jun 2027 08:19:54.766             5.863          2931.500
       140   04 Jun 2027 08:20:13.967   04 Jun 2027 08:20:15.806             1.839           919.500
       141   04 Jun 2027 09:49:55.540   04 Jun 2027 09:50:02.177             6.637          3318.500
       142   04 Jun 2027 09:51:54.585   04 Jun 2027 09:51:56.827             2.242          1121.000
       143   04 Jun 2027 09:52:48.316   04 Jun 2027 09:53:06.803            18.487          9243.500
       144   04 Jun 2027 09:54:30.921   04 Jun 2027 09:54:31.008             0.087            43.500
       145   04 Jun 2027 09:55:01.968   04 Jun 2027 09:55:02.876             0.908           454.000
       146   04 Jun 2027 09:55:25.516   04 Jun 2027 09:55:34.752             9.236          4618.000
       147   04 Jun 2027 09:56:26.195   04 Jun 2027 09:56:28.605             2.410          1205.000
       148   04 Jun 2027 09:56:45.898   04 Jun 2027 09:56:55.617             9.719          4859.500
       149   05 Jun 2027 03:37:03.259   05 Jun 2027 03:37:17.551            14.292          7146.000
       150   05 Jun 2027 03:38:41.433   05 Jun 2027 03:38:44.445             3.012          1506.000
       151   05 Jun 2027 03:38:58.657   05 Jun 2027 03:38:59.832             1.175           587.500
       152   05 Jun 2027 03:39:17.381   05 Jun 2027 03:39:29.307            11.926          5963.000
       153   05 Jun 2027 03:40:56.190   05 Jun 2027 03:41:00.087             3.897          1948.500
       154   05 Jun 2027 03:41:51.868   05 Jun 2027 03:41:56.650             4.782          2391.000
       155   05 Jun 2027 03:42:19.640   05 Jun 2027 03:42:24.323             4.683          2341.500
       156   05 Jun 2027 03:42:55.629   05 Jun 2027 03:43:22.718            27.089         13544.500
       157   05 Jun 2027 05:13:33.466   05 Jun 2027 05:13:34.967             1.501           750.500
       158   05 Jun 2027 05:14:38.917   05 Jun 2027 05:14:58.722            19.805          9902.500
       159   05 Jun 2027 05:15:14.702   05 Jun 2027 05:15:33.937            19.235          9617.500
       160   05 Jun 2027 05:17:23.125   05 Jun 2027 05:17:24.551             1.426           713.000
       161   05 Jun 2027 05:18:14.370   05 Jun 2027 05:18:26.586            12.216          6108.000
       162   05 Jun 2027 05:19:41.325   05 Jun 2027 05:19:42.722             1.397           698.500
       163   05 Jun 2027 05:20:49.935   05 Jun 2027 05:20:50.912             0.977           488.500
       164   05 Jun 2027 06:50:38.137   05 Jun 2027 06:50:41.583             3.446          1723.000
       165   05 Jun 2027 06:51:22.882   05 Jun 2027 06:51:30.876             7.994          3997.000
       166   05 Jun 2027 06:52:38.351   05 Jun 2027 06:52:58.974            20.623         10311.500
       167   05 Jun 2027 06:54:04.797   05 Jun 2027 06:54:14.252             9.455          4727.500
       168   05 Jun 2027 06:55:24.376   05 Jun 2027 06:55:26.270             1.894           947.000
       169   05 Jun 2027 06:55:34.892   05 Jun 2027 06:55:40.977             6.085          3042.500
       170   05 Jun 2027 08:28:32.369   05 Jun 2027 08:28:39.298             6.929          3464.500
       171   05 Jun 2027 08:29:09.207   05 Jun 2027 08:29:11.132             1.925           962.500
       172   05 Jun 2027 08:29:31.209   05 Jun 2027 08:29:34.282             3.073          1536.500
       173   05 Jun 2027 08:30:25.421   05 Jun 2027 08:30:27.810             2.389          1194.500
       174   05 Jun 2027 08:30:27.886   05 Jun 2027 08:30:29.362             1.476           738.000
       175   05 Jun 2027 08:31:24.214   05 Jun 2027 08:31:32.136             7.922          3961.000
       176   05 Jun 2027 08:31:45.905   05 Jun 2027 08:32:00.807            14.902          7451.000
       177   05 Jun 2027 10:01:40.898   05 Jun 2027 10:02:00.666            19.768          9884.000
       178   05 Jun 2027 10:03:47.868   05 Jun 2027 10:03:57.237             9.369          4684.500
       179   05 Jun 2027 10:04:38.796   05 Jun 2027 10:04:38.993             0.197            98.500
       180   05 Jun 2027 10:05:37.644   05 Jun 2027 10:05:37.986             0.342           171.000
       181   05 Jun 2027 10:05:56.372   05 Jun 2027 10:06:01.412             5.040          2520.000
       182   05 Jun 2027 10:06:54.865   05 Jun 2027 10:06:57.605             2.740          1370.000
       183   05 Jun 2027 10:07:19.059   05 Jun 2027 10:07:32.725            13.666          6833.000
       184   05 Jun 2027 10:07:33.485   05 Jun 2027 10:07:38.551             5.066          2533.000
       185   05 Jun 2027 10:09:01.287   05 Jun 2027 10:09:08.756             7.469          3734.500
       186   06 Jun 2027 03:48:12.934   06 Jun 2027 03:48:23.462            10.528          5264.000
       187   06 Jun 2027 03:49:36.339   06 Jun 2027 03:49:45.748             9.409          4704.500
       188   06 Jun 2027 03:50:35.698   06 Jun 2027 03:50:36.424             0.726           363.000
       189   06 Jun 2027 03:50:54.558   06 Jun 2027 03:51:04.872            10.314          5157.000
       190   06 Jun 2027 03:51:59.735   06 Jun 2027 03:52:00.360             0.625           312.500
       191   06 Jun 2027 03:52:23.058   06 Jun 2027 03:52:29.156             6.098          3049.000
       192   06 Jun 2027 03:52:56.213   06 Jun 2027 03:52:56.490             0.277           138.500
       193   06 Jun 2027 03:53:39.480   06 Jun 2027 03:53:40.906             1.426           713.000
       194   06 Jun 2027 03:53:46.221   06 Jun 2027 03:53:57.911            11.690          5845.000
       195   06 Jun 2027 03:54:46.251   06 Jun 2027 03:54:56.067             9.816          4908.000
       196   06 Jun 2027 03:55:30.287   06 Jun 2027 03:55:30.287             0.000             0.000
       197   06 Jun 2027 03:55:39.078   06 Jun 2027 03:55:42.631             3.553          1776.500
       198   06 Jun 2027 05:25:46.589   06 Jun 2027 05:25:46.957             0.368           184.000
       199   06 Jun 2027 05:25:54.795   06 Jun 2027 05:26:00.520             5.725          2862.500
       200   06 Jun 2027 05:26:44.099   06 Jun 2027 05:26:56.892            12.793          6396.500
       201   06 Jun 2027 05:28:05.238   06 Jun 2027 05:28:09.335             4.097          2048.500
       202   06 Jun 2027 05:29:26.048   06 Jun 2027 05:29:26.960             0.912           456.000
       203   06 Jun 2027 05:29:38.240   06 Jun 2027 05:29:39.009             0.769           384.500
       204   06 Jun 2027 05:29:54.811   06 Jun 2027 05:30:01.772             6.961          3480.500
       205   06 Jun 2027 05:31:21.361   06 Jun 2027 05:31:24.791             3.430          1715.000
       206   06 Jun 2027 05:31:54.677   06 Jun 2027 05:31:56.525             1.848           924.000
       207   06 Jun 2027 05:32:13.786   06 Jun 2027 05:32:22.322             8.536          4268.000
       208   06 Jun 2027 07:02:29.097   06 Jun 2027 07:02:34.920             5.823          2911.500
       209   06 Jun 2027 07:03:19.264   06 Jun 2027 07:03:21.166             1.902           951.000
       210   06 Jun 2027 07:04:38.034   06 Jun 2027 07:04:51.012            12.978          6489.000
       211   06 Jun 2027 07:06:08.501   06 Jun 2027 07:06:08.752             0.251           125.500
       212   06 Jun 2027 07:06:56.969   06 Jun 2027 07:07:00.788             3.819          1909.500
       213   06 Jun 2027 07:07:28.638   06 Jun 2027 07:07:34.154             5.516          2758.000
       214   06 Jun 2027 07:08:41.154   06 Jun 2027 07:08:42.329             1.175           587.500
       215   06 Jun 2027 07:08:49.230   06 Jun 2027 07:09:07.014            17.784          8892.000
       216   06 Jun 2027 08:40:32.218   06 Jun 2027 08:40:32.926             0.708           354.000
       217   06 Jun 2027 08:40:43.995   06 Jun 2027 08:40:44.228             0.233           116.500
       218   06 Jun 2027 08:40:47.455   06 Jun 2027 08:40:47.800             0.345           172.500
       219   06 Jun 2027 08:42:04.048   06 Jun 2027 08:42:05.033             0.985           492.500
       220   06 Jun 2027 08:42:25.067   06 Jun 2027 08:42:35.247            10.180          5090.000
       221   06 Jun 2027 08:43:26.965   06 Jun 2027 08:43:27.516             0.551           275.500
       222   06 Jun 2027 08:43:36.181   06 Jun 2027 08:43:48.653            12.472          6236.000
       223   06 Jun 2027 10:14:09.555   06 Jun 2027 10:14:11.360             1.805           902.500
       224   06 Jun 2027 10:14:33.748   06 Jun 2027 10:14:41.536             7.788          3894.000
       225   06 Jun 2027 10:15:20.029   06 Jun 2027 10:15:32.973            12.944          6472.000
       226   06 Jun 2027 10:16:34.289   06 Jun 2027 10:16:35.842             1.553           776.500
       227   06 Jun 2027 10:17:06.065   06 Jun 2027 10:17:07.432             1.367           683.500
       228   06 Jun 2027 10:17:29.547   06 Jun 2027 10:17:38.152             8.605          4302.500
       229   06 Jun 2027 10:18:49.171   06 Jun 2027 10:18:49.183             0.012             6.000
       230   06 Jun 2027 10:19:02.459   06 Jun 2027 10:19:03.496             1.037           518.500
       231   06 Jun 2027 10:19:20.738   06 Jun 2027 10:19:26.166             5.428          2714.000
       232   06 Jun 2027 10:19:54.539   06 Jun 2027 10:20:13.433            18.894          9447.000
       233   06 Jun 2027 10:21:30.313   06 Jun 2027 10:21:32.897             2.584          1292.000
       234   07 Jun 2027 03:59:43.636   07 Jun 2027 03:59:53.581             9.945          4972.500
       235   07 Jun 2027 04:00:41.576   07 Jun 2027 04:01:00.621            19.045          9522.500
       236   07 Jun 2027 04:02:44.308   07 Jun 2027 04:02:48.016             3.708          1854.000
       237   07 Jun 2027 04:04:01.805   07 Jun 2027 04:04:11.764             9.959          4979.500
       238   07 Jun 2027 04:04:36.383   07 Jun 2027 04:04:41.102             4.719          2359.500
       239   07 Jun 2027 04:05:26.387   07 Jun 2027 04:05:26.767             0.380           190.000
       240   07 Jun 2027 04:05:31.543   07 Jun 2027 04:05:33.836             2.293          1146.500
       241   07 Jun 2027 04:05:45.611   07 Jun 2027 04:05:48.705             3.094          1547.000
       242   07 Jun 2027 04:07:47.193   07 Jun 2027 04:07:50.493             3.300          1650.000
       243   07 Jun 2027 04:08:18.596   07 Jun 2027 04:08:19.962             1.366           683.000
       244   07 Jun 2027 04:08:38.874   07 Jun 2027 04:08:55.793            16.919          8459.500
       245   07 Jun 2027 05:37:40.489   07 Jun 2027 05:37:53.873            13.384          6692.000
       246   07 Jun 2027 05:38:49.202   07 Jun 2027 05:38:54.535             5.333          2666.500
       247   07 Jun 2027 05:39:30.767   07 Jun 2027 05:39:32.705             1.938           969.000
       248   07 Jun 2027 05:39:45.731   07 Jun 2027 05:39:51.494             5.763          2881.500
       249   07 Jun 2027 05:41:21.768   07 Jun 2027 05:41:26.882             5.114          2557.000
       250   07 Jun 2027 05:41:55.562   07 Jun 2027 05:41:55.957             0.395           197.500
       251   07 Jun 2027 05:43:03.711   07 Jun 2027 05:43:12.742             9.031          4515.500
       252   07 Jun 2027 05:44:08.777   07 Jun 2027 05:44:21.738            12.961          6480.500
       253   07 Jun 2027 07:14:34.761   07 Jun 2027 07:14:38.071             3.310          1655.000
       254   07 Jun 2027 07:15:08.287   07 Jun 2027 07:15:18.123             9.836          4918.000
       255   07 Jun 2027 07:16:03.673   07 Jun 2027 07:16:06.821             3.148          1574.000
       256   07 Jun 2027 07:16:19.767   07 Jun 2027 07:16:25.697             5.930          2965.000
       257   07 Jun 2027 07:17:32.615   07 Jun 2027 07:17:39.590             6.975          3487.500
       258   07 Jun 2027 07:18:34.147   07 Jun 2027 07:18:38.440             4.293          2146.500
       259   07 Jun 2027 07:19:00.149   07 Jun 2027 07:19:01.734             1.585           792.500
       260   07 Jun 2027 07:19:14.666   07 Jun 2027 07:19:20.111             5.445          2722.500
       261   07 Jun 2027 07:19:54.113   07 Jun 2027 07:19:55.815             1.702           851.000
       262   07 Jun 2027 07:20:15.909   07 Jun 2027 07:20:18.986             3.077          1538.500
       263   07 Jun 2027 07:20:43.236   07 Jun 2027 07:20:43.978             0.742           371.000
       264   07 Jun 2027 07:20:58.607   07 Jun 2027 07:21:02.526             3.919          1959.500
       265   07 Jun 2027 08:52:18.559   07 Jun 2027 08:52:20.901             2.342          1171.000
       266   07 Jun 2027 08:52:30.566   07 Jun 2027 08:52:30.796             0.230           115.000
       267   07 Jun 2027 08:52:42.736   07 Jun 2027 08:53:02.230            19.494          9747.000
       268   07 Jun 2027 08:54:36.848   07 Jun 2027 08:54:40.447             3.599          1799.500
       269   07 Jun 2027 08:54:52.218   07 Jun 2027 08:54:57.831             5.613          2806.500
       270   07 Jun 2027 08:55:41.910   07 Jun 2027 08:55:42.221             0.311           155.500
       271   07 Jun 2027 08:56:00.031   07 Jun 2027 08:56:13.749            13.718          6859.000
       272   07 Jun 2027 10:26:32.558   07 Jun 2027 10:26:35.287             2.729          1364.500
       273   07 Jun 2027 10:27:20.680   07 Jun 2027 10:27:33.811            13.131          6565.500
       274   07 Jun 2027 10:28:55.055   07 Jun 2027 10:28:56.959             1.904           952.000
       275   07 Jun 2027 10:29:23.773   07 Jun 2027 10:29:31.049             7.276          3638.000
       276   07 Jun 2027 10:30:04.297   07 Jun 2027 10:30:04.513             0.216           108.000
       277   07 Jun 2027 10:30:28.128   07 Jun 2027 10:30:44.193            16.065          8032.500
       278   08 Jun 2027 04:12:37.170   08 Jun 2027 04:12:42.444             5.274          2637.000
       279   08 Jun 2027 04:13:49.015   08 Jun 2027 04:14:06.504            17.489          8744.500
       280   08 Jun 2027 04:15:37.862   08 Jun 2027 04:15:38.853             0.991           495.500
       281   08 Jun 2027 04:15:45.051   08 Jun 2027 04:15:47.625             2.574          1287.000
       282   08 Jun 2027 04:16:08.843   08 Jun 2027 04:16:23.900            15.057          7528.500
       283   08 Jun 2027 04:18:01.002   08 Jun 2027 04:18:07.463             6.461          3230.500
       284   08 Jun 2027 04:18:34.489   08 Jun 2027 04:19:01.011            26.522         13261.000
       285   08 Jun 2027 04:20:11.304   08 Jun 2027 04:20:15.351             4.047          2023.500
       286   08 Jun 2027 04:20:15.676   08 Jun 2027 04:20:15.732             0.056            28.000
       287   08 Jun 2027 04:21:09.761   08 Jun 2027 04:21:10.743             0.982           491.000
       288   08 Jun 2027 05:50:01.224   08 Jun 2027 05:50:12.014            10.790          5395.000
       289   08 Jun 2027 05:50:47.165   08 Jun 2027 05:50:49.273             2.108          1054.000
       290   08 Jun 2027 05:51:10.327   08 Jun 2027 05:51:23.171            12.844          6422.000
       291   08 Jun 2027 05:52:22.737   08 Jun 2027 05:52:33.535            10.798          5399.000
       292   08 Jun 2027 05:53:33.942   08 Jun 2027 05:53:35.760             1.818           909.000
       293   08 Jun 2027 05:53:53.370   08 Jun 2027 05:53:54.141             0.771           385.500
       294   08 Jun 2027 05:54:08.179   08 Jun 2027 05:54:10.098             1.919           959.500
       295   08 Jun 2027 05:54:27.039   08 Jun 2027 05:54:33.008             5.969          2984.500
       296   08 Jun 2027 05:55:14.148   08 Jun 2027 05:55:17.304             3.156          1578.000
       297   08 Jun 2027 05:55:37.561   08 Jun 2027 05:55:47.022             9.461          4730.500
       298   08 Jun 2027 05:56:28.904   08 Jun 2027 05:56:35.321             6.417          3208.500
       299   08 Jun 2027 07:27:05.133   08 Jun 2027 07:27:10.773             5.640          2820.000
       300   08 Jun 2027 07:27:21.565   08 Jun 2027 07:27:38.707            17.142          8571.000
       301   08 Jun 2027 07:29:22.199   08 Jun 2027 07:29:24.608             2.409          1204.500
       302   08 Jun 2027 07:30:14.467   08 Jun 2027 07:30:18.394             3.927          1963.500
       303   08 Jun 2027 07:30:47.714   08 Jun 2027 07:30:49.556             1.842           921.000
       304   08 Jun 2027 07:30:59.073   08 Jun 2027 07:31:01.851             2.778          1389.000
       305   08 Jun 2027 07:31:15.544   08 Jun 2027 07:31:16.272             0.728           364.000
       306   08 Jun 2027 07:31:29.380   08 Jun 2027 07:31:34.344             4.964          2482.000
       307   08 Jun 2027 07:31:41.872   08 Jun 2027 07:32:04.770            22.898         11449.000
       308   08 Jun 2027 09:03:49.783   08 Jun 2027 09:03:53.699             3.916          1958.000
       309   08 Jun 2027 09:04:18.100   08 Jun 2027 09:04:29.491            11.391          5695.500
       310   08 Jun 2027 09:05:21.400   08 Jun 2027 09:05:22.535             1.135           567.500
       311   08 Jun 2027 09:06:18.446   08 Jun 2027 09:06:21.655             3.209          1604.500
       312   08 Jun 2027 09:07:18.484   08 Jun 2027 09:07:18.669             0.185            92.500
       313   08 Jun 2027 09:07:43.174   08 Jun 2027 09:07:45.448             2.274          1137.000
       314   08 Jun 2027 09:07:58.026   08 Jun 2027 09:08:20.119            22.093         11046.500
       315   08 Jun 2027 10:39:05.902   08 Jun 2027 10:39:07.375             1.473           736.500
       316   08 Jun 2027 10:40:46.937   08 Jun 2027 10:40:56.212             9.275          4637.500
       317   08 Jun 2027 10:41:36.613   08 Jun 2027 10:41:36.755             0.142            71.000
       318   08 Jun 2027 10:41:38.503   08 Jun 2027 10:41:42.266             3.763          1881.500
       319   08 Jun 2027 10:42:05.875   08 Jun 2027 10:42:08.356             2.481          1240.500
       320   08 Jun 2027 10:42:39.904   08 Jun 2027 10:42:40.803             0.899           449.500
       321   08 Jun 2027 10:43:00.970   08 Jun 2027 10:43:15.418            14.448          7224.000
       322   09 Jun 2027 04:25:10.132   09 Jun 2027 04:25:10.194             0.062            31.000
       323   09 Jun 2027 04:25:43.784   09 Jun 2027 04:25:58.930            15.146          7573.000
       324   09 Jun 2027 04:27:36.312   09 Jun 2027 04:27:38.434             2.122          1061.000
       325   09 Jun 2027 04:28:17.933   09 Jun 2027 04:28:30.644            12.711          6355.500
       326   09 Jun 2027 04:29:36.667   09 Jun 2027 04:29:41.757             5.090          2545.000
       327   09 Jun 2027 04:30:58.902   09 Jun 2027 04:30:59.010             0.108            54.000
       328   09 Jun 2027 04:31:35.345   09 Jun 2027 04:31:38.050             2.705          1352.500
       329   09 Jun 2027 04:31:53.633   09 Jun 2027 04:31:55.470             1.837           918.500
       330   09 Jun 2027 04:32:35.110   09 Jun 2027 04:32:49.286            14.176          7088.000
       331   09 Jun 2027 06:02:14.719   09 Jun 2027 06:02:15.997             1.278           639.000
       332   09 Jun 2027 06:02:31.832   09 Jun 2027 06:02:39.512             7.680          3840.000
       333   09 Jun 2027 06:03:21.047   09 Jun 2027 06:03:42.422            21.375         10687.500
       334   09 Jun 2027 06:05:30.306   09 Jun 2027 06:05:33.246             2.940          1470.000
       335   09 Jun 2027 06:05:41.396   09 Jun 2027 06:05:55.020            13.624          6812.000
       336   09 Jun 2027 06:07:00.949   09 Jun 2027 06:07:01.496             0.547           273.500
       337   09 Jun 2027 06:08:18.259   09 Jun 2027 06:08:22.204             3.945          1972.500
       338   09 Jun 2027 06:08:47.460   09 Jun 2027 06:08:48.742             1.282           641.000
       339   09 Jun 2027 07:39:10.613   09 Jun 2027 07:39:34.020            23.407         11703.500
       340   09 Jun 2027 07:41:23.614   09 Jun 2027 07:41:27.875             4.261          2130.500
       341   09 Jun 2027 07:41:35.747   09 Jun 2027 07:41:35.747             0.000             0.000
       342   09 Jun 2027 07:41:50.819   09 Jun 2027 07:41:50.881             0.062            31.000
       343   09 Jun 2027 07:42:19.894   09 Jun 2027 07:42:24.212             4.318          2159.000
       344   09 Jun 2027 07:42:49.782   09 Jun 2027 07:42:53.670             3.888          1944.000
       345   09 Jun 2027 07:43:11.739   09 Jun 2027 07:43:13.177             1.438           719.000
       346   09 Jun 2027 07:43:27.933   09 Jun 2027 07:43:28.021             0.088            44.000
       347   09 Jun 2027 09:15:57.156   09 Jun 2027 09:16:03.331             6.175          3087.500
       348   09 Jun 2027 09:16:48.397   09 Jun 2027 09:17:00.174            11.777          5888.500
       349   09 Jun 2027 09:18:31.447   09 Jun 2027 09:18:39.229             7.782          3891.000
       350   09 Jun 2027 09:19:13.470   09 Jun 2027 09:19:14.645             1.175           587.500
       351   09 Jun 2027 09:19:35.178   09 Jun 2027 09:19:39.558             4.380          2190.000
       352   09 Jun 2027 09:20:06.342   09 Jun 2027 09:20:06.795             0.453           226.500
       353   09 Jun 2027 10:54:09.411   09 Jun 2027 10:54:24.796            15.385          7692.500
       354   10 Jun 2027 03:03:16.625   10 Jun 2027 03:03:18.128             1.503           751.500
       355   10 Jun 2027 03:03:36.744   10 Jun 2027 03:03:37.051             0.307           153.500
       356   10 Jun 2027 03:03:47.900   10 Jun 2027 03:03:50.950             3.050          1525.000
       357   10 Jun 2027 03:04:10.057   10 Jun 2027 03:04:12.519             2.462          1231.000
       358   10 Jun 2027 03:04:43.537   10 Jun 2027 03:04:45.590             2.053          1026.500
       359   10 Jun 2027 03:05:19.961   10 Jun 2027 03:05:27.392             7.431          3715.500
       360   10 Jun 2027 03:06:01.300   10 Jun 2027 03:06:09.356             8.056          4028.000
       361   10 Jun 2027 04:38:21.628   10 Jun 2027 04:38:35.877            14.249          7124.500
       362   10 Jun 2027 04:39:18.785   10 Jun 2027 04:39:26.118             7.333          3666.500
       363   10 Jun 2027 04:40:36.901   10 Jun 2027 04:40:39.081             2.180          1090.000
       364   10 Jun 2027 04:40:53.263   10 Jun 2027 04:40:56.701             3.438          1719.000
       365   10 Jun 2027 04:41:20.416   10 Jun 2027 04:41:24.795             4.379          2189.500
       366   10 Jun 2027 04:41:31.927   10 Jun 2027 04:41:32.416             0.489           244.500
       367   10 Jun 2027 04:41:49.524   10 Jun 2027 04:41:51.537             2.013          1006.500
       368   10 Jun 2027 04:42:09.911   10 Jun 2027 04:42:14.922             5.011          2505.500
       369   10 Jun 2027 04:43:08.113   10 Jun 2027 04:43:19.071            10.958          5479.000
       370   10 Jun 2027 04:44:06.706   10 Jun 2027 04:44:08.256             1.550           775.000
       371   10 Jun 2027 04:44:22.095   10 Jun 2027 04:44:24.091             1.996           998.000
       372   10 Jun 2027 04:44:59.717   10 Jun 2027 04:45:02.284             2.567          1283.500
       373   10 Jun 2027 06:14:43.625   10 Jun 2027 06:14:43.929             0.304           152.000
       374   10 Jun 2027 06:14:53.733   10 Jun 2027 06:15:17.118            23.385         11692.500
       375   10 Jun 2027 06:16:35.639   10 Jun 2027 06:16:37.154             1.515           757.500
       376   10 Jun 2027 06:17:37.774   10 Jun 2027 06:17:50.793            13.019          6509.500
       377   10 Jun 2027 06:18:40.764   10 Jun 2027 06:18:51.252            10.488          5244.000
       378   10 Jun 2027 06:19:47.085   10 Jun 2027 06:19:53.309             6.224          3112.000
       379   10 Jun 2027 07:52:13.773   10 Jun 2027 07:52:14.191             0.418           209.000
       380   10 Jun 2027 07:52:51.754   10 Jun 2027 07:53:04.624            12.870          6435.000
       381   10 Jun 2027 07:54:37.414   10 Jun 2027 07:54:37.529             0.115            57.500
       382   10 Jun 2027 07:54:45.537   10 Jun 2027 07:54:55.436             9.899          4949.500
       383   10 Jun 2027 07:55:52.312   10 Jun 2027 07:56:04.982            12.670          6335.000
       384   10 Jun 2027 09:28:18.483   10 Jun 2027 09:28:20.722             2.239          1119.500
       385   10 Jun 2027 09:28:30.868   10 Jun 2027 09:28:32.828             1.960           980.000
       386   10 Jun 2027 09:29:01.136   10 Jun 2027 09:29:06.508             5.372          2686.000
       387   10 Jun 2027 09:29:47.361   10 Jun 2027 09:29:48.687             1.326           663.000
       388   10 Jun 2027 09:30:36.064   10 Jun 2027 09:30:39.184             3.120          1560.000
       389   10 Jun 2027 09:31:09.363   10 Jun 2027 09:31:13.483             4.120          2060.000
       390   10 Jun 2027 09:31:31.849   10 Jun 2027 09:31:34.351             2.502          1251.000
       391   10 Jun 2027 09:31:53.834   10 Jun 2027 09:32:06.153            12.319          6159.500
       392   11 Jun 2027 03:15:21.119   11 Jun 2027 03:15:26.229             5.110          2555.000
       393   11 Jun 2027 03:16:12.081   11 Jun 2027 03:16:21.497             9.416          4708.000
       394   11 Jun 2027 03:17:07.789   11 Jun 2027 03:17:08.668             0.879           439.500
       395   11 Jun 2027 03:17:12.520   11 Jun 2027 03:17:16.547             4.027          2013.500
       396   11 Jun 2027 03:17:22.324   11 Jun 2027 03:17:33.549            11.225          5612.500
       397   11 Jun 2027 03:18:30.984   11 Jun 2027 03:18:33.298             2.314          1157.000
       398   11 Jun 2027 04:50:31.626   11 Jun 2027 04:50:32.172             0.546           273.000
       399   11 Jun 2027 04:50:57.648   11 Jun 2027 04:51:00.542             2.894          1447.000
       400   11 Jun 2027 04:51:45.937   11 Jun 2027 04:51:51.061             5.124          2562.000
       401   11 Jun 2027 04:52:14.081   11 Jun 2027 04:52:19.349             5.268          2634.000
       402   11 Jun 2027 04:53:36.844   11 Jun 2027 04:53:38.489             1.645           822.500
       403   11 Jun 2027 04:53:51.639   11 Jun 2027 04:53:58.782             7.143          3571.500
       404   11 Jun 2027 04:54:28.002   11 Jun 2027 04:54:43.364            15.362          7681.000
       405   11 Jun 2027 04:55:05.157   11 Jun 2027 04:55:07.653             2.496          1248.000
       406   11 Jun 2027 04:55:58.292   11 Jun 2027 04:56:10.761            12.469          6234.500
       407   11 Jun 2027 06:26:45.955   11 Jun 2027 06:27:13.786            27.831         13915.500
       408   11 Jun 2027 06:28:14.282   11 Jun 2027 06:28:19.681             5.399          2699.500
       409   11 Jun 2027 06:29:44.051   11 Jun 2027 06:29:44.253             0.202           101.000
       410   11 Jun 2027 06:29:50.087   11 Jun 2027 06:29:55.768             5.681          2840.500
       411   11 Jun 2027 06:30:49.101   11 Jun 2027 06:30:49.544             0.443           221.500
       412   11 Jun 2027 06:31:10.911   11 Jun 2027 06:31:14.406             3.495          1747.500
       413   11 Jun 2027 06:31:49.693   11 Jun 2027 06:31:54.360             4.667          2333.500
       414   11 Jun 2027 06:32:02.191   11 Jun 2027 06:32:04.773             2.582          1291.000
       415   11 Jun 2027 06:32:34.244   11 Jun 2027 06:32:36.346             2.102          1051.000
       416   11 Jun 2027 08:04:19.353   11 Jun 2027 08:04:20.831             1.478           739.000
       417   11 Jun 2027 08:04:33.892   11 Jun 2027 08:04:38.223             4.331          2165.500
       418   11 Jun 2027 08:04:59.660   11 Jun 2027 08:05:16.724            17.064          8532.000
       419   11 Jun 2027 08:06:46.417   11 Jun 2027 08:06:46.917             0.500           250.000
       420   11 Jun 2027 08:07:04.530   11 Jun 2027 08:07:18.196            13.666          6833.000
       421   11 Jun 2027 08:07:50.883   11 Jun 2027 08:07:59.381             8.498          4249.000
       422   11 Jun 2027 09:40:20.664   11 Jun 2027 09:40:21.829             1.165           582.500
       423   11 Jun 2027 09:40:41.156   11 Jun 2027 09:40:51.581            10.425          5212.500
       424   11 Jun 2027 09:42:12.993   11 Jun 2027 09:42:13.704             0.711           355.500
       425   11 Jun 2027 09:42:38.225   11 Jun 2027 09:42:39.479             1.254           627.000
       426   11 Jun 2027 09:43:06.424   11 Jun 2027 09:43:12.731             6.307          3153.500
       427   11 Jun 2027 09:44:00.542   11 Jun 2027 09:44:10.768            10.226          5113.000
       428   11 Jun 2027 09:44:53.934   11 Jun 2027 09:44:59.876             5.942          2971.000
       429   11 Jun 2027 09:45:10.890   11 Jun 2027 09:45:16.687             5.797          2898.500
       430   12 Jun 2027 03:27:04.874   12 Jun 2027 03:27:11.549             6.675          3337.500
       431   12 Jun 2027 03:27:42.053   12 Jun 2027 03:27:42.608             0.555           277.500
       432   12 Jun 2027 03:27:50.671   12 Jun 2027 03:27:58.957             8.286          4143.000
       433   12 Jun 2027 03:28:05.691   12 Jun 2027 03:28:06.154             0.463           231.500
       434   12 Jun 2027 03:28:40.456   12 Jun 2027 03:28:40.677             0.221           110.500
       435   12 Jun 2027 03:28:46.627   12 Jun 2027 03:28:48.154             1.527           763.500
       436   12 Jun 2027 03:29:43.346   12 Jun 2027 03:29:56.990            13.644          6822.000
       437   12 Jun 2027 03:30:32.774   12 Jun 2027 03:30:34.024             1.250           625.000
       438   12 Jun 2027 05:01:55.831   12 Jun 2027 05:01:59.318             3.487          1743.500
       439   12 Jun 2027 05:02:23.671   12 Jun 2027 05:02:24.305             0.634           317.000
       440   12 Jun 2027 05:02:48.082   12 Jun 2027 05:03:01.978            13.896          6948.000
       441   12 Jun 2027 05:03:39.661   12 Jun 2027 05:03:45.246             5.585          2792.500
       442   12 Jun 2027 05:04:27.712   12 Jun 2027 05:04:33.472             5.760          2880.000
       443   12 Jun 2027 05:05:41.859   12 Jun 2027 05:05:48.412             6.553          3276.500
       444   12 Jun 2027 05:05:55.756   12 Jun 2027 05:05:59.517             3.761          1880.500
       445   12 Jun 2027 05:06:02.800   12 Jun 2027 05:06:07.247             4.447          2223.500
       446   12 Jun 2027 05:07:22.675   12 Jun 2027 05:07:30.430             7.755          3877.500
       447   12 Jun 2027 05:08:14.130   12 Jun 2027 05:08:25.596            11.466          5733.000
       448   12 Jun 2027 05:08:41.869   12 Jun 2027 05:08:47.538             5.669          2834.500
       449   12 Jun 2027 06:38:31.647   12 Jun 2027 06:38:40.174             8.527          4263.500
       450   12 Jun 2027 06:39:23.117   12 Jun 2027 06:39:37.431            14.314          7157.000
       451   12 Jun 2027 06:40:35.236   12 Jun 2027 06:40:38.457             3.221          1610.500
       452   12 Jun 2027 06:40:49.058   12 Jun 2027 06:40:52.393             3.335          1667.500
       453   12 Jun 2027 06:41:49.855   12 Jun 2027 06:42:00.080            10.225          5112.500
       454   12 Jun 2027 06:42:45.632   12 Jun 2027 06:42:52.049             6.417          3208.500
       455   12 Jun 2027 06:43:17.930   12 Jun 2027 06:43:25.222             7.292          3646.000
       456   12 Jun 2027 06:43:56.935   12 Jun 2027 06:44:01.331             4.396          2198.000
       457   12 Jun 2027 06:44:29.908   12 Jun 2027 06:44:38.598             8.690          4345.000
       458   12 Jun 2027 08:16:49.307   12 Jun 2027 08:17:02.861            13.554          6777.000
       459   12 Jun 2027 08:18:27.237   12 Jun 2027 08:18:27.829             0.592           296.000
       460   12 Jun 2027 08:18:49.555   12 Jun 2027 08:18:58.017             8.462          4231.000
       461   12 Jun 2027 08:19:31.988   12 Jun 2027 08:19:42.704            10.716          5358.000
       462   12 Jun 2027 08:20:11.530   12 Jun 2027 08:20:15.686             4.156          2078.000
       463   12 Jun 2027 08:20:28.065   12 Jun 2027 08:20:28.684             0.619           309.500
       464   12 Jun 2027 08:20:36.214   12 Jun 2027 08:20:36.214             0.000             0.000
       465   12 Jun 2027 09:50:09.905   12 Jun 2027 09:50:11.575             1.670           835.000
       466   12 Jun 2027 09:52:09.166   12 Jun 2027 09:52:09.317             0.151            75.500
       467   12 Jun 2027 09:52:15.443   12 Jun 2027 09:52:18.798             3.355          1677.500
       468   12 Jun 2027 09:52:57.465   12 Jun 2027 09:52:59.380             1.915           957.500
       469   12 Jun 2027 09:53:30.240   12 Jun 2027 09:53:32.444             2.204          1102.000
       470   12 Jun 2027 09:54:03.010   12 Jun 2027 09:54:04.872             1.862           931.000
       471   12 Jun 2027 09:54:40.084   12 Jun 2027 09:54:41.346             1.262           631.000
       472   12 Jun 2027 09:55:04.504   12 Jun 2027 09:55:04.719             0.215           107.500
       473   12 Jun 2027 09:55:25.911   12 Jun 2027 09:55:28.325             2.414          1207.000
       474   12 Jun 2027 09:56:14.375   12 Jun 2027 09:56:16.146             1.771           885.500
       475   12 Jun 2027 09:56:44.745   12 Jun 2027 09:56:47.142             2.397          1198.500
       476   12 Jun 2027 09:57:14.840   12 Jun 2027 09:57:17.271             2.431          1215.500
       477   12 Jun 2027 09:57:39.140   12 Jun 2027 09:57:39.291             0.151            75.500
       478   13 Jun 2027 03:37:17.248   13 Jun 2027 03:37:33.552            16.304          8152.000
       479   13 Jun 2027 03:38:56.637   13 Jun 2027 03:39:00.251             3.614          1807.000
       480   13 Jun 2027 03:39:15.463   13 Jun 2027 03:39:15.695             0.232           116.000
       481   13 Jun 2027 03:39:44.859   13 Jun 2027 03:39:45.260             0.401           200.500
       482   13 Jun 2027 03:40:02.806   13 Jun 2027 03:40:08.985             6.179          3089.500
       483   13 Jun 2027 03:41:10.840   13 Jun 2027 03:41:14.680             3.840          1920.000
       484   13 Jun 2027 03:42:07.649   13 Jun 2027 03:42:12.698             5.049          2524.500
       485   13 Jun 2027 03:42:34.472   13 Jun 2027 03:42:40.390             5.918          2959.000
       486   13 Jun 2027 03:43:10.334   13 Jun 2027 03:43:37.753            27.419         13709.500
       487   13 Jun 2027 05:13:48.508   13 Jun 2027 05:13:55.171             6.663          3331.500
       488   13 Jun 2027 05:14:16.151   13 Jun 2027 05:14:26.839            10.688          5344.000
       489   13 Jun 2027 05:14:50.766   13 Jun 2027 05:14:53.302             2.536          1268.000
       490   13 Jun 2027 05:15:49.595   13 Jun 2027 05:15:50.677             1.082           541.000
       491   13 Jun 2027 05:15:56.680   13 Jun 2027 05:16:08.111            11.431          5715.500
       492   13 Jun 2027 05:17:42.602   13 Jun 2027 05:17:43.845             1.243           621.500
       493   13 Jun 2027 05:18:50.189   13 Jun 2027 05:18:53.015             2.826          1413.000
       494   13 Jun 2027 05:19:44.625   13 Jun 2027 05:19:46.067             1.442           721.000
       495   13 Jun 2027 05:20:10.313   13 Jun 2027 05:20:12.241             1.928           964.000
       496   13 Jun 2027 05:21:00.408   13 Jun 2027 05:21:03.991             3.583          1791.500
       497   13 Jun 2027 06:50:52.703   13 Jun 2027 06:50:59.096             6.393          3196.500
       498   13 Jun 2027 06:51:38.151   13 Jun 2027 06:51:45.409             7.258          3629.000
       499   13 Jun 2027 06:52:52.994   13 Jun 2027 06:53:13.706            20.712         10356.000
       500   13 Jun 2027 06:54:19.491   13 Jun 2027 06:54:28.907             9.416          4708.000
       501   13 Jun 2027 06:55:39.581   13 Jun 2027 06:55:41.043             1.462           731.000
       502   13 Jun 2027 06:56:02.893   13 Jun 2027 06:56:02.915             0.022            11.000
       503   13 Jun 2027 08:28:46.973   13 Jun 2027 08:28:53.695             6.722          3361.000
       504   13 Jun 2027 08:29:22.519   13 Jun 2027 08:29:24.488             1.969           984.500
       505   13 Jun 2027 08:29:53.040   13 Jun 2027 08:29:55.045             2.005          1002.500
       506   13 Jun 2027 08:30:26.908   13 Jun 2027 08:30:45.662            18.754          9377.000
       507   13 Jun 2027 08:32:02.587   13 Jun 2027 08:32:15.029            12.442          6221.000
       508   13 Jun 2027 10:01:58.796   13 Jun 2027 10:02:15.352            16.556          8278.000
       509   13 Jun 2027 10:03:26.284   13 Jun 2027 10:03:43.137            16.853          8426.500
       510   13 Jun 2027 10:04:53.927   13 Jun 2027 10:04:54.506             0.579           289.500
       511   13 Jun 2027 10:05:52.379   13 Jun 2027 10:05:52.992             0.613           306.500
       512   13 Jun 2027 10:06:12.787   13 Jun 2027 10:06:16.044             3.257          1628.500
       513   13 Jun 2027 10:06:30.514   13 Jun 2027 10:06:39.178             8.664          4332.000
       514   13 Jun 2027 10:07:18.177   13 Jun 2027 10:07:22.637             4.460          2230.000
       515   13 Jun 2027 10:08:39.652   13 Jun 2027 10:08:39.689             0.037            18.500
       516   13 Jun 2027 10:08:52.078   13 Jun 2027 10:08:54.354             2.276          1138.000
       517   13 Jun 2027 10:09:24.308   13 Jun 2027 10:09:25.055             0.747           373.500
       518   13 Jun 2027 10:09:45.219   13 Jun 2027 10:09:48.720             3.501          1750.500
