uniorb/output/strategy_2/Camera/Camera_KinoSat_110901.txt

KinoSat_110901
-------------------------
    Access    *     Start Time (UTCG)     *     Stop Time (UTCG)  *   Duration (s) *   Data (Mbytes)
         1   01 Jun 2027 04:08:27.462   01 Jun 2027 04:09:38.208            70.746         35373.000
         2   01 Jun 2027 04:09:57.065   01 Jun 2027 04:10:23.040            25.975         12987.500
         3   01 Jun 2027 04:12:31.983   01 Jun 2027 04:12:31.983             0.000             0.000
         4   01 Jun 2027 04:12:41.127   01 Jun 2027 04:12:46.222             5.095          2547.500
         5   01 Jun 2027 04:13:07.901   01 Jun 2027 04:13:09.624             1.723           861.500
         6   01 Jun 2027 05:44:00.788   01 Jun 2027 05:44:50.124            49.336         24668.000
         7   01 Jun 2027 05:45:28.390   01 Jun 2027 05:47:27.202           118.812         59406.000
         8   01 Jun 2027 07:20:17.312   01 Jun 2027 07:22:24.244           126.932         63466.000
         9   01 Jun 2027 07:23:20.215   01 Jun 2027 07:23:46.853            26.638         13319.000
        10   01 Jun 2027 07:24:59.074   01 Jun 2027 07:25:29.498            30.424         15212.000
        11   01 Jun 2027 07:25:32.641   01 Jun 2027 07:25:49.740            17.099          8549.500
        12   01 Jun 2027 07:27:05.843   01 Jun 2027 07:27:32.825            26.982         13491.000
        13   01 Jun 2027 08:57:23.124   01 Jun 2027 08:59:51.265           148.141         74070.500
        14   01 Jun 2027 09:00:44.165   01 Jun 2027 09:00:56.522            12.357          6178.500
        15   01 Jun 2027 09:01:18.913   01 Jun 2027 09:01:36.084            17.171          8585.500
        16   01 Jun 2027 09:03:42.754   01 Jun 2027 09:03:44.382             1.628           814.000
        17   01 Jun 2027 10:35:20.597   01 Jun 2027 10:37:24.624           124.027         62013.500
        18   01 Jun 2027 10:37:27.848   01 Jun 2027 10:37:45.640            17.792          8896.000
        19   01 Jun 2027 10:37:48.771   01 Jun 2027 10:37:59.439            10.668          5334.000
        20   02 Jun 2027 04:20:10.650   02 Jun 2027 04:21:16.558            65.908         32954.000
        21   02 Jun 2027 04:22:07.509   02 Jun 2027 04:22:58.052            50.543         25271.500
        22   02 Jun 2027 04:23:43.475   02 Jun 2027 04:24:32.864            49.389         24694.500
        23   02 Jun 2027 05:55:08.960   02 Jun 2027 05:56:53.644           104.684         52342.000
        24   02 Jun 2027 06:00:08.241   02 Jun 2027 06:00:16.537             8.296          4148.000
        25   02 Jun 2027 06:00:27.122   02 Jun 2027 06:00:38.448            11.326          5663.000
        26   02 Jun 2027 06:00:44.570   02 Jun 2027 06:01:02.847            18.277          9138.500
        27   02 Jun 2027 07:32:36.978   02 Jun 2027 07:35:02.514           145.536         72768.000
        28   02 Jun 2027 07:36:09.456   02 Jun 2027 07:36:09.456             0.000             0.000
        29   02 Jun 2027 07:36:48.928   02 Jun 2027 07:36:53.718             4.790          2395.000
        30   02 Jun 2027 07:37:27.745   02 Jun 2027 07:37:47.973            20.228         10114.000
        31   02 Jun 2027 07:38:48.299   02 Jun 2027 07:39:22.452            34.153         17076.500
        32   02 Jun 2027 09:09:22.697   02 Jun 2027 09:11:15.260           112.563         56281.500
        33   02 Jun 2027 09:12:17.256   02 Jun 2027 09:12:21.793             4.537          2268.500
        34   02 Jun 2027 09:13:32.894   02 Jun 2027 09:13:40.167             7.273          2950.500
        35   02 Jun 2027 09:15:38.854   02 Jun 2027 09:15:42.662             3.808          1904.000
        36   02 Jun 2027 10:47:20.421   02 Jun 2027 10:47:43.345            22.924         10373.375
        37   02 Jun 2027 10:48:17.802   02 Jun 2027 10:48:21.379             3.577          1076.781
        38   02 Jun 2027 10:48:31.861   02 Jun 2027 10:48:32.527             0.666           164.906
        39   02 Jun 2027 10:49:00.165   02 Jun 2027 10:49:02.627             2.462           703.531
        40   02 Jun 2027 10:49:41.962   02 Jun 2027 10:49:50.548             8.586          1137.688
        41   02 Jun 2027 10:50:10.894   02 Jun 2027 10:50:10.894             0.000             0.000
        42   02 Jun 2027 10:50:53.610   02 Jun 2027 10:50:58.487             4.877          1867.563
        43   03 Jun 2027 03:09:56.763   03 Jun 2027 03:10:28.283            31.520         15760.000
        44   03 Jun 2027 04:31:47.282   03 Jun 2027 04:33:03.617            76.335         38167.500
        45   03 Jun 2027 04:33:52.045   03 Jun 2027 04:35:15.001            82.956         41478.000
        46   03 Jun 2027 04:35:52.639   03 Jun 2027 04:35:55.517             2.878          1439.000
        47   03 Jun 2027 04:36:29.722   03 Jun 2027 04:36:41.286            11.564          5782.000
        48   03 Jun 2027 04:36:51.084   03 Jun 2027 04:36:58.979             7.895          3947.500
        49   03 Jun 2027 06:06:36.813   03 Jun 2027 06:08:08.140            91.327         45561.656
        50   03 Jun 2027 06:09:03.411   03 Jun 2027 06:09:03.411             0.000             0.000
        51   03 Jun 2027 06:09:11.753   03 Jun 2027 06:09:18.519             6.766          1987.219
        52   03 Jun 2027 06:10:31.377   03 Jun 2027 06:10:35.342             3.965          1920.813
        53   03 Jun 2027 06:11:37.903   03 Jun 2027 06:11:37.903             0.000             0.000
        54   03 Jun 2027 06:12:06.224   03 Jun 2027 06:12:09.787             3.563          1781.500
        55   03 Jun 2027 06:13:09.148   03 Jun 2027 06:13:13.675             4.527          2263.500
        56   03 Jun 2027 06:14:59.664   03 Jun 2027 06:15:02.408             2.744          1372.000
        57   03 Jun 2027 06:15:49.527   03 Jun 2027 06:15:57.003             7.476          3162.281
        58   03 Jun 2027 07:44:30.047   03 Jun 2027 07:44:45.658            15.611          7575.031
        59   03 Jun 2027 07:46:06.350   03 Jun 2027 07:46:11.603             5.253          2089.219
        60   03 Jun 2027 07:46:53.707   03 Jun 2027 07:46:58.895             5.188           744.625
        61   03 Jun 2027 07:47:45.233   03 Jun 2027 07:47:51.038             5.805           260.531
        62   03 Jun 2027 07:48:07.180   03 Jun 2027 07:48:11.837             4.657           504.438
        63   03 Jun 2027 07:48:58.465   03 Jun 2027 07:49:01.539             3.074          1424.781
        64   03 Jun 2027 07:50:33.793   03 Jun 2027 07:50:38.865             5.072          2305.094
        65   03 Jun 2027 07:51:47.699   03 Jun 2027 07:51:53.946             6.247          1127.594
        66   03 Jun 2027 09:21:13.901   03 Jun 2027 09:21:36.024            22.123          8403.375
        67   03 Jun 2027 09:22:00.195   03 Jun 2027 09:22:00.807             0.612           241.250
        68   03 Jun 2027 09:22:28.658   03 Jun 2027 09:22:28.817             0.159            79.500
        69   03 Jun 2027 09:23:07.204   03 Jun 2027 09:23:14.144             6.940          1873.594
        70   03 Jun 2027 09:23:41.288   03 Jun 2027 09:23:42.922             1.634             0.625
        71   03 Jun 2027 09:23:49.038   03 Jun 2027 09:23:50.305             1.267           141.969
        72   03 Jun 2027 09:24:45.456   03 Jun 2027 09:24:48.615             3.159          1564.063
        73   03 Jun 2027 09:26:14.898   03 Jun 2027 09:26:22.614             7.716          2186.437
        74   03 Jun 2027 09:27:33.325   03 Jun 2027 09:27:39.973             6.648          2209.719
        75   03 Jun 2027 10:59:20.817   03 Jun 2027 10:59:34.692            13.875          6751.812
        76   03 Jun 2027 10:59:36.841   03 Jun 2027 10:59:37.334             0.493            67.156
        77   03 Jun 2027 11:01:14.261   03 Jun 2027 11:01:17.851             3.590          1795.000
        78   03 Jun 2027 11:01:45.427   03 Jun 2027 11:01:49.449             4.022          1505.656
        79   03 Jun 2027 11:02:37.095   03 Jun 2027 11:02:41.054             3.959          1488.938
        80   03 Jun 2027 11:02:52.290   03 Jun 2027 11:02:57.077             4.787           168.969
        81   03 Jun 2027 11:03:17.475   03 Jun 2027 11:03:19.151             1.676           580.375
        82   04 Jun 2027 03:09:40.502   04 Jun 2027 03:10:07.772            27.270         13635.000
        83   04 Jun 2027 03:10:08.311   04 Jun 2027 03:10:45.152            36.841         18420.500
        84   04 Jun 2027 04:45:41.009   04 Jun 2027 04:48:33.790           172.781         86390.500
        85   04 Jun 2027 04:48:45.251   04 Jun 2027 04:48:45.251             0.000             0.000
        86   04 Jun 2027 04:49:03.884   04 Jun 2027 04:49:10.941             7.057          3528.500
        87   04 Jun 2027 06:19:28.498   04 Jun 2027 06:20:36.850            68.352         34156.438
        88   04 Jun 2027 06:21:41.679   04 Jun 2027 06:21:42.959             1.280           269.687
        89   04 Jun 2027 06:22:01.874   04 Jun 2027 06:22:03.678             1.804           550.156
        90   04 Jun 2027 06:22:29.249   04 Jun 2027 06:22:31.308             2.059           629.625
        91   04 Jun 2027 06:23:25.893   04 Jun 2027 06:23:31.952             6.059          1705.781
        92   04 Jun 2027 06:24:26.466   04 Jun 2027 06:24:35.876             9.410          1358.781
        93   04 Jun 2027 06:25:34.592   04 Jun 2027 06:25:38.481             3.889          1670.344
        94   04 Jun 2027 06:26:46.659   04 Jun 2027 06:26:52.406             5.747          2028.406
        95   04 Jun 2027 06:27:38.933   04 Jun 2027 06:27:38.933             0.000             0.000
        96   04 Jun 2027 06:27:52.810   04 Jun 2027 06:27:59.189             6.379          1887.625
        97   04 Jun 2027 07:56:37.312   04 Jun 2027 07:56:55.078            17.766          8789.594
        98   04 Jun 2027 07:57:21.880   04 Jun 2027 07:57:23.880             2.000           619.875
        99   04 Jun 2027 07:58:44.385   04 Jun 2027 07:58:53.316             8.931           893.875
       100   04 Jun 2027 07:59:55.205   04 Jun 2027 07:59:59.056             3.851          1875.625
       101   04 Jun 2027 08:00:39.648   04 Jun 2027 08:00:41.889             2.241           997.312
       102   04 Jun 2027 08:01:40.204   04 Jun 2027 08:01:43.908             3.704          1791.094
       103   04 Jun 2027 08:01:51.166   04 Jun 2027 08:01:53.164             1.998           201.719
       104   04 Jun 2027 08:02:12.759   04 Jun 2027 08:02:14.560             1.801           127.063
       105   04 Jun 2027 08:02:31.212   04 Jun 2027 08:02:32.853             1.641           475.719
       106   04 Jun 2027 08:02:54.044   04 Jun 2027 08:02:55.886             1.842           580.125
       107   04 Jun 2027 08:03:07.528   04 Jun 2027 08:03:12.399             4.871           351.344
       108   04 Jun 2027 08:03:12.813   04 Jun 2027 08:03:12.813             0.000             0.000
       109   04 Jun 2027 08:03:48.793   04 Jun 2027 08:03:53.455             4.662          1137.313
       110   04 Jun 2027 09:33:51.428   04 Jun 2027 09:34:09.218            17.790          8337.031
       111   04 Jun 2027 09:34:22.147   04 Jun 2027 09:34:23.378             1.231           186.406
       112   04 Jun 2027 09:35:35.110   04 Jun 2027 09:35:35.110             0.000             0.000
       113   04 Jun 2027 09:36:04.255   04 Jun 2027 09:36:06.613             2.358          1106.688
       114   04 Jun 2027 09:36:54.206   04 Jun 2027 09:36:57.997             3.791          1201.750
       115   04 Jun 2027 09:37:25.197   04 Jun 2027 09:37:25.197             0.000             0.000
       116   04 Jun 2027 09:38:05.124   04 Jun 2027 09:38:09.668             4.544          2080.844
       117   04 Jun 2027 09:39:10.094   04 Jun 2027 09:39:18.056             7.962          1868.656
       118   04 Jun 2027 09:39:37.260   04 Jun 2027 09:39:40.265             3.005           600.125
       119   04 Jun 2027 11:10:34.203   04 Jun 2027 11:10:50.193            15.990          7270.500
       120   04 Jun 2027 11:11:02.287   04 Jun 2027 11:11:03.573             1.286           371.813
       121   04 Jun 2027 11:11:38.076   04 Jun 2027 11:11:41.128             3.052           949.031
       122   04 Jun 2027 11:12:59.002   04 Jun 2027 11:13:03.859             4.857          2300.281
       123   04 Jun 2027 11:13:28.550   04 Jun 2027 11:13:28.940             0.390           101.344
       124   04 Jun 2027 11:13:46.317   04 Jun 2027 11:13:46.317             0.000             0.000
       125   04 Jun 2027 11:14:50.045   04 Jun 2027 11:14:55.319             5.274          2482.813
       126   05 Jun 2027 03:21:33.541   05 Jun 2027 03:22:09.355            35.814         17907.000
       127   05 Jun 2027 03:22:31.147   05 Jun 2027 03:22:46.026            14.879          7439.500
       128   05 Jun 2027 03:23:05.382   05 Jun 2027 03:23:09.739             4.357          2178.500
       129   05 Jun 2027 03:23:33.535   05 Jun 2027 03:23:47.046            13.511          6755.500
       130   05 Jun 2027 04:57:55.415   05 Jun 2027 05:00:59.456           184.041         92020.500
       131   05 Jun 2027 06:31:51.639   05 Jun 2027 06:32:47.741            56.102         28027.062
       132   05 Jun 2027 06:34:22.640   05 Jun 2027 06:34:27.066             4.426          1711.094
       133   05 Jun 2027 06:36:07.883   05 Jun 2027 06:36:13.264             5.381          2690.500
       134   05 Jun 2027 06:36:25.598   05 Jun 2027 06:36:32.970             7.372           781.969
       135   05 Jun 2027 06:36:46.721   05 Jun 2027 06:36:48.557             1.836           429.719
       136   05 Jun 2027 06:37:30.447   05 Jun 2027 06:37:33.408             2.961          1309.062
       137   05 Jun 2027 06:38:36.592   05 Jun 2027 06:38:43.126             6.534          1887.719
       138   05 Jun 2027 06:39:42.633   05 Jun 2027 06:39:46.627             3.994          1859.594
       139   05 Jun 2027 08:09:02.880   05 Jun 2027 08:09:19.916            17.036          7885.594
       140   05 Jun 2027 08:10:23.602   05 Jun 2027 08:10:28.068             4.466           841.875
       141   05 Jun 2027 08:10:49.642   05 Jun 2027 08:10:51.575             1.933           674.187
       142   05 Jun 2027 08:11:58.902   05 Jun 2027 08:12:03.433             4.531          1963.969
       143   05 Jun 2027 08:12:57.973   05 Jun 2027 08:13:03.020             5.047          1604.000
       144   05 Jun 2027 08:13:12.631   05 Jun 2027 08:13:13.032             0.401           131.906
       145   05 Jun 2027 08:13:45.937   05 Jun 2027 08:13:47.895             1.958           843.188
       146   05 Jun 2027 08:14:38.466   05 Jun 2027 08:14:42.509             4.043          1357.938
       147   05 Jun 2027 08:15:07.621   05 Jun 2027 08:15:10.164             2.543           424.094
       148   05 Jun 2027 08:15:29.602   05 Jun 2027 08:15:38.325             8.723           605.406
       149   05 Jun 2027 09:46:04.882   05 Jun 2027 09:46:13.677             8.795          4397.500
       150   05 Jun 2027 09:46:20.666   05 Jun 2027 09:46:32.007            11.341          5078.906
       151   05 Jun 2027 09:46:41.264   05 Jun 2027 09:46:44.601             3.337           264.469
       152   05 Jun 2027 09:47:23.388   05 Jun 2027 09:47:24.907             1.519           205.656
       153   05 Jun 2027 09:47:53.110   05 Jun 2027 09:47:56.614             3.504           881.344
       154   05 Jun 2027 09:48:02.089   05 Jun 2027 09:48:03.612             1.523           171.094
       155   05 Jun 2027 09:49:22.265   05 Jun 2027 09:49:26.631             4.366          1243.437
       156   05 Jun 2027 09:49:27.191   05 Jun 2027 09:49:27.769             0.578            17.500
       157   05 Jun 2027 09:50:14.637   05 Jun 2027 09:50:19.237             4.600          1416.250
       158   05 Jun 2027 09:50:58.519   05 Jun 2027 09:51:03.397             4.878          1176.781
       159   05 Jun 2027 09:51:22.084   05 Jun 2027 09:51:23.908             1.824           306.563
       160   05 Jun 2027 11:22:49.392   05 Jun 2027 11:23:09.811            20.419          8269.719
       161   05 Jun 2027 11:23:19.075   05 Jun 2027 11:23:21.770             2.695           289.500
       162   05 Jun 2027 11:23:29.964   05 Jun 2027 11:23:30.264             0.300           130.125
       163   05 Jun 2027 11:23:54.462   05 Jun 2027 11:23:59.034             4.572           756.187
       164   05 Jun 2027 11:24:12.245   05 Jun 2027 11:24:13.323             1.078           392.719
       165   05 Jun 2027 11:25:20.052   05 Jun 2027 11:25:25.987             5.935          1656.219
       166   05 Jun 2027 11:26:48.968   05 Jun 2027 11:26:56.504             7.536          2593.156
       167   05 Jun 2027 11:27:18.449   05 Jun 2027 11:27:19.449             1.000           500.000
       168   06 Jun 2027 03:33:26.194   06 Jun 2027 03:34:27.724            61.530         30765.000
       169   06 Jun 2027 03:34:30.284   06 Jun 2027 03:34:47.116            16.832          8416.000
       170   06 Jun 2027 03:35:23.821   06 Jun 2027 03:35:23.821             0.000             0.000
       171   06 Jun 2027 05:09:59.805   06 Jun 2027 05:10:20.961            21.156         10578.000
       172   06 Jun 2027 05:10:21.665   06 Jun 2027 05:11:07.592            45.927         22963.500
       173   06 Jun 2027 05:11:41.989   06 Jun 2027 05:13:32.895           110.906         55453.000
       174   06 Jun 2027 06:45:08.617   06 Jun 2027 06:46:09.644            61.027         28450.938
       175   06 Jun 2027 06:46:33.141   06 Jun 2027 06:46:35.528             2.387           734.281
       176   06 Jun 2027 06:46:56.304   06 Jun 2027 06:46:56.304             0.000             0.000
       177   06 Jun 2027 06:48:05.771   06 Jun 2027 06:48:14.413             8.642          2442.125
       178   06 Jun 2027 06:48:18.489   06 Jun 2027 06:48:22.395             3.906           127.375
       179   06 Jun 2027 06:48:53.207   06 Jun 2027 06:48:53.207             0.000             0.000
       180   06 Jun 2027 06:48:54.960   06 Jun 2027 06:49:00.185             5.225           960.031
       181   06 Jun 2027 06:49:34.417   06 Jun 2027 06:49:39.862             5.445          1006.687
       182   06 Jun 2027 06:50:00.859   06 Jun 2027 06:50:03.806             2.947           454.094
       183   06 Jun 2027 06:50:24.371   06 Jun 2027 06:50:26.073             1.702           556.469
       184   06 Jun 2027 06:50:54.933   06 Jun 2027 06:50:56.370             1.437           609.250
       185   06 Jun 2027 06:50:57.596   06 Jun 2027 06:51:00.686             3.090            38.313
       186   06 Jun 2027 06:51:11.739   06 Jun 2027 06:51:12.730             0.991           184.750
       187   06 Jun 2027 06:51:15.894   06 Jun 2027 06:51:15.894             0.000             0.000
       188   06 Jun 2027 06:51:47.307   06 Jun 2027 06:51:47.307             0.000             0.000
       189   06 Jun 2027 08:21:28.543   06 Jun 2027 08:21:48.238            19.695          8679.969
       190   06 Jun 2027 08:23:23.992   06 Jun 2027 08:23:28.155             4.163          1653.469
       191   06 Jun 2027 08:24:02.796   06 Jun 2027 08:24:09.566             6.770           518.250
       192   06 Jun 2027 08:24:40.648   06 Jun 2027 08:24:42.681             2.033           971.312
       193   06 Jun 2027 08:25:41.970   06 Jun 2027 08:25:44.731             2.761          1380.500
       194   06 Jun 2027 08:26:05.765   06 Jun 2027 08:26:11.428             5.663          1024.750
       195   06 Jun 2027 08:27:06.738   06 Jun 2027 08:27:11.321             4.583          1728.438
       196   06 Jun 2027 08:27:27.221   06 Jun 2027 08:27:28.592             1.371           418.531
       197   06 Jun 2027 09:59:03.335   06 Jun 2027 09:59:22.930            19.595          8244.000
       198   06 Jun 2027 09:59:51.986   06 Jun 2027 09:59:54.148             2.162           867.094
       199   06 Jun 2027 09:59:56.424   06 Jun 2027 09:59:58.437             2.013            71.125
       200   06 Jun 2027 10:01:02.561   06 Jun 2027 10:01:07.232             4.671          1998.688
       201   06 Jun 2027 10:01:32.111   06 Jun 2027 10:01:34.891             2.780           620.125
       202   06 Jun 2027 10:02:05.636   06 Jun 2027 10:02:07.791             2.155           719.719
       203   06 Jun 2027 10:02:37.305   06 Jun 2027 10:02:41.025             3.720           881.063
       204   06 Jun 2027 10:03:18.309   06 Jun 2027 10:03:20.919             2.610          1025.156
       205   06 Jun 2027 11:35:05.942   06 Jun 2027 11:35:21.394            15.452          7417.656
       206   06 Jun 2027 11:35:33.492   06 Jun 2027 11:35:35.144             1.652            81.344
       207   06 Jun 2027 11:35:47.411   06 Jun 2027 11:35:52.992             5.581           202.125
       208   06 Jun 2027 11:36:27.656   06 Jun 2027 11:36:27.656             0.000             0.000
       209   06 Jun 2027 11:36:53.505   06 Jun 2027 11:36:59.475             5.970          1568.469
       210   06 Jun 2027 11:37:21.973   06 Jun 2027 11:37:22.062             0.089            44.500
       211   06 Jun 2027 11:37:31.584   06 Jun 2027 11:37:35.084             3.500           956.125
       212   06 Jun 2027 11:38:15.177   06 Jun 2027 11:38:22.583             7.406          1252.906
       213   06 Jun 2027 11:38:33.386   06 Jun 2027 11:38:36.745             3.359           139.813
       214   06 Jun 2027 11:38:55.246   06 Jun 2027 11:38:58.181             2.935           254.438
       215   06 Jun 2027 11:39:08.990   06 Jun 2027 11:39:13.113             4.123           333.562
       216   07 Jun 2027 03:45:35.198   07 Jun 2027 03:45:47.380            12.182          6091.000
       217   07 Jun 2027 03:46:27.628   07 Jun 2027 03:46:37.917            10.289          5144.500
       218   07 Jun 2027 03:46:44.926   07 Jun 2027 03:46:48.386             3.460          1730.000
       219   07 Jun 2027 03:47:10.699   07 Jun 2027 03:47:27.131            16.432          8216.000
       220   07 Jun 2027 05:22:10.327   07 Jun 2027 05:24:25.010           134.683         67341.500
       221   07 Jun 2027 05:25:29.041   07 Jun 2027 05:25:38.215             9.174          4587.000
       222   07 Jun 2027 06:57:20.276   07 Jun 2027 06:59:27.871           127.595         61129.750
       223   07 Jun 2027 07:00:02.676   07 Jun 2027 07:00:04.093             1.417           708.500
       224   07 Jun 2027 07:00:17.609   07 Jun 2027 07:00:19.263             1.654           579.156
       225   07 Jun 2027 07:00:56.995   07 Jun 2027 07:01:07.592            10.597          1083.219
       226   07 Jun 2027 07:02:48.316   07 Jun 2027 07:02:54.467             6.151          2051.125
       227   07 Jun 2027 07:03:55.956   07 Jun 2027 07:03:56.026             0.070            35.000
       228   07 Jun 2027 08:33:41.297   07 Jun 2027 08:34:01.954            20.657          9939.531
       229   07 Jun 2027 08:34:50.121   07 Jun 2027 08:34:53.198             3.077           587.375
       230   07 Jun 2027 08:35:22.401   07 Jun 2027 08:35:25.354             2.953           286.438
       231   07 Jun 2027 08:35:33.907   07 Jun 2027 08:35:34.759             0.852           267.281
       232   07 Jun 2027 08:36:01.182   07 Jun 2027 08:36:01.917             0.735           265.875
       233   07 Jun 2027 08:36:59.076   07 Jun 2027 08:37:06.248             7.172          1761.875
       234   07 Jun 2027 08:37:08.920   07 Jun 2027 08:37:09.965             1.045            83.500
       235   07 Jun 2027 08:37:25.531   07 Jun 2027 08:37:27.712             2.181           486.438
       236   07 Jun 2027 08:37:54.888   07 Jun 2027 08:37:56.901             2.013           370.781
       237   07 Jun 2027 08:38:26.831   07 Jun 2027 08:38:28.882             2.051           935.313
       238   07 Jun 2027 08:38:39.542   07 Jun 2027 08:38:41.963             2.421           101.719
       239   07 Jun 2027 08:38:56.043   07 Jun 2027 08:39:01.987             5.944           381.750
       240   07 Jun 2027 10:10:58.210   07 Jun 2027 10:11:12.263            14.053          7026.500
       241   07 Jun 2027 10:11:54.535   07 Jun 2027 10:12:06.703            12.168          2371.938
       242   07 Jun 2027 10:12:46.477   07 Jun 2027 10:12:49.945             3.468          1057.187
       243   07 Jun 2027 10:13:10.450   07 Jun 2027 10:13:12.044             1.594           187.437
       244   07 Jun 2027 10:13:26.572   07 Jun 2027 10:13:28.639             2.067           454.000
       245   07 Jun 2027 10:13:35.364   07 Jun 2027 10:13:37.470             2.106           114.844
       246   07 Jun 2027 10:13:59.471   07 Jun 2027 10:14:01.459             1.988           547.250
       247   07 Jun 2027 10:14:44.442   07 Jun 2027 10:14:57.467            13.025          1301.031
       248   07 Jun 2027 10:15:00.425   07 Jun 2027 10:15:01.181             0.756            92.437
       249   07 Jun 2027 10:15:29.299   07 Jun 2027 10:15:32.629             3.330           878.688
       250   07 Jun 2027 11:47:10.498   07 Jun 2027 11:47:24.359            13.861          6493.687
       251   07 Jun 2027 11:48:03.841   07 Jun 2027 11:48:05.970             2.129           951.531
       252   07 Jun 2027 11:49:02.141   07 Jun 2027 11:49:03.178             1.037           518.500
       253   07 Jun 2027 11:49:18.772   07 Jun 2027 11:49:25.168             6.396          1284.625
       254   07 Jun 2027 11:49:39.682   07 Jun 2027 11:49:42.710             3.028            71.063
       255   07 Jun 2027 11:50:09.403   07 Jun 2027 11:50:11.092             1.689           834.156
       256   07 Jun 2027 11:50:57.227   07 Jun 2027 11:50:58.744             1.517           754.937
       257   08 Jun 2027 03:58:08.002   08 Jun 2027 03:59:44.363            96.361         48180.500
       258   08 Jun 2027 03:59:47.881   08 Jun 2027 04:00:17.006            29.125         14562.500
       259   08 Jun 2027 04:00:18.739   08 Jun 2027 04:00:46.134            27.395         13697.500
       260   08 Jun 2027 05:33:58.347   08 Jun 2027 05:36:20.710           142.363         71181.500
       261   08 Jun 2027 05:38:00.358   08 Jun 2027 05:38:06.724             6.366          3183.000
       262   08 Jun 2027 07:08:51.842   08 Jun 2027 07:09:28.042            36.200         16872.938
       263   08 Jun 2027 07:10:38.976   08 Jun 2027 07:10:40.205             1.229           511.656
       264   08 Jun 2027 07:11:18.075   08 Jun 2027 07:11:20.462             2.387           891.906
       265   08 Jun 2027 07:12:23.545   08 Jun 2027 07:12:25.072             1.527           763.500
       266   08 Jun 2027 07:12:49.333   08 Jun 2027 07:12:50.862             1.529           764.500
       267   08 Jun 2027 07:13:27.597   08 Jun 2027 07:13:29.045             1.448           724.000
       268   08 Jun 2027 07:13:42.323   08 Jun 2027 07:13:50.712             8.389          1137.062
       269   08 Jun 2027 07:14:30.489   08 Jun 2027 07:14:32.812             2.323           753.031
       270   08 Jun 2027 07:14:56.062   08 Jun 2027 07:14:58.022             1.960           726.562
       271   08 Jun 2027 07:15:13.312   08 Jun 2027 07:15:14.577             1.265           477.813
       272   08 Jun 2027 07:15:24.061   08 Jun 2027 07:15:24.061             0.000             0.000
       273   08 Jun 2027 07:15:34.631   08 Jun 2027 07:15:36.999             2.368           349.812
       274   08 Jun 2027 07:15:45.898   08 Jun 2027 07:15:48.616             2.718           278.094
       275   08 Jun 2027 08:45:19.239   08 Jun 2027 08:45:40.968            21.729         10679.156
       276   08 Jun 2027 08:46:54.301   08 Jun 2027 08:47:00.163             5.862          1839.094
       277   08 Jun 2027 08:47:09.821   08 Jun 2027 08:47:14.077             4.256           301.812
       278   08 Jun 2027 08:49:03.836   08 Jun 2027 08:49:09.602             5.766          2734.031
       279   08 Jun 2027 08:49:31.933   08 Jun 2027 08:49:32.093             0.160            56.531
       280   08 Jun 2027 08:49:41.915   08 Jun 2027 08:49:44.732             2.817           240.688
       281   08 Jun 2027 08:49:58.169   08 Jun 2027 08:49:58.169             0.000             0.000
       282   08 Jun 2027 08:50:56.052   08 Jun 2027 08:51:01.972             5.920          2228.750
       283   08 Jun 2027 08:51:32.722   08 Jun 2027 08:51:35.922             3.200           637.656
       284   08 Jun 2027 10:23:37.517   08 Jun 2027 10:23:53.024            15.507          7030.781
       285   08 Jun 2027 10:24:19.089   08 Jun 2027 10:24:20.440             1.351           152.375
       286   08 Jun 2027 10:25:16.651   08 Jun 2027 10:25:19.531             2.880          1440.000
       287   08 Jun 2027 10:25:22.816   08 Jun 2027 10:25:25.615             2.799           419.250
       288   08 Jun 2027 10:25:33.403   08 Jun 2027 10:25:37.959             4.556           243.375
       289   08 Jun 2027 10:25:44.640   08 Jun 2027 10:25:45.642             1.002           208.781
       290   08 Jun 2027 10:26:16.025   08 Jun 2027 10:26:17.166             1.141           540.031
       291   08 Jun 2027 10:27:13.469   08 Jun 2027 10:27:16.054             2.585          1292.500
       292   08 Jun 2027 11:59:04.186   08 Jun 2027 11:59:24.113            19.927          8625.000
       293   08 Jun 2027 11:59:48.357   08 Jun 2027 11:59:54.995             6.638           757.625
       294   09 Jun 2027 04:08:42.395   09 Jun 2027 04:09:46.745            64.350         32175.000
       295   09 Jun 2027 04:10:17.643   09 Jun 2027 04:10:50.368            32.725         16362.500
       296   09 Jun 2027 04:11:51.796   09 Jun 2027 04:12:04.587            12.791          6395.500
       297   09 Jun 2027 04:12:20.566   09 Jun 2027 04:12:47.209            26.643         13321.500
       298   09 Jun 2027 05:44:14.496   09 Jun 2027 05:45:05.030            50.534         25267.000
       299   09 Jun 2027 05:45:43.097   09 Jun 2027 05:45:55.034            11.937          5968.500
       300   09 Jun 2027 05:46:06.891   09 Jun 2027 05:46:22.879            15.988          7994.000
       301   09 Jun 2027 05:46:46.047   09 Jun 2027 05:47:01.783            15.736          7868.000
       302   09 Jun 2027 05:47:28.772   09 Jun 2027 05:48:15.545            46.773         23386.500
       303   09 Jun 2027 05:49:50.242   09 Jun 2027 05:50:13.796            23.554         11777.000
       304   09 Jun 2027 07:20:32.966   09 Jun 2027 07:21:11.152            38.186         18648.218
       305   09 Jun 2027 07:22:23.047   09 Jun 2027 07:22:27.626             4.579          2227.625
       306   09 Jun 2027 07:23:56.149   09 Jun 2027 07:24:01.812             5.663          1635.344
       307   09 Jun 2027 07:25:15.280   09 Jun 2027 07:25:23.035             7.755          2295.875
       308   09 Jun 2027 07:25:45.828   09 Jun 2027 07:25:48.347             2.519           457.500
       309   09 Jun 2027 07:26:33.364   09 Jun 2027 07:26:38.339             4.975          1406.781
       310   09 Jun 2027 07:27:08.378   09 Jun 2027 07:27:12.254             3.876           902.969
       311   09 Jun 2027 07:27:21.707   09 Jun 2027 07:27:22.692             0.985           295.406
       312   09 Jun 2027 07:27:28.499   09 Jun 2027 07:27:30.424             1.925           120.875
       313   09 Jun 2027 08:57:38.933   09 Jun 2027 08:58:01.509            22.576         11008.719
       314   09 Jun 2027 08:58:14.413   09 Jun 2027 08:58:16.195             1.782           403.250
       315   09 Jun 2027 08:59:28.535   09 Jun 2027 08:59:33.117             4.582          2260.625
       316   09 Jun 2027 09:01:02.934   09 Jun 2027 09:01:09.710             6.776          1764.719
       317   09 Jun 2027 09:01:50.565   09 Jun 2027 09:01:52.640             2.075          1019.562
       318   09 Jun 2027 09:02:49.009   09 Jun 2027 09:02:53.093             4.084          1761.531
       319   09 Jun 2027 10:35:35.750   09 Jun 2027 10:35:49.641            13.891          6945.500
       320   09 Jun 2027 10:36:30.000   09 Jun 2027 10:36:33.573             3.573          1613.938
       321   09 Jun 2027 10:36:54.315   09 Jun 2027 10:36:56.956             2.641           648.188
       322   09 Jun 2027 10:37:11.046   09 Jun 2027 10:37:15.709             4.663           319.500
       323   09 Jun 2027 10:38:00.868   09 Jun 2027 10:38:04.697             3.829          1411.219
       324   09 Jun 2027 10:38:14.167   09 Jun 2027 10:38:16.408             2.241           295.937
       325   09 Jun 2027 10:38:29.666   09 Jun 2027 10:38:38.159             8.493           250.250
       326   09 Jun 2027 10:38:45.246   09 Jun 2027 10:38:46.560             1.314           221.469
       327   09 Jun 2027 10:39:06.879   09 Jun 2027 10:39:07.192             0.313           156.500
       328   09 Jun 2027 10:39:16.836   09 Jun 2027 10:39:19.376             2.540           687.938
       329   10 Jun 2027 04:20:25.473   10 Jun 2027 04:21:31.317            65.844         32922.000
       330   10 Jun 2027 04:22:21.564   10 Jun 2027 04:22:59.031            37.467         18733.500
       331   10 Jun 2027 04:23:12.739   10 Jun 2027 04:23:58.308            45.569         22784.500
       332   10 Jun 2027 04:24:09.430   10 Jun 2027 04:24:09.430             0.000             0.000
       333   10 Jun 2027 04:24:22.818   10 Jun 2027 04:24:48.079            25.261         12630.500
       334   10 Jun 2027 05:55:23.358   10 Jun 2027 05:56:53.213            89.855         44927.500
       335   10 Jun 2027 05:57:17.106   10 Jun 2027 05:57:18.101             0.995           497.500
       336   10 Jun 2027 05:57:27.053   10 Jun 2027 05:57:39.632            12.579          6289.500
       337   10 Jun 2027 05:57:50.654   10 Jun 2027 05:58:24.557            33.903         16810.875
       338   10 Jun 2027 06:03:20.674   10 Jun 2027 06:03:26.009             5.335          2667.500
       339   10 Jun 2027 07:32:51.844   10 Jun 2027 07:33:12.806            20.962         10481.000
       340   10 Jun 2027 07:34:22.969   10 Jun 2027 07:34:32.109             9.140          3185.469
       341   10 Jun 2027 07:35:18.475   10 Jun 2027 07:35:21.201             2.726          1037.219
       342   10 Jun 2027 07:35:44.780   10 Jun 2027 07:35:49.802             5.022           346.375
       343   10 Jun 2027 07:36:32.619   10 Jun 2027 07:36:37.240             4.621           950.719
       344   10 Jun 2027 07:37:25.687   10 Jun 2027 07:37:29.639             3.952          1513.969
       345   10 Jun 2027 07:37:42.103   10 Jun 2027 07:37:43.461             1.358           310.781
       346   10 Jun 2027 07:38:09.539   10 Jun 2027 07:38:13.819             4.280           254.875
       347   10 Jun 2027 07:38:41.368   10 Jun 2027 07:38:47.698             6.330           860.906
       348   10 Jun 2027 07:39:58.532   10 Jun 2027 07:40:03.271             4.739          2144.781
       349   10 Jun 2027 09:09:36.612   10 Jun 2027 09:09:57.911            21.299         10129.625
       350   10 Jun 2027 09:10:06.767   10 Jun 2027 09:10:10.383             3.616             6.781
       351   10 Jun 2027 09:11:53.765   10 Jun 2027 09:11:59.489             5.724          2089.156
       352   10 Jun 2027 09:12:58.724   10 Jun 2027 09:13:04.458             5.734          1652.094
       353   10 Jun 2027 09:13:20.833   10 Jun 2027 09:13:22.448             1.615           343.344
       354   10 Jun 2027 09:13:34.472   10 Jun 2027 09:13:34.472             0.000             0.000
       355   10 Jun 2027 09:13:47.814   10 Jun 2027 09:13:52.539             4.725           652.188
       356   10 Jun 2027 09:14:32.922   10 Jun 2027 09:14:36.680             3.758          1056.375
       357   10 Jun 2027 09:14:54.098   10 Jun 2027 09:14:54.581             0.483           241.500
       358   10 Jun 2027 09:15:10.879   10 Jun 2027 09:15:12.305             1.426           678.781
       359   10 Jun 2027 09:15:36.509   10 Jun 2027 09:15:38.112             1.603           756.375
       360   10 Jun 2027 09:16:08.882   10 Jun 2027 09:16:09.019             0.137            68.500
       361   10 Jun 2027 10:47:34.985   10 Jun 2027 10:47:49.617            14.632          6868.000
       362   10 Jun 2027 10:48:44.886   10 Jun 2027 10:48:49.044             4.158          1727.156
       363   10 Jun 2027 10:49:15.166   10 Jun 2027 10:49:18.035             2.869           649.125
       364   10 Jun 2027 10:49:57.927   10 Jun 2027 10:50:05.058             7.131          1124.562
       365   10 Jun 2027 10:50:26.160   10 Jun 2027 10:50:26.160             0.000             0.000
       366   10 Jun 2027 10:51:08.990   10 Jun 2027 10:51:13.819             4.829          1887.313
       367   11 Jun 2027 03:00:00.000   11 Jun 2027 03:00:05.675             5.675          2837.500
       368   11 Jun 2027 03:10:11.837   11 Jun 2027 03:10:43.298            31.461         15730.500
       369   11 Jun 2027 04:31:58.559   11 Jun 2027 04:33:17.905            79.346         39673.000
       370   11 Jun 2027 04:34:06.505   11 Jun 2027 04:35:22.632            76.127         38063.500
       371   11 Jun 2027 04:36:45.884   11 Jun 2027 04:37:07.715            21.831         10915.500
       372   11 Jun 2027 04:37:13.932   11 Jun 2027 04:37:28.964            15.032          7516.000
       373   11 Jun 2027 06:06:51.361   11 Jun 2027 06:08:10.427            79.066         38046.531
       374   11 Jun 2027 06:08:33.488   11 Jun 2027 06:08:33.488             0.000             0.000
       375   11 Jun 2027 06:09:18.737   11 Jun 2027 06:09:22.990             4.253          1757.906
       376   11 Jun 2027 06:10:10.026   11 Jun 2027 06:10:10.026             0.000             0.000
       377   11 Jun 2027 06:10:30.887   11 Jun 2027 06:10:35.356             4.469          1988.250
       378   11 Jun 2027 06:10:59.528   11 Jun 2027 06:11:02.572             3.044           723.188
       379   11 Jun 2027 06:13:07.868   11 Jun 2027 06:13:15.120             7.252          3626.000
       380   11 Jun 2027 06:13:57.548   11 Jun 2027 06:14:00.850             3.302          1400.906
       381   11 Jun 2027 06:15:29.182   11 Jun 2027 06:15:34.555             5.373          2658.875
       382   11 Jun 2027 06:15:37.721   11 Jun 2027 06:15:38.608             0.887            93.000
       383   11 Jun 2027 06:15:39.861   11 Jun 2027 06:15:40.158             0.297            39.156
       384   11 Jun 2027 07:44:44.952   11 Jun 2027 07:45:01.183            16.231          7872.219
       385   11 Jun 2027 07:47:52.127   11 Jun 2027 07:48:01.320             9.193          2168.250
       386   11 Jun 2027 07:48:21.895   11 Jun 2027 07:48:23.031             1.136           497.906
       387   11 Jun 2027 07:49:15.328   11 Jun 2027 07:49:21.392             6.064          1381.438
       388   11 Jun 2027 07:50:48.477   11 Jun 2027 07:50:53.368             4.891          2261.812
       389   11 Jun 2027 07:51:26.025   11 Jun 2027 07:51:26.459             0.434           217.000
       390   11 Jun 2027 07:51:45.046   11 Jun 2027 07:51:51.515             6.469          1343.906
       391   11 Jun 2027 09:21:28.879   11 Jun 2027 09:21:51.486            22.607          9341.094
       392   11 Jun 2027 09:23:23.512   11 Jun 2027 09:23:29.679             6.167          1254.094
       393   11 Jun 2027 09:23:32.147   11 Jun 2027 09:23:37.740             5.593            53.781
       394   11 Jun 2027 09:24:02.846   11 Jun 2027 09:24:05.066             2.220           772.156
       395   11 Jun 2027 09:25:07.471   11 Jun 2027 09:25:13.055             5.584          1850.344
       396   11 Jun 2027 09:25:46.280   11 Jun 2027 09:25:48.896             2.616          1038.281
       397   11 Jun 2027 09:26:01.062   11 Jun 2027 09:26:01.470             0.408            75.531
       398   11 Jun 2027 09:26:38.277   11 Jun 2027 09:26:39.046             0.769           384.500
       399   11 Jun 2027 09:27:18.155   11 Jun 2027 09:27:20.054             1.899           949.500
       400   11 Jun 2027 09:27:25.897   11 Jun 2027 09:27:28.637             2.740          1038.375
       401   11 Jun 2027 09:27:55.556   11 Jun 2027 09:28:00.374             4.818           677.375
       402   11 Jun 2027 10:59:35.217   11 Jun 2027 10:59:50.463            15.246          6982.625
       403   11 Jun 2027 11:00:41.655   11 Jun 2027 11:00:45.325             3.670          1599.750
       404   11 Jun 2027 11:00:49.528   11 Jun 2027 11:00:51.071             1.543            58.281
       405   11 Jun 2027 11:01:14.982   11 Jun 2027 11:01:18.712             3.730           635.656
       406   11 Jun 2027 11:01:41.197   11 Jun 2027 11:01:43.424             2.227           369.375
       407   11 Jun 2027 11:02:53.980   11 Jun 2027 11:03:02.580             8.600          1939.688
       408   11 Jun 2027 11:03:17.251   11 Jun 2027 11:03:17.251             0.000             0.000
       409   11 Jun 2027 11:03:31.830   11 Jun 2027 11:03:34.434             2.604           776.750
       410   11 Jun 2027 11:03:35.395   11 Jun 2027 11:03:35.735             0.340            14.313
       411   12 Jun 2027 03:09:55.418   12 Jun 2027 03:10:48.655            53.237         26618.500
       412   12 Jun 2027 03:11:01.368   12 Jun 2027 03:11:23.724            22.356         11178.000
       413   12 Jun 2027 03:11:57.136   12 Jun 2027 03:12:11.036            13.900          6950.000
       414   12 Jun 2027 04:45:56.386   12 Jun 2027 04:48:19.552           143.166         71583.000
       415   12 Jun 2027 04:48:28.164   12 Jun 2027 04:48:47.030            18.866          9433.000
       416   12 Jun 2027 04:48:55.177   12 Jun 2027 04:49:01.930             6.753          3376.500
       417   12 Jun 2027 06:19:43.764   12 Jun 2027 06:20:34.228            50.464         25232.000
       418   12 Jun 2027 06:20:47.912   12 Jun 2027 06:20:50.203             2.291           775.687
       419   12 Jun 2027 06:21:48.454   12 Jun 2027 06:21:52.079             3.625           254.437
       420   12 Jun 2027 06:22:16.606   12 Jun 2027 06:22:18.929             2.323           595.313
       421   12 Jun 2027 06:22:43.962   12 Jun 2027 06:22:47.251             3.289           629.375
       422   12 Jun 2027 06:23:15.759   12 Jun 2027 06:23:15.759             0.000             0.000
       423   12 Jun 2027 06:23:43.244   12 Jun 2027 06:23:49.157             5.913          1749.781
       424   12 Jun 2027 06:24:00.462   12 Jun 2027 06:24:03.866             3.404           169.000
       425   12 Jun 2027 06:24:22.791   12 Jun 2027 06:24:24.341             1.550           591.406
       426   12 Jun 2027 06:25:09.048   12 Jun 2027 06:25:12.455             3.407          1397.094
       427   12 Jun 2027 06:25:19.264   12 Jun 2027 06:25:20.179             0.915            55.313
       428   12 Jun 2027 06:25:51.845   12 Jun 2027 06:25:51.845             0.000             0.000
       429   12 Jun 2027 06:25:58.196   12 Jun 2027 06:26:00.768             2.572          1068.812
       430   12 Jun 2027 06:26:54.165   12 Jun 2027 06:26:58.299             4.134          1565.531
       431   12 Jun 2027 06:27:49.634   12 Jun 2027 06:27:54.222             4.588          1512.469
       432   12 Jun 2027 07:56:52.563   12 Jun 2027 07:57:12.932            20.369          8786.875
       433   12 Jun 2027 07:57:38.403   12 Jun 2027 07:57:41.748             3.345           669.156
       434   12 Jun 2027 08:00:06.177   12 Jun 2027 08:00:11.661             5.484          2590.375
       435   12 Jun 2027 08:00:45.438   12 Jun 2027 08:00:47.128             1.690           429.937
       436   12 Jun 2027 08:00:57.860   12 Jun 2027 08:00:58.681             0.821           119.531
       437   12 Jun 2027 08:01:52.512   12 Jun 2027 08:01:54.838             2.326           769.531
       438   12 Jun 2027 08:02:29.398   12 Jun 2027 08:02:32.473             3.075          1061.469
       439   12 Jun 2027 08:03:33.017   12 Jun 2027 08:03:38.819             5.802          1786.625
       440   12 Jun 2027 09:34:07.067   12 Jun 2027 09:34:31.269            24.202          8985.250
       441   12 Jun 2027 09:34:36.683   12 Jun 2027 09:34:37.787             1.104           169.188
       442   12 Jun 2027 09:35:30.527   12 Jun 2027 09:35:34.058             3.531          1608.000
       443   12 Jun 2027 09:35:50.994   12 Jun 2027 09:35:54.654             3.660           232.094
       444   12 Jun 2027 09:36:13.877   12 Jun 2027 09:36:19.669             5.792           306.187
       445   12 Jun 2027 09:37:13.012   12 Jun 2027 09:37:17.229             4.217          1240.156
       446   12 Jun 2027 09:37:44.924   12 Jun 2027 09:37:46.663             1.739           477.000
       447   12 Jun 2027 09:38:31.419   12 Jun 2027 09:38:34.597             3.178          1163.813
       448   12 Jun 2027 09:39:13.538   12 Jun 2027 09:39:20.033             6.495          1216.906
       449   12 Jun 2027 09:39:35.259   12 Jun 2027 09:39:36.279             1.020           302.656
       450   12 Jun 2027 11:10:49.116   12 Jun 2027 11:11:04.910            15.794          7668.750
       451   12 Jun 2027 11:12:07.542   12 Jun 2027 11:12:15.678             8.136          1631.094
       452   12 Jun 2027 11:12:54.105   12 Jun 2027 11:12:59.208             5.103          1187.000
       453   12 Jun 2027 11:13:09.861   12 Jun 2027 11:13:13.483             3.622           256.219
       454   12 Jun 2027 11:13:46.633   12 Jun 2027 11:13:49.184             2.551           984.656
       455   12 Jun 2027 11:14:07.483   12 Jun 2027 11:14:12.598             5.115           436.594
       456   12 Jun 2027 11:14:43.983   12 Jun 2027 11:14:46.316             2.333           980.781
       457   12 Jun 2027 11:15:05.453   12 Jun 2027 11:15:10.462             5.009           594.875
       458   13 Jun 2027 03:21:48.360   13 Jun 2027 03:23:02.064            73.704         36852.000
       459   13 Jun 2027 03:23:38.172   13 Jun 2027 03:24:22.542            44.370         22185.000
       460   13 Jun 2027 04:58:09.263   13 Jun 2027 05:00:48.885           159.622         79811.000
       461   13 Jun 2027 06:32:07.583   13 Jun 2027 06:32:40.151            32.568         16256.969
       462   13 Jun 2027 06:33:56.420   13 Jun 2027 06:33:57.320             0.900            79.844
       463   13 Jun 2027 06:34:34.890   13 Jun 2027 06:34:35.742             0.852           372.156
       464   13 Jun 2027 06:35:03.531   13 Jun 2027 06:35:05.469             1.938           868.406
       465   13 Jun 2027 06:36:23.026   13 Jun 2027 06:36:27.525             4.499          2249.500
       466   13 Jun 2027 06:37:48.025   13 Jun 2027 06:37:53.090             5.065          2532.500
       467   13 Jun 2027 06:38:50.449   13 Jun 2027 06:38:57.660             7.211          1949.750
       468   13 Jun 2027 06:39:26.895   13 Jun 2027 06:39:29.732             2.837           906.281
       469   13 Jun 2027 08:09:17.960   13 Jun 2027 08:09:37.156            19.196          7967.000
       470   13 Jun 2027 08:11:37.841   13 Jun 2027 08:11:42.106             4.265          1367.437
       471   13 Jun 2027 08:11:54.599   13 Jun 2027 08:11:55.388             0.789           390.406
       472   13 Jun 2027 08:12:06.753   13 Jun 2027 08:12:07.321             0.568           175.969
       473   13 Jun 2027 08:12:24.254   13 Jun 2027 08:12:25.603             1.349           281.469
       474   13 Jun 2027 08:12:58.178   13 Jun 2027 08:13:01.169             2.991           815.250
       475   13 Jun 2027 08:13:29.531   13 Jun 2027 08:13:30.069             0.538           177.562
       476   13 Jun 2027 08:14:09.502   13 Jun 2027 08:14:15.415             5.913          1229.688
       477   13 Jun 2027 08:15:27.869   13 Jun 2027 08:15:33.298             5.429          1682.594
       478   13 Jun 2027 09:46:17.360   13 Jun 2027 09:46:30.781            13.421          6710.500
       479   13 Jun 2027 09:46:35.926   13 Jun 2027 09:46:42.923             6.997          2944.125
       480   13 Jun 2027 09:46:57.091   13 Jun 2027 09:47:00.909             3.818           261.938
       481   13 Jun 2027 09:47:43.838   13 Jun 2027 09:47:46.745             2.907          1107.344
       482   13 Jun 2027 09:48:14.179   13 Jun 2027 09:48:15.837             1.658           541.500
       483   13 Jun 2027 09:48:57.559   13 Jun 2027 09:49:01.377             3.818          1274.531
       484   13 Jun 2027 09:49:15.739   13 Jun 2027 09:49:17.536             1.797           448.813
       485   13 Jun 2027 09:49:41.211   13 Jun 2027 09:49:43.223             2.012           739.844
       486   13 Jun 2027 09:49:51.037   13 Jun 2027 09:49:52.882             1.845           164.563
       487   13 Jun 2027 09:50:03.687   13 Jun 2027 09:50:04.659             0.972           190.750
       488   13 Jun 2027 09:50:15.999   13 Jun 2027 09:50:17.297             1.298           140.656
       489   13 Jun 2027 09:50:30.241   13 Jun 2027 09:50:33.934             3.693           404.500
       490   13 Jun 2027 09:51:01.549   13 Jun 2027 09:51:03.545             1.996           736.375
       491   13 Jun 2027 09:51:30.488   13 Jun 2027 09:51:36.221             5.733           815.750
       492   13 Jun 2027 11:23:03.911   13 Jun 2027 11:23:20.698            16.787          8305.000
       493   13 Jun 2027 11:23:54.189   13 Jun 2027 11:23:54.189             0.000             0.000
       494   13 Jun 2027 11:24:16.451   13 Jun 2027 11:24:20.068             3.617          1729.750
       495   13 Jun 2027 11:25:34.697   13 Jun 2027 11:25:42.060             7.363          2247.063
       496   13 Jun 2027 11:27:04.388   13 Jun 2027 11:27:12.574             8.186          2572.750
