uniorb/output/strategy_2/Camera/Camera_KinoSat_111307.txt

KinoSat_111307
-------------------------
    Access    *     Start Time (UTCG)     *     Stop Time (UTCG)  *   Duration (s) *   Data (Mbytes)
         1   01 Jun 2027 03:08:05.659   01 Jun 2027 03:10:31.949           146.290         73145.000
         2   01 Jun 2027 03:12:10.684   01 Jun 2027 03:12:10.684             0.000             0.000
         3   01 Jun 2027 03:13:30.123   01 Jun 2027 03:14:10.127            40.004         20002.000
         4   01 Jun 2027 03:14:53.540   01 Jun 2027 03:15:14.164            20.624         10312.000
         5   01 Jun 2027 04:32:56.349   01 Jun 2027 04:33:33.445            37.096         18548.000
         6   01 Jun 2027 04:33:58.580   01 Jun 2027 04:33:59.696             1.116           558.000
         7   01 Jun 2027 04:34:17.648   01 Jun 2027 04:34:30.714            13.066          6533.000
         8   01 Jun 2027 04:44:40.048   01 Jun 2027 04:45:24.001            43.953         21976.500
         9   01 Jun 2027 06:06:55.569   01 Jun 2027 06:08:01.593            66.024         33012.000
        10   01 Jun 2027 06:08:52.393   01 Jun 2027 06:10:04.811            72.418         36209.000
        11   01 Jun 2027 06:10:34.205   01 Jun 2027 06:10:45.463            11.258          5629.000
        12   01 Jun 2027 07:41:53.899   01 Jun 2027 07:42:58.949            65.050         32525.000
        13   01 Jun 2027 07:43:57.332   01 Jun 2027 07:44:31.832            34.500         17250.000
        14   01 Jun 2027 07:47:05.865   01 Jun 2027 07:47:31.040            25.175         12587.500
        15   01 Jun 2027 07:47:44.931   01 Jun 2027 07:47:47.953             3.022          1511.000
        16   01 Jun 2027 07:48:44.326   01 Jun 2027 07:49:13.152            28.826         14413.000
        17   01 Jun 2027 07:49:51.739   01 Jun 2027 07:50:13.894            22.155         11077.500
        18   01 Jun 2027 09:19:21.890   01 Jun 2027 09:21:05.953           104.063         52031.500
        19   01 Jun 2027 09:21:27.267   01 Jun 2027 09:21:28.986             1.719           859.500
        20   01 Jun 2027 09:22:44.779   01 Jun 2027 09:22:46.516             1.737           868.500
        21   01 Jun 2027 09:23:36.582   01 Jun 2027 09:23:50.296            13.714          6857.000
        22   01 Jun 2027 09:24:16.990   01 Jun 2027 09:24:23.545             6.555          3277.500
        23   01 Jun 2027 09:25:02.399   01 Jun 2027 09:25:02.893             0.494           247.000
        24   01 Jun 2027 09:26:26.974   01 Jun 2027 09:26:39.786            12.812          6406.000
        25   01 Jun 2027 10:56:07.613   01 Jun 2027 10:58:19.457           131.844         65922.000
        26   01 Jun 2027 11:00:31.356   01 Jun 2027 11:00:50.083            18.727          9363.500
        27   01 Jun 2027 11:01:46.891   01 Jun 2027 11:01:48.688             1.797           898.500
        28   02 Jun 2027 03:20:07.609   02 Jun 2027 03:23:05.895           178.286         89143.000
        29   02 Jun 2027 03:23:14.993   02 Jun 2027 03:23:23.071             8.078          4039.000
        30   02 Jun 2027 03:23:46.294   02 Jun 2027 03:23:52.563             6.269          3134.500
        31   02 Jun 2027 03:25:35.505   02 Jun 2027 03:25:35.505             0.000             0.000
        32   02 Jun 2027 03:26:11.589   02 Jun 2027 03:26:11.589             0.000             0.000
        33   02 Jun 2027 03:26:13.077   02 Jun 2027 03:26:16.900             3.823          1911.500
        34   02 Jun 2027 03:26:54.756   02 Jun 2027 03:27:08.880            14.124          7062.000
        35   02 Jun 2027 04:44:29.507   02 Jun 2027 04:44:45.183            15.676          7838.000
        36   02 Jun 2027 04:45:10.541   02 Jun 2027 04:45:20.278             9.737          4868.500
        37   02 Jun 2027 04:56:45.847   02 Jun 2027 04:57:13.221            27.374         13687.000
        38   02 Jun 2027 06:18:32.378   02 Jun 2027 06:19:48.766            76.388         38194.000
        39   02 Jun 2027 06:20:37.359   02 Jun 2027 06:21:13.142            35.783         17891.500
        40   02 Jun 2027 06:22:29.377   02 Jun 2027 06:22:46.716            17.339          8669.500
        41   02 Jun 2027 06:22:47.352   02 Jun 2027 06:23:09.475            22.123         11061.500
        42   02 Jun 2027 07:53:21.760   02 Jun 2027 07:55:20.895           119.135         59567.500
        43   02 Jun 2027 07:56:52.023   02 Jun 2027 07:57:09.208            17.185          8592.500
        44   02 Jun 2027 07:57:31.216   02 Jun 2027 07:57:31.216             0.000             0.000
        45   02 Jun 2027 07:57:58.181   02 Jun 2027 07:58:26.290            28.109         14054.500
        46   02 Jun 2027 07:59:38.920   02 Jun 2027 07:59:46.488             7.568          3784.000
        47   02 Jun 2027 08:02:09.861   02 Jun 2027 08:02:09.861             0.000             0.000
        48   02 Jun 2027 08:02:16.885   02 Jun 2027 08:02:36.238            19.353          9538.126
        49   02 Jun 2027 09:31:15.076   02 Jun 2027 09:31:28.338            13.262          6631.000
        50   02 Jun 2027 09:32:08.098   02 Jun 2027 09:32:16.596             8.498          3943.063
        51   02 Jun 2027 09:32:41.400   02 Jun 2027 09:32:45.460             4.060           158.781
        52   02 Jun 2027 09:32:55.588   02 Jun 2027 09:32:59.008             3.420           144.156
        53   02 Jun 2027 09:33:13.706   02 Jun 2027 09:33:14.736             1.030           184.281
        54   02 Jun 2027 09:34:41.806   02 Jun 2027 09:34:47.759             5.953          2637.969
        55   02 Jun 2027 09:35:27.520   02 Jun 2027 09:35:30.740             3.220          1121.344
        56   02 Jun 2027 09:35:48.170   02 Jun 2027 09:35:51.775             3.605           544.688
        57   02 Jun 2027 09:36:56.802   02 Jun 2027 09:37:00.778             3.976          1176.563
        58   02 Jun 2027 09:37:21.003   02 Jun 2027 09:37:21.003             0.000             0.000
        59   02 Jun 2027 09:37:48.436   02 Jun 2027 09:37:52.472             4.036          1489.313
        60   02 Jun 2027 09:38:02.691   02 Jun 2027 09:38:03.362             0.671            73.063
        61   02 Jun 2027 09:38:22.094   02 Jun 2027 09:38:31.947             9.853           516.719
        62   02 Jun 2027 11:07:58.934   02 Jun 2027 11:08:07.908             8.974          4487.000
        63   02 Jun 2027 11:08:32.765   02 Jun 2027 11:08:41.429             8.664          3278.281
        64   02 Jun 2027 11:09:17.485   02 Jun 2027 11:09:26.916             9.431           668.000
        65   02 Jun 2027 11:09:42.130   02 Jun 2027 11:09:42.607             0.477           221.719
        66   02 Jun 2027 11:10:07.104   02 Jun 2027 11:10:11.185             4.081           148.531
        67   02 Jun 2027 11:11:07.389   02 Jun 2027 11:11:08.818             1.429           714.500
        68   02 Jun 2027 11:11:11.473   02 Jun 2027 11:11:17.348             5.875           737.844
        69   02 Jun 2027 11:11:55.518   02 Jun 2027 11:12:00.076             4.558          1192.813
        70   02 Jun 2027 11:12:24.889   02 Jun 2027 11:12:28.448             3.559           724.750
        71   02 Jun 2027 11:13:00.403   02 Jun 2027 11:13:06.857             6.454           998.594
        72   02 Jun 2027 11:14:09.402   02 Jun 2027 11:14:17.996             8.594          1643.125
        73   03 Jun 2027 03:32:30.942   03 Jun 2027 03:35:17.732           166.790         83395.000
        74   03 Jun 2027 03:35:22.918   03 Jun 2027 03:36:08.666            45.748         22874.000
        75   03 Jun 2027 04:56:25.718   03 Jun 2027 04:56:59.329            33.611         16805.500
        76   03 Jun 2027 04:57:13.358   03 Jun 2027 04:57:22.124             8.766          4383.000
        77   03 Jun 2027 06:32:25.857   03 Jun 2027 06:33:24.103            58.246         28695.625
        78   03 Jun 2027 06:33:34.507   03 Jun 2027 06:33:40.752             6.245           190.656
        79   03 Jun 2027 06:34:02.115   03 Jun 2027 06:34:02.255             0.140            70.000
        80   03 Jun 2027 06:35:06.031   03 Jun 2027 06:35:06.031             0.000             0.000
        81   03 Jun 2027 06:35:16.079   03 Jun 2027 06:35:21.920             5.841          2420.000
        82   03 Jun 2027 08:06:13.709   03 Jun 2027 08:06:30.502            16.793          5348.656
        83   03 Jun 2027 08:07:48.213   03 Jun 2027 08:07:50.253             2.040           653.906
        84   03 Jun 2027 08:08:41.451   03 Jun 2027 08:08:44.705             3.254           410.000
        85   03 Jun 2027 08:09:33.403   03 Jun 2027 08:09:38.086             4.683          1438.094
        86   03 Jun 2027 08:10:51.949   03 Jun 2027 08:10:57.767             5.818          2040.969
        87   03 Jun 2027 08:11:25.817   03 Jun 2027 08:11:25.817             0.000             0.000
        88   03 Jun 2027 08:12:09.971   03 Jun 2027 08:12:14.420             4.449          1946.812
        89   03 Jun 2027 08:12:56.271   03 Jun 2027 08:12:59.451             3.180          1307.844
        90   03 Jun 2027 08:13:19.358   03 Jun 2027 08:13:20.355             0.997           396.125
        91   03 Jun 2027 08:13:57.387   03 Jun 2027 08:13:59.964             2.577          1001.937
        92   03 Jun 2027 08:14:43.799   03 Jun 2027 08:14:44.711             0.912           456.000
        93   03 Jun 2027 09:43:22.495   03 Jun 2027 09:43:38.040            15.545          6479.719
        94   03 Jun 2027 09:45:59.496   03 Jun 2027 09:46:05.604             6.108          2708.469
        95   03 Jun 2027 09:46:32.369   03 Jun 2027 09:46:34.149             1.780           796.531
        96   03 Jun 2027 09:47:05.426   03 Jun 2027 09:47:10.061             4.635           295.531
        97   03 Jun 2027 09:47:20.994   03 Jun 2027 09:47:22.971             1.977           164.344
        98   03 Jun 2027 09:47:57.565   03 Jun 2027 09:48:03.022             5.457          1030.781
        99   03 Jun 2027 09:48:04.454   03 Jun 2027 09:48:05.068             0.614            39.625
       100   03 Jun 2027 09:48:48.335   03 Jun 2027 09:48:52.216             3.881           650.625
       101   03 Jun 2027 09:49:50.397   03 Jun 2027 09:49:53.850             3.453          1203.562
       102   03 Jun 2027 09:50:25.334   03 Jun 2027 09:50:30.151             4.817           983.875
       103   03 Jun 2027 11:20:36.705   03 Jun 2027 11:20:54.111            17.406          8073.250
       104   03 Jun 2027 11:21:13.381   03 Jun 2027 11:21:15.329             1.948           539.063
       105   03 Jun 2027 11:21:45.082   03 Jun 2027 11:21:56.718            11.636           929.781
       106   03 Jun 2027 11:22:33.375   03 Jun 2027 11:22:36.829             3.454           603.219
       107   03 Jun 2027 11:22:53.789   03 Jun 2027 11:22:56.469             2.680           501.500
       108   03 Jun 2027 11:23:10.358   03 Jun 2027 11:23:11.319             0.961           434.031
       109   03 Jun 2027 11:24:09.722   03 Jun 2027 11:24:17.759             8.037          1825.094
       110   03 Jun 2027 11:24:39.444   03 Jun 2027 11:24:41.406             1.962           521.563
       111   03 Jun 2027 11:25:30.008   03 Jun 2027 11:25:33.625             3.617          1483.563
       112   03 Jun 2027 11:26:06.963   03 Jun 2027 11:26:07.384             0.421           210.500
       113   03 Jun 2027 11:26:26.486   03 Jun 2027 11:26:28.988             2.502          1037.937
       114   04 Jun 2027 03:44:56.912   04 Jun 2027 03:48:20.661           203.749        101874.500
       115   04 Jun 2027 03:48:59.753   04 Jun 2027 03:48:59.753             0.000             0.000
       116   04 Jun 2027 03:49:22.179   04 Jun 2027 03:49:38.411            16.232          8116.000
       117   04 Jun 2027 05:08:18.947   04 Jun 2027 05:09:16.092            57.145         28572.500
       118   04 Jun 2027 06:44:41.032   04 Jun 2027 06:45:16.978            35.946         17870.406
       119   04 Jun 2027 06:45:57.955   04 Jun 2027 06:46:01.561             3.606          1280.531
       120   04 Jun 2027 06:46:14.727   04 Jun 2027 06:46:14.727             0.000             0.000
       121   04 Jun 2027 06:46:59.106   04 Jun 2027 06:47:04.636             5.530          1774.219
       122   04 Jun 2027 06:47:20.910   04 Jun 2027 06:47:20.910             0.000             0.000
       123   04 Jun 2027 08:18:37.191   04 Jun 2027 08:18:51.893            14.702          5587.719
       124   04 Jun 2027 08:19:31.129   04 Jun 2027 08:19:35.847             4.718           638.594
       125   04 Jun 2027 08:20:32.284   04 Jun 2027 08:20:33.271             0.987           334.500
       126   04 Jun 2027 08:21:35.313   04 Jun 2027 08:21:43.306             7.993          1693.656
       127   04 Jun 2027 08:22:40.560   04 Jun 2027 08:22:48.317             7.757          1789.188
       128   04 Jun 2027 08:23:28.743   04 Jun 2027 08:23:31.679             2.936           700.594
       129   04 Jun 2027 08:23:52.572   04 Jun 2027 08:23:55.427             2.855           297.813
       130   04 Jun 2027 08:24:06.401   04 Jun 2027 08:24:09.462             3.061           159.437
       131   04 Jun 2027 08:24:48.143   04 Jun 2027 08:24:55.543             7.400           903.156
       132   04 Jun 2027 08:25:17.344   04 Jun 2027 08:25:20.366             3.022           319.406
       133   04 Jun 2027 08:25:54.870   04 Jun 2027 08:25:59.529             4.659          1078.250
       134   04 Jun 2027 08:26:30.561   04 Jun 2027 08:26:32.201             1.640           820.000
       135   04 Jun 2027 09:55:48.158   04 Jun 2027 09:56:01.043            12.885          5826.500
       136   04 Jun 2027 09:56:40.497   04 Jun 2027 09:56:43.233             2.736           448.125
       137   04 Jun 2027 09:56:56.829   04 Jun 2027 09:56:58.877             2.048            99.281
       138   04 Jun 2027 09:57:06.029   04 Jun 2027 09:57:08.519             2.490           206.906
       139   04 Jun 2027 09:57:28.425   04 Jun 2027 09:57:30.313             1.888            58.125
       140   04 Jun 2027 09:58:50.925   04 Jun 2027 09:58:53.175             2.250           790.000
       141   04 Jun 2027 09:58:57.653   04 Jun 2027 09:58:58.999             1.346            13.750
       142   04 Jun 2027 10:00:10.363   04 Jun 2027 10:00:15.000             4.637          2213.406
       143   04 Jun 2027 10:00:20.412   04 Jun 2027 10:00:21.417             1.005           169.125
       144   04 Jun 2027 10:00:36.224   04 Jun 2027 10:00:36.224             0.000             0.000
       145   04 Jun 2027 10:01:03.507   04 Jun 2027 10:01:08.175             4.668          1162.875
       146   04 Jun 2027 10:01:55.808   04 Jun 2027 10:02:03.445             7.637          1250.687
       147   04 Jun 2027 10:02:13.944   04 Jun 2027 10:02:15.617             1.673           175.406
       148   04 Jun 2027 11:32:48.943   04 Jun 2027 11:33:06.007            17.064          7213.125
       149   04 Jun 2027 11:34:23.151   04 Jun 2027 11:34:26.579             3.428          1160.500
       150   04 Jun 2027 11:34:29.070   04 Jun 2027 11:34:29.778             0.708            49.812
       151   04 Jun 2027 11:34:46.986   04 Jun 2027 11:34:50.357             3.371           537.750
       152   04 Jun 2027 11:35:07.974   04 Jun 2027 11:35:09.570             1.596           112.250
       153   04 Jun 2027 11:36:06.956   04 Jun 2027 11:36:12.257             5.301          1685.187
       154   04 Jun 2027 11:36:55.686   04 Jun 2027 11:37:00.499             4.813          1308.781
       155   04 Jun 2027 11:38:04.231   04 Jun 2027 11:38:08.641             4.410          1991.625
       156   04 Jun 2027 11:38:09.998   04 Jun 2027 11:38:13.476             3.478             6.094
       157   05 Jun 2027 03:57:14.603   05 Jun 2027 03:59:31.638           137.035         68517.500
       158   05 Jun 2027 04:00:39.596   05 Jun 2027 04:00:39.596             0.000             0.000
       159   05 Jun 2027 04:00:49.416   05 Jun 2027 04:01:03.187            13.771          6885.500
       160   05 Jun 2027 04:01:10.102   05 Jun 2027 04:01:16.474             6.372          3186.000
       161   05 Jun 2027 05:20:11.517   05 Jun 2027 05:21:32.173            80.656         40328.000
       162   05 Jun 2027 05:21:57.852   05 Jun 2027 05:22:14.509            16.657          8328.500
       163   05 Jun 2027 06:56:45.198   05 Jun 2027 06:57:38.873            53.675         26653.282
       164   05 Jun 2027 06:57:50.269   05 Jun 2027 06:57:51.048             0.779           356.125
       165   05 Jun 2027 06:58:53.830   05 Jun 2027 06:58:59.788             5.958          1696.781
       166   05 Jun 2027 07:00:10.183   05 Jun 2027 07:00:15.367             5.184          2126.250
       167   05 Jun 2027 08:31:54.092   05 Jun 2027 08:32:02.999             8.907          4409.438
       168   05 Jun 2027 08:32:32.722   05 Jun 2027 08:32:37.052             4.330           230.313
       169   05 Jun 2027 08:33:07.151   05 Jun 2027 08:33:08.257             1.106           315.969
       170   05 Jun 2027 08:35:04.103   05 Jun 2027 08:35:09.937             5.834          2725.125
       171   05 Jun 2027 08:35:52.454   05 Jun 2027 08:35:55.339             2.885          1300.062
       172   05 Jun 2027 08:37:20.921   05 Jun 2027 08:37:24.117             3.196          1598.000
       173   05 Jun 2027 08:37:47.299   05 Jun 2027 08:37:51.741             4.442          1492.625
       174   05 Jun 2027 08:38:22.452   05 Jun 2027 08:38:22.452             0.000             0.000
       175   05 Jun 2027 08:38:35.863   05 Jun 2027 08:38:40.327             4.464          1378.813
       176   05 Jun 2027 10:08:14.089   05 Jun 2027 10:08:27.723            13.634          6611.250
       177   05 Jun 2027 10:09:38.213   05 Jun 2027 10:09:48.662            10.449          1765.063
       178   05 Jun 2027 10:10:01.310   05 Jun 2027 10:10:05.693             4.383           163.813
       179   05 Jun 2027 10:10:36.585   05 Jun 2027 10:10:39.118             2.533           850.281
       180   05 Jun 2027 10:10:46.582   05 Jun 2027 10:10:48.493             1.911           230.531
       181   05 Jun 2027 10:11:06.194   05 Jun 2027 10:11:12.858             6.664           505.844
       182   05 Jun 2027 10:12:04.709   05 Jun 2027 10:12:07.911             3.202           600.719
       183   05 Jun 2027 10:12:16.841   05 Jun 2027 10:12:20.489             3.648           264.937
       184   05 Jun 2027 10:12:37.126   05 Jun 2027 10:12:42.153             5.027           519.906
       185   05 Jun 2027 10:12:54.658   05 Jun 2027 10:12:55.891             1.233           390.781
       186   05 Jun 2027 10:13:26.997   05 Jun 2027 10:13:33.162             6.165           972.063
       187   05 Jun 2027 10:13:46.937   05 Jun 2027 10:13:51.588             4.651           269.031
       188   05 Jun 2027 10:13:57.113   05 Jun 2027 10:13:59.928             2.815           172.656
       189   05 Jun 2027 11:45:48.702   05 Jun 2027 11:46:05.447            16.745          6356.875
       190   05 Jun 2027 11:46:11.240   05 Jun 2027 11:46:17.444             6.204           181.031
       191   05 Jun 2027 11:46:54.955   05 Jun 2027 11:46:57.687             2.732           857.719
       192   05 Jun 2027 11:47:09.643   05 Jun 2027 11:47:10.727             1.084           357.312
       193   05 Jun 2027 11:49:48.188   05 Jun 2027 11:49:57.377             9.189          4594.500
       194   06 Jun 2027 04:08:59.802   06 Jun 2027 04:09:33.917            34.115         17057.500
       195   06 Jun 2027 04:09:48.360   06 Jun 2027 04:12:48.414           180.054         90027.000
       196   06 Jun 2027 05:32:20.733   06 Jun 2027 05:33:29.938            69.205         34602.500
       197   06 Jun 2027 05:35:19.035   06 Jun 2027 05:35:19.035             0.000             0.000
       198   06 Jun 2027 07:08:55.853   06 Jun 2027 07:09:41.042            45.189         22073.563
       199   06 Jun 2027 07:11:08.088   06 Jun 2027 07:11:12.273             4.185          2092.500
       200   06 Jun 2027 07:11:21.867   06 Jun 2027 07:11:27.586             5.719           305.031
       201   06 Jun 2027 08:44:05.942   06 Jun 2027 08:44:18.207            12.265          4561.062
       202   06 Jun 2027 08:44:21.437   06 Jun 2027 08:44:23.247             1.810            22.656
       203   06 Jun 2027 08:44:57.773   06 Jun 2027 08:44:59.147             1.374           214.937
       204   06 Jun 2027 08:45:17.451   06 Jun 2027 08:45:19.301             1.850           572.000
       205   06 Jun 2027 08:45:43.934   06 Jun 2027 08:45:43.934             0.000             0.000
       206   06 Jun 2027 08:47:00.827   06 Jun 2027 08:47:06.401             5.574          2585.063
       207   06 Jun 2027 08:47:34.036   06 Jun 2027 08:47:39.624             5.588           562.563
       208   06 Jun 2027 08:48:10.527   06 Jun 2027 08:48:14.079             3.552           573.969
       209   06 Jun 2027 08:48:38.081   06 Jun 2027 08:48:41.405             3.324           321.031
       210   06 Jun 2027 08:49:29.831   06 Jun 2027 08:49:33.202             3.371          1229.438
       211   06 Jun 2027 08:49:45.998   06 Jun 2027 08:49:48.126             2.128           399.875
       212   06 Jun 2027 08:50:07.709   06 Jun 2027 08:50:07.709             0.000             0.000
       213   06 Jun 2027 10:20:26.811   06 Jun 2027 10:20:42.320            15.509          6116.938
       214   06 Jun 2027 10:22:18.310   06 Jun 2027 10:22:23.081             4.771          1208.406
       215   06 Jun 2027 10:22:32.321   06 Jun 2027 10:22:33.998             1.677            36.062
       216   06 Jun 2027 10:23:39.209   06 Jun 2027 10:23:48.958             9.749          2016.656
       217   06 Jun 2027 10:23:56.575   06 Jun 2027 10:23:58.236             1.661           142.500
       218   06 Jun 2027 10:24:29.709   06 Jun 2027 10:24:35.534             5.825           983.531
       219   06 Jun 2027 10:25:29.105   06 Jun 2027 10:25:34.630             5.525          1674.094
       220   06 Jun 2027 10:25:41.880   06 Jun 2027 10:25:43.314             1.434           226.563
       221   06 Jun 2027 10:25:50.908   06 Jun 2027 10:25:52.826             1.918           237.313
       222   06 Jun 2027 10:25:58.943   06 Jun 2027 10:25:59.688             0.745           144.375
       223   06 Jun 2027 11:57:43.617   06 Jun 2027 11:57:56.940            13.323          6661.500
       224   06 Jun 2027 11:58:00.995   06 Jun 2027 11:58:02.552             1.557           248.156
       225   06 Jun 2027 11:58:22.745   06 Jun 2027 11:58:23.560             0.815           352.781
       226   06 Jun 2027 11:59:04.944   06 Jun 2027 11:59:11.293             6.349          1293.250
       227   07 Jun 2027 04:20:56.679   07 Jun 2027 04:21:36.755            40.076         20038.000
       228   07 Jun 2027 04:21:54.785   07 Jun 2027 04:24:32.179           157.394         78697.000
       229   07 Jun 2027 05:44:53.653   07 Jun 2027 05:45:49.551            55.898         27949.000
       230   07 Jun 2027 07:20:43.797   07 Jun 2027 07:21:40.752            56.955         28114.438
       231   07 Jun 2027 07:21:55.452   07 Jun 2027 07:21:55.452             0.000             0.000
       232   07 Jun 2027 07:22:18.765   07 Jun 2027 07:22:25.706             6.941          1187.906
       233   07 Jun 2027 07:23:11.139   07 Jun 2027 07:23:13.095             1.956           978.000
       234   07 Jun 2027 07:23:40.485   07 Jun 2027 07:23:46.038             5.553          1002.718
       235   07 Jun 2027 07:24:05.095   07 Jun 2027 07:24:05.167             0.072            36.000
       236   07 Jun 2027 07:24:40.987   07 Jun 2027 07:24:44.125             3.138          1356.781
       237   07 Jun 2027 08:55:36.691   07 Jun 2027 08:55:49.556            12.865          5526.656
       238   07 Jun 2027 08:56:18.422   07 Jun 2027 08:56:19.734             1.312           388.375
       239   07 Jun 2027 08:58:28.268   07 Jun 2027 08:58:37.116             8.848          1543.281
       240   07 Jun 2027 08:59:36.338   07 Jun 2027 08:59:46.685            10.347          1850.688
       241   07 Jun 2027 09:02:07.417   07 Jun 2027 09:02:15.400             7.983          3662.188
       242   07 Jun 2027 10:32:05.562   07 Jun 2027 10:32:24.443            18.881          9382.750
       243   07 Jun 2027 10:33:02.004   07 Jun 2027 10:33:08.204             6.200           821.313
       244   07 Jun 2027 10:33:15.533   07 Jun 2027 10:33:16.438             0.905           229.031
       245   07 Jun 2027 10:33:32.880   07 Jun 2027 10:33:34.156             1.276           110.844
       246   07 Jun 2027 10:34:08.048   07 Jun 2027 10:34:08.830             0.782           134.344
       247   07 Jun 2027 10:34:25.975   07 Jun 2027 10:34:27.775             1.800           535.781
       248   07 Jun 2027 10:34:34.905   07 Jun 2027 10:34:37.025             2.120           222.813
       249   07 Jun 2027 10:34:44.124   07 Jun 2027 10:34:46.064             1.940            60.219
       250   07 Jun 2027 10:35:05.467   07 Jun 2027 10:35:07.905             2.438           606.344
       251   07 Jun 2027 10:35:13.099   07 Jun 2027 10:35:15.039             1.940           162.313
       252   07 Jun 2027 10:36:12.342   07 Jun 2027 10:36:16.133             3.791          1303.906
       253   07 Jun 2027 10:37:09.038   07 Jun 2027 10:37:12.396             3.358          1471.156
       254   07 Jun 2027 10:37:15.757   07 Jun 2027 10:37:17.714             1.957            95.375
       255   07 Jun 2027 10:37:20.082   07 Jun 2027 10:37:30.103            10.021            74.000
       256   07 Jun 2027 10:38:14.501   07 Jun 2027 10:38:20.281             5.780          1387.437
       257   08 Jun 2027 03:00:00.000   08 Jun 2027 03:00:04.850             4.850          2425.000
       258   08 Jun 2027 03:01:03.644   08 Jun 2027 03:01:38.757            35.113         17556.500
       259   08 Jun 2027 03:02:19.016   08 Jun 2027 03:03:29.947            70.931         35465.500
       260   08 Jun 2027 04:21:32.909   08 Jun 2027 04:21:48.488            15.579          7789.500
       261   08 Jun 2027 04:22:25.365   08 Jun 2027 04:22:38.601            13.236          6618.000
       262   08 Jun 2027 04:32:52.961   08 Jun 2027 04:34:24.618            91.657         45828.500
       263   08 Jun 2027 05:55:28.216   08 Jun 2027 05:56:32.430            64.214         32107.000
       264   08 Jun 2027 05:57:36.135   08 Jun 2027 05:57:57.021            20.886         10443.000
       265   08 Jun 2027 05:59:24.813   08 Jun 2027 05:59:25.593             0.780           390.000
       266   08 Jun 2027 05:59:52.143   08 Jun 2027 06:00:04.568            12.425          6212.500
       267   08 Jun 2027 07:30:59.860   08 Jun 2027 07:31:15.544            15.684          6424.844
       268   08 Jun 2027 07:32:43.585   08 Jun 2027 07:32:52.407             8.822          2582.781
       269   08 Jun 2027 07:33:38.059   08 Jun 2027 07:33:40.566             2.507           774.594
       270   08 Jun 2027 07:34:05.984   08 Jun 2027 07:34:09.001             3.017           701.219
       271   08 Jun 2027 07:34:19.706   08 Jun 2027 07:34:23.078             3.372           140.937
       272   08 Jun 2027 07:35:44.244   08 Jun 2027 07:35:49.764             5.520           943.750
       273   08 Jun 2027 07:36:50.772   08 Jun 2027 07:36:54.145             3.373          1553.094
       274   08 Jun 2027 09:07:19.287   08 Jun 2027 09:07:29.262             9.975          4409.656
       275   08 Jun 2027 09:09:39.155   08 Jun 2027 09:09:47.385             8.230          3669.719
       276   08 Jun 2027 09:10:44.768   08 Jun 2027 09:10:47.676             2.908           742.875
       277   08 Jun 2027 09:11:01.132   08 Jun 2027 09:11:01.132             0.000             0.000
       278   08 Jun 2027 09:11:38.369   08 Jun 2027 09:11:44.133             5.764          1511.281
       279   08 Jun 2027 09:12:16.616   08 Jun 2027 09:12:19.955             3.339          1015.094
       280   08 Jun 2027 09:13:00.342   08 Jun 2027 09:13:00.779             0.437           218.500
       281   08 Jun 2027 09:13:19.972   08 Jun 2027 09:13:23.263             3.291          1188.156
       282   08 Jun 2027 09:13:40.752   08 Jun 2027 09:13:42.266             1.514           546.531
       283   08 Jun 2027 09:14:46.642   08 Jun 2027 09:14:50.488             3.846          1796.750
       284   08 Jun 2027 10:44:25.973   08 Jun 2027 10:44:45.946            19.973          8800.531
       285   08 Jun 2027 10:45:59.038   08 Jun 2027 10:46:02.450             3.412          1188.438
       286   08 Jun 2027 10:46:55.866   08 Jun 2027 10:47:00.373             4.507          1669.250
       287   08 Jun 2027 10:47:45.974   08 Jun 2027 10:47:49.650             3.676          1258.719
       288   08 Jun 2027 10:48:29.041   08 Jun 2027 10:48:34.465             5.424          1230.969
       289   08 Jun 2027 10:49:07.168   08 Jun 2027 10:49:10.904             3.736          1021.969
       290   08 Jun 2027 10:50:05.149   08 Jun 2027 10:50:10.389             5.240          1695.156
       291   08 Jun 2027 10:50:27.991   08 Jun 2027 10:50:32.201             4.210            58.063
       292   09 Jun 2027 03:08:22.049   09 Jun 2027 03:10:51.270           149.221         74610.500
       293   09 Jun 2027 03:12:26.764   09 Jun 2027 03:12:52.483            25.719         12859.500
       294   09 Jun 2027 03:13:45.761   09 Jun 2027 03:14:09.530            23.769         11884.500
       295   09 Jun 2027 03:14:25.368   09 Jun 2027 03:14:31.218             5.850          2925.000
       296   09 Jun 2027 03:15:09.091   09 Jun 2027 03:15:30.343            21.252         10626.000
       297   09 Jun 2027 04:33:12.174   09 Jun 2027 04:33:48.882            36.708         18354.000
       298   09 Jun 2027 04:44:56.336   09 Jun 2027 04:45:55.236            58.900         29450.000
       299   09 Jun 2027 06:07:11.172   09 Jun 2027 06:07:29.197            18.025          9012.500
       300   09 Jun 2027 06:08:08.137   09 Jun 2027 06:08:11.624             3.487          1743.500
       301   09 Jun 2027 06:09:06.652   09 Jun 2027 06:09:19.036            12.384          4117.312
       302   09 Jun 2027 06:09:39.352   09 Jun 2027 06:09:41.062             1.710           375.094
       303   09 Jun 2027 06:11:42.360   09 Jun 2027 06:11:47.963             5.603          2801.500
       304   09 Jun 2027 07:42:08.363   09 Jun 2027 07:42:19.894            11.531          5254.375
       305   09 Jun 2027 07:43:13.403   09 Jun 2027 07:43:15.204             1.801           795.563
       306   09 Jun 2027 07:43:42.082   09 Jun 2027 07:43:45.722             3.640           383.000
       307   09 Jun 2027 07:44:50.192   09 Jun 2027 07:44:50.192             0.000             0.000
       308   09 Jun 2027 07:46:03.767   09 Jun 2027 07:46:13.988            10.221          4203.844
       309   09 Jun 2027 07:47:24.595   09 Jun 2027 07:47:30.452             5.857          2206.469
       310   09 Jun 2027 07:48:07.413   09 Jun 2027 07:48:22.435            15.022           932.750
       311   09 Jun 2027 07:48:43.477   09 Jun 2027 07:48:44.873             1.396           588.250
       312   09 Jun 2027 07:50:23.300   09 Jun 2027 07:50:28.951             5.651          2648.594
       313   09 Jun 2027 09:19:37.502   09 Jun 2027 09:19:44.213             6.711          3355.500
       314   09 Jun 2027 09:21:38.827   09 Jun 2027 09:21:44.606             5.779          2889.500
       315   09 Jun 2027 09:22:59.647   09 Jun 2027 09:23:06.439             6.792          3170.375
       316   09 Jun 2027 09:23:40.081   09 Jun 2027 09:23:41.977             1.896           933.813
       317   09 Jun 2027 09:24:47.452   09 Jun 2027 09:24:54.479             7.027          1725.750
       318   09 Jun 2027 09:26:01.071   09 Jun 2027 09:26:05.342             4.271          1932.844
       319   09 Jun 2027 09:26:07.032   09 Jun 2027 09:26:12.123             5.091            52.813
       320   09 Jun 2027 09:26:35.248   09 Jun 2027 09:26:37.008             1.760           313.875
       321   09 Jun 2027 10:56:22.101   09 Jun 2027 10:56:37.457            15.356          6867.938
       322   09 Jun 2027 10:56:48.013   09 Jun 2027 10:56:51.114             3.101           269.375
       323   09 Jun 2027 10:58:04.241   09 Jun 2027 10:58:06.957             2.716          1250.250
       324   09 Jun 2027 10:58:16.390   09 Jun 2027 10:58:17.108             0.718           139.844
       325   09 Jun 2027 10:58:53.448   09 Jun 2027 10:58:54.464             1.016           469.063
       326   09 Jun 2027 10:59:14.082   09 Jun 2027 10:59:15.514             1.432           613.063
       327   09 Jun 2027 11:00:03.015   09 Jun 2027 11:00:07.451             4.436          1295.250
       328   09 Jun 2027 11:01:04.845   09 Jun 2027 11:01:09.015             4.170          1690.906
       329   09 Jun 2027 11:02:07.453   09 Jun 2027 11:02:11.370             3.917          1788.375
       330   09 Jun 2027 11:02:33.756   09 Jun 2027 11:02:34.925             1.169           246.344
       331   10 Jun 2027 03:20:24.127   10 Jun 2027 03:23:31.101           186.974         93487.000
       332   10 Jun 2027 03:24:16.312   10 Jun 2027 03:24:24.787             8.475          4237.500
       333   10 Jun 2027 03:24:37.857   10 Jun 2027 03:24:52.953            15.096          7548.000
       334   10 Jun 2027 03:26:26.825   10 Jun 2027 03:26:26.825             0.000             0.000
       335   10 Jun 2027 03:26:33.593   10 Jun 2027 03:26:45.954            12.361          6180.500
       336   10 Jun 2027 03:26:57.189   10 Jun 2027 03:27:11.819            14.630          7315.000
       337   10 Jun 2027 03:27:22.720   10 Jun 2027 03:27:24.035             1.315           657.500
       338   10 Jun 2027 04:44:45.631   10 Jun 2027 04:45:37.631            52.000         26000.000
       339   10 Jun 2027 04:45:46.621   10 Jun 2027 04:45:46.621             0.000             0.000
       340   10 Jun 2027 04:57:01.590   10 Jun 2027 04:57:29.221            27.631         13815.500
       341   10 Jun 2027 06:18:43.335   10 Jun 2027 06:19:12.731            29.396         14626.969
       342   10 Jun 2027 06:20:52.097   10 Jun 2027 06:20:59.773             7.676          1640.875
       343   10 Jun 2027 06:21:10.489   10 Jun 2027 06:21:10.489             0.000             0.000
       344   10 Jun 2027 06:21:37.672   10 Jun 2027 06:21:40.462             2.790          1099.531
       345   10 Jun 2027 06:22:08.353   10 Jun 2027 06:22:10.690             2.337           804.750
       346   10 Jun 2027 06:22:42.286   10 Jun 2027 06:22:44.803             2.517           953.156
       347   10 Jun 2027 06:23:24.401   10 Jun 2027 06:23:24.401             0.000             0.000
       348   10 Jun 2027 06:23:25.917   10 Jun 2027 06:23:29.935             4.018          1284.813
       349   10 Jun 2027 06:24:18.710   10 Jun 2027 06:24:18.710             0.000             0.000
       350   10 Jun 2027 07:53:36.857   10 Jun 2027 07:53:52.208            15.351          6032.312
       351   10 Jun 2027 07:53:58.463   10 Jun 2027 07:54:00.782             2.319            53.250
       352   10 Jun 2027 07:55:37.612   10 Jun 2027 07:55:41.509             3.897          1939.844
       353   10 Jun 2027 07:55:43.196   10 Jun 2027 07:55:46.695             3.499            52.719
       354   10 Jun 2027 07:58:04.000   10 Jun 2027 07:58:13.564             9.564          4190.719
       355   10 Jun 2027 07:59:24.551   10 Jun 2027 07:59:34.633            10.082          2166.563
       356   10 Jun 2027 08:00:32.729   10 Jun 2027 08:00:36.497             3.768          1624.937
       357   10 Jun 2027 08:00:42.566   10 Jun 2027 08:00:43.400             0.834           103.094
       358   10 Jun 2027 08:01:34.935   10 Jun 2027 08:01:40.033             5.098          1362.781
       359   10 Jun 2027 08:02:28.331   10 Jun 2027 08:02:28.331             0.000             0.000
       360   10 Jun 2027 08:02:29.595   10 Jun 2027 08:02:33.374             3.779          1425.156
       361   10 Jun 2027 09:31:31.041   10 Jun 2027 09:31:46.442            15.401          5912.188
       362   10 Jun 2027 09:32:26.351   10 Jun 2027 09:32:28.998             2.647          1247.156
       363   10 Jun 2027 09:32:56.390   10 Jun 2027 09:33:00.253             3.863           149.844
       364   10 Jun 2027 09:33:11.345   10 Jun 2027 09:33:15.206             3.861           175.844
       365   10 Jun 2027 09:33:34.724   10 Jun 2027 09:33:35.943             1.219           353.344
       366   10 Jun 2027 09:34:30.306   10 Jun 2027 09:34:33.953             3.647          1640.844
       367   10 Jun 2027 09:35:08.174   10 Jun 2027 09:35:11.332             3.158           476.188
       368   10 Jun 2027 09:35:23.880   10 Jun 2027 09:35:25.861             1.981            85.625
       369   10 Jun 2027 09:36:01.893   10 Jun 2027 09:36:04.280             2.387           693.656
       370   10 Jun 2027 09:36:56.371   10 Jun 2027 09:37:00.521             4.150          1627.375
       371   10 Jun 2027 09:37:08.942   10 Jun 2027 09:37:13.389             4.447            52.000
       372   10 Jun 2027 09:37:23.349   10 Jun 2027 09:37:26.639             3.290           311.250
       373   10 Jun 2027 09:38:05.468   10 Jun 2027 09:38:08.224             2.756          1193.312
       374   10 Jun 2027 09:38:48.991   10 Jun 2027 09:38:55.560             6.569          1273.969
       375   10 Jun 2027 11:08:15.113   10 Jun 2027 11:08:23.357             8.244          4122.000
       376   10 Jun 2027 11:08:35.812   10 Jun 2027 11:08:45.487             9.675          3361.562
       377   10 Jun 2027 11:09:29.584   10 Jun 2027 11:09:32.948             3.364           443.500
       378   10 Jun 2027 11:10:39.286   10 Jun 2027 11:10:43.612             4.326          2073.062
       379   10 Jun 2027 11:11:14.035   10 Jun 2027 11:11:16.054             2.019           950.719
       380   10 Jun 2027 11:12:17.919   10 Jun 2027 11:12:23.069             5.150          1933.281
       381   10 Jun 2027 11:12:46.016   10 Jun 2027 11:12:47.829             1.813           609.281
       382   10 Jun 2027 11:12:50.085   10 Jun 2027 11:12:59.406             9.321            62.906
       383   10 Jun 2027 11:13:31.444   10 Jun 2027 11:13:37.440             5.996           686.125
       384   10 Jun 2027 11:14:07.023   10 Jun 2027 11:14:08.927             1.904           800.625
       385   10 Jun 2027 11:14:53.407   10 Jun 2027 11:14:59.193             5.786          1019.219
       386   11 Jun 2027 03:32:48.322   11 Jun 2027 03:36:27.047           218.725        109362.500
       387   11 Jun 2027 03:37:48.259   11 Jun 2027 03:37:56.391             8.132          4066.000
       388   11 Jun 2027 04:56:41.515   11 Jun 2027 04:56:52.057            10.542          5271.000
       389   11 Jun 2027 04:57:14.052   11 Jun 2027 04:57:29.179            15.127          7563.500
       390   11 Jun 2027 04:57:39.508   11 Jun 2027 04:57:52.626            13.118          6559.000
       391   11 Jun 2027 06:32:42.099   11 Jun 2027 06:33:26.031            43.932         21646.094
       392   11 Jun 2027 06:34:13.547   11 Jun 2027 06:34:13.547             0.000             0.000
       393   11 Jun 2027 06:34:49.827   11 Jun 2027 06:34:55.653             5.826          2590.969
       394   11 Jun 2027 06:35:20.928   11 Jun 2027 06:35:22.697             1.769           294.375
       395   11 Jun 2027 06:35:57.670   11 Jun 2027 06:35:59.135             1.465           732.500
       396   11 Jun 2027 08:06:30.034   11 Jun 2027 08:06:40.585            10.551          4843.125
       397   11 Jun 2027 08:07:58.377   11 Jun 2027 08:07:59.381             1.004           452.844
       398   11 Jun 2027 08:08:45.448   11 Jun 2027 08:08:48.144             2.696          1237.500
       399   11 Jun 2027 08:10:03.740   11 Jun 2027 08:10:12.764             9.024          2362.375
       400   11 Jun 2027 08:11:43.780   11 Jun 2027 08:11:48.653             4.873          2436.500
       401   11 Jun 2027 08:11:50.294   11 Jun 2027 08:11:52.615             2.321           265.063
       402   11 Jun 2027 08:13:00.072   11 Jun 2027 08:13:13.346            13.274          1701.344
       403   11 Jun 2027 08:13:23.566   11 Jun 2027 08:13:23.566             0.000             0.000
       404   11 Jun 2027 08:13:36.308   11 Jun 2027 08:13:38.082             1.774           717.563
       405   11 Jun 2027 08:14:12.157   11 Jun 2027 08:14:14.117             1.960           942.219
       406   11 Jun 2027 08:14:41.854   11 Jun 2027 08:14:44.703             2.849           750.938
       407   11 Jun 2027 09:43:39.416   11 Jun 2027 09:43:56.705            17.289          6433.125
       408   11 Jun 2027 09:44:53.856   11 Jun 2027 09:44:53.934             0.078            39.000
       409   11 Jun 2027 09:44:59.876   11 Jun 2027 09:45:02.058             2.182           205.187
       410   11 Jun 2027 09:45:54.310   11 Jun 2027 09:46:00.468             6.158          1310.094
       411   11 Jun 2027 09:46:03.547   11 Jun 2027 09:46:03.937             0.390            19.187
       412   11 Jun 2027 09:48:16.569   11 Jun 2027 09:48:25.119             8.550          3806.562
       413   11 Jun 2027 09:48:29.136   11 Jun 2027 09:48:32.788             3.652           125.531
       414   11 Jun 2027 09:48:46.094   11 Jun 2027 09:48:47.775             1.681           117.437
       415   11 Jun 2027 09:49:04.251   11 Jun 2027 09:49:04.407             0.156            78.000
       416   11 Jun 2027 09:49:27.494   11 Jun 2027 09:49:32.956             5.462          1054.625
       417   11 Jun 2027 09:50:04.855   11 Jun 2027 09:50:09.606             4.751           851.687
       418   11 Jun 2027 09:50:40.905   11 Jun 2027 09:50:43.498             2.593           978.094
       419   11 Jun 2027 11:20:53.897   11 Jun 2027 11:21:08.594            14.697          6965.812
       420   11 Jun 2027 11:22:20.510   11 Jun 2027 11:22:25.022             4.512          2154.031
       421   11 Jun 2027 11:22:43.202   11 Jun 2027 11:22:43.459             0.257           128.500
       422   11 Jun 2027 11:22:44.583   11 Jun 2027 11:22:48.042             3.459           335.344
       423   11 Jun 2027 11:22:53.128   11 Jun 2027 11:22:55.605             2.477            95.531
       424   11 Jun 2027 11:23:12.938   11 Jun 2027 11:23:14.366             1.428           411.688
       425   11 Jun 2027 11:24:16.911   11 Jun 2027 11:24:21.158             4.247          1830.563
       426   11 Jun 2027 11:24:43.998   11 Jun 2027 11:24:45.976             1.978           631.312
       427   11 Jun 2027 11:25:09.353   11 Jun 2027 11:25:11.640             2.287           649.656
       428   11 Jun 2027 11:26:22.726   11 Jun 2027 11:26:29.467             6.741          2221.437
       429   12 Jun 2027 03:45:12.235   12 Jun 2027 03:48:42.676           210.441        105220.500
       430   12 Jun 2027 05:08:34.407   12 Jun 2027 05:09:31.905            57.498         28749.000
       431   12 Jun 2027 06:44:55.192   12 Jun 2027 06:45:41.618            46.426         23008.687
       432   12 Jun 2027 06:46:15.234   12 Jun 2027 06:46:17.986             2.752           914.844
       433   12 Jun 2027 06:46:59.192   12 Jun 2027 06:47:02.886             3.694          1287.688
       434   12 Jun 2027 06:47:30.028   12 Jun 2027 06:47:33.037             3.009           594.156
       435   12 Jun 2027 06:47:38.923   12 Jun 2027 06:47:38.923             0.000             0.000
       436   12 Jun 2027 08:18:56.225   12 Jun 2027 08:19:05.078             8.853          4273.781
       437   12 Jun 2027 08:19:48.122   12 Jun 2027 08:19:51.073             2.951           126.375
       438   12 Jun 2027 08:20:32.738   12 Jun 2027 08:20:35.153             2.415           883.812
       439   12 Jun 2027 08:20:49.266   12 Jun 2027 08:20:51.356             2.090           331.594
       440   12 Jun 2027 08:21:08.139   12 Jun 2027 08:21:09.223             1.084           425.187
       441   12 Jun 2027 08:22:25.333   12 Jun 2027 08:22:34.342             9.009          1022.625
       442   12 Jun 2027 08:22:52.143   12 Jun 2027 08:22:53.334             1.191           498.156
       443   12 Jun 2027 08:25:32.075   12 Jun 2027 08:25:42.071             9.996          4875.844
       444   12 Jun 2027 08:26:15.385   12 Jun 2027 08:26:20.740             5.355          1017.563
       445   12 Jun 2027 08:26:50.088   12 Jun 2027 08:26:55.544             5.456           587.188
       446   12 Jun 2027 09:56:04.591   12 Jun 2027 09:56:16.146            11.555          5423.656
       447   12 Jun 2027 09:56:40.304   12 Jun 2027 09:56:41.111             0.807           168.781
       448   12 Jun 2027 09:58:17.661   12 Jun 2027 09:58:24.067             6.406          2036.000
       449   12 Jun 2027 09:58:49.542   12 Jun 2027 09:58:51.939             2.397           796.094
       450   12 Jun 2027 09:59:05.827   12 Jun 2027 09:59:08.160             2.333           421.750
       451   12 Jun 2027 09:59:12.757   12 Jun 2027 09:59:13.266             0.509            29.000
       452   12 Jun 2027 09:59:44.515   12 Jun 2027 09:59:49.375             4.860           891.656
       453   12 Jun 2027 10:00:21.633   12 Jun 2027 10:00:24.370             2.737           142.969
       454   12 Jun 2027 10:00:52.818   12 Jun 2027 10:00:54.532             1.714           669.469
       455   12 Jun 2027 10:01:10.926   12 Jun 2027 10:01:12.451             1.525           505.844
       456   12 Jun 2027 10:02:43.700   12 Jun 2027 10:02:45.937             2.237          1118.500
       457   12 Jun 2027 11:33:02.778   12 Jun 2027 11:33:20.673            17.895          8103.313
       458   12 Jun 2027 11:34:32.702   12 Jun 2027 11:34:38.765             6.063           746.281
       459   12 Jun 2027 11:34:44.431   12 Jun 2027 11:34:44.999             0.568           177.063
       460   12 Jun 2027 11:35:06.201   12 Jun 2027 11:35:09.175             2.974           662.562
       461   12 Jun 2027 11:35:22.635   12 Jun 2027 11:35:23.978             1.343            56.031
       462   12 Jun 2027 11:36:22.843   12 Jun 2027 11:36:26.846             4.003          1699.219
       463   12 Jun 2027 11:36:40.023   12 Jun 2027 11:36:40.483             0.460           230.000
       464   12 Jun 2027 11:36:46.137   12 Jun 2027 11:36:54.171             8.034           358.468
       465   12 Jun 2027 11:38:11.147   12 Jun 2027 11:38:16.853             5.706          2108.313
       466   13 Jun 2027 03:57:31.062   13 Jun 2027 04:01:07.501           216.439        108219.500
       467   13 Jun 2027 04:01:24.599   13 Jun 2027 04:01:24.816             0.217           108.500
       468   13 Jun 2027 05:20:34.504   13 Jun 2027 05:21:31.005            56.501         28250.500
       469   13 Jun 2027 06:57:01.287   13 Jun 2027 06:57:42.618            41.331         20584.500
       470   13 Jun 2027 06:58:46.214   13 Jun 2027 06:58:50.079             3.865          1688.656
       471   13 Jun 2027 06:58:51.773   13 Jun 2027 06:58:52.654             0.881            41.938
       472   13 Jun 2027 06:59:00.401   13 Jun 2027 06:59:03.770             3.369             6.781
       473   13 Jun 2027 07:00:05.111   13 Jun 2027 07:00:08.990             3.879          1729.781
       474   13 Jun 2027 08:32:09.958   13 Jun 2027 08:32:19.701             9.743          4783.781
       475   13 Jun 2027 08:32:33.085   13 Jun 2027 08:32:34.469             1.384           277.312
       476   13 Jun 2027 08:32:48.008   13 Jun 2027 08:32:48.824             0.816           171.063
       477   13 Jun 2027 08:33:41.055   13 Jun 2027 08:33:49.816             8.761           968.094
       478   13 Jun 2027 08:34:34.402   13 Jun 2027 08:34:34.402             0.000             0.000
       479   13 Jun 2027 08:35:20.211   13 Jun 2027 08:35:25.713             5.502          2689.000
       480   13 Jun 2027 08:36:10.765   13 Jun 2027 08:36:18.356             7.591          1403.969
       481   13 Jun 2027 08:37:37.805   13 Jun 2027 08:37:45.870             8.065          2348.687
       482   13 Jun 2027 08:38:15.772   13 Jun 2027 08:38:18.710             2.938           931.375
       483   13 Jun 2027 08:38:23.019   13 Jun 2027 08:38:24.735             1.716            78.031
       484   13 Jun 2027 08:38:41.439   13 Jun 2027 08:38:42.867             1.428           522.000
       485   13 Jun 2027 10:08:30.435   13 Jun 2027 10:08:42.695            12.260          6101.344
       486   13 Jun 2027 10:10:25.423   13 Jun 2027 10:10:31.571             6.148          1086.219
       487   13 Jun 2027 10:10:46.803   13 Jun 2027 10:10:48.357             1.554           205.719
       488   13 Jun 2027 10:11:04.589   13 Jun 2027 10:11:09.741             5.152           385.500
       489   13 Jun 2027 10:11:18.728   13 Jun 2027 10:11:20.433             1.705            43.625
       490   13 Jun 2027 10:12:15.577   13 Jun 2027 10:12:20.104             4.527          1687.906
       491   13 Jun 2027 10:12:40.328   13 Jun 2027 10:12:41.649             1.321           594.469
       492   13 Jun 2027 10:13:11.567   13 Jun 2027 10:13:16.548             4.981           934.937
       493   13 Jun 2027 10:14:03.454   13 Jun 2027 10:14:06.681             3.227          1457.406
       494   13 Jun 2027 10:14:12.875   13 Jun 2027 10:14:14.355             1.480           193.562
       495   13 Jun 2027 11:46:04.489   13 Jun 2027 11:46:18.896            14.407          6434.750
       496   13 Jun 2027 11:46:48.293   13 Jun 2027 11:46:50.346             2.053           918.656
       497   13 Jun 2027 11:47:24.302   13 Jun 2027 11:47:24.302             0.000             0.000
       498   13 Jun 2027 11:48:07.301   13 Jun 2027 11:48:18.921            11.620          1643.187
       499   13 Jun 2027 11:49:24.894   13 Jun 2027 11:49:25.024             0.130            65.000
       500   13 Jun 2027 11:49:31.742   13 Jun 2027 11:49:40.964             9.222          2152.312
       501   13 Jun 2027 11:50:14.975   13 Jun 2027 11:50:21.313             6.338          1062.844
