uniorb/output/strategy_2/Camera/Camera_KinoSat_111705.txt

KinoSat_111705
-------------------------
    Access    *     Start Time (UTCG)     *     Stop Time (UTCG)  *   Duration (s) *   Data (Mbytes)
         1   01 Jun 2027 03:09:08.997   01 Jun 2027 03:11:48.417           159.420         79710.000
         2   01 Jun 2027 03:13:15.174   01 Jun 2027 03:13:27.462            12.288          6144.000
         3   01 Jun 2027 03:14:16.524   01 Jun 2027 03:14:18.820             2.296          1148.000
         4   01 Jun 2027 04:48:13.158   01 Jun 2027 04:50:58.151           164.993         82496.500
         5   01 Jun 2027 04:51:29.991   01 Jun 2027 04:51:43.678            13.687          6843.500
         6   01 Jun 2027 04:52:49.608   01 Jun 2027 04:53:11.514            21.906         10953.000
         7   01 Jun 2027 04:53:18.369   01 Jun 2027 04:53:29.019            10.650          5325.000
         8   01 Jun 2027 04:54:11.507   01 Jun 2027 04:54:20.563             9.056          4528.000
         9   01 Jun 2027 04:55:02.198   01 Jun 2027 04:55:19.440            17.242          8621.000
        10   01 Jun 2027 06:13:02.703   01 Jun 2027 06:13:38.934            36.231         18115.500
        11   01 Jun 2027 06:24:42.328   01 Jun 2027 06:25:39.225            56.897         28448.500
        12   01 Jun 2027 07:46:59.732   01 Jun 2027 07:48:06.228            66.496         33248.000
        13   01 Jun 2027 07:49:28.354   01 Jun 2027 07:50:05.024            36.670         18335.000
        14   01 Jun 2027 07:51:35.482   01 Jun 2027 07:51:52.422            16.940          8470.000
        15   01 Jun 2027 09:21:53.552   01 Jun 2027 09:22:55.620            62.068         31034.000
        16   01 Jun 2027 09:23:30.517   01 Jun 2027 09:23:30.517             0.000             0.000
        17   01 Jun 2027 09:24:19.271   01 Jun 2027 09:25:00.055            40.784         20392.000
        18   01 Jun 2027 09:25:34.290   01 Jun 2027 09:25:41.871             7.581          3790.500
        19   01 Jun 2027 09:25:45.843   01 Jun 2027 09:25:50.724             4.881          2440.500
        20   01 Jun 2027 09:26:19.803   01 Jun 2027 09:26:20.654             0.851           425.500
        21   01 Jun 2027 09:26:39.292   01 Jun 2027 09:26:52.104            12.812          6406.000
        22   01 Jun 2027 09:27:11.738   01 Jun 2027 09:27:11.965             0.227           113.500
        23   01 Jun 2027 09:29:02.093   01 Jun 2027 09:29:10.994             8.901          4450.500
        24   01 Jun 2027 10:59:26.052   01 Jun 2027 11:01:27.762           121.710         60855.000
        25   01 Jun 2027 11:02:50.122   01 Jun 2027 11:02:59.464             9.342          4671.000
        26   01 Jun 2027 11:05:38.326   01 Jun 2027 11:05:43.486             5.160          2580.000
        27   01 Jun 2027 11:06:16.888   01 Jun 2027 11:06:18.656             1.768           884.000
        28   02 Jun 2027 03:21:36.371   02 Jun 2027 03:21:54.367            17.996          8998.000
        29   02 Jun 2027 03:22:01.879   02 Jun 2027 03:22:31.655            29.776         14888.000
        30   02 Jun 2027 03:22:36.572   02 Jun 2027 03:23:30.701            54.129         27064.500
        31   02 Jun 2027 03:23:32.839   02 Jun 2027 03:25:29.856           117.017         58508.500
        32   02 Jun 2027 05:00:18.074   02 Jun 2027 05:02:20.804           122.730         61365.000
        33   02 Jun 2027 05:03:11.154   02 Jun 2027 05:03:32.060            20.906         10453.000
        34   02 Jun 2027 05:03:49.208   02 Jun 2027 05:03:56.893             7.685          3842.500
        35   02 Jun 2027 05:05:52.459   02 Jun 2027 05:05:52.459             0.000             0.000
        36   02 Jun 2027 05:06:13.160   02 Jun 2027 05:06:14.306             1.146           573.000
        37   02 Jun 2027 06:24:36.099   02 Jun 2027 06:25:17.836            41.737         20868.500
        38   02 Jun 2027 06:36:57.919   02 Jun 2027 06:37:15.578            17.659          8829.500
        39   02 Jun 2027 07:58:30.910   02 Jun 2027 07:59:52.029            81.119         40559.500
        40   02 Jun 2027 08:00:40.369   02 Jun 2027 08:01:51.499            71.130         34851.500
        41   02 Jun 2027 08:02:47.427   02 Jun 2027 08:02:47.427             0.000             0.000
        42   02 Jun 2027 08:03:01.353   02 Jun 2027 08:03:08.394             7.041          2182.938
        43   02 Jun 2027 09:33:24.489   02 Jun 2027 09:33:36.264            11.775          5887.500
        44   02 Jun 2027 09:34:38.116   02 Jun 2027 09:34:45.241             7.125          2241.625
        45   02 Jun 2027 09:36:19.152   02 Jun 2027 09:36:25.416             6.264          1735.094
        46   02 Jun 2027 09:37:44.255   02 Jun 2027 09:37:47.644             3.389          1482.906
        47   02 Jun 2027 09:41:10.115   02 Jun 2027 09:41:14.924             4.809          2404.500
        48   02 Jun 2027 09:42:22.240   02 Jun 2027 09:42:30.312             8.072          3637.750
        49   02 Jun 2027 11:11:21.063   02 Jun 2027 11:11:54.330            33.267          6456.469
        50   02 Jun 2027 11:12:01.697   02 Jun 2027 11:12:02.684             0.987           193.094
        51   02 Jun 2027 11:12:23.824   02 Jun 2027 11:12:28.448             4.624           660.625
        52   02 Jun 2027 11:13:01.325   02 Jun 2027 11:13:06.857             5.532            28.813
        53   02 Jun 2027 11:13:35.156   02 Jun 2027 11:13:39.077             3.921            68.250
        54   02 Jun 2027 11:14:21.743   02 Jun 2027 11:14:29.107             7.364           385.656
        55   02 Jun 2027 11:15:19.054   02 Jun 2027 11:15:21.138             2.084           505.500
        56   02 Jun 2027 11:15:26.979   02 Jun 2027 11:15:30.143             3.164            99.531
        57   02 Jun 2027 11:16:22.450   02 Jun 2027 11:16:25.934             3.484          1446.531
        58   02 Jun 2027 11:17:40.280   02 Jun 2027 11:17:43.140             2.860          1430.000
        59   02 Jun 2027 11:18:20.808   02 Jun 2027 11:18:28.277             7.469          1547.969
        60   03 Jun 2027 03:34:12.315   03 Jun 2027 03:34:24.945            12.630          6315.000
        61   03 Jun 2027 03:34:35.307   03 Jun 2027 03:35:35.833            60.526         30263.000
        62   03 Jun 2027 03:35:44.062   03 Jun 2027 03:36:11.930            27.868         13934.000
        63   03 Jun 2027 03:36:21.288   03 Jun 2027 03:38:05.266           103.978         51989.000
        64   03 Jun 2027 03:38:12.906   03 Jun 2027 03:38:41.944            29.038         14519.000
        65   03 Jun 2027 03:39:10.790   03 Jun 2027 03:39:17.018             6.228          3114.000
        66   03 Jun 2027 03:39:36.389   03 Jun 2027 03:39:36.389             0.000             0.000
        67   03 Jun 2027 05:12:43.461   03 Jun 2027 05:14:12.112            88.651         41817.937
        68   03 Jun 2027 05:14:19.529   03 Jun 2027 05:14:22.536             3.007            67.438
        69   03 Jun 2027 05:15:20.503   03 Jun 2027 05:15:22.454             1.951           246.625
        70   03 Jun 2027 05:15:49.754   03 Jun 2027 05:15:52.423             2.669           694.344
        71   03 Jun 2027 05:16:31.642   03 Jun 2027 05:16:33.712             2.070           874.438
        72   03 Jun 2027 06:36:32.124   03 Jun 2027 06:36:44.855            12.731          5957.031
        73   03 Jun 2027 06:37:40.469   03 Jun 2027 06:37:43.559             3.090          1367.906
        74   03 Jun 2027 06:38:33.444   03 Jun 2027 06:38:37.283             3.839          1543.375
        75   03 Jun 2027 08:12:31.667   03 Jun 2027 08:12:41.143             9.476          4738.000
        76   03 Jun 2027 08:12:55.640   03 Jun 2027 08:13:01.369             5.729          2634.219
        77   03 Jun 2027 08:13:19.358   03 Jun 2027 08:13:20.355             0.997           396.125
        78   03 Jun 2027 08:13:57.387   03 Jun 2027 08:13:59.964             2.577          1001.937
        79   03 Jun 2027 08:15:19.560   03 Jun 2027 08:15:27.488             7.928          2447.500
        80   03 Jun 2027 09:46:18.682   03 Jun 2027 09:46:28.815            10.133          3888.656
        81   03 Jun 2027 09:47:57.565   03 Jun 2027 09:48:03.022             5.457          1030.781
        82   03 Jun 2027 09:48:16.205   03 Jun 2027 09:48:25.653             9.448           367.219
        83   03 Jun 2027 09:48:29.413   03 Jun 2027 09:48:32.921             3.508           117.500
        84   03 Jun 2027 09:48:52.216   03 Jun 2027 09:48:52.216             0.000             0.000
        85   03 Jun 2027 09:49:47.254   03 Jun 2027 09:49:53.850             6.596          2293.375
        86   03 Jun 2027 09:50:16.504   03 Jun 2027 09:50:17.051             0.547            41.938
        87   03 Jun 2027 09:51:01.452   03 Jun 2027 09:51:06.100             4.648           514.656
        88   03 Jun 2027 09:52:14.796   03 Jun 2027 09:52:19.416             4.620          1973.906
        89   03 Jun 2027 09:54:01.787   03 Jun 2027 09:54:08.254             6.467          3199.094
        90   03 Jun 2027 09:54:34.907   03 Jun 2027 09:54:37.125             2.218            85.250
        91   03 Jun 2027 11:23:34.563   03 Jun 2027 11:23:52.206            17.643          7239.469
        92   03 Jun 2027 11:23:58.609   03 Jun 2027 11:24:00.117             1.508           200.094
        93   03 Jun 2027 11:24:56.158   03 Jun 2027 11:25:01.600             5.442          1751.281
        94   03 Jun 2027 11:25:46.115   03 Jun 2027 11:25:53.226             7.111          1391.094
        95   03 Jun 2027 11:28:23.539   03 Jun 2027 11:28:37.699            14.160          4409.000
        96   03 Jun 2027 11:28:52.021   03 Jun 2027 11:28:54.120             2.099           447.562
        97   03 Jun 2027 11:29:29.850   03 Jun 2027 11:29:32.130             2.280          1038.406
        98   03 Jun 2027 11:30:27.737   03 Jun 2027 11:30:37.868            10.131          1737.719
        99   04 Jun 2027 03:46:45.527   04 Jun 2027 03:47:12.376            26.849         13424.500
       100   04 Jun 2027 03:47:23.233   04 Jun 2027 03:49:12.970           109.737         54868.500
       101   04 Jun 2027 03:49:13.567   04 Jun 2027 03:50:56.529           102.962         51481.000
       102   04 Jun 2027 03:51:28.984   04 Jun 2027 03:52:00.791            31.807         15903.500
       103   04 Jun 2027 03:52:50.983   04 Jun 2027 03:52:52.444             1.461           730.500
       104   04 Jun 2027 05:25:02.083   04 Jun 2027 05:25:24.038            21.955         10977.500
       105   04 Jun 2027 05:25:57.272   04 Jun 2027 05:26:44.659            47.387         22969.438
       106   04 Jun 2027 05:27:34.095   04 Jun 2027 05:27:37.172             3.077          1492.375
       107   04 Jun 2027 05:28:58.518   04 Jun 2027 05:29:04.956             6.438          2377.781
       108   04 Jun 2027 05:29:20.992   04 Jun 2027 05:29:22.460             1.468           379.281
       109   04 Jun 2027 06:48:24.222   04 Jun 2027 06:48:36.815            12.593          5890.375
       110   04 Jun 2027 06:50:06.134   04 Jun 2027 06:50:12.835             6.701          2389.812
       111   04 Jun 2027 08:24:46.364   04 Jun 2027 08:25:05.577            19.213          8306.750
       112   04 Jun 2027 08:25:22.402   04 Jun 2027 08:25:22.402             0.000             0.000
       113   04 Jun 2027 08:25:34.798   04 Jun 2027 08:25:38.993             4.195           684.656
       114   04 Jun 2027 08:26:13.861   04 Jun 2027 08:26:15.560             1.699           593.469
       115   04 Jun 2027 08:27:37.109   04 Jun 2027 08:27:37.109             0.000             0.000
       116   04 Jun 2027 09:57:03.561   04 Jun 2027 09:57:13.824            10.263          4514.688
       117   04 Jun 2027 09:59:25.035   04 Jun 2027 09:59:35.575            10.540          4027.250
       118   04 Jun 2027 10:00:45.948   04 Jun 2027 10:00:45.948             0.000             0.000
       119   04 Jun 2027 10:01:36.356   04 Jun 2027 10:01:41.961             5.605          2041.094
       120   04 Jun 2027 10:03:10.411   04 Jun 2027 10:03:16.958             6.547          2424.219
       121   04 Jun 2027 10:03:58.796   04 Jun 2027 10:04:02.010             3.214          1307.438
       122   04 Jun 2027 10:05:07.158   04 Jun 2027 10:05:10.727             3.569          1784.500
       123   04 Jun 2027 10:05:25.371   04 Jun 2027 10:05:28.024             2.653           709.000
       124   04 Jun 2027 10:05:53.174   04 Jun 2027 10:05:57.666             4.492           623.844
       125   04 Jun 2027 10:06:21.733   04 Jun 2027 10:06:26.496             4.763           598.000
       126   04 Jun 2027 10:06:47.233   04 Jun 2027 10:06:49.946             2.713           648.031
       127   04 Jun 2027 11:35:54.733   04 Jun 2027 11:36:06.294            11.561          5687.594
       128   04 Jun 2027 11:36:22.139   04 Jun 2027 11:36:24.477             2.338           374.719
       129   04 Jun 2027 11:37:00.499   04 Jun 2027 11:37:01.862             1.363           681.500
       130   04 Jun 2027 11:37:29.694   04 Jun 2027 11:37:33.094             3.400          1313.938
       131   04 Jun 2027 11:38:38.415   04 Jun 2027 11:38:43.693             5.278          1155.969
       132   04 Jun 2027 11:39:35.281   04 Jun 2027 11:39:37.370             2.089           989.719
       133   04 Jun 2027 11:41:53.354   04 Jun 2027 11:42:03.632            10.278          3946.531
       134   04 Jun 2027 11:42:29.546   04 Jun 2027 11:42:32.578             3.032           809.813
       135   05 Jun 2027 03:58:51.980   05 Jun 2027 03:59:53.487            61.507         30753.500
       136   05 Jun 2027 03:59:59.454   05 Jun 2027 04:00:32.869            33.415         16707.500
       137   05 Jun 2027 04:00:56.367   05 Jun 2027 04:02:37.992           101.625         50812.500
       138   05 Jun 2027 04:02:58.538   05 Jun 2027 04:03:19.770            21.232         10616.000
       139   05 Jun 2027 04:03:20.785   05 Jun 2027 04:03:30.903            10.118          5059.000
       140   05 Jun 2027 05:38:40.903   05 Jun 2027 05:40:24.530           103.627         49448.531
       141   05 Jun 2027 05:41:17.606   05 Jun 2027 05:41:20.962             3.356           974.875
       142   05 Jun 2027 07:00:27.700   05 Jun 2027 07:00:39.913            12.213          6106.500
       143   05 Jun 2027 07:01:44.403   05 Jun 2027 07:01:56.511            12.108          4494.312
       144   05 Jun 2027 07:02:07.870   05 Jun 2027 07:02:09.739             1.869           301.656
       145   05 Jun 2027 08:37:09.085   05 Jun 2027 08:37:20.921            11.836          5891.531
       146   05 Jun 2027 08:37:51.741   05 Jun 2027 08:37:57.017             5.276           963.125
       147   05 Jun 2027 08:39:36.728   05 Jun 2027 08:39:46.380             9.652          3115.969
       148   05 Jun 2027 10:12:01.850   05 Jun 2027 10:12:11.897            10.047          4799.000
       149   05 Jun 2027 10:15:08.297   05 Jun 2027 10:15:18.542            10.245          4713.062
       150   05 Jun 2027 10:15:31.971   05 Jun 2027 10:15:33.725             1.754           335.250
       151   05 Jun 2027 10:16:07.041   05 Jun 2027 10:16:09.122             2.081           879.063
       152   05 Jun 2027 10:17:20.331   05 Jun 2027 10:17:24.860             4.529           911.063
       153   05 Jun 2027 10:18:00.934   05 Jun 2027 10:18:04.074             3.140           968.344
       154   05 Jun 2027 10:18:42.151   05 Jun 2027 10:18:49.148             6.997          1189.906
       155   05 Jun 2027 11:48:23.308   05 Jun 2027 11:48:39.935            16.627          7667.688
       156   05 Jun 2027 11:49:57.377   05 Jun 2027 11:49:59.729             2.352          1176.000
       157   05 Jun 2027 11:51:05.660   05 Jun 2027 11:51:14.582             8.922          2798.406
       158   05 Jun 2027 11:52:35.307   05 Jun 2027 11:52:35.750             0.443           221.500
       159   06 Jun 2027 04:10:50.619   06 Jun 2027 04:11:36.276            45.657         22828.500
       160   06 Jun 2027 04:11:56.915   06 Jun 2027 04:13:09.637            72.722         36361.000
       161   06 Jun 2027 04:14:21.865   06 Jun 2027 04:15:38.828            76.963         38481.500
       162   06 Jun 2027 04:16:28.114   06 Jun 2027 04:16:58.094            29.980         14990.000
       163   06 Jun 2027 05:49:04.129   06 Jun 2027 05:50:05.540            61.411         30705.500
       164   06 Jun 2027 05:50:11.755   06 Jun 2027 05:50:47.748            35.993         16712.656
       165   06 Jun 2027 05:51:10.597   06 Jun 2027 05:51:11.219             0.622           169.469
       166   06 Jun 2027 05:52:27.016   06 Jun 2027 05:52:33.123             6.107          2279.625
       167   06 Jun 2027 07:12:24.843   06 Jun 2027 07:12:42.793            17.950          7454.625
       168   06 Jun 2027 07:13:17.594   06 Jun 2027 07:13:20.235             2.641           582.344
       169   06 Jun 2027 07:15:06.039   06 Jun 2027 07:15:07.694             1.655           827.500
       170   06 Jun 2027 07:15:31.919   06 Jun 2027 07:15:39.154             7.235          3042.000
       171   06 Jun 2027 08:49:02.490   06 Jun 2027 08:49:08.537             6.047          2959.906
       172   06 Jun 2027 08:50:28.981   06 Jun 2027 08:50:37.179             8.198          2398.781
       173   06 Jun 2027 08:51:26.204   06 Jun 2027 08:51:35.701             9.497          1180.562
       174   06 Jun 2027 08:52:27.582   06 Jun 2027 08:52:29.429             1.847           923.500
       175   06 Jun 2027 10:24:25.994   06 Jun 2027 10:24:25.994             0.000             0.000
       176   06 Jun 2027 10:25:38.098   06 Jun 2027 10:25:55.613            17.515          8136.531
       177   06 Jun 2027 10:26:12.211   06 Jun 2027 10:26:12.211             0.000             0.000
       178   06 Jun 2027 10:30:35.044   06 Jun 2027 10:30:48.540            13.496          6748.000
       179   07 Jun 2027 04:23:55.985   07 Jun 2027 04:26:26.223           150.238         75119.000
       180   07 Jun 2027 04:26:35.114   07 Jun 2027 04:27:42.759            67.645         33822.500
       181   07 Jun 2027 04:28:09.410   07 Jun 2027 04:28:20.318            10.908          5454.000
       182   07 Jun 2027 04:30:32.706   07 Jun 2027 04:30:34.957             2.251          1125.500
       183   07 Jun 2027 04:30:49.827   07 Jun 2027 04:30:53.874             4.047          2023.500
       184   07 Jun 2027 05:50:16.008   07 Jun 2027 05:50:25.953             9.945          4972.500
       185   07 Jun 2027 06:01:01.828   07 Jun 2027 06:01:43.697            41.869         20934.500
       186   07 Jun 2027 06:01:49.037   07 Jun 2027 06:02:26.949            37.912         18096.843
       187   07 Jun 2027 06:03:37.837   07 Jun 2027 06:03:37.837             0.000             0.000
       188   07 Jun 2027 06:03:46.889   07 Jun 2027 06:03:52.981             6.092          2498.125
       189   07 Jun 2027 07:25:01.198   07 Jun 2027 07:25:20.832            19.634          7216.594
       190   07 Jun 2027 07:25:54.898   07 Jun 2027 07:25:57.929             3.031           811.656
       191   07 Jun 2027 07:27:01.426   07 Jun 2027 07:27:06.267             4.841          1317.125
       192   07 Jun 2027 07:27:26.120   07 Jun 2027 07:27:27.486             1.366           619.656
       193   07 Jun 2027 09:00:46.221   07 Jun 2027 09:00:56.023             9.802          4342.656
       194   07 Jun 2027 09:03:07.295   07 Jun 2027 09:03:16.560             9.265          3856.469
       195   07 Jun 2027 09:03:33.859   07 Jun 2027 09:03:33.859             0.000             0.000
       196   07 Jun 2027 10:35:37.550   07 Jun 2027 10:35:49.826            12.276          6138.000
       197   07 Jun 2027 10:36:21.961   07 Jun 2027 10:36:25.002             3.041          1384.281
       198   07 Jun 2027 10:38:07.117   07 Jun 2027 10:38:07.237             0.120            60.000
       199   07 Jun 2027 10:38:26.266   07 Jun 2027 10:38:29.366             3.100           729.750
       200   07 Jun 2027 10:42:25.423   07 Jun 2027 10:42:41.694            16.271          7323.469
       201   07 Jun 2027 10:42:54.118   07 Jun 2027 10:42:55.375             1.257           281.312
       202   08 Jun 2027 03:00:00.000   08 Jun 2027 03:00:09.016             9.016          4508.000
       203   08 Jun 2027 03:00:24.985   08 Jun 2027 03:00:24.985             0.000             0.000
       204   08 Jun 2027 03:00:25.914   08 Jun 2027 03:00:51.765            25.851         12925.500
       205   08 Jun 2027 03:01:02.195   08 Jun 2027 03:01:03.644             1.449           724.500
       206   08 Jun 2027 03:01:41.094   08 Jun 2027 03:02:19.016            37.922         18961.000
       207   08 Jun 2027 03:02:45.697   08 Jun 2027 03:02:46.439             0.742           371.000
       208   08 Jun 2027 03:02:54.612   08 Jun 2027 03:03:23.687            29.075         14537.500
       209   08 Jun 2027 04:36:16.679   08 Jun 2027 04:38:41.577           144.898         72449.000
       210   08 Jun 2027 04:39:22.419   08 Jun 2027 04:39:27.499             5.080          2540.000
       211   08 Jun 2027 04:39:37.174   08 Jun 2027 04:39:39.832             2.658          1329.000
       212   08 Jun 2027 04:40:11.017   08 Jun 2027 04:40:14.732             3.715          1857.500
       213   08 Jun 2027 04:42:16.166   08 Jun 2027 04:42:22.617             6.451          3225.500
       214   08 Jun 2027 04:42:40.964   08 Jun 2027 04:43:33.697            52.733         26366.500
       215   08 Jun 2027 06:01:32.789   08 Jun 2027 06:02:04.191            31.402         15476.124
       216   08 Jun 2027 06:13:00.464   08 Jun 2027 06:13:12.317            11.853          5672.375
       217   08 Jun 2027 06:14:00.360   08 Jun 2027 06:14:03.311             2.951          1052.750
       218   08 Jun 2027 07:35:39.590   08 Jun 2027 07:35:52.321            12.731          5692.375
       219   08 Jun 2027 07:37:15.345   08 Jun 2027 07:37:21.159             5.814          1553.094
       220   08 Jun 2027 07:37:56.892   08 Jun 2027 07:37:59.711             2.819           802.937
       221   08 Jun 2027 07:38:54.702   08 Jun 2027 07:38:57.846             3.144          1074.719
       222   08 Jun 2027 07:39:53.584   08 Jun 2027 07:39:56.569             2.985          1487.375
       223   08 Jun 2027 09:10:59.735   08 Jun 2027 09:11:12.379            12.644          5200.031
       224   08 Jun 2027 09:11:44.133   08 Jun 2027 09:11:49.409             5.276           180.125
       225   08 Jun 2027 09:13:18.977   08 Jun 2027 09:13:26.068             7.091          2434.656
       226   08 Jun 2027 09:13:49.146   08 Jun 2027 09:13:52.684             3.538           379.031
       227   08 Jun 2027 09:15:28.793   08 Jun 2027 09:15:31.630             2.837          1418.500
       228   08 Jun 2027 10:47:29.630   08 Jun 2027 10:47:40.095            10.465          5064.531
       229   08 Jun 2027 10:47:49.650   08 Jun 2027 10:47:52.975             3.325           229.063
       230   08 Jun 2027 10:52:26.757   08 Jun 2027 10:52:44.594            17.837          8256.375
       231   08 Jun 2027 10:52:58.140   08 Jun 2027 10:52:58.581             0.441           139.094
       232   08 Jun 2027 10:53:44.549   08 Jun 2027 10:53:50.582             6.033          1436.500
       233   08 Jun 2027 10:54:38.636   08 Jun 2027 10:54:44.518             5.882          1252.781
       234   09 Jun 2027 03:09:26.955   09 Jun 2027 03:11:00.619            93.664         46832.000
       235   09 Jun 2027 03:11:01.988   09 Jun 2027 03:11:49.101            47.113         23556.500
       236   09 Jun 2027 03:12:29.955   09 Jun 2027 03:12:52.483            22.528         11264.000
       237   09 Jun 2027 03:13:45.761   09 Jun 2027 03:14:09.530            23.769         11884.500
       238   09 Jun 2027 03:14:25.368   09 Jun 2027 03:14:25.741             0.373           186.500
       239   09 Jun 2027 03:14:42.150   09 Jun 2027 03:14:54.484            12.334          6167.000
       240   09 Jun 2027 03:15:04.712   09 Jun 2027 03:15:09.091             4.379          2189.500
       241   09 Jun 2027 04:48:32.542   09 Jun 2027 04:50:20.314           107.772         53369.250
       242   09 Jun 2027 04:50:30.244   09 Jun 2027 04:50:32.567             2.323           309.969
       243   09 Jun 2027 04:51:00.778   09 Jun 2027 04:51:04.896             4.118           501.562
       244   09 Jun 2027 04:51:58.151   09 Jun 2027 04:52:00.843             2.692          1233.688
       245   09 Jun 2027 04:53:21.308   09 Jun 2027 04:53:25.473             4.165          1932.187
       246   09 Jun 2027 04:54:09.518   09 Jun 2027 04:54:09.967             0.449           224.500
       247   09 Jun 2027 04:54:15.303   09 Jun 2027 04:54:18.261             2.958          1140.844
       248   09 Jun 2027 06:12:47.457   09 Jun 2027 06:12:55.819             8.362          4181.000
       249   09 Jun 2027 06:13:17.198   09 Jun 2027 06:13:17.198             0.000             0.000
       250   09 Jun 2027 06:14:13.486   09 Jun 2027 06:14:21.266             7.780          3535.312
       251   09 Jun 2027 06:24:59.730   09 Jun 2027 06:25:08.431             8.701          2624.094
       252   09 Jun 2027 06:25:09.988   09 Jun 2027 06:25:12.304             2.316            48.656
       253   09 Jun 2027 06:25:39.424   09 Jun 2027 06:25:41.864             2.440           609.531
       254   09 Jun 2027 07:47:15.690   09 Jun 2027 07:47:30.452            14.762          6536.719
       255   09 Jun 2027 07:48:02.758   09 Jun 2027 07:48:06.443             3.685           420.094
       256   09 Jun 2027 07:49:11.401   09 Jun 2027 07:49:16.644             5.243          1762.562
       257   09 Jun 2027 07:49:55.397   09 Jun 2027 07:49:56.890             1.493           693.312
       258   09 Jun 2027 07:51:05.032   09 Jun 2027 07:51:09.610             4.578          1987.906
       259   09 Jun 2027 07:52:09.308   09 Jun 2027 07:52:12.850             3.542          1162.063
       260   09 Jun 2027 09:22:09.153   09 Jun 2027 09:22:17.349             8.196          3383.906
       261   09 Jun 2027 09:23:22.427   09 Jun 2027 09:23:23.822             1.395           382.125
       262   09 Jun 2027 09:24:25.722   09 Jun 2027 09:24:28.814             3.092          1426.281
       263   09 Jun 2027 09:25:41.242   09 Jun 2027 09:25:46.382             5.140          2081.812
       264   09 Jun 2027 09:27:29.429   09 Jun 2027 09:27:29.429             0.000             0.000
       265   09 Jun 2027 09:27:47.803   09 Jun 2027 09:27:47.803             0.000             0.000
       266   09 Jun 2027 09:28:07.543   09 Jun 2027 09:28:16.396             8.853          4320.969
       267   09 Jun 2027 09:28:44.512   09 Jun 2027 09:28:46.624             2.112           878.625
       268   09 Jun 2027 09:29:20.207   09 Jun 2027 09:29:23.006             2.799          1026.250
       269   09 Jun 2027 11:03:04.013   09 Jun 2027 11:03:20.375            16.362          8181.000
       270   09 Jun 2027 11:05:05.454   09 Jun 2027 11:05:19.546            14.092          6963.594
       271   09 Jun 2027 11:05:34.754   09 Jun 2027 11:05:40.995             6.241           475.250
       272   09 Jun 2027 11:05:53.800   09 Jun 2027 11:05:56.048             2.248           400.156
       273   09 Jun 2027 11:06:12.743   09 Jun 2027 11:06:14.833             2.090           502.844
       274   09 Jun 2027 11:06:53.612   09 Jun 2027 11:06:54.971             1.359           679.500
       275   10 Jun 2027 03:21:53.871   10 Jun 2027 03:22:10.673            16.802          8401.000
       276   10 Jun 2027 03:22:19.805   10 Jun 2027 03:22:48.815            29.010         14505.000
       277   10 Jun 2027 03:22:53.541   10 Jun 2027 03:23:47.812            54.271         27135.500
       278   10 Jun 2027 03:23:49.324   10 Jun 2027 03:25:45.379           116.055         58027.500
       279   10 Jun 2027 03:26:45.954   10 Jun 2027 03:26:52.009             6.055          3027.500
       280   10 Jun 2027 03:27:17.816   10 Jun 2027 03:27:22.720             4.904          2452.000
       281   10 Jun 2027 05:00:37.387   10 Jun 2027 05:01:55.547            78.160         38577.781
       282   10 Jun 2027 05:02:36.310   10 Jun 2027 05:02:41.813             5.503          1273.844
       283   10 Jun 2027 05:02:56.226   10 Jun 2027 05:03:02.485             6.259           389.281
       284   10 Jun 2027 05:03:45.385   10 Jun 2027 05:03:47.662             2.277           914.344
       285   10 Jun 2027 05:05:03.276   10 Jun 2027 05:05:07.090             3.814          1772.312
       286   10 Jun 2027 05:06:00.715   10 Jun 2027 05:06:06.238             5.523          1316.938
       287   10 Jun 2027 05:06:31.025   10 Jun 2027 05:06:31.025             0.000             0.000
       288   10 Jun 2027 05:06:34.836   10 Jun 2027 05:06:36.941             2.105           557.969
       289   10 Jun 2027 05:07:22.591   10 Jun 2027 05:07:26.833             4.242           740.625
       290   10 Jun 2027 06:24:53.439   10 Jun 2027 06:25:08.363            14.924          6998.844
       291   10 Jun 2027 06:25:34.795   10 Jun 2027 06:25:36.777             1.982           554.219
       292   10 Jun 2027 06:26:43.825   10 Jun 2027 06:26:50.634             6.809          1447.250
       293   10 Jun 2027 06:37:20.925   10 Jun 2027 06:37:27.052             6.127          3063.500
       294   10 Jun 2027 07:58:44.935   10 Jun 2027 07:59:03.734            18.799          8834.625
       295   10 Jun 2027 08:00:04.296   10 Jun 2027 08:00:07.556             3.260          1511.938
       296   10 Jun 2027 08:01:17.319   10 Jun 2027 08:01:20.819             3.500          1427.656
       297   10 Jun 2027 08:02:08.589   10 Jun 2027 08:02:11.339             2.750          1051.687
       298   10 Jun 2027 08:03:53.883   10 Jun 2027 08:04:00.096             6.213          2673.500
       299   10 Jun 2027 09:33:39.794   10 Jun 2027 09:33:51.994            12.200          3990.250
       300   10 Jun 2027 09:35:41.414   10 Jun 2027 09:35:46.527             5.113          2222.125
       301   10 Jun 2027 09:35:55.086   10 Jun 2027 09:35:55.824             0.738           238.844
       302   10 Jun 2027 09:40:12.329   10 Jun 2027 09:40:12.329             0.000             0.000
       303   10 Jun 2027 09:40:39.450   10 Jun 2027 09:40:58.448            18.998          8514.188
       304   10 Jun 2027 09:42:08.359   10 Jun 2027 09:42:14.349             5.990          2041.250
       305   10 Jun 2027 09:42:23.204   10 Jun 2027 09:42:27.263             4.059           276.719
       306   10 Jun 2027 09:42:40.114   10 Jun 2027 09:42:45.174             5.060           395.156
       307   10 Jun 2027 11:11:37.255   10 Jun 2027 11:11:51.728            14.473          6710.625
       308   10 Jun 2027 11:15:28.212   10 Jun 2027 11:15:44.838            16.626          6765.125
       309   10 Jun 2027 11:16:41.223   10 Jun 2027 11:16:46.666             5.443          1505.031
       310   10 Jun 2027 11:17:58.626   10 Jun 2027 11:18:04.695             6.069          2197.781
       311   10 Jun 2027 11:18:29.873   10 Jun 2027 11:18:34.635             4.762           694.812
       312   11 Jun 2027 03:34:30.469   11 Jun 2027 03:34:41.651            11.182          5591.000
       313   11 Jun 2027 03:34:53.226   11 Jun 2027 03:35:54.579            61.353         30676.500
       314   11 Jun 2027 03:36:00.573   11 Jun 2027 03:36:36.822            36.249         18124.500
       315   11 Jun 2027 03:36:38.694   11 Jun 2027 03:39:03.960           145.266         72633.000
       316   11 Jun 2027 03:39:43.875   11 Jun 2027 03:39:51.113             7.238          3619.000
       317   11 Jun 2027 05:13:00.273   11 Jun 2027 05:14:01.637            61.364         29441.812
       318   11 Jun 2027 05:14:05.597   11 Jun 2027 05:14:06.046             0.449            74.312
       319   11 Jun 2027 05:14:37.924   11 Jun 2027 05:14:41.025             3.101           219.844
       320   11 Jun 2027 05:15:34.991   11 Jun 2027 05:15:36.124             1.133           118.531
       321   11 Jun 2027 05:16:09.820   11 Jun 2027 05:16:13.215             3.395           825.625
       322   11 Jun 2027 05:17:18.251   11 Jun 2027 05:17:22.689             4.438          1586.656
       323   11 Jun 2027 06:36:49.513   11 Jun 2027 06:37:08.037            18.524          7752.250
       324   11 Jun 2027 06:37:57.565   11 Jun 2027 06:37:57.565             0.000             0.000
       325   11 Jun 2027 06:37:58.977   11 Jun 2027 06:38:00.786             1.809           904.500
       326   11 Jun 2027 06:38:50.703   11 Jun 2027 06:38:55.044             4.341          2126.438
       327   11 Jun 2027 08:12:49.078   11 Jun 2027 08:13:00.072            10.994          5497.000
       328   11 Jun 2027 08:13:14.523   11 Jun 2027 08:13:20.704             6.181          1459.781
       329   11 Jun 2027 08:14:18.499   11 Jun 2027 08:14:22.584             4.085          1716.656
       330   11 Jun 2027 09:46:33.407   11 Jun 2027 09:46:43.927            10.520          4931.875
       331   11 Jun 2027 09:48:57.392   11 Jun 2027 09:49:04.146             6.754          3014.937
       332   11 Jun 2027 09:49:20.543   11 Jun 2027 09:49:21.582             1.039           509.125
       333   11 Jun 2027 09:53:23.883   11 Jun 2027 09:53:28.302             4.419          2209.500
       334   11 Jun 2027 09:54:16.876   11 Jun 2027 09:54:29.899            13.023          5505.562
       335   11 Jun 2027 09:54:49.911   11 Jun 2027 09:54:50.015             0.104            52.000
       336   11 Jun 2027 09:54:54.346   11 Jun 2027 09:54:55.407             1.061           155.437
       337   11 Jun 2027 11:23:58.616   11 Jun 2027 11:24:14.561            15.945          7523.625
       338   11 Jun 2027 11:24:23.796   11 Jun 2027 11:24:24.891             1.095           288.594
       339   11 Jun 2027 11:25:18.521   11 Jun 2027 11:25:18.956             0.435           155.562
       340   11 Jun 2027 11:28:34.930   11 Jun 2027 11:28:49.530            14.600          6046.406
       341   11 Jun 2027 11:28:57.944   11 Jun 2027 11:28:58.087             0.143            71.500
       342   11 Jun 2027 11:30:00.518   11 Jun 2027 11:30:02.139             1.621           810.500
       343   11 Jun 2027 11:30:31.241   11 Jun 2027 11:30:36.894             5.653          2241.344
       344   11 Jun 2027 11:30:41.266   11 Jun 2027 11:30:42.564             1.298           136.625
       345   12 Jun 2027 03:47:01.844   12 Jun 2027 03:47:28.373            26.529         13264.500
       346   12 Jun 2027 03:47:35.332   12 Jun 2027 03:50:13.037           157.705         78852.500
       347   12 Jun 2027 03:50:29.273   12 Jun 2027 03:51:24.264            54.991         27495.500
       348   12 Jun 2027 03:51:43.791   12 Jun 2027 03:51:45.039             1.248           624.000
       349   12 Jun 2027 03:52:56.113   12 Jun 2027 03:53:07.358            11.245          5622.500
       350   12 Jun 2027 05:25:00.838   12 Jun 2027 05:26:01.033            60.195         30097.500
       351   12 Jun 2027 05:26:18.753   12 Jun 2027 05:26:24.541             5.788          2894.000
       352   12 Jun 2027 05:27:05.378   12 Jun 2027 05:27:15.543            10.165          2874.468
       353   12 Jun 2027 05:27:40.089   12 Jun 2027 05:27:44.303             4.214           495.156
       354   12 Jun 2027 05:28:31.823   12 Jun 2027 05:28:36.345             4.522          1485.000
       355   12 Jun 2027 05:29:23.886   12 Jun 2027 05:29:25.833             1.947           274.688
       356   12 Jun 2027 06:48:41.085   12 Jun 2027 06:48:52.598            11.513          5691.344
       357   12 Jun 2027 06:50:00.269   12 Jun 2027 06:50:08.357             8.088          1733.781
       358   12 Jun 2027 06:50:19.582   12 Jun 2027 06:50:20.691             1.109           350.781
       359   12 Jun 2027 06:50:42.901   12 Jun 2027 06:50:42.901             0.000             0.000
       360   12 Jun 2027 06:50:44.708   12 Jun 2027 06:50:47.798             3.090           666.625
       361   12 Jun 2027 06:51:07.774   12 Jun 2027 06:51:07.774             0.000             0.000
       362   12 Jun 2027 08:25:03.694   12 Jun 2027 08:25:20.187            16.493          8054.281
       363   12 Jun 2027 08:26:12.040   12 Jun 2027 08:26:12.040             0.000             0.000
       364   12 Jun 2027 08:26:31.298   12 Jun 2027 08:26:34.699             3.401          1687.844
       365   12 Jun 2027 08:27:54.516   12 Jun 2027 08:27:54.516             0.000             0.000
       366   12 Jun 2027 09:59:42.726   12 Jun 2027 10:00:00.262            17.536          7873.031
       367   12 Jun 2027 10:03:27.697   12 Jun 2027 10:03:38.241            10.544          4915.937
       368   12 Jun 2027 10:04:25.485   12 Jun 2027 10:04:28.682             3.197          1187.750
       369   12 Jun 2027 10:06:02.150   12 Jun 2027 10:06:02.449             0.299           149.500
       370   12 Jun 2027 10:06:05.461   12 Jun 2027 10:06:09.644             4.183          1870.750
       371   12 Jun 2027 10:07:04.174   12 Jun 2027 10:07:07.066             2.892          1446.000
       372   12 Jun 2027 11:36:12.090   12 Jun 2027 11:36:26.846            14.756          5387.125
       373   12 Jun 2027 11:37:03.681   12 Jun 2027 11:37:07.526             3.845           739.313
       374   12 Jun 2027 11:38:54.637   12 Jun 2027 11:39:02.727             8.090          2102.031
       375   12 Jun 2027 11:39:25.245   12 Jun 2027 11:39:32.616             7.371           332.781
       376   12 Jun 2027 11:41:19.645   12 Jun 2027 11:41:24.144             4.499          2249.500
       377   12 Jun 2027 11:41:55.496   12 Jun 2027 11:41:59.755             4.259          1448.406
       378   12 Jun 2027 11:42:14.932   12 Jun 2027 11:42:17.594             2.662           474.281
       379   12 Jun 2027 11:42:17.899   12 Jun 2027 11:42:19.534             1.635             9.531
       380   12 Jun 2027 11:42:38.368   12 Jun 2027 11:42:42.747             4.379           575.375
       381   13 Jun 2027 03:59:07.878   13 Jun 2027 04:00:09.793            61.915         30957.500
       382   13 Jun 2027 04:00:16.266   13 Jun 2027 04:01:37.126            80.860         40430.000
       383   13 Jun 2027 04:01:43.594   13 Jun 2027 04:03:13.091            89.497         44748.500
       384   13 Jun 2027 04:03:35.475   13 Jun 2027 04:04:25.885            50.410         25205.000
       385   13 Jun 2027 05:38:14.014   13 Jun 2027 05:39:09.468            55.454         27406.187
       386   13 Jun 2027 05:40:15.164   13 Jun 2027 05:40:20.907             5.743          1238.750
       387   13 Jun 2027 07:00:45.482   13 Jun 2027 07:00:54.926             9.444          4722.000
       388   13 Jun 2027 07:02:01.328   13 Jun 2027 07:02:12.149            10.821          4358.094
       389   13 Jun 2027 07:02:38.242   13 Jun 2027 07:02:38.242             0.000             0.000
       390   13 Jun 2027 07:03:21.329   13 Jun 2027 07:03:24.311             2.982          1491.000
       391   13 Jun 2027 08:37:25.937   13 Jun 2027 08:37:34.660             8.723          4361.500
       392   13 Jun 2027 08:38:08.107   13 Jun 2027 08:38:09.205             1.098           549.000
       393   13 Jun 2027 08:38:39.451   13 Jun 2027 08:38:47.073             7.622          2524.938
       394   13 Jun 2027 08:39:41.961   13 Jun 2027 08:39:48.763             6.802          1712.906
       395   13 Jun 2027 10:12:20.104   13 Jun 2027 10:12:33.462            13.358          5307.969
       396   13 Jun 2027 10:15:25.495   13 Jun 2027 10:15:35.698            10.203          4745.406
       397   13 Jun 2027 10:15:55.153   13 Jun 2027 10:15:56.708             1.555           555.750
       398   13 Jun 2027 10:17:26.003   13 Jun 2027 10:17:32.134             6.131          2706.688
       399   13 Jun 2027 10:18:44.553   13 Jun 2027 10:18:45.645             1.092           546.000
       400   13 Jun 2027 10:18:58.823   13 Jun 2027 10:19:04.107             5.284          1988.594
       401   13 Jun 2027 11:48:42.396   13 Jun 2027 11:48:53.866            11.470          5145.594
       402   13 Jun 2027 11:50:13.132   13 Jun 2027 11:50:14.975             1.843           921.500
       403   13 Jun 2027 11:50:51.619   13 Jun 2027 11:50:56.927             5.308          2104.687
       404   13 Jun 2027 11:52:14.378   13 Jun 2027 11:52:17.125             2.747          1373.500
       405   13 Jun 2027 11:52:31.753   13 Jun 2027 11:52:40.177             8.424          1430.406
       406   13 Jun 2027 11:53:16.873   13 Jun 2027 11:53:16.873             0.000             0.000
       407   13 Jun 2027 11:54:01.084   13 Jun 2027 11:54:01.952             0.868           434.000
