uniorb/output/strategy_2/Camera/Camera_KinoSat_110504.txt

KinoSat_110504
-------------------------
    Access    *     Start Time (UTCG)     *     Stop Time (UTCG)  *   Duration (s) *   Data (Mbytes)
         1   01 Jun 2027 03:54:54.330   01 Jun 2027 03:55:05.690            11.360          5680.000
         2   01 Jun 2027 03:56:36.886   01 Jun 2027 03:56:38.112             1.226           613.000
         3   01 Jun 2027 03:56:52.465   01 Jun 2027 03:56:59.315             6.850          3425.000
         4   01 Jun 2027 03:57:52.722   01 Jun 2027 03:57:54.720             1.998           999.000
         5   01 Jun 2027 03:58:07.571   01 Jun 2027 03:58:15.391             7.820          3910.000
         6   01 Jun 2027 03:58:51.849   01 Jun 2027 03:58:55.338             3.489          1744.500
         7   01 Jun 2027 03:59:12.608   01 Jun 2027 03:59:14.867             2.259          1129.500
         8   01 Jun 2027 03:59:42.843   01 Jun 2027 03:59:45.577             2.734          1367.000
         9   01 Jun 2027 04:00:17.940   01 Jun 2027 04:00:19.656             1.716           858.000
        10   01 Jun 2027 04:00:30.734   01 Jun 2027 04:00:32.962             2.228          1114.000
        11   01 Jun 2027 04:00:59.629   01 Jun 2027 04:01:05.015             5.386          2693.000
        12   01 Jun 2027 04:01:58.770   01 Jun 2027 04:01:59.175             0.405           202.500
        13   01 Jun 2027 04:02:21.362   01 Jun 2027 04:02:27.996             6.634          3317.000
        14   01 Jun 2027 04:03:13.266   01 Jun 2027 04:03:20.289             7.023          3511.500
        15   01 Jun 2027 04:03:24.154   01 Jun 2027 04:03:25.125             0.971           485.500
        16   01 Jun 2027 05:32:42.934   01 Jun 2027 05:32:44.561             1.627           813.500
        17   01 Jun 2027 05:32:56.463   01 Jun 2027 05:33:10.221            13.758          6879.000
        18   01 Jun 2027 05:33:33.652   01 Jun 2027 05:33:39.190             5.538          2769.000
        19   01 Jun 2027 05:34:34.471   01 Jun 2027 05:34:39.562             5.091          2545.500
        20   01 Jun 2027 05:35:15.880   01 Jun 2027 05:35:16.175             0.295           147.500
        21   01 Jun 2027 05:35:37.692   01 Jun 2027 05:35:37.974             0.282           141.000
        22   01 Jun 2027 05:36:33.405   01 Jun 2027 05:36:37.306             3.901          1950.500
        23   01 Jun 2027 05:36:43.180   01 Jun 2027 05:36:44.839             1.659           829.500
        24   01 Jun 2027 05:37:09.576   01 Jun 2027 05:37:17.567             7.991          3995.500
        25   01 Jun 2027 05:38:08.425   01 Jun 2027 05:38:13.824             5.399          2699.500
        26   01 Jun 2027 05:38:52.387   01 Jun 2027 05:39:11.890            19.503          9751.500
        27   01 Jun 2027 07:09:27.391   01 Jun 2027 07:09:41.309            13.918          6959.000
        28   01 Jun 2027 07:10:43.073   01 Jun 2027 07:10:48.629             5.556          2778.000
        29   01 Jun 2027 07:11:21.438   01 Jun 2027 07:11:29.978             8.540          4270.000
        30   01 Jun 2027 07:12:22.200   01 Jun 2027 07:12:24.873             2.673          1336.500
        31   01 Jun 2027 07:12:49.018   01 Jun 2027 07:12:55.080             6.062          3031.000
        32   01 Jun 2027 07:13:43.001   01 Jun 2027 07:13:44.428             1.427           713.500
        33   01 Jun 2027 07:14:08.278   01 Jun 2027 07:14:13.144             4.866          2433.000
        34   01 Jun 2027 07:15:17.028   01 Jun 2027 07:15:18.533             1.505           752.500
        35   01 Jun 2027 07:15:41.321   01 Jun 2027 07:15:42.666             1.345           672.500
        36   01 Jun 2027 08:47:34.835   01 Jun 2027 08:47:36.584             1.749           874.500
        37   01 Jun 2027 08:47:48.655   01 Jun 2027 08:48:04.505            15.850          7925.000
        38   01 Jun 2027 08:49:37.665   01 Jun 2027 08:49:38.413             0.748           374.000
        39   01 Jun 2027 08:49:59.408   01 Jun 2027 08:50:06.051             6.643          3321.500
        40   01 Jun 2027 08:50:36.111   01 Jun 2027 08:50:48.260            12.149          6074.500
        41   01 Jun 2027 10:21:25.906   01 Jun 2027 10:21:36.496            10.590          5295.000
        42   01 Jun 2027 10:22:20.649   01 Jun 2027 10:22:50.172            29.523         14761.500
        43   01 Jun 2027 10:24:52.848   01 Jun 2027 10:24:59.275             6.427          3213.500
        44   01 Jun 2027 10:25:47.226   01 Jun 2027 10:25:53.629             6.403          3201.500
        45   01 Jun 2027 10:27:04.661   01 Jun 2027 10:27:08.377             3.716          1858.000
        46   01 Jun 2027 10:27:35.668   01 Jun 2027 10:27:37.421             1.753           876.500
        47   02 Jun 2027 04:07:42.726   02 Jun 2027 04:07:43.894             1.168           584.000
        48   02 Jun 2027 04:08:40.500   02 Jun 2027 04:08:48.265             7.765          3882.500
        49   02 Jun 2027 04:09:34.756   02 Jun 2027 04:09:38.674             3.918          1959.000
        50   02 Jun 2027 04:10:26.280   02 Jun 2027 04:10:37.843            11.563          5781.500
        51   02 Jun 2027 04:11:58.306   02 Jun 2027 04:12:01.239             2.933          1466.500
        52   02 Jun 2027 04:12:18.086   02 Jun 2027 04:12:20.617             2.531          1265.500
        53   02 Jun 2027 04:12:57.837   02 Jun 2027 04:13:01.143             3.306          1653.000
        54   02 Jun 2027 04:13:20.666   02 Jun 2027 04:13:22.639             1.973           986.500
        55   02 Jun 2027 04:14:02.655   02 Jun 2027 04:14:14.428            11.773          5886.500
        56   02 Jun 2027 04:14:55.392   02 Jun 2027 04:14:57.702             2.310          1155.000
        57   02 Jun 2027 04:15:21.825   02 Jun 2027 04:15:26.660             4.835          2417.500
        58   02 Jun 2027 04:15:52.272   02 Jun 2027 04:15:57.628             5.356          2678.000
        59   02 Jun 2027 04:16:11.518   02 Jun 2027 04:16:12.638             1.120           560.000
        60   02 Jun 2027 05:44:49.340   02 Jun 2027 05:44:59.216             9.876          4938.000
        61   02 Jun 2027 05:45:36.507   02 Jun 2027 05:45:42.986             6.479          3239.500
        62   02 Jun 2027 05:46:41.271   02 Jun 2027 05:46:45.840             4.569          2284.500
        63   02 Jun 2027 05:47:05.065   02 Jun 2027 05:47:06.107             1.042           521.000
        64   02 Jun 2027 05:47:21.116   02 Jun 2027 05:47:28.628             7.512          3756.000
        65   02 Jun 2027 05:47:34.978   02 Jun 2027 05:47:41.882             6.904          3452.000
        66   02 Jun 2027 05:48:19.362   02 Jun 2027 05:48:20.536             1.174           587.000
        67   02 Jun 2027 05:48:44.198   02 Jun 2027 05:48:47.709             3.511          1755.500
        68   02 Jun 2027 05:49:12.550   02 Jun 2027 05:49:16.293             3.743          1871.500
        69   02 Jun 2027 05:49:31.327   02 Jun 2027 05:49:39.580             8.253          4126.500
        70   02 Jun 2027 05:50:15.793   02 Jun 2027 05:50:35.599            19.806          9903.000
        71   02 Jun 2027 05:51:56.852   02 Jun 2027 05:52:05.879             9.027          4513.500
        72   02 Jun 2027 07:21:51.654   02 Jun 2027 07:21:57.218             5.564          2782.000
        73   02 Jun 2027 07:22:50.560   02 Jun 2027 07:22:51.074             0.514           257.000
        74   02 Jun 2027 07:23:37.961   02 Jun 2027 07:23:44.378             6.417          3208.500
        75   02 Jun 2027 07:24:26.189   02 Jun 2027 07:24:33.885             7.696          3848.000
        76   02 Jun 2027 07:25:15.154   02 Jun 2027 07:25:32.303            17.149          8574.500
        77   02 Jun 2027 07:27:09.379   02 Jun 2027 07:27:09.529             0.150            75.000
        78   02 Jun 2027 07:27:12.254   02 Jun 2027 07:27:24.230            11.976          5988.000
        79   02 Jun 2027 07:27:40.510   02 Jun 2027 07:27:41.806             1.296           648.000
        80   02 Jun 2027 08:58:48.891   02 Jun 2027 08:58:55.104             6.213          3106.500
        81   02 Jun 2027 08:59:30.812   02 Jun 2027 08:59:31.818             1.006           503.000
        82   02 Jun 2027 09:00:02.304   02 Jun 2027 09:00:22.323            20.019         10009.500
        83   02 Jun 2027 09:01:19.893   02 Jun 2027 09:01:35.094            15.201          7600.500
        84   02 Jun 2027 09:03:23.950   02 Jun 2027 09:03:33.450             9.500          4750.000
        85   02 Jun 2027 10:33:52.628   02 Jun 2027 10:34:10.651            18.023          9011.500
        86   02 Jun 2027 10:35:33.652   02 Jun 2027 10:35:35.588             1.936           968.000
        87   02 Jun 2027 10:36:32.666   02 Jun 2027 10:36:38.771             6.105          3052.500
        88   02 Jun 2027 10:37:06.990   02 Jun 2027 10:37:29.320            22.330         11165.000
        89   03 Jun 2027 04:19:41.234   03 Jun 2027 04:19:44.643             3.409          1704.500
        90   03 Jun 2027 04:20:24.376   03 Jun 2027 04:20:26.114             1.738           869.000
        91   03 Jun 2027 04:20:43.148   03 Jun 2027 04:20:55.117            11.969          5984.500
        92   03 Jun 2027 04:21:57.902   03 Jun 2027 04:22:14.879            16.977          8488.500
        93   03 Jun 2027 04:23:00.610   03 Jun 2027 04:23:01.237             0.627           313.500
        94   03 Jun 2027 04:23:43.428   03 Jun 2027 04:23:50.208             6.780          3390.000
        95   03 Jun 2027 04:24:32.059   03 Jun 2027 04:24:37.701             5.642          2821.000
        96   03 Jun 2027 04:25:10.146   03 Jun 2027 04:25:17.212             7.066          3533.000
        97   03 Jun 2027 04:26:10.573   03 Jun 2027 04:26:14.266             3.693          1846.500
        98   03 Jun 2027 04:26:32.210   03 Jun 2027 04:26:38.381             6.171          3085.500
        99   03 Jun 2027 04:27:26.938   03 Jun 2027 04:27:30.600             3.662          1831.000
       100   03 Jun 2027 04:27:47.494   03 Jun 2027 04:27:51.826             4.332          2166.000
       101   03 Jun 2027 04:28:01.351   03 Jun 2027 04:28:01.534             0.183            91.500
       102   03 Jun 2027 05:57:15.113   03 Jun 2027 05:57:20.516             5.403          2701.500
       103   03 Jun 2027 05:57:44.246   03 Jun 2027 05:57:49.572             5.326          2663.000
       104   03 Jun 2027 05:58:24.217   03 Jun 2027 05:58:24.873             0.656           328.000
       105   03 Jun 2027 05:59:06.697   03 Jun 2027 05:59:07.270             0.573           286.500
       106   03 Jun 2027 05:59:13.403   03 Jun 2027 05:59:15.986             2.583          1291.500
       107   03 Jun 2027 05:59:35.838   03 Jun 2027 05:59:46.985            11.147          5573.500
       108   03 Jun 2027 06:00:35.181   03 Jun 2027 06:00:45.418            10.237          5118.500
       109   03 Jun 2027 06:01:38.806   03 Jun 2027 06:01:39.020             0.214           107.000
       110   03 Jun 2027 06:02:34.485   03 Jun 2027 06:02:36.252             1.767           883.500
       111   03 Jun 2027 06:03:03.995   03 Jun 2027 06:03:13.073             9.078          4539.000
       112   03 Jun 2027 06:03:26.484   03 Jun 2027 06:03:27.020             0.536           268.000
       113   03 Jun 2027 06:03:53.868   03 Jun 2027 06:03:57.298             3.430          1715.000
       114   03 Jun 2027 07:34:09.134   03 Jun 2027 07:34:37.333            28.199         14099.500
       115   03 Jun 2027 07:36:43.357   03 Jun 2027 07:36:51.710             8.353          4176.500
       116   03 Jun 2027 07:37:36.185   03 Jun 2027 07:37:44.013             7.828          3914.000
       117   03 Jun 2027 07:38:17.193   03 Jun 2027 07:38:19.582             2.389          1194.500
       118   03 Jun 2027 07:39:02.480   03 Jun 2027 07:39:15.806            13.326          6663.000
       119   03 Jun 2027 07:39:30.940   03 Jun 2027 07:39:34.414             3.474          1737.000
       120   03 Jun 2027 09:11:02.717   03 Jun 2027 09:11:03.158             0.441           220.500
       121   03 Jun 2027 09:11:47.684   03 Jun 2027 09:11:51.404             3.720          1860.000
       122   03 Jun 2027 09:12:15.959   03 Jun 2027 09:12:20.613             4.654          2327.000
       123   03 Jun 2027 09:13:39.959   03 Jun 2027 09:13:41.128             1.169           584.500
       124   03 Jun 2027 09:14:16.398   03 Jun 2027 09:14:16.886             0.488           244.000
       125   03 Jun 2027 09:14:22.813   03 Jun 2027 09:14:32.507             9.694          4847.000
       126   03 Jun 2027 10:48:42.339   03 Jun 2027 10:48:44.141             1.802           901.000
       127   03 Jun 2027 10:49:28.736   03 Jun 2027 10:49:30.384             1.648           824.000
       128   03 Jun 2027 10:49:38.739   03 Jun 2027 10:50:01.235            22.496         11248.000
       129   04 Jun 2027 03:00:00.000   04 Jun 2027 03:00:08.051             8.051          4025.500
       130   04 Jun 2027 03:01:07.505   04 Jun 2027 03:01:09.888             2.383          1191.500
       131   04 Jun 2027 04:33:09.904   04 Jun 2027 04:33:12.841             2.937          1468.500
       132   04 Jun 2027 04:33:33.219   04 Jun 2027 04:33:52.153            18.934          9467.000
       133   04 Jun 2027 04:35:41.328   04 Jun 2027 04:35:45.907             4.579          2289.500
       134   04 Jun 2027 04:36:35.017   04 Jun 2027 04:36:37.021             2.004          1002.000
       135   04 Jun 2027 04:37:42.553   04 Jun 2027 04:37:44.606             2.053          1026.500
       136   04 Jun 2027 04:38:01.235   04 Jun 2027 04:38:09.280             8.045          4022.500
       137   04 Jun 2027 04:38:32.598   04 Jun 2027 04:38:32.749             0.151            75.500
       138   04 Jun 2027 04:39:12.863   04 Jun 2027 04:39:13.781             0.918           459.000
       139   04 Jun 2027 04:39:19.191   04 Jun 2027 04:39:24.089             4.898          2449.000
       140   04 Jun 2027 04:40:04.044   04 Jun 2027 04:40:05.490             1.446           723.000
       141   04 Jun 2027 06:09:22.492   04 Jun 2027 06:09:34.168            11.676          5838.000
       142   04 Jun 2027 06:10:21.392   04 Jun 2027 06:11:04.757            43.365         21682.500
       143   04 Jun 2027 06:14:06.754   04 Jun 2027 06:14:07.342             0.588           294.000
       144   04 Jun 2027 06:14:17.235   04 Jun 2027 06:14:24.183             6.948          3474.000
       145   04 Jun 2027 06:15:11.059   04 Jun 2027 06:15:11.451             0.392           196.000
       146   04 Jun 2027 06:15:20.700   04 Jun 2027 06:15:21.077             0.377           188.500
       147   04 Jun 2027 06:15:39.061   04 Jun 2027 06:15:39.397             0.336           168.000
       148   04 Jun 2027 06:15:41.246   04 Jun 2027 06:15:47.753             6.507          3253.500
       149   04 Jun 2027 07:47:05.792   04 Jun 2027 07:47:06.665             0.873           436.500
       150   04 Jun 2027 07:48:05.758   04 Jun 2027 07:48:06.559             0.801           400.500
       151   04 Jun 2027 07:48:29.842   04 Jun 2027 07:48:32.135             2.293          1146.500
       152   04 Jun 2027 07:48:47.364   04 Jun 2027 07:48:48.150             0.786           393.000
       153   04 Jun 2027 07:49:19.516   04 Jun 2027 07:49:31.836            12.320          6160.000
       154   04 Jun 2027 07:50:34.344   04 Jun 2027 07:50:36.232             1.888           944.000
       155   04 Jun 2027 09:23:12.076   04 Jun 2027 09:23:15.099             3.023          1511.500
       156   04 Jun 2027 09:23:41.306   04 Jun 2027 09:23:52.031            10.725          5362.500
       157   04 Jun 2027 09:24:41.085   04 Jun 2027 09:24:48.395             7.310          3655.000
       158   04 Jun 2027 09:25:56.072   04 Jun 2027 09:26:10.393            14.321          7160.500
       159   04 Jun 2027 09:27:29.020   04 Jun 2027 09:27:34.007             4.987          2493.500
       160   05 Jun 2027 03:10:22.381   05 Jun 2027 03:10:27.888             5.507          2753.500
       161   05 Jun 2027 03:11:01.193   05 Jun 2027 03:11:02.402             1.209           604.500
       162   05 Jun 2027 03:11:09.387   05 Jun 2027 03:11:12.034             2.647          1323.500
       163   05 Jun 2027 03:11:42.666   05 Jun 2027 03:11:43.607             0.941           470.500
       164   05 Jun 2027 03:12:22.029   05 Jun 2027 03:12:26.081             4.052          2026.000
       165   05 Jun 2027 03:12:55.905   05 Jun 2027 03:12:56.692             0.787           393.500
       166   05 Jun 2027 03:13:12.477   05 Jun 2027 03:13:21.569             9.092          4546.000
       167   05 Jun 2027 04:45:32.428   05 Jun 2027 04:45:32.603             0.175            87.500
       168   05 Jun 2027 04:46:17.830   05 Jun 2027 04:46:18.567             0.737           368.500
       169   05 Jun 2027 04:46:46.048   05 Jun 2027 04:46:50.084             4.036          2018.000
       170   05 Jun 2027 04:47:11.816   05 Jun 2027 04:47:13.214             1.398           699.000
       171   05 Jun 2027 04:47:23.307   05 Jun 2027 04:47:25.751             2.444          1222.000
       172   05 Jun 2027 04:47:53.482   05 Jun 2027 04:48:14.143            20.661         10330.500
       173   05 Jun 2027 04:49:49.808   05 Jun 2027 04:49:55.181             5.373          2686.500
       174   05 Jun 2027 04:50:37.470   05 Jun 2027 04:50:37.630             0.160            80.000
       175   05 Jun 2027 04:50:42.983   05 Jun 2027 04:50:44.785             1.802           901.000
       176   05 Jun 2027 04:51:08.415   05 Jun 2027 04:51:23.601            15.186          7593.000
       177   05 Jun 2027 04:51:57.222   05 Jun 2027 04:52:02.465             5.243          2621.500
       178   05 Jun 2027 06:21:57.729   05 Jun 2027 06:22:09.074            11.345          5672.500
       179   05 Jun 2027 06:22:54.951   05 Jun 2027 06:23:01.559             6.608          3304.000
       180   05 Jun 2027 06:23:36.725   05 Jun 2027 06:23:49.133            12.408          6204.000
       181   05 Jun 2027 06:24:55.926   05 Jun 2027 06:25:02.758             6.832          3416.000
       182   05 Jun 2027 06:25:50.414   05 Jun 2027 06:25:52.498             2.084          1042.000
       183   05 Jun 2027 06:26:05.193   05 Jun 2027 06:26:09.694             4.501          2250.500
       184   05 Jun 2027 06:26:44.370   05 Jun 2027 06:26:59.057            14.687          7343.500
       185   05 Jun 2027 07:59:12.445   05 Jun 2027 07:59:22.450            10.005          5002.500
       186   05 Jun 2027 08:00:53.931   05 Jun 2027 08:00:54.281             0.350           175.000
       187   05 Jun 2027 08:01:21.691   05 Jun 2027 08:01:31.627             9.936          4968.000
       188   05 Jun 2027 08:02:50.887   05 Jun 2027 08:02:55.939             5.052          2526.000
       189   05 Jun 2027 08:03:22.627   05 Jun 2027 08:03:35.354            12.727          6363.500
       190   05 Jun 2027 09:35:26.890   05 Jun 2027 09:35:32.022             5.132          2566.000
       191   05 Jun 2027 09:36:04.945   05 Jun 2027 09:36:07.912             2.967          1483.500
       192   05 Jun 2027 09:36:45.242   05 Jun 2027 09:36:45.788             0.546           273.000
       193   05 Jun 2027 09:37:39.916   05 Jun 2027 09:37:40.269             0.353           176.500
       194   05 Jun 2027 09:38:20.461   05 Jun 2027 09:38:28.210             7.749          3874.500
       195   05 Jun 2027 09:39:22.849   05 Jun 2027 09:39:23.186             0.337           168.500
       196   05 Jun 2027 09:39:54.378   05 Jun 2027 09:39:55.176             0.798           399.000
       197   05 Jun 2027 09:40:05.587   05 Jun 2027 09:40:08.805             3.218          1609.000
       198   06 Jun 2027 03:22:15.293   06 Jun 2027 03:22:19.778             4.485          2242.500
       199   06 Jun 2027 03:22:42.061   06 Jun 2027 03:22:43.885             1.824           912.000
       200   06 Jun 2027 03:22:58.233   06 Jun 2027 03:23:01.086             2.853          1426.500
       201   06 Jun 2027 03:23:13.455   06 Jun 2027 03:23:23.499            10.044          5022.000
       202   06 Jun 2027 03:24:08.322   06 Jun 2027 03:24:11.206             2.884          1442.000
       203   06 Jun 2027 03:24:35.337   06 Jun 2027 03:24:43.884             8.547          4273.500
       204   06 Jun 2027 03:25:53.731   06 Jun 2027 03:25:58.452             4.721          2360.500
       205   06 Jun 2027 04:57:11.433   06 Jun 2027 04:57:11.586             0.153            76.500
       206   06 Jun 2027 04:57:27.790   06 Jun 2027 04:57:57.739            29.949         14974.500
       207   06 Jun 2027 05:00:40.975   06 Jun 2027 05:00:41.101             0.126            63.000
       208   06 Jun 2027 05:01:36.058   06 Jun 2027 05:01:44.758             8.700          4350.000
       209   06 Jun 2027 05:02:28.068   06 Jun 2027 05:02:35.998             7.930          3965.000
       210   06 Jun 2027 05:03:35.336   06 Jun 2027 05:03:37.423             2.087          1043.500
       211   06 Jun 2027 05:04:04.755   06 Jun 2027 05:04:05.858             1.103           551.500
       212   06 Jun 2027 05:04:15.761   06 Jun 2027 05:04:16.325             0.564           282.000
       213   06 Jun 2027 06:33:30.203   06 Jun 2027 06:34:07.035            36.832         18416.000
       214   06 Jun 2027 06:36:46.894   06 Jun 2027 06:36:49.258             2.364          1182.000
       215   06 Jun 2027 06:37:14.535   06 Jun 2027 06:37:15.226             0.691           345.500
       216   06 Jun 2027 06:37:56.194   06 Jun 2027 06:37:56.561             0.367           183.500
       217   06 Jun 2027 06:38:03.522   06 Jun 2027 06:38:04.266             0.744           372.000
       218   06 Jun 2027 06:38:26.200   06 Jun 2027 06:38:30.115             3.915          1957.500
       219   06 Jun 2027 06:39:00.872   06 Jun 2027 06:39:01.482             0.610           305.000
       220   06 Jun 2027 06:39:43.969   06 Jun 2027 06:39:48.714             4.745          2372.500
       221   06 Jun 2027 08:11:45.578   06 Jun 2027 08:11:51.291             5.713          2856.500
       222   06 Jun 2027 08:12:10.545   06 Jun 2027 08:12:11.114             0.569           284.500
       223   06 Jun 2027 08:12:28.507   06 Jun 2027 08:12:31.176             2.669          1334.500
       224   06 Jun 2027 08:13:04.954   06 Jun 2027 08:13:05.231             0.277           138.500
       225   06 Jun 2027 08:13:11.444   06 Jun 2027 08:13:19.444             8.000          4000.000
       226   06 Jun 2027 08:14:06.189   06 Jun 2027 08:14:07.826             1.637           818.500
       227   06 Jun 2027 08:14:26.116   06 Jun 2027 08:14:27.573             1.457           728.500
       228   06 Jun 2027 08:14:58.529   06 Jun 2027 08:15:06.452             7.923          3961.500
       229   06 Jun 2027 09:47:05.749   06 Jun 2027 09:47:21.866            16.117          8058.500
       230   06 Jun 2027 09:48:51.721   06 Jun 2027 09:48:53.590             1.869           934.500
       231   06 Jun 2027 09:49:16.094   06 Jun 2027 09:49:31.141            15.047          7523.500
       232   06 Jun 2027 09:51:11.096   06 Jun 2027 09:51:17.137             6.041          3020.500
       233   06 Jun 2027 09:51:47.240   06 Jun 2027 09:51:51.129             3.889          1944.500
       234   06 Jun 2027 09:52:11.382   06 Jun 2027 09:52:12.724             1.342           671.000
       235   06 Jun 2027 09:52:33.013   06 Jun 2027 09:52:36.289             3.276          1638.000
       236   07 Jun 2027 03:32:33.962   07 Jun 2027 03:32:42.289             8.327          4163.500
       237   07 Jun 2027 03:33:59.181   07 Jun 2027 03:34:01.941             2.760          1380.000
       238   07 Jun 2027 03:34:20.594   07 Jun 2027 03:34:21.453             0.859           429.500
       239   07 Jun 2027 03:34:44.845   07 Jun 2027 03:34:50.192             5.347          2673.500
       240   07 Jun 2027 03:35:03.860   07 Jun 2027 03:35:04.150             0.290           145.000
       241   07 Jun 2027 03:35:21.153   07 Jun 2027 03:35:23.288             2.135          1067.500
       242   07 Jun 2027 03:36:12.267   07 Jun 2027 03:36:17.596             5.329          2664.500
       243   07 Jun 2027 03:37:12.963   07 Jun 2027 03:37:13.905             0.942           471.000
       244   07 Jun 2027 03:37:25.313   07 Jun 2027 03:37:35.946            10.633          5316.500
       245   07 Jun 2027 05:08:44.771   07 Jun 2027 05:08:47.175             2.404          1202.000
       246   07 Jun 2027 05:08:58.414   07 Jun 2027 05:09:03.632             5.218          2609.000
       247   07 Jun 2027 05:09:25.713   07 Jun 2027 05:09:55.990            30.277         15138.500
       248   07 Jun 2027 05:11:48.584   07 Jun 2027 05:11:55.671             7.087          3543.500
       249   07 Jun 2027 05:12:32.680   07 Jun 2027 05:12:37.514             4.834          2417.000
       250   07 Jun 2027 05:13:40.138   07 Jun 2027 05:13:49.594             9.456          4728.000
       251   07 Jun 2027 05:14:43.638   07 Jun 2027 05:14:46.767             3.129          1564.500
       252   07 Jun 2027 05:15:07.337   07 Jun 2027 05:15:14.542             7.205          3602.500
       253   07 Jun 2027 05:16:05.269   07 Jun 2027 05:16:17.060            11.791          5895.500
       254   07 Jun 2027 06:45:49.464   07 Jun 2027 06:46:10.986            21.522         10761.000
       255   07 Jun 2027 06:47:41.168   07 Jun 2027 06:47:46.832             5.664          2832.000
       256   07 Jun 2027 06:48:21.866   07 Jun 2027 06:48:35.233            13.367          6683.500
       257   07 Jun 2027 06:49:11.515   07 Jun 2027 06:49:12.143             0.628           314.000
       258   07 Jun 2027 06:49:43.361   07 Jun 2027 06:49:45.610             2.249          1124.500
       259   07 Jun 2027 06:49:50.635   07 Jun 2027 06:49:58.887             8.252          4126.000
       260   07 Jun 2027 06:50:36.998   07 Jun 2027 06:50:42.255             5.257          2628.500
       261   07 Jun 2027 08:23:48.553   07 Jun 2027 08:24:00.347            11.794          5897.000
       262   07 Jun 2027 08:24:55.577   07 Jun 2027 08:24:56.327             0.750           375.000
       263   07 Jun 2027 08:24:58.284   07 Jun 2027 08:24:58.284             0.000             0.000
       264   07 Jun 2027 08:25:01.882   07 Jun 2027 08:25:06.476             4.594          2297.000
       265   07 Jun 2027 08:25:35.526   07 Jun 2027 08:25:36.745             1.219           609.500
       266   07 Jun 2027 08:25:50.431   07 Jun 2027 08:26:01.093            10.662          5331.000
       267   07 Jun 2027 08:27:00.199   07 Jun 2027 08:27:06.572             6.373          3186.500
       268   07 Jun 2027 08:27:43.363   07 Jun 2027 08:27:43.531             0.168            84.000
       269   07 Jun 2027 09:56:57.493   07 Jun 2027 09:57:28.838            31.345         15672.500
       270   07 Jun 2027 09:59:47.912   07 Jun 2027 09:59:56.682             8.770          4385.000
       271   07 Jun 2027 10:00:53.399   07 Jun 2027 10:00:54.302             0.903           451.500
       272   07 Jun 2027 10:01:17.288   07 Jun 2027 10:01:18.402             1.114           557.000
       273   07 Jun 2027 10:01:28.502   07 Jun 2027 10:01:35.605             7.103          3551.500
       274   07 Jun 2027 10:02:13.992   07 Jun 2027 10:02:13.998             0.006             3.000
       275   07 Jun 2027 10:02:33.102   07 Jun 2027 10:02:53.043            19.941          9970.500
       276   07 Jun 2027 10:03:16.800   07 Jun 2027 10:03:27.897            11.097          5548.500
       277   08 Jun 2027 03:43:40.498   08 Jun 2027 03:43:52.428            11.930          5965.000
       278   08 Jun 2027 03:44:52.493   08 Jun 2027 03:44:59.334             6.841          3420.500
       279   08 Jun 2027 03:45:43.581   08 Jun 2027 03:45:51.993             8.412          4206.000
       280   08 Jun 2027 03:47:06.974   08 Jun 2027 03:47:12.393             5.419          2709.500
       281   08 Jun 2027 03:48:53.828   08 Jun 2027 03:48:55.015             1.187           593.500
       282   08 Jun 2027 03:49:19.603   08 Jun 2027 03:49:19.968             0.365           182.500
       283   08 Jun 2027 03:50:18.958   08 Jun 2027 03:50:19.700             0.742           371.000
       284   08 Jun 2027 03:50:41.311   08 Jun 2027 03:50:45.083             3.772          1886.000
       285   08 Jun 2027 03:51:35.116   08 Jun 2027 03:51:36.439             1.323           661.500
       286   08 Jun 2027 05:21:02.430   08 Jun 2027 05:21:03.924             1.494           747.000
       287   08 Jun 2027 05:21:11.093   08 Jun 2027 05:21:21.581            10.488          5244.000
       288   08 Jun 2027 05:22:04.872   08 Jun 2027 05:22:14.867             9.995          4997.500
       289   08 Jun 2027 05:22:55.639   08 Jun 2027 05:22:56.950             1.311           655.500
       290   08 Jun 2027 05:23:02.421   08 Jun 2027 05:23:16.015            13.594          6797.000
       291   08 Jun 2027 05:24:24.732   08 Jun 2027 05:24:35.631            10.899          5449.500
       292   08 Jun 2027 05:25:25.403   08 Jun 2027 05:25:31.328             5.925          2962.500
       293   08 Jun 2027 05:25:55.820   08 Jun 2027 05:26:06.800            10.980          5490.000
       294   08 Jun 2027 05:26:34.222   08 Jun 2027 05:26:46.496            12.274          6137.000
       295   08 Jun 2027 05:27:54.121   08 Jun 2027 05:27:54.368             0.247           123.500
       296   08 Jun 2027 05:28:04.660   08 Jun 2027 05:28:07.869             3.209          1604.500
       297   08 Jun 2027 05:28:13.871   08 Jun 2027 05:28:18.028             4.157          2078.500
       298   08 Jun 2027 06:57:51.014   08 Jun 2027 06:57:51.902             0.888           444.000
       299   08 Jun 2027 06:58:05.276   08 Jun 2027 06:58:09.020             3.744          1872.000
       300   08 Jun 2027 06:58:50.266   08 Jun 2027 06:58:56.084             5.818          2909.000
       301   08 Jun 2027 07:00:11.517   08 Jun 2027 07:00:17.606             6.089          3044.500
       302   08 Jun 2027 07:00:35.967   08 Jun 2027 07:00:40.921             4.954          2477.000
       303   08 Jun 2027 07:01:10.740   08 Jun 2027 07:01:19.156             8.416          4208.000
       304   08 Jun 2027 07:02:01.917   08 Jun 2027 07:02:04.299             2.382          1191.000
       305   08 Jun 2027 07:02:17.142   08 Jun 2027 07:02:17.899             0.757           378.500
       306   08 Jun 2027 07:02:29.093   08 Jun 2027 07:02:35.610             6.517          3258.500
       307   08 Jun 2027 07:03:40.030   08 Jun 2027 07:03:56.474            16.444          8222.000
       308   08 Jun 2027 08:35:48.108   08 Jun 2027 08:35:48.878             0.770           385.000
       309   08 Jun 2027 08:36:04.811   08 Jun 2027 08:36:05.004             0.193            96.500
       310   08 Jun 2027 08:36:16.264   08 Jun 2027 08:36:18.103             1.839           919.500
       311   08 Jun 2027 08:36:48.838   08 Jun 2027 08:36:50.090             1.252           626.000
       312   08 Jun 2027 08:37:51.150   08 Jun 2027 08:37:59.186             8.036          4018.000
       313   08 Jun 2027 08:38:40.981   08 Jun 2027 08:38:45.595             4.614          2307.000
       314   08 Jun 2027 08:39:16.899   08 Jun 2027 08:39:19.491             2.592          1296.000
       315   08 Jun 2027 08:39:34.582   08 Jun 2027 08:39:37.145             2.563          1281.500
       316   08 Jun 2027 08:39:42.426   08 Jun 2027 08:39:47.111             4.685          2342.500
       317   08 Jun 2027 10:09:24.945   08 Jun 2027 10:09:45.965            21.020         10510.000
       318   08 Jun 2027 10:09:49.375   08 Jun 2027 10:09:57.111             7.736          3868.000
       319   08 Jun 2027 10:11:53.494   08 Jun 2027 10:12:02.959             9.465          4732.500
       320   08 Jun 2027 10:12:51.661   08 Jun 2027 10:12:54.644             2.983          1491.500
       321   08 Jun 2027 10:13:17.705   08 Jun 2027 10:13:18.620             0.915           457.500
       322   08 Jun 2027 10:13:25.124   08 Jun 2027 10:13:26.634             1.510           755.000
       323   08 Jun 2027 10:13:42.165   08 Jun 2027 10:13:50.752             8.587          4293.500
       324   08 Jun 2027 10:15:30.389   08 Jun 2027 10:15:35.168             4.779          2389.500
       325   08 Jun 2027 10:16:07.467   08 Jun 2027 10:16:19.891            12.424          6212.000
       326   09 Jun 2027 03:55:08.699   09 Jun 2027 03:55:21.912            13.213          6606.500
       327   09 Jun 2027 03:56:50.668   09 Jun 2027 03:56:54.560             3.892          1946.000
       328   09 Jun 2027 03:57:14.377   09 Jun 2027 03:57:21.332             6.955          3477.500
       329   09 Jun 2027 03:58:08.209   09 Jun 2027 03:58:08.782             0.573           286.500
       330   09 Jun 2027 03:58:22.250   09 Jun 2027 03:58:29.992             7.742          3871.000
       331   09 Jun 2027 03:58:43.487   09 Jun 2027 03:58:50.540             7.053          3526.500
       332   09 Jun 2027 04:00:10.210   09 Jun 2027 04:00:13.199             2.989          1494.500
       333   09 Jun 2027 04:00:29.189   09 Jun 2027 04:00:33.055             3.866          1933.000
       334   09 Jun 2027 04:00:48.937   09 Jun 2027 04:00:49.471             0.534           267.000
       335   09 Jun 2027 04:01:15.681   09 Jun 2027 04:01:21.516             5.835          2917.500
       336   09 Jun 2027 04:02:13.620   09 Jun 2027 04:02:13.940             0.320           160.000
       337   09 Jun 2027 04:02:35.978   09 Jun 2027 04:02:36.276             0.298           149.000
       338   09 Jun 2027 04:03:48.134   09 Jun 2027 04:03:52.932             4.798          2399.000
       339   09 Jun 2027 04:04:00.622   09 Jun 2027 04:04:03.599             2.977          1488.500
       340   09 Jun 2027 05:32:57.552   09 Jun 2027 05:33:01.020             3.468          1734.000
       341   09 Jun 2027 05:33:25.153   09 Jun 2027 05:33:27.222             2.069          1034.500
       342   09 Jun 2027 05:34:33.866   09 Jun 2027 05:34:40.038             6.172          3086.000
       343   09 Jun 2027 05:35:22.055   09 Jun 2027 05:35:22.645             0.590           295.000
       344   09 Jun 2027 05:35:27.504   09 Jun 2027 05:35:30.692             3.188          1594.000
       345   09 Jun 2027 05:35:52.513   09 Jun 2027 05:35:53.134             0.621           310.500
       346   09 Jun 2027 05:36:49.529   09 Jun 2027 05:36:52.009             2.480          1240.000
       347   09 Jun 2027 05:37:11.484   09 Jun 2027 05:37:12.952             1.468           734.000
       348   09 Jun 2027 05:38:22.011   09 Jun 2027 05:38:23.420             1.409           704.500
       349   09 Jun 2027 05:38:46.501   09 Jun 2027 05:38:48.561             2.060          1030.000
       350   09 Jun 2027 05:38:51.959   09 Jun 2027 05:39:00.876             8.917          4458.500
       351   09 Jun 2027 05:39:14.226   09 Jun 2027 05:39:27.650            13.424          6712.000
       352   09 Jun 2027 07:09:41.935   09 Jun 2027 07:09:55.764            13.829          6914.500
       353   09 Jun 2027 07:11:00.379   09 Jun 2027 07:11:03.484             3.105          1552.500
       354   09 Jun 2027 07:11:20.497   09 Jun 2027 07:11:22.575             2.078          1039.000
       355   09 Jun 2027 07:11:38.896   09 Jun 2027 07:11:53.746            14.850          7425.000
       356   09 Jun 2027 07:12:40.791   09 Jun 2027 07:12:42.423             1.632           816.000
       357   09 Jun 2027 07:13:04.028   09 Jun 2027 07:13:09.775             5.747          2873.500
       358   09 Jun 2027 07:13:57.570   09 Jun 2027 07:13:59.885             2.315          1157.500
       359   09 Jun 2027 07:14:17.412   09 Jun 2027 07:14:21.726             4.314          2157.000
       360   09 Jun 2027 07:14:50.962   09 Jun 2027 07:15:02.147            11.185          5592.500
       361   09 Jun 2027 07:16:20.864   09 Jun 2027 07:16:27.667             6.803          3401.500
       362   09 Jun 2027 08:47:49.670   09 Jun 2027 08:47:52.637             2.967          1483.500
       363   09 Jun 2027 08:48:26.846   09 Jun 2027 08:48:28.227             1.381           690.500
       364   09 Jun 2027 08:48:44.944   09 Jun 2027 08:48:58.652            13.708          6854.000
       365   09 Jun 2027 08:50:24.955   09 Jun 2027 08:50:30.864             5.909          2954.500
       366   09 Jun 2027 08:51:04.092   09 Jun 2027 08:51:11.973             7.881          3940.500
       367   09 Jun 2027 10:21:40.669   09 Jun 2027 10:21:51.128            10.459          5229.500
       368   09 Jun 2027 10:22:35.436   09 Jun 2027 10:22:41.465             6.029          3014.500
       369   09 Jun 2027 10:23:16.591   09 Jun 2027 10:23:32.896            16.305          8152.500
       370   09 Jun 2027 10:25:25.841   09 Jun 2027 10:25:28.238             2.397          1198.500
       371   09 Jun 2027 10:26:19.496   09 Jun 2027 10:26:23.984             4.488          2244.000
       372   09 Jun 2027 10:27:00.048   09 Jun 2027 10:27:19.044            18.996          9498.000
       373   10 Jun 2027 04:07:57.181   10 Jun 2027 04:07:58.624             1.443           721.500
       374   10 Jun 2027 04:08:56.957   10 Jun 2027 04:09:03.137             6.180          3090.000
       375   10 Jun 2027 04:09:16.740   10 Jun 2027 04:09:42.846            26.106         13053.000
       376   10 Jun 2027 04:10:35.633   10 Jun 2027 04:10:41.347             5.714          2857.000
       377   10 Jun 2027 04:12:12.940   10 Jun 2027 04:12:16.118             3.178          1589.000
       378   10 Jun 2027 04:12:32.923   10 Jun 2027 04:12:37.335             4.412          2206.000
       379   10 Jun 2027 04:13:14.954   10 Jun 2027 04:13:17.200             2.246          1123.000
       380   10 Jun 2027 04:13:35.477   10 Jun 2027 04:13:39.435             3.958          1979.000
       381   10 Jun 2027 04:14:19.786   10 Jun 2027 04:14:29.302             9.516          4758.000
       382   10 Jun 2027 04:15:09.819   10 Jun 2027 04:15:12.923             3.104          1552.000
       383   10 Jun 2027 04:15:37.888   10 Jun 2027 04:15:42.148             4.260          2130.000
       384   10 Jun 2027 04:16:08.099   10 Jun 2027 04:16:15.847             7.748          3874.000
       385   10 Jun 2027 05:45:03.951   10 Jun 2027 05:45:13.706             9.755          4877.500
       386   10 Jun 2027 05:45:50.614   10 Jun 2027 05:45:58.701             8.087          4043.500
       387   10 Jun 2027 05:46:56.759   10 Jun 2027 05:47:01.044             4.285          2142.500
       388   10 Jun 2027 05:47:19.533   10 Jun 2027 05:47:21.013             1.480           740.000
       389   10 Jun 2027 05:47:36.495   10 Jun 2027 05:47:49.605            13.110          6555.000
       390   10 Jun 2027 05:48:50.743   10 Jun 2027 05:48:52.164             1.421           710.500
       391   10 Jun 2027 05:49:00.611   10 Jun 2027 05:49:03.236             2.625          1312.500
       392   10 Jun 2027 05:49:28.100   10 Jun 2027 05:49:31.290             3.190          1595.000
       393   10 Jun 2027 05:49:45.389   10 Jun 2027 05:49:54.055             8.666          4333.000
       394   10 Jun 2027 05:50:07.733   10 Jun 2027 05:50:07.733             0.000             0.000
       395   10 Jun 2027 05:50:33.908   10 Jun 2027 05:50:52.725            18.817          9408.500
       396   10 Jun 2027 05:51:52.751   10 Jun 2027 05:51:54.216             1.465           732.500
       397   10 Jun 2027 05:52:20.536   10 Jun 2027 05:52:23.353             2.817          1408.500
       398   10 Jun 2027 07:22:06.515   10 Jun 2027 07:22:12.970             6.455          3227.500
       399   10 Jun 2027 07:23:05.809   10 Jun 2027 07:23:07.057             1.248           624.000
       400   10 Jun 2027 07:23:52.589   10 Jun 2027 07:23:58.845             6.256          3128.000
       401   10 Jun 2027 07:24:43.719   10 Jun 2027 07:24:48.512             4.793          2396.500
       402   10 Jun 2027 07:25:29.834   10 Jun 2027 07:25:47.642            17.808          8904.000
       403   10 Jun 2027 07:27:47.530   10 Jun 2027 07:27:52.342             4.812          2406.000
       404   10 Jun 2027 08:59:03.878   10 Jun 2027 08:59:09.785             5.907          2953.500
       405   10 Jun 2027 08:59:45.440   10 Jun 2027 08:59:47.544             2.104          1052.000
       406   10 Jun 2027 09:00:17.690   10 Jun 2027 09:00:25.275             7.585          3792.500
       407   10 Jun 2027 09:01:00.044   10 Jun 2027 09:01:03.368             3.324          1662.000
       408   10 Jun 2027 09:01:28.014   10 Jun 2027 09:01:36.139             8.125          4062.500
       409   10 Jun 2027 09:02:34.482   10 Jun 2027 09:02:36.036             1.554           777.000
       410   10 Jun 2027 09:02:51.310   10 Jun 2027 09:03:05.134            13.824          6912.000
       411   10 Jun 2027 10:34:07.392   10 Jun 2027 10:34:26.389            18.997          9498.500
       412   10 Jun 2027 10:35:48.819   10 Jun 2027 10:35:50.180             1.361           680.500
       413   10 Jun 2027 10:36:48.560   10 Jun 2027 10:36:53.754             5.194          2597.000
       414   10 Jun 2027 10:37:21.625   10 Jun 2027 10:37:50.807            29.182         14591.000
       415   11 Jun 2027 04:18:36.395   11 Jun 2027 04:18:51.267            14.872          7436.000
       416   11 Jun 2027 04:19:18.890   11 Jun 2027 04:19:18.890             0.000             0.000
       417   11 Jun 2027 04:19:59.366   11 Jun 2027 04:20:01.456             2.090          1045.000
       418   11 Jun 2027 04:20:55.650   11 Jun 2027 04:20:59.610             3.960          1980.000
       419   11 Jun 2027 04:21:18.927   11 Jun 2027 04:21:25.965             7.038          3519.000
       420   11 Jun 2027 04:22:05.018   11 Jun 2027 04:22:11.809             6.791          3395.500
       421   11 Jun 2027 04:22:30.789   11 Jun 2027 04:22:54.128            23.339         11669.500
       422   11 Jun 2027 04:23:30.164   11 Jun 2027 04:23:40.168            10.004          5002.000
       423   11 Jun 2027 04:24:14.088   11 Jun 2027 04:24:15.281             1.193           596.500
       424   11 Jun 2027 04:25:34.297   11 Jun 2027 04:25:35.750             1.453           726.500
       425   11 Jun 2027 04:26:54.254   11 Jun 2027 04:26:59.156             4.902          2451.000
       426   11 Jun 2027 04:27:41.854   11 Jun 2027 04:27:46.860             5.006          2503.000
       427   11 Jun 2027 04:28:23.719   11 Jun 2027 04:28:26.204             2.485          1242.500
       428   11 Jun 2027 05:57:29.917   11 Jun 2027 05:57:37.258             7.341          3670.500
       429   11 Jun 2027 05:58:16.323   11 Jun 2027 05:58:39.317            22.994         11497.000
       430   11 Jun 2027 06:00:13.438   11 Jun 2027 06:00:25.615            12.177          6088.500
       431   11 Jun 2027 06:01:35.882   11 Jun 2027 06:01:39.852             3.970          1985.000
       432   11 Jun 2027 06:02:17.447   11 Jun 2027 06:02:31.893            14.446          7223.000
       433   11 Jun 2027 06:03:45.160   11 Jun 2027 06:03:54.337             9.177          4588.500
       434   11 Jun 2027 07:34:26.996   11 Jun 2027 07:34:52.232            25.236         12618.000
       435   11 Jun 2027 07:36:39.449   11 Jun 2027 07:36:40.437             0.988           494.000
       436   11 Jun 2027 07:37:00.231   11 Jun 2027 07:37:06.725             6.494          3247.000
       437   11 Jun 2027 07:37:35.253   11 Jun 2027 07:37:40.876             5.623          2811.500
       438   11 Jun 2027 07:38:01.236   11 Jun 2027 07:38:03.321             2.085          1042.500
       439   11 Jun 2027 07:38:30.293   11 Jun 2027 07:38:34.366             4.073          2036.500
       440   11 Jun 2027 07:39:17.114   11 Jun 2027 07:39:30.657            13.543          6771.500
       441   11 Jun 2027 07:39:45.421   11 Jun 2027 07:39:50.993             5.572          2786.000
       442   11 Jun 2027 09:11:17.394   11 Jun 2027 09:11:18.066             0.672           336.000
       443   11 Jun 2027 09:12:03.282   11 Jun 2027 09:12:05.964             2.682          1341.000
       444   11 Jun 2027 09:12:31.016   11 Jun 2027 09:12:37.554             6.538          3269.000
       445   11 Jun 2027 09:13:56.164   11 Jun 2027 09:13:56.227             0.063            31.500
       446   11 Jun 2027 09:14:32.141   11 Jun 2027 09:14:35.438             3.297          1648.500
       447   11 Jun 2027 09:15:19.189   11 Jun 2027 09:15:24.212             5.023          2511.500
       448   11 Jun 2027 10:48:57.328   11 Jun 2027 10:48:57.868             0.540           270.000
       449   11 Jun 2027 10:49:23.241   11 Jun 2027 10:49:46.100            22.859         11429.500
       450   12 Jun 2027 03:00:00.000   12 Jun 2027 03:00:01.442             1.442           721.000
       451   12 Jun 2027 03:00:36.604   12 Jun 2027 03:00:36.768             0.164            82.000
       452   12 Jun 2027 03:01:26.259   12 Jun 2027 03:01:30.265             4.006          2003.000
       453   12 Jun 2027 04:33:24.829   12 Jun 2027 04:33:28.260             3.431          1715.500
       454   12 Jun 2027 04:33:55.009   12 Jun 2027 04:34:07.047            12.038          6019.000
       455   12 Jun 2027 04:34:58.936   12 Jun 2027 04:35:04.547             5.611          2805.500
       456   12 Jun 2027 04:35:30.863   12 Jun 2027 04:35:40.146             9.283          4641.500
       457   12 Jun 2027 04:36:23.932   12 Jun 2027 04:36:30.204             6.272          3136.000
       458   12 Jun 2027 04:36:54.416   12 Jun 2027 04:37:00.953             6.537          3268.500
       459   12 Jun 2027 04:37:25.986   12 Jun 2027 04:37:25.986             0.000             0.000
       460   12 Jun 2027 04:37:42.013   12 Jun 2027 04:37:49.281             7.268          3634.000
       461   12 Jun 2027 04:38:24.269   12 Jun 2027 04:38:32.310             8.041          4020.500
       462   12 Jun 2027 04:39:25.584   12 Jun 2027 04:39:27.854             2.270          1135.000
       463   12 Jun 2027 04:39:39.051   12 Jun 2027 04:39:44.924             5.873          2936.500
       464   12 Jun 2027 06:09:37.294   12 Jun 2027 06:09:49.214            11.920          5960.000
       465   12 Jun 2027 06:10:34.277   12 Jun 2027 06:10:35.154             0.877           438.500
       466   12 Jun 2027 06:11:21.648   12 Jun 2027 06:11:23.619             1.971           985.500
       467   12 Jun 2027 06:12:03.976   12 Jun 2027 06:12:11.982             8.006          4003.000
       468   12 Jun 2027 06:12:49.417   12 Jun 2027 06:12:51.407             1.990           995.000
       469   12 Jun 2027 06:13:13.505   12 Jun 2027 06:13:19.679             6.174          3087.000
       470   12 Jun 2027 06:13:52.127   12 Jun 2027 06:13:55.034             2.907          1453.500
       471   12 Jun 2027 06:14:08.767   12 Jun 2027 06:14:13.458             4.691          2345.500
       472   12 Jun 2027 06:14:34.236   12 Jun 2027 06:14:38.207             3.971          1985.500
       473   12 Jun 2027 06:15:07.184   12 Jun 2027 06:15:08.879             1.695           847.500
       474   12 Jun 2027 06:15:33.569   12 Jun 2027 06:15:33.885             0.316           158.000
       475   12 Jun 2027 07:47:20.927   12 Jun 2027 07:47:26.881             5.954          2977.000
       476   12 Jun 2027 07:48:06.361   12 Jun 2027 07:48:10.254             3.893          1946.500
       477   12 Jun 2027 07:48:45.558   12 Jun 2027 07:48:49.028             3.470          1735.000
       478   12 Jun 2027 07:49:32.727   12 Jun 2027 07:49:34.180             1.453           726.500
       479   12 Jun 2027 07:49:47.726   12 Jun 2027 07:49:48.236             0.510           255.000
       480   12 Jun 2027 07:50:13.260   12 Jun 2027 07:50:20.124             6.864          3432.000
       481   12 Jun 2027 07:51:06.908   12 Jun 2027 07:51:10.963             4.055          2027.500
       482   12 Jun 2027 07:51:27.105   12 Jun 2027 07:51:32.205             5.100          2550.000
       483   12 Jun 2027 09:23:27.173   12 Jun 2027 09:23:30.638             3.465          1732.500
       484   12 Jun 2027 09:23:55.877   12 Jun 2027 09:24:07.613            11.736          5868.000
       485   12 Jun 2027 09:24:55.948   12 Jun 2027 09:25:01.032             5.084          2542.000
       486   12 Jun 2027 09:25:50.435   12 Jun 2027 09:25:56.043             5.608          2804.000
       487   12 Jun 2027 09:26:27.606   12 Jun 2027 09:26:30.309             2.703          1351.500
       488   12 Jun 2027 09:26:51.845   12 Jun 2027 09:26:53.530             1.685           842.500
       489   12 Jun 2027 09:27:17.511   12 Jun 2027 09:27:30.603            13.092          6546.000
       490   13 Jun 2027 03:10:36.988   13 Jun 2027 03:10:42.693             5.705          2852.500
       491   13 Jun 2027 03:11:16.096   13 Jun 2027 03:11:18.445             2.349          1174.500
       492   13 Jun 2027 03:11:59.456   13 Jun 2027 03:12:01.668             2.212          1106.000
       493   13 Jun 2027 03:12:35.807   13 Jun 2027 03:12:37.872             2.065          1032.500
       494   13 Jun 2027 03:12:58.770   13 Jun 2027 03:13:10.817            12.047          6023.500
       495   13 Jun 2027 03:14:08.450   13 Jun 2027 03:14:08.556             0.106            53.000
       496   13 Jun 2027 04:45:47.113   13 Jun 2027 04:45:48.924             1.811           905.500
       497   13 Jun 2027 04:46:54.647   13 Jun 2027 04:47:01.577             6.930          3465.000
       498   13 Jun 2027 04:47:41.169   13 Jun 2027 04:47:49.703             8.534          4267.000
       499   13 Jun 2027 04:48:31.050   13 Jun 2027 04:48:50.255            19.205          9602.500
       500   13 Jun 2027 04:50:26.011   13 Jun 2027 04:50:29.860             3.849          1924.500
       501   13 Jun 2027 04:50:47.806   13 Jun 2027 04:50:51.985             4.179          2089.500
       502   13 Jun 2027 04:51:08.214   13 Jun 2027 04:51:08.470             0.256           128.000
       503   13 Jun 2027 04:51:28.923   13 Jun 2027 04:51:38.615             9.692          4846.000
       504   13 Jun 2027 04:52:11.738   13 Jun 2027 04:52:17.320             5.582          2791.000
       505   13 Jun 2027 06:22:11.879   13 Jun 2027 06:22:24.555            12.676          6338.000
       506   13 Jun 2027 06:23:10.185   13 Jun 2027 06:23:16.149             5.964          2982.000
       507   13 Jun 2027 06:24:06.534   13 Jun 2027 06:24:10.015             3.481          1740.500
       508   13 Jun 2027 06:24:47.804   13 Jun 2027 06:24:49.295             1.491           745.500
       509   13 Jun 2027 06:25:10.642   13 Jun 2027 06:25:17.217             6.575          3287.500
       510   13 Jun 2027 06:26:07.139   13 Jun 2027 06:26:16.146             9.007          4503.500
       511   13 Jun 2027 06:26:58.747   13 Jun 2027 06:27:13.539            14.792          7396.000
       512   13 Jun 2027 07:59:27.273   13 Jun 2027 07:59:36.987             9.714          4857.000
       513   13 Jun 2027 08:01:08.762   13 Jun 2027 08:01:09.046             0.284           142.000
       514   13 Jun 2027 08:01:44.022   13 Jun 2027 08:01:46.225             2.203          1101.500
       515   13 Jun 2027 08:02:10.839   13 Jun 2027 08:02:16.375             5.536          2768.000
       516   13 Jun 2027 08:02:23.218   13 Jun 2027 08:02:34.956            11.738          5869.000
       517   13 Jun 2027 08:03:15.635   13 Jun 2027 08:03:18.798             3.163          1581.500
       518   13 Jun 2027 09:35:41.571   13 Jun 2027 09:35:46.605             5.034          2517.000
       519   13 Jun 2027 09:36:17.172   13 Jun 2027 09:36:19.045             1.873           936.500
       520   13 Jun 2027 09:36:32.214   13 Jun 2027 09:36:33.194             0.980           490.000
       521   13 Jun 2027 09:36:55.984   13 Jun 2027 09:37:00.552             4.568          2284.000
       522   13 Jun 2027 09:37:56.537   13 Jun 2027 09:37:59.948             3.411          1705.500
       523   13 Jun 2027 09:38:24.209   13 Jun 2027 09:38:29.400             5.191          2595.500
       524   13 Jun 2027 09:39:11.375   13 Jun 2027 09:39:30.959            19.584          9792.000
