uniorb/output/strategy_2/Camera/Camera_KinoSat_110606.txt

KinoSat_110606
-------------------------
    Access    *     Start Time (UTCG)     *     Stop Time (UTCG)  *   Duration (s) *   Data (Mbytes)
         1   01 Jun 2027 03:34:28.878   01 Jun 2027 03:34:54.982            26.104         13052.000
         2   01 Jun 2027 03:35:22.423   01 Jun 2027 03:35:43.744            21.321         10660.500
         3   01 Jun 2027 03:36:07.171   01 Jun 2027 03:36:28.683            21.512         10756.000
         4   01 Jun 2027 05:09:35.162   01 Jun 2027 05:11:25.236           110.074         55037.000
         5   01 Jun 2027 05:13:20.536   01 Jun 2027 05:14:52.724            92.188         46094.000
         6   01 Jun 2027 05:14:54.290   01 Jun 2027 05:15:06.708            12.418          6209.000
         7   01 Jun 2027 05:16:03.803   01 Jun 2027 05:16:24.955            21.152         10576.000
         8   01 Jun 2027 06:45:55.882   01 Jun 2027 06:49:15.319           199.437         99718.500
         9   01 Jun 2027 06:50:02.873   01 Jun 2027 06:50:06.559             3.686          1843.000
        10   01 Jun 2027 06:50:32.777   01 Jun 2027 06:50:46.012            13.235          6617.500
        11   01 Jun 2027 06:51:03.047   01 Jun 2027 06:51:15.253            12.206          6103.000
        12   01 Jun 2027 06:51:55.610   01 Jun 2027 06:52:01.564             5.954          2977.000
        13   01 Jun 2027 08:23:25.799   01 Jun 2027 08:25:26.834           121.035         60517.500
        14   01 Jun 2027 08:25:42.603   01 Jun 2027 08:26:15.978            33.375         16687.500
        15   01 Jun 2027 08:26:28.139   01 Jun 2027 08:27:06.731            38.592         19296.000
        16   01 Jun 2027 08:27:32.635   01 Jun 2027 08:27:42.410             9.775          4887.500
        17   01 Jun 2027 09:59:30.256   01 Jun 2027 10:00:51.908            81.652         40826.000
        18   01 Jun 2027 10:01:21.504   01 Jun 2027 10:02:24.679            63.175         31587.500
        19   01 Jun 2027 10:03:44.764   01 Jun 2027 10:03:47.870             3.106          1553.000
        20   02 Jun 2027 03:46:39.191   02 Jun 2027 03:46:55.398            16.207          8103.500
        21   02 Jun 2027 03:47:35.331   02 Jun 2027 03:47:59.946            24.615         12307.500
        22   02 Jun 2027 03:48:15.893   02 Jun 2027 03:48:34.985            19.092          9546.000
        23   02 Jun 2027 03:48:47.641   02 Jun 2027 03:49:28.118            40.477         20238.500
        24   02 Jun 2027 05:21:49.159   02 Jun 2027 05:23:22.226            93.067         46533.500
        25   02 Jun 2027 05:23:48.397   02 Jun 2027 05:24:45.053            56.656         28328.000
        26   02 Jun 2027 05:25:59.702   02 Jun 2027 05:26:20.837            21.135         10567.500
        27   02 Jun 2027 05:26:53.033   02 Jun 2027 05:27:08.154            15.121          7560.500
        28   02 Jun 2027 05:28:05.021   02 Jun 2027 05:28:25.053            20.032         10016.000
        29   02 Jun 2027 06:58:10.646   02 Jun 2027 06:59:46.744            96.098         48049.000
        30   02 Jun 2027 07:00:22.116   02 Jun 2027 07:02:32.003           129.887         64943.500
        31   02 Jun 2027 08:35:29.077   02 Jun 2027 08:37:20.754           111.677         55838.500
        32   02 Jun 2027 08:37:34.313   02 Jun 2027 08:37:41.751             7.438          1548.218
        33   02 Jun 2027 08:37:45.287   02 Jun 2027 08:37:47.421             2.134            46.031
        34   02 Jun 2027 08:37:58.113   02 Jun 2027 08:37:59.301             1.188           334.125
        35   02 Jun 2027 08:38:28.522   02 Jun 2027 08:38:33.756             5.234           102.156
        36   02 Jun 2027 08:39:06.204   02 Jun 2027 08:39:10.164             3.960          1014.000
        37   02 Jun 2027 08:39:15.083   02 Jun 2027 08:39:15.915             0.832           146.844
        38   02 Jun 2027 10:11:41.192   02 Jun 2027 10:11:58.459            17.267          8633.500
        39   02 Jun 2027 10:12:20.388   02 Jun 2027 10:12:26.065             5.677          1781.188
        40   02 Jun 2027 10:12:54.985   02 Jun 2027 10:12:57.593             2.608           866.625
        41   02 Jun 2027 10:13:03.320   02 Jun 2027 10:13:06.471             3.151           178.969
        42   02 Jun 2027 10:13:23.692   02 Jun 2027 10:13:25.206             1.514           538.156
        43   02 Jun 2027 10:14:19.539   02 Jun 2027 10:14:23.281             3.742          1511.344
        44   02 Jun 2027 10:14:34.321   02 Jun 2027 10:14:38.931             4.610           239.344
        45   02 Jun 2027 10:14:43.448   02 Jun 2027 10:14:45.391             1.943           113.281
        46   02 Jun 2027 10:15:12.186   02 Jun 2027 10:15:13.822             1.636           775.188
        47   02 Jun 2027 10:16:18.311   02 Jun 2027 10:16:21.553             3.242          1070.312
        48   03 Jun 2027 03:58:29.867   03 Jun 2027 03:59:45.887            76.020         38010.000
        49   03 Jun 2027 04:00:34.208   03 Jun 2027 04:00:42.001             7.793          3896.500
        50   03 Jun 2027 04:02:06.143   03 Jun 2027 04:02:35.293            29.150         14575.000
        51   03 Jun 2027 05:33:23.747   03 Jun 2027 05:36:55.786           212.039        106019.500
        52   03 Jun 2027 05:38:02.778   03 Jun 2027 05:38:03.701             0.923           461.500
        53   03 Jun 2027 05:38:26.390   03 Jun 2027 05:38:33.324             6.934          3467.000
        54   03 Jun 2027 05:38:54.291   03 Jun 2027 05:38:56.562             2.271          1135.500
        55   03 Jun 2027 05:39:25.122   03 Jun 2027 05:39:25.122             0.000             0.000
        56   03 Jun 2027 05:40:03.021   03 Jun 2027 05:40:14.607            11.586          5468.094
        57   03 Jun 2027 07:09:46.606   03 Jun 2027 07:10:56.259            69.653         34276.812
        58   03 Jun 2027 07:11:56.382   03 Jun 2027 07:11:59.696             3.314          1563.281
        59   03 Jun 2027 07:13:08.097   03 Jun 2027 07:13:11.706             3.609          1607.094
        60   03 Jun 2027 07:13:13.315   03 Jun 2027 07:13:17.002             3.687            50.281
        61   03 Jun 2027 07:13:25.866   03 Jun 2027 07:13:25.866             0.000             0.000
        62   03 Jun 2027 07:14:27.985   03 Jun 2027 07:14:35.569             7.584          2218.219
        63   03 Jun 2027 07:15:00.955   03 Jun 2027 07:15:00.955             0.000             0.000
        64   03 Jun 2027 07:15:11.800   03 Jun 2027 07:15:14.134             2.334          1128.062
        65   03 Jun 2027 08:48:03.351   03 Jun 2027 08:48:28.347            24.996         11831.156
        66   03 Jun 2027 08:48:30.462   03 Jun 2027 08:48:34.367             3.905            66.094
        67   03 Jun 2027 08:48:59.434   03 Jun 2027 08:49:01.587             2.153           644.438
        68   03 Jun 2027 08:49:27.620   03 Jun 2027 08:49:30.166             2.546           813.531
        69   03 Jun 2027 08:49:59.386   03 Jun 2027 08:50:05.893             6.507           468.562
        70   03 Jun 2027 08:50:29.711   03 Jun 2027 08:50:30.476             0.765           278.812
        71   03 Jun 2027 08:50:42.470   03 Jun 2027 08:50:45.107             2.637           374.812
        72   03 Jun 2027 08:51:13.349   03 Jun 2027 08:51:16.098             2.749           657.250
        73   03 Jun 2027 08:51:47.551   03 Jun 2027 08:51:51.544             3.993           597.344
        74   03 Jun 2027 10:23:25.379   03 Jun 2027 10:23:40.303            14.924          7462.000
        75   03 Jun 2027 10:24:39.227   03 Jun 2027 10:24:42.176             2.949          1474.500
        76   03 Jun 2027 10:24:53.825   03 Jun 2027 10:24:56.830             3.005          1429.188
        77   03 Jun 2027 10:25:01.933   03 Jun 2027 10:25:02.469             0.536            73.687
        78   03 Jun 2027 10:26:27.971   03 Jun 2027 10:26:35.143             7.172          1901.312
        79   03 Jun 2027 10:26:58.406   03 Jun 2027 10:27:01.418             3.012           726.969
        80   03 Jun 2027 10:27:05.466   03 Jun 2027 10:27:07.159             1.693           126.500
        81   03 Jun 2027 10:27:57.122   03 Jun 2027 10:27:58.145             1.023           511.500
        82   03 Jun 2027 10:28:12.185   03 Jun 2027 10:28:15.599             3.414          1297.063
        83   03 Jun 2027 10:28:22.795   03 Jun 2027 10:28:25.870             3.075           180.531
        84   04 Jun 2027 04:08:47.310   04 Jun 2027 04:09:33.105            45.795         22897.500
        85   04 Jun 2027 04:10:13.711   04 Jun 2027 04:11:18.873            65.162         32581.000
        86   04 Jun 2027 04:13:53.596   04 Jun 2027 04:13:54.501             0.905           452.500
        87   04 Jun 2027 04:14:36.716   04 Jun 2027 04:14:41.118             4.402          2201.000
        88   04 Jun 2027 05:45:00.000   04 Jun 2027 05:47:46.883           166.882         83441.000
        89   04 Jun 2027 05:47:50.629   04 Jun 2027 05:48:04.054            13.425          6712.500
        90   04 Jun 2027 05:48:21.382   04 Jun 2027 05:48:56.053            34.671         16949.281
        91   04 Jun 2027 05:50:08.861   04 Jun 2027 05:50:11.468             2.607          1303.500
        92   04 Jun 2027 05:50:50.773   04 Jun 2027 05:50:53.017             2.244          1122.000
        93   04 Jun 2027 07:22:06.368   04 Jun 2027 07:23:14.003            67.635         33272.750
        94   04 Jun 2027 07:23:49.085   04 Jun 2027 07:23:53.328             4.243          1096.313
        95   04 Jun 2027 07:25:04.592   04 Jun 2027 07:25:09.073             4.481          1527.250
        96   04 Jun 2027 07:26:22.342   04 Jun 2027 07:26:26.585             4.243          2104.062
        97   04 Jun 2027 07:26:43.836   04 Jun 2027 07:26:49.565             5.729           537.625
        98   04 Jun 2027 07:28:05.232   04 Jun 2027 07:28:12.436             7.204          2292.219
        99   04 Jun 2027 09:00:04.331   04 Jun 2027 09:00:31.146            26.815         12767.406
       100   04 Jun 2027 09:00:47.284   04 Jun 2027 09:00:47.284             0.000             0.000
       101   04 Jun 2027 09:00:57.284   04 Jun 2027 09:00:59.564             2.280           677.250
       102   04 Jun 2027 09:01:15.133   04 Jun 2027 09:01:16.414             1.281           486.531
       103   04 Jun 2027 09:01:39.483   04 Jun 2027 09:01:39.483             0.000             0.000
       104   04 Jun 2027 09:01:44.903   04 Jun 2027 09:01:50.253             5.350           890.281
       105   04 Jun 2027 09:02:07.856   04 Jun 2027 09:02:10.925             3.069           422.250
       106   04 Jun 2027 09:02:36.486   04 Jun 2027 09:02:40.557             4.071           798.781
       107   04 Jun 2027 09:03:45.275   04 Jun 2027 09:03:47.221             1.946           973.000
       108   04 Jun 2027 10:33:12.028   04 Jun 2027 10:33:26.543            14.515          5917.375
       109   04 Jun 2027 10:34:35.519   04 Jun 2027 10:34:40.002             4.483           729.906
       110   04 Jun 2027 10:35:01.507   04 Jun 2027 10:35:01.507             0.000             0.000
       111   04 Jun 2027 10:35:22.967   04 Jun 2027 10:35:32.592             9.625          1253.094
       112   04 Jun 2027 10:35:42.584   04 Jun 2027 10:35:43.746             1.162           312.250
       113   04 Jun 2027 10:36:06.825   04 Jun 2027 10:36:16.422             9.597           114.656
       114   04 Jun 2027 10:36:42.973   04 Jun 2027 10:36:43.797             0.824           412.000
       115   04 Jun 2027 10:37:33.430   04 Jun 2027 10:37:37.632             4.202          1554.656
       116   04 Jun 2027 10:38:28.912   04 Jun 2027 10:38:35.684             6.772          1467.531
       117   04 Jun 2027 10:38:59.500   04 Jun 2027 10:39:00.910             1.410           546.563
       118   04 Jun 2027 10:40:10.486   04 Jun 2027 10:40:16.648             6.162          1662.219
       119   04 Jun 2027 10:40:53.636   04 Jun 2027 10:41:00.443             6.807          1085.781
       120   05 Jun 2027 04:19:54.022   05 Jun 2027 04:21:38.226           104.204         52102.000
       121   05 Jun 2027 04:21:57.496   05 Jun 2027 04:22:55.532            58.036         29018.000
       122   05 Jun 2027 04:23:15.607   05 Jun 2027 04:23:27.183            11.576          5788.000
       123   05 Jun 2027 04:23:38.827   05 Jun 2027 04:23:51.644            12.817          6408.500
       124   05 Jun 2027 04:26:35.100   05 Jun 2027 04:26:41.637             6.537          3268.500
       125   05 Jun 2027 04:27:50.376   05 Jun 2027 04:28:10.350            19.974          9987.000
       126   05 Jun 2027 05:58:01.722   05 Jun 2027 06:00:15.467           133.745         66872.500
       127   05 Jun 2027 06:00:43.157   05 Jun 2027 06:00:43.157             0.000             0.000
       128   05 Jun 2027 06:01:42.793   05 Jun 2027 06:01:44.056             1.263           631.500
       129   05 Jun 2027 06:02:14.709   05 Jun 2027 06:02:22.788             8.079          3958.813
       130   05 Jun 2027 06:02:32.208   05 Jun 2027 06:02:38.124             5.916           252.500
       131   05 Jun 2027 06:03:56.985   05 Jun 2027 06:04:03.121             6.136          2216.031
       132   05 Jun 2027 07:34:06.806   05 Jun 2027 07:35:01.148            54.342         25612.031
       133   05 Jun 2027 07:36:09.905   05 Jun 2027 07:36:17.232             7.327          1065.187
       134   05 Jun 2027 07:37:30.000   05 Jun 2027 07:37:34.819             4.819          2274.000
       135   05 Jun 2027 07:38:20.069   05 Jun 2027 07:38:23.833             3.764          1381.000
       136   05 Jun 2027 07:38:45.739   05 Jun 2027 07:38:47.649             1.910           684.562
       137   05 Jun 2027 07:39:59.063   05 Jun 2027 07:40:03.618             4.555          2175.562
       138   05 Jun 2027 09:12:04.824   05 Jun 2027 09:12:28.286            23.462          9830.656
       139   05 Jun 2027 09:12:29.724   05 Jun 2027 09:12:33.541             3.817            44.156
       140   05 Jun 2027 09:13:43.339   05 Jun 2027 09:13:49.443             6.104          1944.469
       141   05 Jun 2027 09:14:25.709   05 Jun 2027 09:14:32.175             6.466          1133.312
       142   05 Jun 2027 09:15:06.385   05 Jun 2027 09:15:07.126             0.741           354.750
       143   05 Jun 2027 09:15:13.916   05 Jun 2027 09:15:15.117             1.201           212.187
       144   05 Jun 2027 09:15:35.173   05 Jun 2027 09:15:35.173             0.000             0.000
       145   05 Jun 2027 09:15:57.294   05 Jun 2027 09:15:58.490             1.196           598.000
       146   05 Jun 2027 10:45:42.165   05 Jun 2027 10:45:50.534             8.369          2241.437
       147   05 Jun 2027 10:46:05.595   05 Jun 2027 10:46:06.543             0.948           259.531
       148   05 Jun 2027 10:46:50.287   05 Jun 2027 10:46:50.287             0.000             0.000
       149   05 Jun 2027 10:47:25.646   05 Jun 2027 10:47:35.887            10.241          1356.250
       150   05 Jun 2027 10:47:47.749   05 Jun 2027 10:47:49.449             1.700           343.063
       151   05 Jun 2027 10:48:35.630   05 Jun 2027 10:48:36.230             0.600           300.000
       152   05 Jun 2027 10:48:44.305   05 Jun 2027 10:48:44.305             0.000             0.000
       153   05 Jun 2027 10:48:57.139   05 Jun 2027 10:49:00.530             3.391          1111.625
       154   05 Jun 2027 10:50:29.194   05 Jun 2027 10:50:32.570             3.376          1688.000
       155   05 Jun 2027 10:50:37.537   05 Jun 2027 10:50:38.883             1.346           593.156
       156   05 Jun 2027 10:50:48.355   05 Jun 2027 10:50:48.355             0.000             0.000
       157   05 Jun 2027 10:50:54.266   05 Jun 2027 10:50:55.170             0.904           340.094
       158   05 Jun 2027 10:52:23.153   05 Jun 2027 10:52:29.785             6.632          2334.844
       159   05 Jun 2027 10:52:54.249   05 Jun 2027 10:52:57.213             2.964           289.563
       160   06 Jun 2027 03:00:00.000   06 Jun 2027 03:00:04.485             4.485          2242.500
       161   06 Jun 2027 03:00:26.676   06 Jun 2027 03:00:44.829            18.153          9076.500
       162   06 Jun 2027 03:00:56.562   06 Jun 2027 03:00:59.154             2.592          1296.000
       163   06 Jun 2027 03:01:17.292   06 Jun 2027 03:01:23.191             5.899          2949.500
       164   06 Jun 2027 03:01:43.062   06 Jun 2027 03:01:43.062             0.000             0.000
       165   06 Jun 2027 04:31:22.680   06 Jun 2027 04:34:26.114           183.434         91717.000
       166   06 Jun 2027 04:36:07.957   06 Jun 2027 04:36:22.658            14.701          7350.500
       167   06 Jun 2027 04:36:25.103   06 Jun 2027 04:36:30.768             5.665          2832.500
       168   06 Jun 2027 04:37:26.091   06 Jun 2027 04:37:32.912             6.821          3410.500
       169   06 Jun 2027 04:39:57.830   06 Jun 2027 04:40:01.763             3.933          1966.500
       170   06 Jun 2027 04:40:08.379   06 Jun 2027 04:40:14.782             6.403          3201.500
       171   06 Jun 2027 04:40:29.393   06 Jun 2027 04:40:31.158             1.765           882.500
       172   06 Jun 2027 04:40:40.986   06 Jun 2027 04:40:41.580             0.594           297.000
       173   06 Jun 2027 06:09:13.835   06 Jun 2027 06:11:12.821           118.986         56718.844
       174   06 Jun 2027 06:11:24.733   06 Jun 2027 06:11:27.483             2.750           261.781
       175   06 Jun 2027 06:11:45.378   06 Jun 2027 06:11:45.378             0.000             0.000
       176   06 Jun 2027 06:11:50.767   06 Jun 2027 06:11:55.800             5.033           727.625
       177   06 Jun 2027 06:12:38.708   06 Jun 2027 06:12:42.166             3.458          1340.875
       178   06 Jun 2027 06:14:25.489   06 Jun 2027 06:14:30.598             5.109          2554.500
       179   06 Jun 2027 06:14:48.220   06 Jun 2027 06:14:50.873             2.653           586.344
       180   06 Jun 2027 06:15:00.233   06 Jun 2027 06:15:02.091             1.858           218.500
       181   06 Jun 2027 07:45:58.392   06 Jun 2027 07:46:42.217            43.825         21912.500
       182   06 Jun 2027 07:46:45.438   06 Jun 2027 07:46:48.465             3.027          1303.875
       183   06 Jun 2027 07:47:10.475   06 Jun 2027 07:47:11.948             1.473           589.875
       184   06 Jun 2027 07:48:02.555   06 Jun 2027 07:48:03.710             1.155           273.594
       185   06 Jun 2027 07:48:53.333   06 Jun 2027 07:48:55.353             2.020           854.750
       186   06 Jun 2027 07:49:30.568   06 Jun 2027 07:49:33.155             2.587          1069.781
       187   06 Jun 2027 07:50:40.138   06 Jun 2027 07:50:43.638             3.500          1750.000
       188   06 Jun 2027 07:51:14.226   06 Jun 2027 07:51:22.123             7.897          1012.093
       189   06 Jun 2027 07:51:28.820   06 Jun 2027 07:51:30.522             1.702           182.031
       190   06 Jun 2027 07:52:06.951   06 Jun 2027 07:52:10.687             3.736           467.531
       191   06 Jun 2027 09:24:07.418   06 Jun 2027 09:24:30.884            23.466         10435.344
       192   06 Jun 2027 09:24:50.683   06 Jun 2027 09:24:50.683             0.000             0.000
       193   06 Jun 2027 09:25:12.605   06 Jun 2027 09:25:16.521             3.916          1259.063
       194   06 Jun 2027 09:25:43.985   06 Jun 2027 09:25:53.677             9.692           630.312
       195   06 Jun 2027 09:26:29.743   06 Jun 2027 09:26:32.699             2.956           918.187
       196   06 Jun 2027 09:26:50.774   06 Jun 2027 09:26:51.092             0.318           159.000
       197   06 Jun 2027 09:27:03.781   06 Jun 2027 09:27:06.325             2.544           751.937
       198   06 Jun 2027 09:27:58.994   06 Jun 2027 09:28:02.148             3.154          1563.469
       199   06 Jun 2027 10:57:59.028   06 Jun 2027 10:58:04.210             5.182          1354.188
       200   06 Jun 2027 10:58:45.639   06 Jun 2027 10:58:48.731             3.092          1198.125
       201   06 Jun 2027 10:59:25.252   06 Jun 2027 10:59:32.136             6.884           592.344
       202   06 Jun 2027 11:00:15.025   06 Jun 2027 11:00:16.761             1.736           868.000
       203   06 Jun 2027 11:00:18.651   06 Jun 2027 11:00:21.343             2.692           531.344
       204   06 Jun 2027 11:00:58.730   06 Jun 2027 11:01:00.435             1.705           769.594
       205   06 Jun 2027 11:01:36.254   06 Jun 2027 11:01:41.315             5.061           827.750
       206   06 Jun 2027 11:01:59.537   06 Jun 2027 11:02:02.875             3.338           561.156
       207   06 Jun 2027 11:02:28.734   06 Jun 2027 11:02:29.656             0.922           361.469
       208   06 Jun 2027 11:02:34.423   06 Jun 2027 11:02:39.050             4.627           148.969
       209   06 Jun 2027 11:02:59.686   06 Jun 2027 11:03:03.802             4.116           644.875
       210   06 Jun 2027 11:03:29.266   06 Jun 2027 11:03:33.054             3.788           795.750
       211   07 Jun 2027 03:10:23.209   07 Jun 2027 03:11:50.278            87.069         43534.500
       212   07 Jun 2027 04:44:11.285   07 Jun 2027 04:46:53.657           162.372         81186.000
       213   07 Jun 2027 04:49:45.922   07 Jun 2027 04:49:56.702            10.780          5390.000
       214   07 Jun 2027 04:50:21.691   07 Jun 2027 04:50:35.451            13.760          6880.000
       215   07 Jun 2027 04:51:55.558   07 Jun 2027 04:52:06.440            10.882          5441.000
       216   07 Jun 2027 06:21:20.853   07 Jun 2027 06:22:35.516            74.663         36561.781
       217   07 Jun 2027 06:23:38.697   07 Jun 2027 06:23:46.866             8.169          1848.969
       218   07 Jun 2027 06:23:48.440   07 Jun 2027 06:23:48.440             0.000             0.000
       219   07 Jun 2027 06:24:00.277   07 Jun 2027 06:24:05.699             5.422           419.094
       220   07 Jun 2027 06:24:51.859   07 Jun 2027 06:24:55.106             3.247          1442.500
       221   07 Jun 2027 06:25:07.964   07 Jun 2027 06:25:10.044             2.080           375.344
       222   07 Jun 2027 06:26:21.261   07 Jun 2027 06:26:26.347             5.086          2225.531
       223   07 Jun 2027 06:27:12.486   07 Jun 2027 06:27:12.486             0.000             0.000
       224   07 Jun 2027 06:28:08.272   07 Jun 2027 06:28:14.383             6.111          2535.781
       225   07 Jun 2027 07:58:24.467   07 Jun 2027 07:58:33.315             8.848          4424.000
       226   07 Jun 2027 07:58:49.420   07 Jun 2027 07:59:17.555            28.135         13550.500
       227   07 Jun 2027 07:59:34.152   07 Jun 2027 07:59:35.200             1.048           246.469
       228   07 Jun 2027 07:59:52.811   07 Jun 2027 07:59:54.995             2.184           182.094
       229   07 Jun 2027 08:00:02.674   07 Jun 2027 08:00:06.080             3.406           239.969
       230   07 Jun 2027 08:01:11.773   07 Jun 2027 08:01:24.083            12.310          1820.750
       231   07 Jun 2027 08:02:28.275   07 Jun 2027 08:02:28.275             0.000             0.000
       232   07 Jun 2027 08:02:30.487   07 Jun 2027 08:02:34.900             4.413          1836.875
       233   07 Jun 2027 08:03:35.667   07 Jun 2027 08:03:41.800             6.133          1884.844
       234   07 Jun 2027 08:04:21.066   07 Jun 2027 08:04:26.570             5.504          1015.531
       235   07 Jun 2027 09:35:18.184   07 Jun 2027 09:35:42.037            23.853         10536.156
       236   07 Jun 2027 09:37:10.226   07 Jun 2027 09:37:17.113             6.887          2755.906
       237   07 Jun 2027 09:38:31.296   07 Jun 2027 09:38:36.105             4.809          2318.219
       238   07 Jun 2027 09:39:10.217   07 Jun 2027 09:39:12.941             2.724          1040.000
       239   07 Jun 2027 09:39:31.900   07 Jun 2027 09:39:34.833             2.933           592.469
       240   07 Jun 2027 11:10:28.203   07 Jun 2027 11:10:33.750             5.547          2023.875
       241   07 Jun 2027 11:10:42.065   07 Jun 2027 11:10:43.163             1.098           259.844
       242   07 Jun 2027 11:12:03.431   07 Jun 2027 11:12:06.134             2.703           837.313
       243   07 Jun 2027 11:12:25.183   07 Jun 2027 11:12:27.489             2.306           417.094
       244   07 Jun 2027 11:12:43.944   07 Jun 2027 11:12:44.726             0.782           358.344
       245   07 Jun 2027 11:12:46.788   07 Jun 2027 11:12:53.672             6.884            57.125
       246   07 Jun 2027 11:13:16.812   07 Jun 2027 11:13:20.020             3.208           518.250
       247   07 Jun 2027 11:13:37.816   07 Jun 2027 11:13:42.614             4.798           151.219
       248   07 Jun 2027 11:13:50.796   07 Jun 2027 11:13:51.101             0.305           107.312
       249   07 Jun 2027 11:14:44.756   07 Jun 2027 11:14:49.289             4.533          1672.250
       250   08 Jun 2027 03:22:40.139   08 Jun 2027 03:23:08.068            27.929         13964.500
       251   08 Jun 2027 03:23:40.608   08 Jun 2027 03:23:47.306             6.698          3349.000
       252   08 Jun 2027 03:24:48.339   08 Jun 2027 03:25:34.850            46.511         23255.500
       253   08 Jun 2027 03:26:07.701   08 Jun 2027 03:26:07.701             0.000             0.000
       254   08 Jun 2027 04:56:32.470   08 Jun 2027 04:57:13.580            41.110         20555.000
       255   08 Jun 2027 04:57:45.353   08 Jun 2027 05:00:15.897           150.544         75272.000
       256   08 Jun 2027 05:02:08.549   08 Jun 2027 05:02:13.817             5.268          2634.000
       257   08 Jun 2027 05:02:31.830   08 Jun 2027 05:02:35.242             3.412          1706.000
       258   08 Jun 2027 05:03:22.835   08 Jun 2027 05:03:37.642            14.807          7403.500
       259   08 Jun 2027 05:04:20.143   08 Jun 2027 05:04:27.322             7.179          3589.500
       260   08 Jun 2027 05:04:39.253   08 Jun 2027 05:04:41.702             2.449          1224.500
       261   08 Jun 2027 06:33:47.318   08 Jun 2027 06:34:50.508            63.190         31302.813
       262   08 Jun 2027 06:36:06.594   08 Jun 2027 06:36:08.653             2.059           574.906
       263   08 Jun 2027 06:36:24.348   08 Jun 2027 06:36:27.031             2.683           490.469
       264   08 Jun 2027 06:37:08.496   08 Jun 2027 06:37:10.332             1.836           872.031
       265   08 Jun 2027 06:37:18.768   08 Jun 2027 06:37:21.966             3.198           263.625
       266   08 Jun 2027 06:37:26.841   08 Jun 2027 06:37:27.824             0.983           115.125
       267   08 Jun 2027 06:38:25.175   08 Jun 2027 06:38:30.887             5.712          1235.469
       268   08 Jun 2027 06:39:15.834   08 Jun 2027 06:39:18.940             3.106          1321.813
       269   08 Jun 2027 06:39:59.560   08 Jun 2027 06:40:07.399             7.839           724.469
       270   08 Jun 2027 08:10:49.156   08 Jun 2027 08:11:18.466            29.310         14655.000
       271   08 Jun 2027 08:12:06.748   08 Jun 2027 08:12:18.877            12.129          2567.531
       272   08 Jun 2027 08:12:47.898   08 Jun 2027 08:12:49.055             1.157           293.313
       273   08 Jun 2027 08:13:11.472   08 Jun 2027 08:13:17.171             5.699           551.000
       274   08 Jun 2027 08:13:54.963   08 Jun 2027 08:13:58.270             3.307          1181.000
       275   08 Jun 2027 08:14:31.298   08 Jun 2027 08:14:34.536             3.238          1032.125
       276   08 Jun 2027 08:15:43.486   08 Jun 2027 08:15:46.037             2.551          1275.500
       277   08 Jun 2027 09:47:32.912   08 Jun 2027 09:47:49.500            16.588          7207.594
       278   08 Jun 2027 09:48:23.673   08 Jun 2027 09:48:25.380             1.707           527.594
       279   08 Jun 2027 09:49:03.642   08 Jun 2027 09:49:04.634             0.992           304.031
       280   08 Jun 2027 09:49:08.933   08 Jun 2027 09:49:11.158             2.225            92.281
       281   08 Jun 2027 09:49:44.385   08 Jun 2027 09:49:47.415             3.030          1038.344
       282   08 Jun 2027 09:49:49.100   08 Jun 2027 09:49:52.175             3.075            52.656
       283   08 Jun 2027 09:51:00.130   08 Jun 2027 09:51:03.311             3.181           634.750
       284   08 Jun 2027 09:51:19.530   08 Jun 2027 09:51:19.530             0.000             0.000
       285   08 Jun 2027 09:51:43.519   08 Jun 2027 09:51:47.103             3.584          1256.500
       286   08 Jun 2027 11:25:42.002   08 Jun 2027 11:25:53.235            11.233          2418.656
       287   08 Jun 2027 11:26:13.881   08 Jun 2027 11:26:18.387             4.506           518.406
       288   08 Jun 2027 11:26:40.351   08 Jun 2027 11:26:42.180             1.829           474.344
       289   09 Jun 2027 03:34:55.753   09 Jun 2027 03:35:43.286            47.533         23766.500
       290   09 Jun 2027 03:35:49.666   09 Jun 2027 03:36:05.843            16.177          8088.500
       291   09 Jun 2027 05:09:50.192   09 Jun 2027 05:11:41.305           111.113         55556.500
       292   09 Jun 2027 05:11:50.893   09 Jun 2027 05:12:54.459            63.566         31783.000
       293   09 Jun 2027 05:13:46.422   09 Jun 2027 05:14:42.706            56.284         28142.000
       294   09 Jun 2027 05:15:02.270   09 Jun 2027 05:15:07.606             5.336          2668.000
       295   09 Jun 2027 05:16:33.955   09 Jun 2027 05:16:39.806             5.851          2925.500
       296   09 Jun 2027 06:46:10.760   09 Jun 2027 06:47:09.379            58.619         28924.625
       297   09 Jun 2027 06:47:21.508   09 Jun 2027 06:47:25.763             4.255           134.031
       298   09 Jun 2027 06:47:46.694   09 Jun 2027 06:47:48.165             1.471           562.781
       299   09 Jun 2027 06:48:21.473   09 Jun 2027 06:48:25.644             4.171          1026.250
       300   09 Jun 2027 06:48:44.075   09 Jun 2027 06:48:47.492             3.417           518.750
       301   09 Jun 2027 06:49:14.162   09 Jun 2027 06:49:18.467             4.305           488.188
       302   09 Jun 2027 06:49:30.484   09 Jun 2027 06:49:31.683             1.199            14.000
       303   09 Jun 2027 06:50:17.875   09 Jun 2027 06:50:20.467             2.592          1235.781
       304   09 Jun 2027 06:50:33.087   09 Jun 2027 06:50:35.251             2.164           370.406
       305   09 Jun 2027 06:50:39.002   09 Jun 2027 06:50:41.539             2.537           117.219
       306   09 Jun 2027 06:52:16.610   09 Jun 2027 06:52:22.097             5.487          2518.281
       307   09 Jun 2027 08:23:40.951   09 Jun 2027 08:24:14.516            33.565         15053.281
       308   09 Jun 2027 08:24:40.238   09 Jun 2027 08:24:42.201             1.963           366.813
       309   09 Jun 2027 08:25:11.509   09 Jun 2027 08:25:11.728             0.219           109.500
       310   09 Jun 2027 08:26:15.172   09 Jun 2027 08:26:23.583             8.411          2527.813
       311   09 Jun 2027 08:26:29.006   09 Jun 2027 08:26:29.006             0.000             0.000
       312   09 Jun 2027 08:27:36.759   09 Jun 2027 08:27:43.189             6.430          2286.750
       313   09 Jun 2027 09:59:45.416   09 Jun 2027 10:00:03.189            17.773          8125.969
       314   09 Jun 2027 10:00:05.138   09 Jun 2027 10:00:07.917             2.779            59.281
       315   09 Jun 2027 10:00:21.022   09 Jun 2027 10:00:23.155             2.133           226.125
       316   09 Jun 2027 10:00:59.915   09 Jun 2027 10:01:04.669             4.754          1055.844
       317   09 Jun 2027 10:01:05.926   09 Jun 2027 10:01:06.537             0.611            33.438
       318   09 Jun 2027 10:01:35.934   09 Jun 2027 10:01:41.871             5.937           918.656
       319   09 Jun 2027 10:02:49.933   09 Jun 2027 10:02:56.652             6.719          2126.938
       320   09 Jun 2027 10:03:07.515   09 Jun 2027 10:03:10.747             3.232           266.094
       321   10 Jun 2027 03:46:54.256   10 Jun 2027 03:47:32.431            38.175         19087.500
       322   10 Jun 2027 03:47:33.556   10 Jun 2027 03:47:47.393            13.837          6918.500
       323   10 Jun 2027 03:48:50.527   10 Jun 2027 03:48:50.527             0.000             0.000
       324   10 Jun 2027 05:22:03.765   10 Jun 2027 05:24:03.258           119.493         59746.500
       325   10 Jun 2027 05:24:54.231   10 Jun 2027 05:25:50.510            56.279         28139.500
       326   10 Jun 2027 05:25:55.886   10 Jun 2027 05:26:27.679            31.793         15896.500
       327   10 Jun 2027 05:27:35.835   10 Jun 2027 05:27:45.017             9.182          4591.000
       328   10 Jun 2027 05:28:26.895   10 Jun 2027 05:28:39.718            12.823          6411.500
       329   10 Jun 2027 06:58:25.139   10 Jun 2027 06:59:44.782            79.643         35443.375
       330   10 Jun 2027 07:00:08.980   10 Jun 2027 07:00:12.972             3.992           568.500
       331   10 Jun 2027 07:00:49.119   10 Jun 2027 07:00:51.511             2.392           980.375
       332   10 Jun 2027 07:02:47.844   10 Jun 2027 07:02:56.749             8.905          3635.406
       333   10 Jun 2027 07:03:28.400   10 Jun 2027 07:03:28.400             0.000             0.000
       334   10 Jun 2027 07:04:03.792   10 Jun 2027 07:04:09.982             6.190          2095.094
       335   10 Jun 2027 07:04:11.775   10 Jun 2027 07:04:12.484             0.709            39.469
       336   10 Jun 2027 07:04:33.050   10 Jun 2027 07:04:34.473             1.423           642.688
       337   10 Jun 2027 08:35:43.156   10 Jun 2027 08:36:11.529            28.373         12944.063
       338   10 Jun 2027 08:36:26.754   10 Jun 2027 08:36:27.886             1.132           223.469
       339   10 Jun 2027 08:36:46.009   10 Jun 2027 08:36:49.760             3.751           476.500
       340   10 Jun 2027 08:36:50.106   10 Jun 2027 08:36:50.798             0.692            10.812
       341   10 Jun 2027 08:37:11.834   10 Jun 2027 08:37:13.361             1.527           406.531
       342   10 Jun 2027 08:37:37.097   10 Jun 2027 08:37:38.086             0.989           116.937
       343   10 Jun 2027 08:38:08.916   10 Jun 2027 08:38:11.323             2.407           963.437
       344   10 Jun 2027 08:38:55.595   10 Jun 2027 08:38:59.193             3.598          1323.219
       345   10 Jun 2027 08:39:28.400   10 Jun 2027 08:39:28.400             0.000             0.000
       346   10 Jun 2027 08:39:32.555   10 Jun 2027 08:39:34.612             2.057           958.938
       347   10 Jun 2027 08:40:03.872   10 Jun 2027 08:40:08.403             4.531           240.406
       348   10 Jun 2027 10:11:55.124   10 Jun 2027 10:12:11.418            16.294          8145.281
       349   10 Jun 2027 10:12:56.690   10 Jun 2027 10:12:59.483             2.793          1392.094
       350   10 Jun 2027 10:13:06.365   10 Jun 2027 10:13:06.822             0.457            93.125
       351   10 Jun 2027 10:14:16.221   10 Jun 2027 10:14:26.466            10.245          2168.719
       352   10 Jun 2027 10:14:55.963   10 Jun 2027 10:14:58.280             2.317           619.563
       353   10 Jun 2027 10:15:02.274   10 Jun 2027 10:15:07.561             5.287           124.813
       354   10 Jun 2027 10:15:58.700   10 Jun 2027 10:16:01.982             3.282           963.406
       355   10 Jun 2027 10:16:19.084   10 Jun 2027 10:16:19.681             0.597           140.750
       356   10 Jun 2027 10:16:41.454   10 Jun 2027 10:16:42.836             1.382           674.031
       357   11 Jun 2027 03:58:44.275   11 Jun 2027 04:00:12.731            88.456         44228.000
       358   11 Jun 2027 04:00:31.293   11 Jun 2027 04:00:48.942            17.649          8824.500
       359   11 Jun 2027 04:01:46.770   11 Jun 2027 04:02:02.100            15.330          7665.000
       360   11 Jun 2027 04:02:04.791   11 Jun 2027 04:02:22.498            17.707          8853.500
       361   11 Jun 2027 05:33:38.003   11 Jun 2027 05:36:43.971           185.968         92984.000
       362   11 Jun 2027 05:36:47.931   11 Jun 2027 05:36:56.466             8.535          4135.906
       363   11 Jun 2027 05:37:26.535   11 Jun 2027 05:37:29.332             2.797           939.656
       364   11 Jun 2027 05:37:50.286   11 Jun 2027 05:37:53.498             3.212           282.875
       365   11 Jun 2027 05:40:17.516   11 Jun 2027 05:40:25.877             8.361          4180.500
       366   11 Jun 2027 05:40:44.796   11 Jun 2027 05:40:46.867             2.071           911.281
       367   11 Jun 2027 07:10:01.722   11 Jun 2027 07:11:03.079            61.357         28875.156
       368   11 Jun 2027 07:11:20.906   11 Jun 2027 07:11:22.395             1.489           270.688
       369   11 Jun 2027 07:12:31.404   11 Jun 2027 07:12:33.558             2.154           651.250
       370   11 Jun 2027 07:12:39.713   11 Jun 2027 07:12:40.287             0.574           177.281
       371   11 Jun 2027 07:13:18.837   11 Jun 2027 07:13:19.005             0.168            84.000
       372   11 Jun 2027 07:13:43.718   11 Jun 2027 07:13:47.955             4.237          1892.969
       373   11 Jun 2027 07:14:25.230   11 Jun 2027 07:14:29.722             4.492           979.281
       374   11 Jun 2027 07:14:45.439   11 Jun 2027 07:14:50.761             5.322           327.812
       375   11 Jun 2027 07:15:28.669   11 Jun 2027 07:15:31.388             2.719          1129.844
       376   11 Jun 2027 07:15:37.440   11 Jun 2027 07:15:43.111             5.671           189.125
       377   11 Jun 2027 07:15:48.565   11 Jun 2027 07:15:50.914             2.349            60.187
       378   11 Jun 2027 08:48:18.136   11 Jun 2027 08:48:44.348            26.212         11875.344
       379   11 Jun 2027 08:48:45.005   11 Jun 2027 08:48:47.866             2.861            20.531
       380   11 Jun 2027 08:49:25.661   11 Jun 2027 08:49:32.462             6.801           876.906
       381   11 Jun 2027 08:50:00.570   11 Jun 2027 08:50:02.797             2.227           728.375
       382   11 Jun 2027 08:50:35.680   11 Jun 2027 08:50:41.613             5.933          1027.594
       383   11 Jun 2027 08:51:10.172   11 Jun 2027 08:51:16.957             6.785           883.750
       384   11 Jun 2027 10:23:43.345   11 Jun 2027 10:23:59.763            16.418          8066.344
       385   11 Jun 2027 10:24:57.517   11 Jun 2027 10:24:57.799             0.282           141.000
       386   11 Jun 2027 10:25:08.485   11 Jun 2027 10:25:12.363             3.878          1858.937
       387   11 Jun 2027 10:25:19.295   11 Jun 2027 10:25:21.447             2.152           165.469
       388   11 Jun 2027 10:26:42.602   11 Jun 2027 10:26:46.494             3.892          1913.563
       389   11 Jun 2027 10:27:16.343   11 Jun 2027 10:27:16.343             0.000             0.000
       390   11 Jun 2027 10:27:21.184   11 Jun 2027 10:27:22.981             1.797           726.375
       391   11 Jun 2027 10:28:15.097   11 Jun 2027 10:28:18.536             3.439          1572.531
       392   11 Jun 2027 10:29:05.550   11 Jun 2027 10:29:07.736             2.186          1093.000
       393   12 Jun 2027 04:09:01.925   12 Jun 2027 04:09:48.131            46.206         23103.000
       394   12 Jun 2027 04:10:28.288   12 Jun 2027 04:11:06.077            37.789         18894.500
       395   12 Jun 2027 04:11:07.967   12 Jun 2027 04:11:09.629             1.662           831.000
       396   12 Jun 2027 04:14:10.548   12 Jun 2027 04:14:23.859            13.311          6655.500
       397   12 Jun 2027 04:14:52.581   12 Jun 2027 04:15:03.971            11.390          5695.000
       398   12 Jun 2027 05:45:14.729   12 Jun 2027 05:47:42.937           148.208         74104.000
       399   12 Jun 2027 05:48:35.018   12 Jun 2027 05:49:30.344            55.326         27663.000
       400   12 Jun 2027 05:51:31.211   12 Jun 2027 05:51:33.129             1.918           959.000
       401   12 Jun 2027 05:52:40.848   12 Jun 2027 05:52:49.411             8.563          4281.500
       402   12 Jun 2027 07:22:21.085   12 Jun 2027 07:23:55.215            94.130         43999.562
       403   12 Jun 2027 07:26:36.925   12 Jun 2027 07:26:41.424             4.499          2249.500
       404   12 Jun 2027 07:26:58.224   12 Jun 2027 07:27:00.621             2.397          1114.438
       405   12 Jun 2027 07:27:26.143   12 Jun 2027 07:27:27.504             1.361           584.437
       406   12 Jun 2027 07:28:28.897   12 Jun 2027 07:28:28.979             0.082            41.000
       407   12 Jun 2027 09:00:18.985   12 Jun 2027 09:00:50.646            31.661         12575.875
       408   12 Jun 2027 09:01:13.253   12 Jun 2027 09:01:13.253             0.000             0.000
       409   12 Jun 2027 09:01:13.554   12 Jun 2027 09:01:14.707             1.153           576.500
       410   12 Jun 2027 09:01:47.574   12 Jun 2027 09:01:51.185             3.611          1166.469
       411   12 Jun 2027 09:01:59.539   12 Jun 2027 09:01:59.539             0.000             0.000
       412   12 Jun 2027 09:02:53.959   12 Jun 2027 09:02:59.984             6.025          1852.875
       413   12 Jun 2027 09:03:09.539   12 Jun 2027 09:03:14.737             5.198           276.844
       414   12 Jun 2027 09:03:24.350   12 Jun 2027 09:03:28.736             4.386           300.406
       415   12 Jun 2027 09:03:48.964   12 Jun 2027 09:03:51.224             2.260           484.125
       416   12 Jun 2027 10:33:25.823   12 Jun 2027 10:33:42.464            16.641          7380.969
       417   12 Jun 2027 10:34:50.580   12 Jun 2027 10:34:52.274             1.694           847.000
       418   12 Jun 2027 10:34:55.036   12 Jun 2027 10:34:57.346             2.310           256.344
       419   12 Jun 2027 10:35:17.840   12 Jun 2027 10:35:23.233             5.393           624.281
       420   12 Jun 2027 10:36:18.622   12 Jun 2027 10:36:21.907             3.285          1641.719
       421   12 Jun 2027 10:36:49.256   12 Jun 2027 10:36:51.197             1.941           854.656
       422   12 Jun 2027 10:37:48.089   12 Jun 2027 10:37:52.007             3.918          1681.937
       423   12 Jun 2027 10:38:12.129   12 Jun 2027 10:38:16.270             4.141           512.500
       424   12 Jun 2027 10:38:56.693   12 Jun 2027 10:38:59.337             2.644          1263.219
       425   12 Jun 2027 10:39:39.029   12 Jun 2027 10:39:42.211             3.182          1057.719
       426   12 Jun 2027 10:40:25.592   12 Jun 2027 10:40:30.889             5.297          1212.125
       427   13 Jun 2027 04:20:08.491   13 Jun 2027 04:22:01.535           113.044         56522.000
       428   13 Jun 2027 04:22:11.867   13 Jun 2027 04:22:41.413            29.546         14773.000
       429   13 Jun 2027 04:22:50.712   13 Jun 2027 04:23:10.375            19.663          9831.500
       430   13 Jun 2027 04:24:45.442   13 Jun 2027 04:24:50.492             5.050          2525.000
       431   13 Jun 2027 04:25:17.573   13 Jun 2027 04:25:31.949            14.376          7188.000
       432   13 Jun 2027 04:25:52.014   13 Jun 2027 04:25:54.474             2.460          1230.000
       433   13 Jun 2027 04:26:55.020   13 Jun 2027 04:27:27.184            32.164         16082.000
       434   13 Jun 2027 04:28:04.892   13 Jun 2027 04:28:12.180             7.288          3644.000
       435   13 Jun 2027 05:57:34.608   13 Jun 2027 05:59:50.780           136.172         68060.625
       436   13 Jun 2027 06:00:19.312   13 Jun 2027 06:00:23.737             4.425           891.625
       437   13 Jun 2027 06:01:13.342   13 Jun 2027 06:01:17.803             4.461          1505.219
       438   13 Jun 2027 06:01:30.331   13 Jun 2027 06:01:31.037             0.706           260.531
       439   13 Jun 2027 06:02:33.082   13 Jun 2027 06:02:37.527             4.445          1938.906
       440   13 Jun 2027 06:02:46.815   13 Jun 2027 06:02:52.458             5.643           227.375
       441   13 Jun 2027 06:03:50.247   13 Jun 2027 06:03:53.689             3.442          1551.125
       442   13 Jun 2027 07:34:21.317   13 Jun 2027 07:35:15.648            54.331         27101.094
       443   13 Jun 2027 07:36:24.544   13 Jun 2027 07:36:31.935             7.391           338.594
       444   13 Jun 2027 07:37:13.477   13 Jun 2027 07:37:13.477             0.000             0.000
       445   13 Jun 2027 07:38:31.993   13 Jun 2027 07:38:40.476             8.483          3087.531
       446   13 Jun 2027 07:39:28.109   13 Jun 2027 07:39:32.733             4.624          1488.531
       447   13 Jun 2027 07:40:37.597   13 Jun 2027 07:40:41.655             4.058          1638.375
       448   13 Jun 2027 09:12:19.437   13 Jun 2027 09:12:39.014            19.577          9741.500
       449   13 Jun 2027 09:12:49.165   13 Jun 2027 09:12:51.654             2.489           187.219
       450   13 Jun 2027 09:13:03.847   13 Jun 2027 09:13:03.847             0.000             0.000
       451   13 Jun 2027 09:13:12.720   13 Jun 2027 09:13:14.042             1.322           360.688
       452   13 Jun 2027 09:13:31.629   13 Jun 2027 09:13:33.593             1.964           541.969
       453   13 Jun 2027 09:14:23.991   13 Jun 2027 09:14:27.326             3.335          1281.250
       454   13 Jun 2027 09:14:37.550   13 Jun 2027 09:14:40.379             2.829            74.094
       455   13 Jun 2027 09:14:58.611   13 Jun 2027 09:15:00.373             1.762           569.750
       456   13 Jun 2027 09:15:37.308   13 Jun 2027 09:15:46.978             9.670           866.062
       457   13 Jun 2027 09:16:28.018   13 Jun 2027 09:16:29.340             1.322           661.000
       458   13 Jun 2027 10:45:56.993   13 Jun 2027 10:46:05.749             8.756          2963.781
       459   13 Jun 2027 10:46:57.244   13 Jun 2027 10:47:00.953             3.709           550.469
       460   13 Jun 2027 10:47:41.601   13 Jun 2027 10:47:50.415             8.814          1091.844
       461   13 Jun 2027 10:48:03.011   13 Jun 2027 10:48:12.126             9.115           359.344
       462   13 Jun 2027 10:48:38.982   13 Jun 2027 10:48:40.411             1.429           380.656
       463   13 Jun 2027 10:49:37.563   13 Jun 2027 10:49:45.478             7.915          1461.844
       464   13 Jun 2027 10:50:24.845   13 Jun 2027 10:50:27.648             2.803          1106.344
       465   13 Jun 2027 10:51:22.952   13 Jun 2027 10:51:28.862             5.910          1223.219
       466   13 Jun 2027 10:52:37.790   13 Jun 2027 10:52:40.061             2.271          1135.500
       467   13 Jun 2027 10:52:42.035   13 Jun 2027 10:52:45.692             3.657           877.969
       468   13 Jun 2027 10:53:09.719   13 Jun 2027 10:53:11.272             1.553           235.156
