uniorb/output/strategy_2/Camera/Camera_KinoSat_111104.txt

KinoSat_111104
-------------------------
    Access    *     Start Time (UTCG)     *     Stop Time (UTCG)  *   Duration (s) *   Data (Mbytes)
         1   01 Jun 2027 03:33:33.071   01 Jun 2027 03:34:21.548            48.477         24238.500
         2   01 Jun 2027 03:45:07.447   01 Jun 2027 03:46:35.716            88.269         44134.500
         3   01 Jun 2027 05:07:44.926   01 Jun 2027 05:08:43.256            58.330         29165.000
         4   01 Jun 2027 05:09:21.964   01 Jun 2027 05:10:29.353            67.389         33694.500
         5   01 Jun 2027 05:11:34.294   01 Jun 2027 05:11:34.294             0.000             0.000
         6   01 Jun 2027 05:11:52.678   01 Jun 2027 05:11:55.904             3.226          1613.000
         7   01 Jun 2027 06:42:53.890   01 Jun 2027 06:44:07.564            73.674         36837.000
         8   01 Jun 2027 06:44:36.534   01 Jun 2027 06:46:08.845            92.311         46155.500
         9   01 Jun 2027 06:47:27.745   01 Jun 2027 06:47:33.039             5.294          2647.000
        10   01 Jun 2027 06:48:26.148   01 Jun 2027 06:48:34.599             8.451          4225.500
        11   01 Jun 2027 06:49:15.319   01 Jun 2027 06:49:18.221             2.902          1451.000
        12   01 Jun 2027 08:19:40.819   01 Jun 2027 08:22:45.857           185.038         92519.000
        13   01 Jun 2027 08:23:52.741   01 Jun 2027 08:23:52.741             0.000             0.000
        14   01 Jun 2027 08:24:42.955   01 Jun 2027 08:24:55.877            12.922          6461.000
        15   01 Jun 2027 08:25:29.275   01 Jun 2027 08:25:42.603            13.328          6664.000
        16   01 Jun 2027 09:56:41.840   01 Jun 2027 09:58:58.690           136.850         68425.000
        17   01 Jun 2027 09:59:48.048   01 Jun 2027 10:00:06.356            18.308          9154.000
        18   01 Jun 2027 10:02:35.602   01 Jun 2027 10:02:36.006             0.404           202.000
        19   01 Jun 2027 10:02:44.167   01 Jun 2027 10:02:50.692             6.525          3262.500
        20   01 Jun 2027 11:34:35.593   01 Jun 2027 11:36:10.082            94.489         47244.500
        21   01 Jun 2027 11:36:26.673   01 Jun 2027 11:36:37.116            10.443          5221.500
        22   02 Jun 2027 03:44:52.888   02 Jun 2027 03:46:11.512            78.624         39312.000
        23   02 Jun 2027 03:57:06.549   02 Jun 2027 03:57:53.833            47.284         23642.000
        24   02 Jun 2027 05:19:20.808   02 Jun 2027 05:20:28.266            67.458         33729.000
        25   02 Jun 2027 05:21:16.784   02 Jun 2027 05:22:07.311            50.527         25263.500
        26   02 Jun 2027 05:22:21.757   02 Jun 2027 05:22:35.338            13.581          6790.500
        27   02 Jun 2027 05:23:36.881   02 Jun 2027 05:23:36.881             0.000             0.000
        28   02 Jun 2027 05:23:44.647   02 Jun 2027 05:23:46.524             1.877           938.500
        29   02 Jun 2027 05:24:40.145   02 Jun 2027 05:24:40.145             0.000             0.000
        30   02 Jun 2027 06:54:13.947   02 Jun 2027 06:56:21.675           127.728         63864.000
        31   02 Jun 2027 06:56:24.564   02 Jun 2027 06:56:39.895            15.331          7665.500
        32   02 Jun 2027 06:57:05.985   02 Jun 2027 06:57:33.133            27.148         13574.000
        33   02 Jun 2027 06:57:42.008   02 Jun 2027 06:58:05.641            23.633         11816.500
        34   02 Jun 2027 06:58:18.724   02 Jun 2027 06:58:18.724             0.000             0.000
        35   02 Jun 2027 07:00:48.458   02 Jun 2027 07:00:54.037             5.579          2789.500
        36   02 Jun 2027 07:01:34.355   02 Jun 2027 07:01:38.016             3.661          1830.500
        37   02 Jun 2027 07:02:45.751   02 Jun 2027 07:02:46.678             0.927           463.500
        38   02 Jun 2027 08:31:48.590   02 Jun 2027 08:33:36.117           107.527         53236.061
        39   02 Jun 2027 08:36:35.888   02 Jun 2027 08:36:47.323            11.435          5359.062
        40   02 Jun 2027 08:37:28.755   02 Jun 2027 08:37:34.208             5.453          1121.844
        41   02 Jun 2027 08:37:58.113   02 Jun 2027 08:38:00.170             2.057           743.750
        42   02 Jun 2027 08:38:25.253   02 Jun 2027 08:38:28.522             3.269           479.156
        43   02 Jun 2027 08:38:33.756   02 Jun 2027 08:38:39.379             5.623           163.562
        44   02 Jun 2027 10:08:31.499   02 Jun 2027 10:08:51.463            19.964          9800.125
        45   02 Jun 2027 10:09:31.797   02 Jun 2027 10:09:34.622             2.825          1106.625
        46   02 Jun 2027 10:09:48.874   02 Jun 2027 10:09:50.172             1.298           445.375
        47   02 Jun 2027 10:11:13.442   02 Jun 2027 10:11:20.381             6.939          1603.094
        48   02 Jun 2027 10:12:15.757   02 Jun 2027 10:12:20.388             4.631          1730.500
        49   02 Jun 2027 10:12:47.553   02 Jun 2027 10:12:50.766             3.213           848.906
        50   02 Jun 2027 10:12:51.089   02 Jun 2027 10:12:51.338             0.249            10.094
        51   02 Jun 2027 10:13:31.176   02 Jun 2027 10:13:36.910             5.734          1219.188
        52   02 Jun 2027 10:13:50.769   02 Jun 2027 10:14:00.830            10.061           269.750
        53   02 Jun 2027 10:14:26.662   02 Jun 2027 10:14:29.373             2.711           800.344
        54   02 Jun 2027 10:14:52.303   02 Jun 2027 10:14:54.229             1.926           589.531
        55   02 Jun 2027 11:46:35.491   02 Jun 2027 11:46:56.965            21.474          7057.656
        56   02 Jun 2027 11:47:04.054   02 Jun 2027 11:47:04.298             0.244            51.469
        57   02 Jun 2027 11:48:26.711   02 Jun 2027 11:48:37.889            11.178          2242.813
        58   02 Jun 2027 11:49:00.677   02 Jun 2027 11:49:03.112             2.435           677.562
        59   02 Jun 2027 11:50:01.722   02 Jun 2027 11:50:07.234             5.512          1547.406
        60   03 Jun 2027 03:56:58.664   03 Jun 2027 03:58:12.762            74.098         37049.000
        61   03 Jun 2027 04:09:22.083   03 Jun 2027 04:09:39.253            17.170          8585.000
        62   03 Jun 2027 05:30:49.587   03 Jun 2027 05:33:57.460           187.873         93936.500
        63   03 Jun 2027 05:35:52.431   03 Jun 2027 05:35:57.305             4.874          2437.000
        64   03 Jun 2027 05:36:49.572   03 Jun 2027 05:36:52.131             2.559          1279.500
        65   03 Jun 2027 07:05:43.846   03 Jun 2027 07:06:18.454            34.608         16830.031
        66   03 Jun 2027 07:07:00.067   03 Jun 2027 07:07:04.253             4.186           630.906
        67   03 Jun 2027 07:08:03.692   03 Jun 2027 07:08:05.058             1.366           463.812
        68   03 Jun 2027 07:09:15.220   03 Jun 2027 07:09:20.315             5.095          1774.906
        69   03 Jun 2027 07:09:26.307   03 Jun 2027 07:09:27.313             1.006           187.250
        70   03 Jun 2027 07:09:45.296   03 Jun 2027 07:09:46.417             1.121           327.594
        71   03 Jun 2027 07:09:54.450   03 Jun 2027 07:09:54.450             0.000             0.000
        72   03 Jun 2027 07:11:33.115   03 Jun 2027 07:11:45.933            12.818          3334.312
        73   03 Jun 2027 07:11:55.771   03 Jun 2027 07:11:56.382             0.611           190.562
        74   03 Jun 2027 07:12:37.108   03 Jun 2027 07:12:40.445             3.337           587.094
        75   03 Jun 2027 07:13:02.567   03 Jun 2027 07:13:03.988             1.421           682.844
        76   03 Jun 2027 07:13:27.216   03 Jun 2027 07:13:28.053             0.837           418.500
        77   03 Jun 2027 07:14:40.670   03 Jun 2027 07:14:46.764             6.094          2448.250
        78   03 Jun 2027 07:15:11.800   03 Jun 2027 07:15:11.800             0.000             0.000
        79   03 Jun 2027 08:43:43.683   03 Jun 2027 08:43:59.719            16.036          6580.000
        80   03 Jun 2027 08:44:41.787   03 Jun 2027 08:44:44.543             2.756          1060.250
        81   03 Jun 2027 08:46:28.322   03 Jun 2027 08:46:35.468             7.146          1735.438
        82   03 Jun 2027 08:46:39.787   03 Jun 2027 08:46:40.135             0.348           113.250
        83   03 Jun 2027 08:47:33.502   03 Jun 2027 08:47:37.790             4.288          1297.938
        84   03 Jun 2027 08:47:59.423   03 Jun 2027 08:48:03.351             3.928           395.187
        85   03 Jun 2027 08:48:06.883   03 Jun 2027 08:48:08.014             1.131           109.563
        86   03 Jun 2027 08:48:48.116   03 Jun 2027 08:48:57.783             9.667          1169.094
        87   03 Jun 2027 08:49:09.265   03 Jun 2027 08:49:15.564             6.299           358.812
        88   03 Jun 2027 08:49:45.809   03 Jun 2027 08:49:45.939             0.130            65.000
        89   03 Jun 2027 08:49:48.436   03 Jun 2027 08:49:51.352             2.916           914.375
        90   03 Jun 2027 08:50:30.476   03 Jun 2027 08:50:35.444             4.968           949.094
        91   03 Jun 2027 08:50:52.317   03 Jun 2027 08:50:53.953             1.636           332.938
        92   03 Jun 2027 08:50:54.884   03 Jun 2027 08:50:55.286             0.402            29.094
        93   03 Jun 2027 08:51:09.168   03 Jun 2027 08:51:12.418             3.250           433.813
        94   03 Jun 2027 10:20:39.420   03 Jun 2027 10:20:58.429            19.009          7814.969
        95   03 Jun 2027 10:21:18.975   03 Jun 2027 10:21:20.611             1.636           371.188
        96   03 Jun 2027 10:21:37.512   03 Jun 2027 10:21:39.163             1.651           157.812
        97   03 Jun 2027 10:22:32.721   03 Jun 2027 10:22:35.667             2.946           132.062
        98   03 Jun 2027 10:23:13.240   03 Jun 2027 10:23:15.813             2.573           654.781
        99   03 Jun 2027 10:23:53.751   03 Jun 2027 10:23:58.308             4.557          1061.688
       100   03 Jun 2027 10:24:31.287   03 Jun 2027 10:24:33.603             2.316          1030.594
       101   03 Jun 2027 10:24:50.554   03 Jun 2027 10:24:51.774             1.220           529.719
       102   03 Jun 2027 10:25:06.243   03 Jun 2027 10:25:07.707             1.464           395.344
       103   03 Jun 2027 10:26:16.617   03 Jun 2027 10:26:25.135             8.518          1310.063
       104   03 Jun 2027 10:26:35.143   03 Jun 2027 10:26:37.318             2.175           202.656
       105   03 Jun 2027 10:27:01.418   03 Jun 2027 10:27:05.466             4.048           572.437
       106   03 Jun 2027 11:58:13.005   03 Jun 2027 11:58:24.974            11.969          5984.500
       107   03 Jun 2027 11:59:35.088   03 Jun 2027 11:59:39.074             3.986          1993.000
       108   04 Jun 2027 04:08:54.918   04 Jun 2027 04:10:44.551           109.633         54816.500
       109   04 Jun 2027 05:45:07.810   04 Jun 2027 05:47:41.568           153.758         76879.000
       110   04 Jun 2027 05:47:46.883   04 Jun 2027 05:47:50.629             3.746          1873.000
       111   04 Jun 2027 07:18:39.626   04 Jun 2027 07:19:38.177            58.551         28956.062
       112   04 Jun 2027 07:20:06.917   04 Jun 2027 07:20:09.079             2.162           547.281
       113   04 Jun 2027 07:20:56.293   04 Jun 2027 07:21:00.051             3.758           498.438
       114   04 Jun 2027 07:21:48.668   04 Jun 2027 07:21:56.487             7.819          1219.875
       115   04 Jun 2027 07:22:57.032   04 Jun 2027 07:22:59.995             2.963          1481.500
       116   04 Jun 2027 07:23:18.567   04 Jun 2027 07:23:21.033             2.466           990.906
       117   04 Jun 2027 07:23:58.366   04 Jun 2027 07:24:01.205             2.839           816.062
       118   04 Jun 2027 07:24:35.233   04 Jun 2027 07:24:39.675             4.442           808.000
       119   04 Jun 2027 07:25:33.526   04 Jun 2027 07:25:39.843             6.317          1342.188
       120   04 Jun 2027 07:26:23.665   04 Jun 2027 07:26:24.724             1.059           529.500
       121   04 Jun 2027 07:27:13.275   04 Jun 2027 07:27:14.253             0.978           489.000
       122   04 Jun 2027 08:56:05.655   04 Jun 2027 08:56:19.714            14.059          6536.187
       123   04 Jun 2027 08:56:39.963   04 Jun 2027 08:56:41.340             1.377           618.562
       124   04 Jun 2027 08:57:56.308   04 Jun 2027 08:57:58.363             2.055           559.781
       125   04 Jun 2027 08:58:35.196   04 Jun 2027 08:58:36.648             1.452           466.562
       126   04 Jun 2027 08:59:00.252   04 Jun 2027 08:59:04.402             4.150           737.625
       127   04 Jun 2027 08:59:21.764   04 Jun 2027 08:59:22.010             0.246            28.062
       128   04 Jun 2027 08:59:41.319   04 Jun 2027 08:59:43.322             2.003           598.250
       129   04 Jun 2027 09:00:31.146   04 Jun 2027 09:00:35.059             3.913          1095.125
       130   04 Jun 2027 09:00:47.284   04 Jun 2027 09:00:49.959             2.675           364.750
       131   04 Jun 2027 09:00:58.602   04 Jun 2027 09:00:59.564             0.962            41.187
       132   04 Jun 2027 09:01:12.370   04 Jun 2027 09:01:13.526             1.156           346.031
       133   04 Jun 2027 09:01:16.414   04 Jun 2027 09:01:17.082             0.668            43.000
       134   04 Jun 2027 09:02:14.596   04 Jun 2027 09:02:21.186             6.590          1539.344
       135   04 Jun 2027 09:02:44.506   04 Jun 2027 09:02:45.569             1.063           512.906
       136   04 Jun 2027 10:33:08.432   04 Jun 2027 10:33:26.543            18.111          7665.156
       137   04 Jun 2027 10:34:06.971   04 Jun 2027 10:34:12.162             5.191           889.500
       138   04 Jun 2027 10:34:57.075   04 Jun 2027 10:35:00.005             2.930           642.781
       139   04 Jun 2027 10:36:18.787   04 Jun 2027 10:36:24.754             5.967          2461.938
       140   04 Jun 2027 10:36:38.220   04 Jun 2027 10:36:38.909             0.689           344.500
       141   04 Jun 2027 10:36:43.797   04 Jun 2027 10:36:46.667             2.870           229.063
       142   04 Jun 2027 10:37:04.939   04 Jun 2027 10:37:05.703             0.764           371.781
       143   04 Jun 2027 10:37:46.675   04 Jun 2027 10:37:49.953             3.278          1280.375
       144   04 Jun 2027 10:38:48.567   04 Jun 2027 10:38:55.975             7.408          1744.156
       145   05 Jun 2027 03:00:00.000   05 Jun 2027 03:00:42.581            42.581         21290.500
       146   05 Jun 2027 03:01:16.242   05 Jun 2027 03:01:19.707             3.465          1732.500
       147   05 Jun 2027 03:01:31.147   05 Jun 2027 03:01:56.221            25.074         12537.000
       148   05 Jun 2027 04:20:46.678   05 Jun 2027 04:22:24.751            98.073         49036.500
       149   05 Jun 2027 04:22:59.862   05 Jun 2027 04:23:15.607            15.745          7872.500
       150   05 Jun 2027 05:57:13.338   05 Jun 2027 05:59:22.656           129.318         64659.000
       151   05 Jun 2027 05:59:43.597   05 Jun 2027 05:59:48.167             4.570          2285.000
       152   05 Jun 2027 05:59:53.800   05 Jun 2027 05:59:53.800             0.000             0.000
       153   05 Jun 2027 06:00:15.467   05 Jun 2027 06:00:19.044             3.577          1787.781
       154   05 Jun 2027 07:29:22.848   05 Jun 2027 07:29:32.801             9.953          4976.500
       155   05 Jun 2027 07:31:17.987   05 Jun 2027 07:31:22.320             4.333           345.000
       156   05 Jun 2027 07:32:10.047   05 Jun 2027 07:32:13.201             3.154           643.469
       157   05 Jun 2027 07:33:01.139   05 Jun 2027 07:33:02.090             0.951           377.250
       158   05 Jun 2027 07:33:15.249   05 Jun 2027 07:33:15.249             0.000             0.000
       159   05 Jun 2027 07:33:52.076   05 Jun 2027 07:33:54.592             2.516          1203.969
       160   05 Jun 2027 07:34:30.026   05 Jun 2027 07:34:33.236             3.210           993.156
       161   05 Jun 2027 07:35:01.587   05 Jun 2027 07:35:01.955             0.368           184.000
       162   05 Jun 2027 07:36:20.406   05 Jun 2027 07:36:29.651             9.245          3122.844
       163   05 Jun 2027 07:36:34.128   05 Jun 2027 07:36:38.719             4.591            64.469
       164   05 Jun 2027 07:37:35.877   05 Jun 2027 07:37:36.249             0.372           183.656
       165   05 Jun 2027 07:37:51.764   05 Jun 2027 07:37:52.824             1.060           313.688
       166   05 Jun 2027 07:38:19.441   05 Jun 2027 07:38:22.156             2.715           772.000
       167   05 Jun 2027 07:38:59.834   05 Jun 2027 07:39:03.343             3.509          1067.312
       168   05 Jun 2027 07:39:09.008   05 Jun 2027 07:39:09.649             0.641            93.031
       169   05 Jun 2027 09:08:16.934   05 Jun 2027 09:08:29.875            12.941          5976.250
       170   05 Jun 2027 09:10:58.856   05 Jun 2027 09:11:03.988             5.132          2566.000
       171   05 Jun 2027 09:11:18.476   05 Jun 2027 09:11:23.513             5.037           571.094
       172   05 Jun 2027 09:12:17.887   05 Jun 2027 09:12:23.061             5.174          1650.625
       173   05 Jun 2027 09:12:44.930   05 Jun 2027 09:12:44.930             0.000             0.000
       174   05 Jun 2027 09:12:48.989   05 Jun 2027 09:12:51.750             2.761           795.063
       175   05 Jun 2027 09:12:59.632   05 Jun 2027 09:13:03.206             3.574            80.687
       176   05 Jun 2027 09:13:15.809   05 Jun 2027 09:13:16.793             0.984           288.281
       177   05 Jun 2027 09:14:16.796   05 Jun 2027 09:14:20.627             3.831          1721.156
       178   05 Jun 2027 10:45:20.782   05 Jun 2027 10:45:35.914            15.132          6877.031
       179   05 Jun 2027 10:46:58.905   05 Jun 2027 10:47:02.593             3.688          1636.313
       180   05 Jun 2027 10:48:11.865   05 Jun 2027 10:48:16.497             4.632          1027.438
       181   05 Jun 2027 10:49:14.265   05 Jun 2027 10:49:21.164             6.899          1729.781
       182   06 Jun 2027 03:09:55.643   06 Jun 2027 03:12:09.073           133.430         66715.000
       183   06 Jun 2027 03:13:22.055   06 Jun 2027 03:13:52.878            30.823         15411.500
       184   06 Jun 2027 04:32:52.228   06 Jun 2027 04:33:32.530            40.302         20151.000
       185   06 Jun 2027 04:34:17.378   06 Jun 2027 04:34:26.114             8.736          4368.000
       186   06 Jun 2027 04:34:55.877   06 Jun 2027 04:35:22.636            26.759         13379.500
       187   06 Jun 2027 06:09:21.005   06 Jun 2027 06:10:39.044            78.039         39019.500
       188   06 Jun 2027 06:11:31.219   06 Jun 2027 06:11:45.378            14.159          6331.125
       189   06 Jun 2027 07:44:28.634   06 Jun 2027 07:44:42.033            13.399          5944.500
       190   06 Jun 2027 07:45:35.303   06 Jun 2027 07:45:35.303             0.000             0.000
       191   06 Jun 2027 07:45:55.497   06 Jun 2027 07:45:59.505             4.008          1615.375
       192   06 Jun 2027 07:46:39.066   06 Jun 2027 07:46:40.099             1.033           516.500
       193   06 Jun 2027 07:47:00.645   06 Jun 2027 07:47:07.665             7.020          1356.469
       194   06 Jun 2027 07:47:16.986   06 Jun 2027 07:47:19.843             2.857           203.469
       195   06 Jun 2027 07:47:39.564   06 Jun 2027 07:47:42.073             2.509           466.937
       196   06 Jun 2027 07:48:10.428   06 Jun 2027 07:48:16.039             5.611           209.938
       197   06 Jun 2027 07:49:07.517   06 Jun 2027 07:49:10.856             3.339          1595.969
       198   06 Jun 2027 07:49:44.908   06 Jun 2027 07:49:45.803             0.895           182.656
       199   06 Jun 2027 07:50:16.261   06 Jun 2027 07:50:19.950             3.689           786.313
       200   06 Jun 2027 07:50:27.930   06 Jun 2027 07:50:31.417             3.487            83.500
       201   06 Jun 2027 07:50:53.496   06 Jun 2027 07:50:55.347             1.851           689.969
       202   06 Jun 2027 07:51:00.324   06 Jun 2027 07:51:03.222             2.898           155.531
       203   06 Jun 2027 09:20:50.271   06 Jun 2027 09:21:05.045            14.774          7363.531
       204   06 Jun 2027 09:21:30.860   06 Jun 2027 09:21:31.248             0.388            19.156
       205   06 Jun 2027 09:22:40.661   06 Jun 2027 09:22:48.164             7.503          2160.813
       206   06 Jun 2027 09:22:57.643   06 Jun 2027 09:22:58.305             0.662           209.344
       207   06 Jun 2027 09:23:27.598   06 Jun 2027 09:23:28.379             0.781           223.688
       208   06 Jun 2027 09:24:36.586   06 Jun 2027 09:24:39.057             2.471          1235.500
       209   06 Jun 2027 09:25:05.137   06 Jun 2027 09:25:09.566             4.429          1022.000
       210   06 Jun 2027 09:25:23.815   06 Jun 2027 09:25:25.087             1.272           350.313
       211   06 Jun 2027 09:26:06.623   06 Jun 2027 09:26:08.574             1.951           784.969
       212   06 Jun 2027 09:26:20.652   06 Jun 2027 09:26:21.664             1.012           377.438
       213   06 Jun 2027 09:26:51.092   06 Jun 2027 09:26:54.724             3.632           831.000
       214   06 Jun 2027 10:58:15.986   06 Jun 2027 10:58:31.870            15.884          6411.781
       215   06 Jun 2027 10:58:54.904   06 Jun 2027 10:58:56.008             1.104           503.406
       216   06 Jun 2027 10:59:43.533   06 Jun 2027 10:59:48.099             4.566          1485.156
       217   06 Jun 2027 11:00:16.196   06 Jun 2027 11:00:18.651             2.455           851.781
       218   06 Jun 2027 11:00:44.395   06 Jun 2027 11:00:46.477             2.082           321.625
       219   06 Jun 2027 11:00:56.365   06 Jun 2027 11:00:58.621             2.256            27.469
       220   06 Jun 2027 11:01:09.766   06 Jun 2027 11:01:11.174             1.408           344.875
       221   06 Jun 2027 11:01:41.315   06 Jun 2027 11:01:45.880             4.565           768.406
       222   06 Jun 2027 11:02:43.951   06 Jun 2027 11:02:45.197             1.246           623.000
       223   07 Jun 2027 03:21:27.264   07 Jun 2027 03:22:04.976            37.712         18856.000
       224   07 Jun 2027 03:22:17.399   07 Jun 2027 03:25:01.931           164.532         82266.000
       225   07 Jun 2027 04:44:55.189   07 Jun 2027 04:45:30.946            35.757         17878.500
       226   07 Jun 2027 04:45:43.970   07 Jun 2027 04:45:53.522             9.552          4776.000
       227   07 Jun 2027 04:47:16.543   07 Jun 2027 04:47:44.608            28.065         14032.500
       228   07 Jun 2027 06:21:24.019   07 Jun 2027 06:21:33.298             9.279          4639.500
       229   07 Jun 2027 06:21:42.692   07 Jun 2027 06:22:02.635            19.943          9971.500
       230   07 Jun 2027 06:22:29.171   07 Jun 2027 06:22:29.853             0.682           341.000
       231   07 Jun 2027 06:23:31.383   07 Jun 2027 06:23:38.697             7.314          3010.969
       232   07 Jun 2027 06:23:48.440   07 Jun 2027 06:23:55.087             6.647           304.469
       233   07 Jun 2027 07:56:35.629   07 Jun 2027 07:56:47.355            11.726          4828.125
       234   07 Jun 2027 07:57:58.887   07 Jun 2027 07:58:03.516             4.629          2132.219
       235   07 Jun 2027 07:59:09.215   07 Jun 2027 07:59:12.420             3.205          1375.406
       236   07 Jun 2027 08:00:07.880   07 Jun 2027 08:00:11.409             3.529          1733.125
       237   07 Jun 2027 08:00:33.859   07 Jun 2027 08:00:35.566             1.707           629.969
       238   07 Jun 2027 08:00:52.562   07 Jun 2027 08:00:54.025             1.463           369.875
       239   07 Jun 2027 08:01:53.253   07 Jun 2027 08:01:58.164             4.911          1734.281
       240   07 Jun 2027 08:02:48.643   07 Jun 2027 08:02:52.244             3.601          1577.469
       241   07 Jun 2027 09:32:31.531   07 Jun 2027 09:32:46.831            15.300          7490.375
       242   07 Jun 2027 09:33:00.653   07 Jun 2027 09:33:03.469             2.816           123.406
       243   07 Jun 2027 09:33:32.827   07 Jun 2027 09:33:36.061             3.234           123.531
       244   07 Jun 2027 09:34:36.580   07 Jun 2027 09:34:40.801             4.221          1856.344
       245   07 Jun 2027 09:34:51.808   07 Jun 2027 09:34:52.609             0.801           338.500
       246   07 Jun 2027 09:35:17.490   07 Jun 2027 09:35:18.173             0.683           227.656
       247   07 Jun 2027 09:35:43.935   07 Jun 2027 09:35:46.235             2.300           805.063
       248   07 Jun 2027 09:36:11.592   07 Jun 2027 09:36:13.283             1.691           772.187
       249   07 Jun 2027 09:36:34.222   07 Jun 2027 09:36:35.158             0.936           458.187
       250   07 Jun 2027 09:37:05.653   07 Jun 2027 09:37:09.413             3.760           809.281
       251   07 Jun 2027 09:37:26.483   07 Jun 2027 09:37:27.800             1.317           533.438
       252   07 Jun 2027 09:37:55.678   07 Jun 2027 09:37:58.522             2.844           533.812
       253   07 Jun 2027 11:10:23.408   07 Jun 2027 11:10:40.803            17.395          7652.375
       254   07 Jun 2027 11:11:18.450   07 Jun 2027 11:11:19.036             0.586           249.000
       255   07 Jun 2027 11:12:32.477   07 Jun 2027 11:12:36.407             3.930          1965.000
       256   07 Jun 2027 11:12:41.953   07 Jun 2027 11:12:43.944             1.991           199.625
       257   07 Jun 2027 11:12:44.960   07 Jun 2027 11:12:44.960             0.000             0.000
       258   07 Jun 2027 11:12:46.788   07 Jun 2027 11:12:53.672             6.884            88.875
       259   07 Jun 2027 11:13:02.038   07 Jun 2027 11:13:02.749             0.711           154.531
       260   07 Jun 2027 11:13:32.667   07 Jun 2027 11:13:36.297             3.630           872.062
       261   07 Jun 2027 11:13:51.244   07 Jun 2027 11:13:52.767             1.523           419.625
       262   07 Jun 2027 11:14:32.757   07 Jun 2027 11:14:36.164             3.407          1223.656
       263   07 Jun 2027 11:14:40.749   07 Jun 2027 11:14:41.436             0.687           143.281
       264   08 Jun 2027 03:22:31.431   08 Jun 2027 03:22:54.672            23.241         11620.500
       265   08 Jun 2027 03:33:24.700   08 Jun 2027 03:35:06.657           101.957         50978.500
       266   08 Jun 2027 03:35:34.792   08 Jun 2027 03:36:51.945            77.153         38576.500
       267   08 Jun 2027 04:57:21.879   08 Jun 2027 04:58:13.844            51.965         25982.500
       268   08 Jun 2027 04:59:08.447   08 Jun 2027 04:59:08.447             0.000             0.000
       269   08 Jun 2027 04:59:47.405   08 Jun 2027 05:00:07.864            20.459         10229.500
       270   08 Jun 2027 06:33:08.075   08 Jun 2027 06:33:47.318            39.243         17184.407
       271   08 Jun 2027 06:34:20.778   08 Jun 2027 06:34:23.100             2.322           953.594
       272   08 Jun 2027 06:34:31.461   08 Jun 2027 06:34:37.930             6.469           213.125
       273   08 Jun 2027 06:35:22.158   08 Jun 2027 06:35:27.156             4.998          1332.312
       274   08 Jun 2027 06:35:52.831   08 Jun 2027 06:35:52.831             0.000             0.000
       275   08 Jun 2027 06:36:27.031   08 Jun 2027 06:36:30.978             3.947          1231.750
       276   08 Jun 2027 08:07:51.117   08 Jun 2027 08:08:00.539             9.422          4629.531
       277   08 Jun 2027 08:08:32.407   08 Jun 2027 08:08:36.592             4.185           429.438
       278   08 Jun 2027 08:10:29.255   08 Jun 2027 08:10:35.273             6.018           872.594
       279   08 Jun 2027 08:12:08.198   08 Jun 2027 08:12:18.877            10.679          1949.187
       280   08 Jun 2027 08:13:41.193   08 Jun 2027 08:13:50.797             9.604          2001.937
       281   08 Jun 2027 08:14:08.045   08 Jun 2027 08:14:09.180             1.135           494.500
       282   08 Jun 2027 08:14:42.023   08 Jun 2027 08:14:45.117             3.094           949.656
       283   08 Jun 2027 08:15:05.476   08 Jun 2027 08:15:06.557             1.081           218.719
       284   08 Jun 2027 08:15:20.028   08 Jun 2027 08:15:22.058             2.030            16.594
       285   08 Jun 2027 09:44:37.285   08 Jun 2027 09:44:57.057            19.772          9056.094
       286   08 Jun 2027 09:45:23.630   08 Jun 2027 09:45:24.823             1.193           596.500
       287   08 Jun 2027 09:45:38.916   08 Jun 2027 09:45:40.257             1.341           501.250
       288   08 Jun 2027 09:46:45.617   08 Jun 2027 09:46:46.897             1.280           614.531
       289   08 Jun 2027 09:47:30.204   08 Jun 2027 09:47:32.912             2.708          1315.875
       290   08 Jun 2027 09:47:55.954   08 Jun 2027 09:47:59.931             3.977           514.625
       291   08 Jun 2027 09:48:40.712   08 Jun 2027 09:48:50.978            10.266          1192.094
       292   08 Jun 2027 09:49:11.158   08 Jun 2027 09:49:13.693             2.535           234.875
       293   08 Jun 2027 09:50:37.985   08 Jun 2027 09:50:43.305             5.320          2285.125
       294   08 Jun 2027 11:22:53.016   08 Jun 2027 11:23:09.282            16.266          8133.000
       295   08 Jun 2027 11:24:31.313   08 Jun 2027 11:24:37.069             5.756          2843.594
       296   08 Jun 2027 11:25:01.294   08 Jun 2027 11:25:01.602             0.308           154.000
       297   08 Jun 2027 11:25:05.086   08 Jun 2027 11:25:07.972             2.886           666.969
       298   08 Jun 2027 11:26:09.388   08 Jun 2027 11:26:13.881             4.493          1919.250
       299   08 Jun 2027 11:26:25.172   08 Jun 2027 11:26:29.519             4.347           352.844
       300   08 Jun 2027 11:26:42.180   08 Jun 2027 11:26:42.643             0.463           231.500
       301   09 Jun 2027 03:33:46.801   09 Jun 2027 03:33:58.457            11.656          5828.000
       302   09 Jun 2027 03:33:59.701   09 Jun 2027 03:34:38.768            39.067         19533.500
       303   09 Jun 2027 03:45:23.003   09 Jun 2027 03:46:51.021            88.018         44009.000
       304   09 Jun 2027 05:07:59.183   09 Jun 2027 05:08:58.127            58.944         29472.000
       305   09 Jun 2027 05:09:37.624   09 Jun 2027 05:10:15.361            37.737         18868.500
       306   09 Jun 2027 05:10:30.879   09 Jun 2027 05:10:44.453            13.574          6787.000
       307   09 Jun 2027 05:10:53.561   09 Jun 2027 05:11:41.305            47.744         23629.657
       308   09 Jun 2027 06:43:08.978   09 Jun 2027 06:43:40.404            31.426         15362.844
       309   09 Jun 2027 06:44:02.560   09 Jun 2027 06:44:04.201             1.641           598.031
       310   09 Jun 2027 06:44:51.507   09 Jun 2027 06:44:54.455             2.948          1011.937
       311   09 Jun 2027 06:46:25.448   09 Jun 2027 06:46:33.137             7.689          2193.375
       312   09 Jun 2027 06:47:44.770   09 Jun 2027 06:47:44.770             0.000             0.000
       313   09 Jun 2027 06:47:49.540   09 Jun 2027 06:47:57.502             7.962          2387.594
       314   09 Jun 2027 06:48:41.822   09 Jun 2027 06:48:44.075             2.253          1097.312
       315   09 Jun 2027 06:49:30.036   09 Jun 2027 06:49:33.082             3.046          1436.281
       316   09 Jun 2027 08:19:56.853   09 Jun 2027 08:20:05.382             8.529          4081.562
       317   09 Jun 2027 08:20:21.176   09 Jun 2027 08:20:22.677             1.501           493.563
       318   09 Jun 2027 08:21:13.524   09 Jun 2027 08:21:16.511             2.987           887.969
       319   09 Jun 2027 08:21:50.747   09 Jun 2027 08:21:53.969             3.222           996.906
       320   09 Jun 2027 08:23:02.974   09 Jun 2027 08:23:04.929             1.955           977.500
       321   09 Jun 2027 08:23:12.850   09 Jun 2027 08:23:17.741             4.891          1066.812
       322   09 Jun 2027 08:23:26.633   09 Jun 2027 08:23:27.830             1.197           152.938
       323   09 Jun 2027 08:24:27.526   09 Jun 2027 08:24:30.283             2.757           711.000
       324   09 Jun 2027 08:24:53.785   09 Jun 2027 08:24:55.184             1.399           423.344
       325   09 Jun 2027 08:24:59.633   09 Jun 2027 08:25:00.739             1.106           139.031
       326   09 Jun 2027 08:25:30.073   09 Jun 2027 08:25:31.543             1.470           601.875
       327   09 Jun 2027 08:25:48.030   09 Jun 2027 08:25:48.030             0.000             0.000
       328   09 Jun 2027 08:26:23.583   09 Jun 2027 08:26:27.967             4.384          1576.562
       329   09 Jun 2027 09:56:57.774   09 Jun 2027 09:57:13.252            15.478          7440.500
       330   09 Jun 2027 09:59:30.104   09 Jun 2027 09:59:34.424             4.320          2119.500
       331   09 Jun 2027 09:59:44.757   09 Jun 2027 09:59:45.416             0.659           322.906
       332   09 Jun 2027 10:00:03.189   09 Jun 2027 10:00:04.864             1.675           522.187
       333   09 Jun 2027 10:00:26.128   09 Jun 2027 10:00:31.946             5.818           655.938
       334   09 Jun 2027 10:00:51.983   09 Jun 2027 10:00:55.383             3.400           314.875
       335   09 Jun 2027 10:01:04.856   09 Jun 2027 10:01:05.926             1.070           296.031
       336   09 Jun 2027 10:01:44.998   09 Jun 2027 10:01:48.180             3.182          1221.000
       337   09 Jun 2027 10:02:34.591   09 Jun 2027 10:02:38.987             4.396          1000.438
       338   09 Jun 2027 10:02:58.005   09 Jun 2027 10:02:59.000             0.995           327.188
       339   09 Jun 2027 11:34:51.176   09 Jun 2027 11:35:04.518            13.342          6090.062
       340   09 Jun 2027 11:35:09.498   09 Jun 2027 11:35:09.498             0.000             0.000
       341   09 Jun 2027 11:35:23.498   09 Jun 2027 11:35:26.013             2.515           570.687
       342   09 Jun 2027 11:35:56.529   09 Jun 2027 11:36:01.999             5.470           953.625
       343   09 Jun 2027 11:36:10.334   09 Jun 2027 11:36:11.076             0.742           186.500
       344   09 Jun 2027 11:36:34.489   09 Jun 2027 11:36:36.385             1.896           731.656
       345   09 Jun 2027 11:38:00.980   09 Jun 2027 11:38:09.392             8.412          2643.594
       346   09 Jun 2027 11:38:17.823   09 Jun 2027 11:38:21.756             3.933           263.469
       347   09 Jun 2027 11:38:26.701   09 Jun 2027 11:38:27.070             0.369           154.531
       348   10 Jun 2027 03:45:08.327   10 Jun 2027 03:45:28.351            20.024         10012.000
       349   10 Jun 2027 03:45:59.993   10 Jun 2027 03:46:26.746            26.753         13376.500
       350   10 Jun 2027 03:57:22.078   10 Jun 2027 03:58:19.694            57.616         28808.000
       351   10 Jun 2027 05:19:34.868   10 Jun 2027 05:20:43.853            68.985         34492.500
       352   10 Jun 2027 05:21:31.738   10 Jun 2027 05:22:32.575            60.837         30418.500
       353   10 Jun 2027 05:23:44.916   10 Jun 2027 05:23:52.689             7.773          3886.500
       354   10 Jun 2027 06:54:28.664   10 Jun 2027 06:55:39.930            71.266         34565.469
       355   10 Jun 2027 06:56:46.374   10 Jun 2027 06:56:46.374             0.000             0.000
       356   10 Jun 2027 06:57:23.770   10 Jun 2027 06:57:30.271             6.501          3108.469
       357   10 Jun 2027 06:57:49.258   10 Jun 2027 06:57:49.258             0.000             0.000
       358   10 Jun 2027 06:58:00.258   10 Jun 2027 06:58:02.081             1.823           463.563
       359   10 Jun 2027 06:58:06.041   10 Jun 2027 06:58:06.380             0.339           123.750
       360   10 Jun 2027 06:58:19.551   10 Jun 2027 06:58:21.246             1.695           333.000
       361   10 Jun 2027 06:59:15.839   10 Jun 2027 06:59:19.142             3.303          1611.156
       362   10 Jun 2027 07:00:01.181   10 Jun 2027 07:00:03.827             2.646           808.063
       363   10 Jun 2027 07:00:29.838   10 Jun 2027 07:00:34.193             4.355           793.531
       364   10 Jun 2027 07:01:31.168   10 Jun 2027 07:01:33.959             2.791          1395.500
       365   10 Jun 2027 07:01:57.056   10 Jun 2027 07:01:59.728             2.672          1106.750
       366   10 Jun 2027 08:32:03.636   10 Jun 2027 08:32:22.153            18.517          6532.906
       367   10 Jun 2027 08:32:53.549   10 Jun 2027 08:32:58.033             4.484           940.719
       368   10 Jun 2027 08:33:02.684   10 Jun 2027 08:33:05.173             2.489           145.344
       369   10 Jun 2027 08:33:19.540   10 Jun 2027 08:33:21.845             2.305           389.375
       370   10 Jun 2027 08:33:46.293   10 Jun 2027 08:33:46.610             0.317           158.500
       371   10 Jun 2027 08:34:35.225   10 Jun 2027 08:34:39.781             4.556          2124.719
       372   10 Jun 2027 08:34:42.929   10 Jun 2027 08:34:44.124             1.195            98.375
       373   10 Jun 2027 08:35:01.175   10 Jun 2027 08:35:03.887             2.712           318.031
       374   10 Jun 2027 08:35:45.360   10 Jun 2027 08:35:57.613            12.253          1296.031
       375   10 Jun 2027 08:36:19.603   10 Jun 2027 08:36:21.620             2.017           687.188
       376   10 Jun 2027 08:37:09.656   10 Jun 2027 08:37:12.506             2.850          1340.688
       377   10 Jun 2027 08:37:38.086   10 Jun 2027 08:37:40.302             2.216           799.375
       378   10 Jun 2027 08:38:31.385   10 Jun 2027 08:38:38.938             7.553          1488.969
       379   10 Jun 2027 08:38:43.756   10 Jun 2027 08:38:48.621             4.865           146.156
       380   10 Jun 2027 08:39:13.683   10 Jun 2027 08:39:16.572             2.889           783.188
       381   10 Jun 2027 10:08:46.844   10 Jun 2027 10:09:06.177            19.333          7864.250
       382   10 Jun 2027 10:10:04.252   10 Jun 2027 10:10:06.525             2.273           507.406
       383   10 Jun 2027 10:11:09.320   10 Jun 2027 10:11:10.351             1.031           417.594
       384   10 Jun 2027 10:12:13.723   10 Jun 2027 10:12:20.774             7.051          1834.000
       385   10 Jun 2027 10:13:17.743   10 Jun 2027 10:13:21.050             3.307          1653.500
       386   10 Jun 2027 10:13:39.082   10 Jun 2027 10:13:40.737             1.655           649.594
       387   10 Jun 2027 10:13:56.649   10 Jun 2027 10:13:59.381             2.732           356.562
       388   10 Jun 2027 10:14:46.885   10 Jun 2027 10:14:50.948             4.063          1245.563
       389   10 Jun 2027 10:15:15.533   10 Jun 2027 10:15:19.852             4.319           768.281
       390   10 Jun 2027 11:46:50.527   10 Jun 2027 11:47:12.826            22.299          8192.281
       391   10 Jun 2027 11:47:20.784   10 Jun 2027 11:47:21.673             0.889            57.781
       392   10 Jun 2027 11:48:21.662   10 Jun 2027 11:48:25.019             3.357          1595.250
       393   10 Jun 2027 11:49:03.760   10 Jun 2027 11:49:08.697             4.937          1047.813
       394   10 Jun 2027 11:49:30.977   10 Jun 2027 11:49:30.977             0.000             0.000
       395   10 Jun 2027 11:49:42.771   10 Jun 2027 11:49:46.462             3.691           919.719
       396   10 Jun 2027 11:49:57.882   10 Jun 2027 11:50:08.828            10.946           223.344
       397   10 Jun 2027 11:50:14.837   10 Jun 2027 11:50:16.974             2.137           187.781
       398   11 Jun 2027 03:57:13.702   11 Jun 2027 03:58:27.990            74.288         37144.000
       399   11 Jun 2027 04:09:42.859   11 Jun 2027 04:09:54.057            11.198          5599.000
       400   11 Jun 2027 05:31:04.267   11 Jun 2027 05:34:05.573           181.306         90653.000
       401   11 Jun 2027 05:34:59.218   11 Jun 2027 05:35:03.762             4.544          2272.000
       402   11 Jun 2027 05:35:14.603   11 Jun 2027 05:35:45.568            30.965         15482.500
       403   11 Jun 2027 07:05:59.095   11 Jun 2027 07:06:24.159            25.064         11805.344
       404   11 Jun 2027 07:06:56.268   11 Jun 2027 07:07:00.291             4.023           983.312
       405   11 Jun 2027 07:08:04.861   11 Jun 2027 07:08:08.458             3.597          1572.875
       406   11 Jun 2027 07:08:26.245   11 Jun 2027 07:08:31.227             4.982           150.781
       407   11 Jun 2027 07:09:36.598   11 Jun 2027 07:09:39.085             2.487          1210.406
       408   11 Jun 2027 07:09:50.405   11 Jun 2027 07:09:53.008             2.603           282.500
       409   11 Jun 2027 07:10:07.779   11 Jun 2027 07:10:10.813             3.034           253.406
       410   11 Jun 2027 07:11:48.782   11 Jun 2027 07:12:00.638            11.856          3050.656
       411   11 Jun 2027 07:12:44.336   11 Jun 2027 07:12:44.336             0.000             0.000
       412   11 Jun 2027 07:12:57.145   11 Jun 2027 07:13:01.340             4.195          1384.000
       413   11 Jun 2027 07:13:32.789   11 Jun 2027 07:13:39.301             6.512           691.906
       414   11 Jun 2027 07:14:34.949   11 Jun 2027 07:14:40.198             5.249          1644.187
       415   11 Jun 2027 07:15:15.549   11 Jun 2027 07:15:18.909             3.360          1030.937
       416   11 Jun 2027 08:43:59.398   11 Jun 2027 08:44:14.558            15.160          6950.813
       417   11 Jun 2027 08:45:59.686   11 Jun 2027 08:46:08.104             8.418          2944.813
       418   11 Jun 2027 08:46:51.808   11 Jun 2027 08:46:54.504             2.696          1255.406
       419   11 Jun 2027 08:48:10.579   11 Jun 2027 08:48:17.896             7.317          2376.875
       420   11 Jun 2027 08:48:44.348   11 Jun 2027 08:48:47.866             3.518           713.156
       421   11 Jun 2027 08:49:12.431   11 Jun 2027 08:49:14.299             1.868           317.437
       422   11 Jun 2027 08:49:42.577   11 Jun 2027 08:49:46.095             3.518           758.219
       423   11 Jun 2027 08:50:16.387   11 Jun 2027 08:50:20.633             4.246           539.906
       424   11 Jun 2027 08:50:44.948   11 Jun 2027 08:50:48.441             3.493           289.625
       425   11 Jun 2027 08:50:57.722   11 Jun 2027 08:51:00.573             2.851           290.031
       426   11 Jun 2027 10:20:53.910   11 Jun 2027 10:21:08.393            14.483          7090.937
       427   11 Jun 2027 10:21:52.323   11 Jun 2027 10:21:57.447             5.124           363.844
       428   11 Jun 2027 10:23:07.187   11 Jun 2027 10:23:15.477             8.290          2179.375
       429   11 Jun 2027 10:23:29.539   11 Jun 2027 10:23:29.539             0.000             0.000
       430   11 Jun 2027 10:23:56.181   11 Jun 2027 10:23:57.751             1.570           785.000
       431   11 Jun 2027 10:24:09.259   11 Jun 2027 10:24:12.489             3.230           838.812
       432   11 Jun 2027 10:25:02.180   11 Jun 2027 10:25:06.360             4.180          1552.844
       433   11 Jun 2027 10:25:10.914   11 Jun 2027 10:25:12.131             1.217           142.312
       434   11 Jun 2027 10:25:39.119   11 Jun 2027 10:25:41.368             2.249           843.375
       435   11 Jun 2027 10:26:03.578   11 Jun 2027 10:26:08.508             4.930           521.906
       436   11 Jun 2027 10:26:45.499   11 Jun 2027 10:26:51.780             6.281           956.375
       437   11 Jun 2027 10:27:14.668   11 Jun 2027 10:27:16.343             1.675           715.250
       438   11 Jun 2027 10:27:21.184   11 Jun 2027 10:27:21.184             0.000             0.000
       439   11 Jun 2027 11:58:28.043   11 Jun 2027 11:58:42.379            14.336          6777.937
       440   11 Jun 2027 11:58:54.139   11 Jun 2027 11:58:54.254             0.115            57.500
       441   11 Jun 2027 11:59:20.826   11 Jun 2027 11:59:29.034             8.208          1057.406
       442   12 Jun 2027 04:09:10.536   12 Jun 2027 04:10:19.569            69.033         34516.500
       443   12 Jun 2027 04:10:47.244   12 Jun 2027 04:11:00.581            13.337          6668.500
       444   12 Jun 2027 05:45:22.332   12 Jun 2027 05:48:08.065           165.733         82866.500
       445   12 Jun 2027 07:18:55.663   12 Jun 2027 07:20:05.391            69.728         34864.000
       446   12 Jun 2027 07:20:24.631   12 Jun 2027 07:20:33.220             8.589          1048.250
       447   12 Jun 2027 07:21:12.625   12 Jun 2027 07:21:15.407             2.782           506.625
       448   12 Jun 2027 07:21:37.093   12 Jun 2027 07:21:37.751             0.658           329.000
       449   12 Jun 2027 07:22:25.554   12 Jun 2027 07:22:28.710             3.156          1518.219
       450   12 Jun 2027 07:22:40.593   12 Jun 2027 07:22:43.352             2.759           243.281
       451   12 Jun 2027 07:23:14.519   12 Jun 2027 07:23:14.621             0.102            51.000
       452   12 Jun 2027 07:24:36.731   12 Jun 2027 07:24:45.571             8.840          3115.938
       453   12 Jun 2027 07:25:05.244   12 Jun 2027 07:25:06.430             1.186           419.719
       454   12 Jun 2027 07:26:02.199   12 Jun 2027 07:26:02.199             0.000             0.000
       455   12 Jun 2027 07:26:32.249   12 Jun 2027 07:26:35.120             2.871          1435.500
       456   12 Jun 2027 07:26:57.208   12 Jun 2027 07:27:00.621             3.413          1405.469
       457   12 Jun 2027 07:27:26.143   12 Jun 2027 07:27:26.759             0.616           184.125
       458   12 Jun 2027 08:56:21.523   12 Jun 2027 08:56:34.317            12.794          5867.375
       459   12 Jun 2027 08:58:42.294   12 Jun 2027 08:58:51.494             9.200          1679.719
       460   12 Jun 2027 08:59:15.568   12 Jun 2027 08:59:18.991             3.423           752.313
       461   12 Jun 2027 08:59:30.864   12 Jun 2027 08:59:33.694             2.830           195.219
       462   12 Jun 2027 09:00:11.896   12 Jun 2027 09:00:13.290             1.394           697.000
       463   12 Jun 2027 09:00:39.946   12 Jun 2027 09:00:43.417             3.471          1329.813
       464   12 Jun 2027 09:01:13.253   12 Jun 2027 09:01:13.554             0.301           150.500
       465   12 Jun 2027 09:01:31.024   12 Jun 2027 09:01:33.806             2.782          1101.906
       466   12 Jun 2027 09:02:28.634   12 Jun 2027 09:02:35.863             7.229          1511.563
       467   12 Jun 2027 09:03:02.283   12 Jun 2027 09:03:08.540             6.257           587.375
       468   12 Jun 2027 10:33:23.335   12 Jun 2027 10:33:42.464            19.129          7555.906
       469   12 Jun 2027 10:34:57.863   12 Jun 2027 10:35:05.093             7.230            88.344
       470   12 Jun 2027 10:35:15.181   12 Jun 2027 10:35:17.840             2.659            67.781
       471   12 Jun 2027 10:35:38.187   12 Jun 2027 10:35:40.140             1.953           635.844
       472   12 Jun 2027 10:35:57.306   12 Jun 2027 10:35:58.011             0.705           274.937
       473   12 Jun 2027 10:36:01.794   12 Jun 2027 10:36:04.955             3.161            87.156
       474   12 Jun 2027 10:36:46.605   12 Jun 2027 10:36:49.256             2.651          1174.406
       475   12 Jun 2027 10:37:23.307   12 Jun 2027 10:37:26.389             3.082           933.625
       476   12 Jun 2027 10:37:52.007   12 Jun 2027 10:37:52.736             0.729           364.500
       477   12 Jun 2027 10:38:43.535   12 Jun 2027 10:38:45.878             2.343          1171.500
       478   12 Jun 2027 10:38:52.873   12 Jun 2027 10:38:54.350             1.477           544.937
       479   13 Jun 2027 03:00:00.000   13 Jun 2027 03:00:14.856            14.856          7428.000
       480   13 Jun 2027 03:00:25.676   13 Jun 2027 03:01:09.843            44.167         22083.500
       481   13 Jun 2027 03:01:12.461   13 Jun 2027 03:01:22.739            10.278          5139.000
       482   13 Jun 2027 04:21:01.344   13 Jun 2027 04:22:30.003            88.659         44329.500
       483   13 Jun 2027 04:23:10.375   13 Jun 2027 04:23:30.372            19.997          9998.500
       484   13 Jun 2027 05:57:28.880   13 Jun 2027 05:59:49.324           140.444         70222.000
       485   13 Jun 2027 06:00:12.937   13 Jun 2027 06:00:12.937             0.000             0.000
       486   13 Jun 2027 07:29:39.350   13 Jun 2027 07:29:46.295             6.945          3472.500
       487   13 Jun 2027 07:31:34.268   13 Jun 2027 07:31:41.876             7.608          3344.281
       488   13 Jun 2027 07:33:04.997   13 Jun 2027 07:33:08.316             3.319          1163.937
       489   13 Jun 2027 07:33:20.279   13 Jun 2027 07:33:21.522             1.243           277.062
       490   13 Jun 2027 07:33:30.555   13 Jun 2027 07:33:31.462             0.907            64.281
       491   13 Jun 2027 07:34:10.328   13 Jun 2027 07:34:14.918             4.590          1214.563
       492   13 Jun 2027 07:35:46.241   13 Jun 2027 07:35:52.418             6.177          2853.844
       493   13 Jun 2027 07:36:18.504   13 Jun 2027 07:36:22.190             3.686           310.094
       494   13 Jun 2027 07:37:44.722   13 Jun 2027 07:37:50.958             6.236          2274.594
       495   13 Jun 2027 07:38:34.352   13 Jun 2027 07:38:37.194             2.842          1356.062
       496   13 Jun 2027 07:38:42.490   13 Jun 2027 07:38:51.306             8.816            61.313
       497   13 Jun 2027 07:39:22.578   13 Jun 2027 07:39:25.459             2.881           885.969
       498   13 Jun 2027 09:08:32.252   13 Jun 2027 09:08:44.550            12.298          5638.469
       499   13 Jun 2027 09:09:11.369   13 Jun 2027 09:09:12.303             0.934           428.219
       500   13 Jun 2027 09:10:51.012   13 Jun 2027 09:10:53.577             2.565          1051.969
       501   13 Jun 2027 09:11:26.659   13 Jun 2027 09:11:29.935             3.276          1031.719
       502   13 Jun 2027 09:12:05.450   13 Jun 2027 09:12:06.915             1.465           732.500
       503   13 Jun 2027 09:12:11.173   13 Jun 2027 09:12:12.985             1.812           469.500
       504   13 Jun 2027 09:12:31.483   13 Jun 2027 09:12:33.382             1.899           561.125
       505   13 Jun 2027 09:13:01.178   13 Jun 2027 09:13:03.847             2.669           706.719
       506   13 Jun 2027 09:13:12.720   13 Jun 2027 09:13:12.720             0.000             0.000
       507   13 Jun 2027 09:13:14.286   13 Jun 2027 09:13:16.943             2.657           326.219
       508   13 Jun 2027 09:13:24.492   13 Jun 2027 09:13:31.629             7.137           200.719
       509   13 Jun 2027 09:13:46.475   13 Jun 2027 09:13:47.670             1.195           463.937
       510   13 Jun 2027 09:14:47.879   13 Jun 2027 09:14:53.087             5.208          1727.562
       511   13 Jun 2027 09:15:08.202   13 Jun 2027 09:15:09.594             1.392           168.563
       512   13 Jun 2027 10:45:41.752   13 Jun 2027 10:45:56.993            15.241          7175.250
       513   13 Jun 2027 10:46:30.220   13 Jun 2027 10:46:30.531             0.311           155.500
       514   13 Jun 2027 10:47:18.037   13 Jun 2027 10:47:31.490            13.453          2046.500
       515   13 Jun 2027 10:47:51.512   13 Jun 2027 10:47:55.265             3.753           309.719
       516   13 Jun 2027 10:48:35.501   13 Jun 2027 10:48:38.982             3.481          1217.844
       517   13 Jun 2027 10:48:50.784   13 Jun 2027 10:48:51.605             0.821           368.812
       518   13 Jun 2027 10:48:59.146   13 Jun 2027 10:49:00.194             1.048           235.656
       519   13 Jun 2027 10:49:06.532   13 Jun 2027 10:49:10.754             4.222            16.937
       520   13 Jun 2027 10:49:48.009   13 Jun 2027 10:49:49.442             1.433           716.500
       521   13 Jun 2027 10:50:06.006   13 Jun 2027 10:50:10.007             4.001           965.344
