uniorb/output/strategy_2/Camera/Camera_KinoSat_110209.txt

KinoSat_110209
-------------------------
    Access    *     Start Time (UTCG)     *     Stop Time (UTCG)  *   Duration (s) *   Data (Mbytes)
         1   01 Jun 2027 03:22:44.171   01 Jun 2027 03:22:51.670             7.499          3749.500
         2   01 Jun 2027 03:23:39.214   01 Jun 2027 03:23:43.468             4.254          2127.000
         3   01 Jun 2027 03:24:06.441   01 Jun 2027 03:24:09.348             2.907          1453.500
         4   01 Jun 2027 03:24:22.641   01 Jun 2027 03:24:29.740             7.099          3549.500
         5   01 Jun 2027 03:25:10.242   01 Jun 2027 03:25:11.966             1.724           862.000
         6   01 Jun 2027 03:25:45.065   01 Jun 2027 03:25:47.434             2.369          1184.500
         7   01 Jun 2027 03:26:23.608   01 Jun 2027 03:26:30.673             7.065          3532.500
         8   01 Jun 2027 03:27:38.878   01 Jun 2027 03:27:45.131             6.253          3126.500
         9   01 Jun 2027 03:28:17.676   01 Jun 2027 03:28:22.194             4.518          2259.000
        10   01 Jun 2027 03:28:47.748   01 Jun 2027 03:28:50.518             2.770          1385.000
        11   01 Jun 2027 03:29:35.371   01 Jun 2027 03:29:41.953             6.582          3291.000
        12   01 Jun 2027 03:30:09.461   01 Jun 2027 03:30:10.154             0.693           346.500
        13   01 Jun 2027 04:59:41.496   01 Jun 2027 04:59:58.279            16.783          8391.500
        14   01 Jun 2027 05:01:23.196   01 Jun 2027 05:01:30.918             7.722          3861.000
        15   01 Jun 2027 05:02:05.187   01 Jun 2027 05:02:06.966             1.779           889.500
        16   01 Jun 2027 05:02:32.928   01 Jun 2027 05:02:36.025             3.097          1548.500
        17   01 Jun 2027 05:02:49.374   01 Jun 2027 05:02:56.670             7.296          3648.000
        18   01 Jun 2027 05:03:41.456   01 Jun 2027 05:03:46.701             5.245          2622.500
        19   01 Jun 2027 05:04:11.619   01 Jun 2027 05:04:22.344            10.725          5362.500
        20   01 Jun 2027 05:05:01.159   01 Jun 2027 05:05:01.745             0.586           293.000
        21   01 Jun 2027 05:05:36.765   01 Jun 2027 05:05:39.587             2.822          1411.000
        22   01 Jun 2027 06:37:34.514   01 Jun 2027 06:37:39.366             4.852          2426.000
        23   01 Jun 2027 06:38:17.602   01 Jun 2027 06:38:21.595             3.993          1996.500
        24   01 Jun 2027 06:38:47.278   01 Jun 2027 06:38:50.002             2.724          1362.000
        25   01 Jun 2027 06:39:14.647   01 Jun 2027 06:39:15.868             1.221           610.500
        26   01 Jun 2027 06:39:21.785   01 Jun 2027 06:39:24.387             2.602          1301.000
        27   01 Jun 2027 06:39:51.439   01 Jun 2027 06:39:52.431             0.992           496.000
        28   01 Jun 2027 06:40:05.370   01 Jun 2027 06:40:11.594             6.224          3112.000
        29   01 Jun 2027 06:40:50.892   01 Jun 2027 06:40:51.916             1.024           512.000
        30   01 Jun 2027 06:41:09.728   01 Jun 2027 06:41:12.828             3.100          1550.000
        31   01 Jun 2027 08:11:02.381   01 Jun 2027 08:11:33.323            30.942         15471.000
        32   01 Jun 2027 08:13:39.749   01 Jun 2027 08:13:44.292             4.543          2271.500
        33   01 Jun 2027 08:15:14.290   01 Jun 2027 08:15:20.156             5.866          2933.000
        34   01 Jun 2027 08:16:00.798   01 Jun 2027 08:16:05.492             4.694          2347.000
        35   01 Jun 2027 08:16:41.528   01 Jun 2027 08:16:42.705             1.177           588.500
        36   01 Jun 2027 08:16:49.018   01 Jun 2027 08:16:52.452             3.434          1717.000
        37   01 Jun 2027 08:17:28.546   01 Jun 2027 08:17:29.929             1.383           691.500
        38   01 Jun 2027 08:17:39.959   01 Jun 2027 08:17:52.988            13.029          6514.500
        39   02 Jun 2027 03:34:45.506   02 Jun 2027 03:34:51.633             6.127          3063.500
        40   02 Jun 2027 03:35:17.689   02 Jun 2027 03:35:17.927             0.238           119.000
        41   02 Jun 2027 03:35:26.685   02 Jun 2027 03:35:31.479             4.794          2397.000
        42   02 Jun 2027 03:36:00.340   02 Jun 2027 03:36:08.687             8.347          4173.500
        43   02 Jun 2027 03:36:56.203   02 Jun 2027 03:37:05.064             8.861          4430.500
        44   02 Jun 2027 03:37:45.226   02 Jun 2027 03:37:53.566             8.340          4170.000
        45   02 Jun 2027 03:38:31.115   02 Jun 2027 03:38:32.167             1.052           526.000
        46   02 Jun 2027 03:38:36.572   02 Jun 2027 03:38:39.034             2.462          1231.000
        47   02 Jun 2027 03:38:55.309   02 Jun 2027 03:38:57.097             1.788           894.000
        48   02 Jun 2027 03:39:06.556   02 Jun 2027 03:39:13.344             6.788          3394.000
        49   02 Jun 2027 03:39:43.309   02 Jun 2027 03:39:52.294             8.985          4492.500
        50   02 Jun 2027 03:40:12.299   02 Jun 2027 03:40:12.299             0.000             0.000
        51   02 Jun 2027 03:40:34.322   02 Jun 2027 03:40:41.754             7.432          3716.000
        52   02 Jun 2027 03:41:29.741   02 Jun 2027 03:41:33.157             3.416          1708.000
        53   02 Jun 2027 05:11:33.700   02 Jun 2027 05:11:38.818             5.118          2559.000
        54   02 Jun 2027 05:12:05.729   02 Jun 2027 05:12:06.660             0.931           465.500
        55   02 Jun 2027 05:12:19.585   02 Jun 2027 05:12:23.217             3.632          1816.000
        56   02 Jun 2027 05:12:41.261   02 Jun 2027 05:13:22.958            41.697         20848.500
        57   02 Jun 2027 05:16:01.385   02 Jun 2027 05:16:14.763            13.378          6689.000
        58   02 Jun 2027 05:16:27.727   02 Jun 2027 05:16:37.121             9.394          4697.000
        59   02 Jun 2027 05:17:19.055   02 Jun 2027 05:17:19.055             0.000             0.000
        60   02 Jun 2027 05:18:03.577   02 Jun 2027 05:18:07.263             3.686          1843.000
        61   02 Jun 2027 06:49:35.818   02 Jun 2027 06:49:41.218             5.400          2700.000
        62   02 Jun 2027 06:50:10.128   02 Jun 2027 06:50:18.742             8.614          4307.000
        63   02 Jun 2027 06:51:05.980   02 Jun 2027 06:51:08.268             2.288          1144.000
        64   02 Jun 2027 06:51:39.930   02 Jun 2027 06:51:47.388             7.458          3729.000
        65   02 Jun 2027 06:52:48.421   02 Jun 2027 06:53:05.446            17.025          8512.500
        66   02 Jun 2027 08:23:28.036   02 Jun 2027 08:23:38.444            10.408          5204.000
        67   02 Jun 2027 08:24:43.459   02 Jun 2027 08:24:49.641             6.182          3091.000
        68   02 Jun 2027 08:25:26.996   02 Jun 2027 08:25:29.604             2.608          1304.000
        69   02 Jun 2027 08:25:57.690   02 Jun 2027 08:25:58.514             0.824           412.000
        70   02 Jun 2027 08:26:03.997   02 Jun 2027 08:26:56.282            52.285         26142.500
        71   03 Jun 2027 03:46:48.835   03 Jun 2027 03:47:03.229            14.394          7197.000
        72   03 Jun 2027 03:48:14.609   03 Jun 2027 03:48:32.481            17.872          8936.000
        73   03 Jun 2027 03:49:49.641   03 Jun 2027 03:49:54.881             5.240          2620.000
        74   03 Jun 2027 03:50:59.897   03 Jun 2027 03:51:06.002             6.105          3052.500
        75   03 Jun 2027 03:51:30.830   03 Jun 2027 03:51:44.777            13.947          6973.500
        76   03 Jun 2027 03:52:45.636   03 Jun 2027 03:52:47.445             1.809           904.500
        77   03 Jun 2027 03:52:57.988   03 Jun 2027 03:53:03.776             5.788          2894.000
        78   03 Jun 2027 03:53:34.288   03 Jun 2027 03:53:34.476             0.188            94.000
        79   03 Jun 2027 03:53:50.595   03 Jun 2027 03:54:05.349            14.754          7377.000
        80   03 Jun 2027 05:23:43.686   03 Jun 2027 05:23:57.066            13.380          6690.000
        81   03 Jun 2027 05:25:16.523   03 Jun 2027 05:25:21.698             5.175          2587.500
        82   03 Jun 2027 05:25:48.439   03 Jun 2027 05:25:49.663             1.224           612.000
        83   03 Jun 2027 05:25:56.692   03 Jun 2027 05:25:58.022             1.330           665.000
        84   03 Jun 2027 05:26:53.901   03 Jun 2027 05:26:55.819             1.918           959.000
        85   03 Jun 2027 05:27:10.770   03 Jun 2027 05:27:14.711             3.941          1970.500
        86   03 Jun 2027 05:27:37.642   03 Jun 2027 05:27:39.038             1.396           698.000
        87   03 Jun 2027 05:27:54.269   03 Jun 2027 05:27:57.230             2.961          1480.500
        88   03 Jun 2027 05:28:29.697   03 Jun 2027 05:28:31.170             1.473           736.500
        89   03 Jun 2027 05:28:41.147   03 Jun 2027 05:28:46.836             5.689          2844.500
        90   03 Jun 2027 05:28:58.188   03 Jun 2027 05:28:59.855             1.667           833.500
        91   03 Jun 2027 05:29:13.566   03 Jun 2027 05:29:14.557             0.991           495.500
        92   03 Jun 2027 05:29:34.508   03 Jun 2027 05:29:43.628             9.120          4560.000
        93   03 Jun 2027 07:00:49.698   03 Jun 2027 07:01:05.358            15.660          7830.000
        94   03 Jun 2027 07:02:30.096   03 Jun 2027 07:02:47.127            17.031          8515.500
        95   03 Jun 2027 07:04:00.825   03 Jun 2027 07:04:07.114             6.289          3144.500
        96   03 Jun 2027 07:04:32.644   03 Jun 2027 07:04:37.569             4.925          2462.500
        97   03 Jun 2027 07:04:54.565   03 Jun 2027 07:04:58.479             3.914          1957.000
        98   03 Jun 2027 07:05:33.583   03 Jun 2027 07:05:37.277             3.694          1847.000
        99   03 Jun 2027 08:35:49.693   03 Jun 2027 08:35:51.209             1.516           758.000
       100   03 Jun 2027 08:36:06.454   03 Jun 2027 08:36:07.698             1.244           622.000
       101   03 Jun 2027 08:36:34.725   03 Jun 2027 08:36:35.230             0.505           252.500
       102   03 Jun 2027 08:37:31.406   03 Jun 2027 08:37:39.875             8.469          4234.500
       103   03 Jun 2027 08:39:25.969   03 Jun 2027 08:39:27.064             1.095           547.500
       104   03 Jun 2027 08:40:14.007   03 Jun 2027 08:40:21.637             7.630          3815.000
       105   04 Jun 2027 03:59:14.623   04 Jun 2027 03:59:16.354             1.731           865.500
       106   04 Jun 2027 03:59:45.611   04 Jun 2027 03:59:57.327            11.716          5858.000
       107   04 Jun 2027 04:00:49.868   04 Jun 2027 04:01:04.375            14.507          7253.500
       108   04 Jun 2027 04:01:45.417   04 Jun 2027 04:01:57.863            12.446          6223.000
       109   04 Jun 2027 04:02:46.988   04 Jun 2027 04:02:58.949            11.961          5980.500
       110   04 Jun 2027 04:04:21.924   04 Jun 2027 04:04:35.019            13.095          6547.500
       111   04 Jun 2027 04:05:46.552   04 Jun 2027 04:05:59.888            13.336          6668.000
       112   04 Jun 2027 05:36:11.115   04 Jun 2027 05:36:28.079            16.964          8482.000
       113   04 Jun 2027 05:37:36.482   04 Jun 2027 05:37:37.463             0.981           490.500
       114   04 Jun 2027 05:37:47.217   04 Jun 2027 05:37:50.557             3.340          1670.000
       115   04 Jun 2027 05:37:58.068   04 Jun 2027 05:37:58.807             0.739           369.500
       116   04 Jun 2027 05:38:41.140   04 Jun 2027 05:38:44.969             3.829          1914.500
       117   04 Jun 2027 05:39:13.363   04 Jun 2027 05:39:15.815             2.452          1226.000
       118   04 Jun 2027 05:39:38.860   04 Jun 2027 05:39:39.637             0.777           388.500
       119   04 Jun 2027 05:39:52.919   04 Jun 2027 05:39:57.214             4.295          2147.500
       120   04 Jun 2027 05:40:04.675   04 Jun 2027 05:40:11.807             7.132          3566.000
       121   04 Jun 2027 05:41:06.049   04 Jun 2027 05:41:11.067             5.018          2509.000
       122   04 Jun 2027 05:41:41.380   04 Jun 2027 05:41:45.532             4.152          2076.000
       123   04 Jun 2027 07:13:01.747   04 Jun 2027 07:13:13.631            11.884          5942.000
       124   04 Jun 2027 07:14:43.410   04 Jun 2027 07:14:43.490             0.080            40.000
       125   04 Jun 2027 07:15:15.726   04 Jun 2027 07:15:16.051             0.325           162.500
       126   04 Jun 2027 07:15:21.780   04 Jun 2027 07:15:21.805             0.025            12.500
       127   04 Jun 2027 07:15:47.832   04 Jun 2027 07:15:49.915             2.083          1041.500
       128   04 Jun 2027 07:16:13.693   04 Jun 2027 07:16:29.444            15.751          7875.500
       129   04 Jun 2027 07:17:33.371   04 Jun 2027 07:17:33.801             0.430           215.000
       130   04 Jun 2027 08:50:38.007   04 Jun 2027 08:50:47.395             9.388          4694.000
       131   04 Jun 2027 08:51:32.535   04 Jun 2027 08:51:34.471             1.936           968.000
       132   04 Jun 2027 08:51:47.965   04 Jun 2027 08:51:51.895             3.930          1965.000
       133   04 Jun 2027 08:52:11.164   04 Jun 2027 08:52:12.105             0.941           470.500
       134   05 Jun 2027 04:11:20.837   05 Jun 2027 04:11:45.567            24.730         12365.000
       135   05 Jun 2027 04:12:59.984   05 Jun 2027 04:13:04.060             4.076          2038.000
       136   05 Jun 2027 04:13:12.850   05 Jun 2027 04:13:15.337             2.487          1243.500
       137   05 Jun 2027 04:13:40.232   05 Jun 2027 04:13:48.656             8.424          4212.000
       138   05 Jun 2027 04:14:44.192   05 Jun 2027 04:14:52.878             8.686          4343.000
       139   05 Jun 2027 04:16:00.914   05 Jun 2027 04:16:01.692             0.778           389.000
       140   05 Jun 2027 04:16:23.749   05 Jun 2027 04:16:24.815             1.066           533.000
       141   05 Jun 2027 04:16:30.580   05 Jun 2027 04:16:36.024             5.444          2722.000
       142   05 Jun 2027 04:17:00.255   05 Jun 2027 04:17:03.629             3.374          1687.000
       143   05 Jun 2027 04:17:32.220   05 Jun 2027 04:17:36.554             4.334          2167.000
       144   05 Jun 2027 05:49:00.957   05 Jun 2027 05:49:15.516            14.559          7279.500
       145   05 Jun 2027 05:50:30.872   05 Jun 2027 05:50:35.484             4.612          2306.000
       146   05 Jun 2027 05:51:08.172   05 Jun 2027 05:51:13.280             5.108          2554.000
       147   05 Jun 2027 05:51:34.203   05 Jun 2027 05:51:37.031             2.828          1414.000
       148   05 Jun 2027 05:51:55.092   05 Jun 2027 05:52:08.901            13.809          6904.500
       149   05 Jun 2027 05:53:23.984   05 Jun 2027 05:53:29.326             5.342          2671.000
       150   05 Jun 2027 07:25:04.488   05 Jun 2027 07:25:08.669             4.181          2090.500
       151   05 Jun 2027 07:25:35.659   05 Jun 2027 07:25:37.464             1.805           902.500
       152   05 Jun 2027 07:25:45.713   05 Jun 2027 07:25:55.155             9.442          4721.000
       153   05 Jun 2027 07:27:04.862   05 Jun 2027 07:27:13.150             8.288          4144.000
       154   05 Jun 2027 07:27:46.422   05 Jun 2027 07:27:47.597             1.175           587.500
       155   05 Jun 2027 07:28:18.888   05 Jun 2027 07:28:32.039            13.151          6575.500
       156   05 Jun 2027 07:29:23.068   05 Jun 2027 07:29:27.838             4.770          2385.000
       157   05 Jun 2027 09:03:48.730   05 Jun 2027 09:03:50.251             1.521           760.500
       158   06 Jun 2027 04:23:56.912   06 Jun 2027 04:24:06.919            10.007          5003.500
       159   06 Jun 2027 04:25:25.887   06 Jun 2027 04:25:33.405             7.518          3759.000
       160   06 Jun 2027 04:26:36.370   06 Jun 2027 04:26:46.258             9.888          4944.000
       161   06 Jun 2027 04:27:06.751   06 Jun 2027 04:27:07.851             1.100           550.000
       162   06 Jun 2027 04:28:08.059   06 Jun 2027 04:28:11.925             3.866          1933.000
       163   06 Jun 2027 04:28:53.267   06 Jun 2027 04:29:04.155            10.888          5444.000
       164   06 Jun 2027 04:29:46.228   06 Jun 2027 04:29:50.413             4.185          2092.500
       165   06 Jun 2027 06:01:13.960   06 Jun 2027 06:01:23.844             9.884          4942.000
       166   06 Jun 2027 06:02:16.437   06 Jun 2027 06:02:30.184            13.747          6873.500
       167   06 Jun 2027 06:03:32.670   06 Jun 2027 06:03:34.959             2.289          1144.500
       168   06 Jun 2027 06:03:57.315   06 Jun 2027 06:04:00.228             2.913          1456.500
       169   06 Jun 2027 06:05:07.915   06 Jun 2027 06:05:15.859             7.944          3972.000
       170   06 Jun 2027 07:37:26.951   06 Jun 2027 07:37:34.925             7.974          3987.000
       171   06 Jun 2027 07:38:34.060   06 Jun 2027 07:38:40.480             6.420          3210.000
       172   06 Jun 2027 07:39:17.596   06 Jun 2027 07:39:18.019             0.423           211.500
       173   06 Jun 2027 07:39:21.527   06 Jun 2027 07:39:23.791             2.264          1132.000
       174   06 Jun 2027 07:40:13.311   06 Jun 2027 07:40:14.677             1.366           683.000
       175   06 Jun 2027 07:40:24.954   06 Jun 2027 07:40:40.123            15.169          7584.500
       176   06 Jun 2027 07:41:44.830   06 Jun 2027 07:41:58.692            13.862          6931.000
       177   07 Jun 2027 03:00:00.000   07 Jun 2027 03:00:11.558            11.558          5779.000
       178   07 Jun 2027 03:01:13.550   07 Jun 2027 03:01:22.120             8.570          4285.000
       179   07 Jun 2027 03:03:49.076   07 Jun 2027 03:03:49.439             0.363           181.500
       180   07 Jun 2027 03:03:55.294   07 Jun 2027 03:04:07.011            11.717          5858.500
       181   07 Jun 2027 03:04:19.252   07 Jun 2027 03:04:20.253             1.001           500.500
       182   07 Jun 2027 03:05:10.616   07 Jun 2027 03:05:12.580             1.964           982.000
       183   07 Jun 2027 03:05:46.009   07 Jun 2027 03:05:46.567             0.558           279.000
       184   07 Jun 2027 04:35:29.391   07 Jun 2027 04:35:44.282            14.891          7445.500
       185   07 Jun 2027 04:35:50.338   07 Jun 2027 04:35:51.281             0.943           471.500
       186   07 Jun 2027 04:36:14.449   07 Jun 2027 04:36:31.364            16.915          8457.500
       187   07 Jun 2027 04:38:19.540   07 Jun 2027 04:38:33.973            14.433          7216.500
       188   07 Jun 2027 04:39:37.029   07 Jun 2027 04:39:45.102             8.073          4036.500
       189   07 Jun 2027 04:40:37.170   07 Jun 2027 04:40:51.947            14.777          7388.500
       190   07 Jun 2027 04:41:35.758   07 Jun 2027 04:41:51.614            15.856          7928.000
       191   07 Jun 2027 06:13:30.532   07 Jun 2027 06:13:33.713             3.181          1590.500
       192   07 Jun 2027 06:14:04.697   07 Jun 2027 06:14:04.756             0.059            29.500
       193   07 Jun 2027 06:14:50.814   07 Jun 2027 06:14:59.336             8.522          4261.000
       194   07 Jun 2027 06:15:45.734   07 Jun 2027 06:15:51.343             5.609          2804.500
       195   07 Jun 2027 06:16:20.334   07 Jun 2027 06:16:24.020             3.686          1843.000
       196   07 Jun 2027 06:16:49.678   07 Jun 2027 06:16:49.872             0.194            97.000
       197   07 Jun 2027 06:16:59.020   07 Jun 2027 06:17:00.201             1.181           590.500
       198   07 Jun 2027 06:17:16.185   07 Jun 2027 06:17:17.417             1.232           616.000
       199   07 Jun 2027 06:17:26.340   07 Jun 2027 06:17:41.412            15.072          7536.000
       200   07 Jun 2027 07:49:10.309   07 Jun 2027 07:49:13.046             2.737          1368.500
       201   07 Jun 2027 07:49:50.554   07 Jun 2027 07:50:05.039            14.485          7242.500
       202   07 Jun 2027 07:51:14.202   07 Jun 2027 07:51:19.037             4.835          2417.500
       203   07 Jun 2027 07:52:37.814   07 Jun 2027 07:52:40.283             2.469          1234.500
       204   07 Jun 2027 07:52:51.890   07 Jun 2027 07:53:02.694            10.804          5402.000
       205   07 Jun 2027 07:53:32.817   07 Jun 2027 07:53:34.200             1.383           691.500
       206   07 Jun 2027 07:54:21.296   07 Jun 2027 07:54:29.176             7.880          3940.000
       207   08 Jun 2027 03:10:50.525   08 Jun 2027 03:10:53.924             3.399          1699.500
       208   08 Jun 2027 03:11:27.544   08 Jun 2027 03:11:35.693             8.149          4074.500
       209   08 Jun 2027 03:12:08.843   08 Jun 2027 03:12:14.711             5.868          2934.000
       210   08 Jun 2027 03:13:14.801   08 Jun 2027 03:13:17.849             3.048          1524.000
       211   08 Jun 2027 03:13:42.204   08 Jun 2027 03:13:43.701             1.497           748.500
       212   08 Jun 2027 03:13:59.070   08 Jun 2027 03:13:59.560             0.490           245.000
       213   08 Jun 2027 03:15:18.841   08 Jun 2027 03:15:21.221             2.380          1190.000
       214   08 Jun 2027 03:15:37.054   08 Jun 2027 03:15:37.905             0.851           425.500
       215   08 Jun 2027 03:15:43.920   08 Jun 2027 03:15:51.691             7.771          3885.500
       216   08 Jun 2027 03:16:23.719   08 Jun 2027 03:16:26.500             2.781          1390.500
       217   08 Jun 2027 03:16:58.844   08 Jun 2027 03:16:59.652             0.808           404.000
       218   08 Jun 2027 03:17:42.454   08 Jun 2027 03:17:46.495             4.041          2020.500
       219   08 Jun 2027 03:18:10.456   08 Jun 2027 03:18:24.254            13.798          6899.000
       220   08 Jun 2027 04:47:51.012   08 Jun 2027 04:47:52.407             1.395           697.500
       221   08 Jun 2027 04:47:54.129   08 Jun 2027 04:48:18.183            24.054         12027.000
       222   08 Jun 2027 04:49:35.926   08 Jun 2027 04:49:44.077             8.151          4075.500
       223   08 Jun 2027 04:50:49.316   08 Jun 2027 04:50:54.078             4.762          2381.000
       224   08 Jun 2027 04:51:25.191   08 Jun 2027 04:51:28.165             2.974          1487.000
       225   08 Jun 2027 04:53:52.747   08 Jun 2027 04:53:54.539             1.792           896.000
       226   08 Jun 2027 06:25:52.009   08 Jun 2027 06:25:52.237             0.228           114.000
       227   08 Jun 2027 06:26:31.324   08 Jun 2027 06:26:34.241             2.917          1458.500
       228   08 Jun 2027 06:27:04.890   08 Jun 2027 06:27:06.219             1.329           664.500
       229   08 Jun 2027 06:27:32.246   08 Jun 2027 06:27:33.789             1.543           771.500
       230   08 Jun 2027 06:27:42.182   08 Jun 2027 06:27:42.425             0.243           121.500
       231   08 Jun 2027 06:27:44.752   08 Jun 2027 06:27:46.579             1.827           913.500
       232   08 Jun 2027 06:28:01.754   08 Jun 2027 06:28:09.710             7.956          3978.000
       233   08 Jun 2027 06:29:11.527   08 Jun 2027 06:29:15.805             4.278          2139.000
       234   08 Jun 2027 07:59:05.986   08 Jun 2027 07:59:14.918             8.932          4466.000
       235   08 Jun 2027 08:00:29.744   08 Jun 2027 08:00:33.778             4.034          2017.000
       236   08 Jun 2027 08:01:06.764   08 Jun 2027 08:01:16.210             9.446          4723.000
       237   08 Jun 2027 08:01:56.717   08 Jun 2027 08:01:57.927             1.210           605.000
       238   08 Jun 2027 08:02:07.056   08 Jun 2027 08:02:15.971             8.915          4457.500
       239   08 Jun 2027 08:02:53.865   08 Jun 2027 08:03:20.236            26.371         13185.500
       240   08 Jun 2027 08:05:09.214   08 Jun 2027 08:05:20.075            10.861          5430.500
       241   08 Jun 2027 08:05:27.754   08 Jun 2027 08:05:31.904             4.150          2075.000
       242   08 Jun 2027 08:06:03.576   08 Jun 2027 08:06:05.649             2.073          1036.500
       243   08 Jun 2027 08:06:54.952   08 Jun 2027 08:06:58.359             3.407          1703.500
       244   09 Jun 2027 03:22:59.061   09 Jun 2027 03:23:06.323             7.262          3631.000
       245   09 Jun 2027 03:23:10.155   09 Jun 2027 03:23:22.406            12.251          6125.500
       246   09 Jun 2027 03:24:37.788   09 Jun 2027 03:24:47.386             9.598          4799.000
       247   09 Jun 2027 03:25:43.870   09 Jun 2027 03:25:49.108             5.238          2619.000
       248   09 Jun 2027 03:26:28.031   09 Jun 2027 03:26:36.757             8.726          4363.000
       249   09 Jun 2027 03:27:56.017   09 Jun 2027 03:27:59.725             3.708          1854.000
       250   09 Jun 2027 03:28:32.762   09 Jun 2027 03:28:38.461             5.699          2849.500
       251   09 Jun 2027 03:29:06.133   09 Jun 2027 03:29:06.567             0.434           217.000
       252   09 Jun 2027 03:29:19.876   09 Jun 2027 03:29:21.816             1.940           970.000
       253   09 Jun 2027 03:29:34.637   09 Jun 2027 03:29:35.794             1.157           578.500
       254   09 Jun 2027 03:29:44.800   09 Jun 2027 03:29:49.346             4.546          2273.000
       255   09 Jun 2027 04:59:56.450   09 Jun 2027 04:59:56.467             0.017             8.500
       256   09 Jun 2027 05:00:24.114   09 Jun 2027 05:00:29.082             4.968          2484.000
       257   09 Jun 2027 05:00:58.917   09 Jun 2027 05:01:01.382             2.465          1232.500
       258   09 Jun 2027 05:01:37.913   09 Jun 2027 05:01:45.775             7.862          3931.000
       259   09 Jun 2027 05:02:20.878   09 Jun 2027 05:02:21.592             0.714           357.000
       260   09 Jun 2027 05:02:47.553   09 Jun 2027 05:02:50.524             2.971          1485.500
       261   09 Jun 2027 05:03:02.414   09 Jun 2027 05:03:04.139             1.725           862.500
       262   09 Jun 2027 05:03:11.662   09 Jun 2027 05:03:13.771             2.109          1054.500
       263   09 Jun 2027 05:03:47.521   09 Jun 2027 05:03:57.777            10.256          5128.000
       264   09 Jun 2027 05:04:41.659   09 Jun 2027 05:04:50.057             8.398          4199.000
       265   09 Jun 2027 05:05:24.315   09 Jun 2027 05:05:28.561             4.246          2123.000
       266   09 Jun 2027 06:37:49.384   09 Jun 2027 06:37:54.030             4.646          2323.000
       267   09 Jun 2027 06:38:32.264   09 Jun 2027 06:38:48.051            15.787          7893.500
       268   09 Jun 2027 06:40:04.758   09 Jun 2027 06:40:05.529             0.771           385.500
       269   09 Jun 2027 06:41:06.815   09 Jun 2027 06:41:26.812            19.997          9998.500
       270   09 Jun 2027 08:11:17.851   09 Jun 2027 08:11:48.033            30.182         15091.000
       271   09 Jun 2027 08:13:54.297   09 Jun 2027 08:13:54.476             0.179            89.500
       272   09 Jun 2027 08:14:26.604   09 Jun 2027 08:14:46.531            19.927          9963.500
       273   09 Jun 2027 08:15:04.505   09 Jun 2027 08:15:19.051            14.546          7273.000
       274   09 Jun 2027 08:17:32.481   09 Jun 2027 08:17:44.924            12.443          6221.500
       275   09 Jun 2027 08:18:33.637   09 Jun 2027 08:18:35.174             1.537           768.500
       276   10 Jun 2027 03:35:00.657   10 Jun 2027 03:35:07.159             6.502          3251.000
       277   10 Jun 2027 03:35:32.308   10 Jun 2027 03:35:33.980             1.672           836.000
       278   10 Jun 2027 03:35:54.799   10 Jun 2027 03:36:01.890             7.091          3545.500
       279   10 Jun 2027 03:36:34.067   10 Jun 2027 03:36:35.477             1.410           705.000
       280   10 Jun 2027 03:36:41.866   10 Jun 2027 03:36:52.493            10.627          5313.500
       281   10 Jun 2027 03:37:01.641   10 Jun 2027 03:37:02.818             1.177           588.500
       282   10 Jun 2027 03:37:23.890   10 Jun 2027 03:37:27.922             4.032          2016.000
       283   10 Jun 2027 03:37:42.027   10 Jun 2027 03:37:44.703             2.676          1338.000
       284   10 Jun 2027 03:38:45.038   10 Jun 2027 03:38:46.307             1.269           634.500
       285   10 Jun 2027 03:39:18.691   10 Jun 2027 03:39:21.582             2.891          1445.500
       286   10 Jun 2027 03:39:54.292   10 Jun 2027 03:40:00.835             6.543          3271.500
       287   10 Jun 2027 03:40:58.260   10 Jun 2027 03:41:03.611             5.351          2675.500
       288   10 Jun 2027 03:41:47.702   10 Jun 2027 03:41:50.694             2.992          1496.000
       289   10 Jun 2027 05:11:48.697   10 Jun 2027 05:11:49.025             0.328           164.000
       290   10 Jun 2027 05:12:48.953   10 Jun 2027 05:12:56.104             7.151          3575.500
       291   10 Jun 2027 05:13:37.658   10 Jun 2027 05:13:47.569             9.911          4955.500
       292   10 Jun 2027 05:14:43.310   10 Jun 2027 05:14:46.243             2.933          1466.500
       293   10 Jun 2027 05:15:12.829   10 Jun 2027 05:15:15.389             2.560          1280.000
       294   10 Jun 2027 05:16:00.075   10 Jun 2027 05:16:00.116             0.041            20.500
       295   10 Jun 2027 05:16:12.502   10 Jun 2027 05:16:12.788             0.286           143.000
       296   10 Jun 2027 05:16:42.859   10 Jun 2027 05:16:52.618             9.759          4879.500
       297   10 Jun 2027 05:17:50.695   10 Jun 2027 05:17:58.656             7.961          3980.500
       298   10 Jun 2027 05:18:22.836   10 Jun 2027 05:18:22.836             0.000             0.000
       299   10 Jun 2027 06:49:51.335   10 Jun 2027 06:49:55.882             4.547          2273.500
       300   10 Jun 2027 06:50:25.568   10 Jun 2027 06:50:33.402             7.834          3917.000
       301   10 Jun 2027 06:51:22.232   10 Jun 2027 06:51:22.650             0.418           209.000
       302   10 Jun 2027 06:51:41.284   10 Jun 2027 06:51:43.930             2.646          1323.000
       303   10 Jun 2027 06:52:03.884   10 Jun 2027 06:52:06.014             2.130          1065.000
       304   10 Jun 2027 06:53:03.347   10 Jun 2027 06:53:20.001            16.654          8327.000
       305   10 Jun 2027 08:23:42.999   10 Jun 2027 08:23:53.143            10.144          5072.000
       306   10 Jun 2027 08:24:58.147   10 Jun 2027 08:25:08.227            10.080          5040.000
       307   10 Jun 2027 08:25:22.140   10 Jun 2027 08:25:27.833             5.693          2846.500
       308   10 Jun 2027 08:26:18.857   10 Jun 2027 08:27:10.284            51.427         25713.500
       309   10 Jun 2027 08:30:10.794   10 Jun 2027 08:30:24.123            13.329          6664.500
       310   11 Jun 2027 03:47:03.840   11 Jun 2027 03:47:10.055             6.215          3107.500
       311   11 Jun 2027 03:48:11.284   11 Jun 2027 03:48:25.831            14.547          7273.500
       312   11 Jun 2027 03:49:47.884   11 Jun 2027 03:49:50.595             2.711          1355.500
       313   11 Jun 2027 03:50:05.536   11 Jun 2027 03:50:09.073             3.537          1768.500
       314   11 Jun 2027 03:51:14.680   11 Jun 2027 03:51:20.591             5.911          2955.500
       315   11 Jun 2027 03:51:44.237   11 Jun 2027 03:51:59.415            15.178          7589.000
       316   11 Jun 2027 03:53:00.210   11 Jun 2027 03:53:00.365             0.155            77.500
       317   11 Jun 2027 03:53:08.899   11 Jun 2027 03:53:10.012             1.113           556.500
       318   11 Jun 2027 03:53:30.537   11 Jun 2027 03:53:45.167            14.630          7315.000
       319   11 Jun 2027 05:23:58.533   11 Jun 2027 05:24:11.659            13.126          6563.000
       320   11 Jun 2027 05:24:47.567   11 Jun 2027 05:24:52.444             4.877          2438.500
       321   11 Jun 2027 05:25:39.119   11 Jun 2027 05:25:47.893             8.774          4387.000
       322   11 Jun 2027 05:26:35.274   11 Jun 2027 05:26:45.348            10.074          5037.000
       323   11 Jun 2027 05:27:55.142   11 Jun 2027 05:27:57.573             2.431          1215.500
       324   11 Jun 2027 05:28:08.705   11 Jun 2027 05:28:09.062             0.357           178.500
       325   11 Jun 2027 05:28:14.521   11 Jun 2027 05:28:20.212             5.691          2845.500
       326   11 Jun 2027 05:28:44.057   11 Jun 2027 05:28:46.624             2.567          1283.500
       327   11 Jun 2027 05:29:24.441   11 Jun 2027 05:29:26.886             2.445          1222.500
       328   11 Jun 2027 05:29:45.492   11 Jun 2027 05:29:45.893             0.401           200.500
       329   11 Jun 2027 05:30:01.556   11 Jun 2027 05:30:05.972             4.416          2208.000
       330   11 Jun 2027 07:01:04.632   11 Jun 2027 07:01:23.636            19.004          9502.000
       331   11 Jun 2027 07:02:46.189   11 Jun 2027 07:03:01.805            15.616          7808.000
       332   11 Jun 2027 07:04:15.622   11 Jun 2027 07:04:21.914             6.292          3146.000
       333   11 Jun 2027 07:04:47.690   11 Jun 2027 07:04:52.285             4.595          2297.500
       334   11 Jun 2027 07:05:09.783   11 Jun 2027 07:05:10.194             0.411           205.500
       335   11 Jun 2027 07:05:24.623   11 Jun 2027 07:05:28.663             4.040          2020.000
       336   11 Jun 2027 08:36:05.399   11 Jun 2027 08:36:06.112             0.713           356.500
       337   11 Jun 2027 08:36:21.133   11 Jun 2027 08:36:28.349             7.216          3608.000
       338   11 Jun 2027 08:37:46.018   11 Jun 2027 08:37:51.522             5.504          2752.000
       339   11 Jun 2027 08:39:10.693   11 Jun 2027 08:39:24.632            13.939          6969.500
       340   11 Jun 2027 08:40:27.179   11 Jun 2027 08:40:36.778             9.599          4799.500
       341   12 Jun 2027 03:59:29.546   12 Jun 2027 03:59:39.250             9.704          4852.000
       342   12 Jun 2027 04:01:31.035   12 Jun 2027 04:01:33.181             2.146          1073.000
       343   12 Jun 2027 04:01:55.276   12 Jun 2027 04:02:03.223             7.947          3973.500
       344   12 Jun 2027 04:02:59.397   12 Jun 2027 04:03:13.786            14.389          7194.500
       345   12 Jun 2027 04:04:36.318   12 Jun 2027 04:04:49.583            13.265          6632.500
       346   12 Jun 2027 04:06:03.568   12 Jun 2027 04:06:11.398             7.830          3915.000
       347   12 Jun 2027 05:36:25.962   12 Jun 2027 05:36:37.871            11.909          5954.500
       348   12 Jun 2027 05:36:43.482   12 Jun 2027 05:36:45.291             1.809           904.500
       349   12 Jun 2027 05:37:27.968   12 Jun 2027 05:37:33.949             5.981          2990.500
       350   12 Jun 2027 05:38:06.349   12 Jun 2027 05:38:16.134             9.785          4892.500
       351   12 Jun 2027 05:38:55.684   12 Jun 2027 05:39:00.192             4.508          2254.000
       352   12 Jun 2027 05:39:30.183   12 Jun 2027 05:39:32.412             2.229          1114.500
       353   12 Jun 2027 05:39:54.406   12 Jun 2027 05:39:55.191             0.785           392.500
       354   12 Jun 2027 05:40:10.809   12 Jun 2027 05:40:14.980             4.171          2085.500
       355   12 Jun 2027 05:40:58.256   12 Jun 2027 05:41:05.592             7.336          3668.000
       356   12 Jun 2027 05:42:02.725   12 Jun 2027 05:42:02.736             0.011             5.500
       357   12 Jun 2027 05:42:06.474   12 Jun 2027 05:42:12.953             6.479          3239.500
       358   12 Jun 2027 07:13:16.503   12 Jun 2027 07:13:17.095             0.592           296.000
       359   12 Jun 2027 07:13:41.918   12 Jun 2027 07:13:44.371             2.453          1226.500
       360   12 Jun 2027 07:13:49.741   12 Jun 2027 07:13:49.749             0.008             4.000
       361   12 Jun 2027 07:13:59.661   12 Jun 2027 07:14:05.767             6.106          3053.000
       362   12 Jun 2027 07:14:57.592   12 Jun 2027 07:14:58.717             1.125           562.500
       363   12 Jun 2027 07:15:30.823   12 Jun 2027 07:15:31.477             0.654           327.000
       364   12 Jun 2027 07:15:37.948   12 Jun 2027 07:15:38.833             0.885           442.500
       365   12 Jun 2027 07:15:47.842   12 Jun 2027 07:15:53.461             5.619          2809.500
       366   12 Jun 2027 07:16:28.822   12 Jun 2027 07:16:33.190             4.368          2184.000
       367   12 Jun 2027 07:17:19.135   12 Jun 2027 07:17:23.401             4.266          2133.000
       368   12 Jun 2027 08:50:53.229   12 Jun 2027 08:51:04.704            11.475          5737.500
       369   12 Jun 2027 08:51:58.891   12 Jun 2027 08:52:00.315             1.424           712.000
       370   12 Jun 2027 08:52:25.797   12 Jun 2027 08:52:27.270             1.473           736.500
       371   13 Jun 2027 04:11:35.941   13 Jun 2027 04:12:02.700            26.759         13379.500
       372   13 Jun 2027 04:13:20.136   13 Jun 2027 04:13:30.781            10.645          5322.500
       373   13 Jun 2027 04:14:52.465   13 Jun 2027 04:14:58.984             6.519          3259.500
       374   13 Jun 2027 04:15:06.849   13 Jun 2027 04:15:12.224             5.375          2687.500
       375   13 Jun 2027 04:16:51.759   13 Jun 2027 04:16:53.725             1.966           983.000
       376   13 Jun 2027 04:17:17.678   13 Jun 2027 04:17:19.374             1.696           848.000
       377   13 Jun 2027 04:17:47.686   13 Jun 2027 04:17:59.440            11.754          5877.000
       378   13 Jun 2027 05:49:16.754   13 Jun 2027 05:49:30.163            13.409          6704.500
       379   13 Jun 2027 05:50:45.693   13 Jun 2027 05:50:49.181             3.488          1744.000
       380   13 Jun 2027 05:51:23.518   13 Jun 2027 05:51:28.280             4.762          2381.000
       381   13 Jun 2027 05:51:48.675   13 Jun 2027 05:51:48.677             0.002             1.000
       382   13 Jun 2027 05:52:03.826   13 Jun 2027 05:52:04.253             0.427           213.500
       383   13 Jun 2027 05:52:07.967   13 Jun 2027 05:52:12.984             5.017          2508.500
       384   13 Jun 2027 05:52:40.928   13 Jun 2027 05:52:47.121             6.193          3096.500
       385   13 Jun 2027 05:53:31.833   13 Jun 2027 05:53:37.306             5.473          2736.500
       386   13 Jun 2027 07:25:19.048   13 Jun 2027 07:25:23.966             4.918          2459.000
       387   13 Jun 2027 07:25:50.527   13 Jun 2027 07:25:55.357             4.830          2415.000
       388   13 Jun 2027 07:27:15.545   13 Jun 2027 07:27:19.646             4.101          2050.500
       389   13 Jun 2027 07:27:37.583   13 Jun 2027 07:27:37.738             0.155            77.500
       390   13 Jun 2027 07:28:24.406   13 Jun 2027 07:28:53.175            28.769         14384.500
