uniorb/output/strategy_2/Camera/Camera_KinoSat_110205.txt

KinoSat_110205
-------------------------
    Access    *     Start Time (UTCG)     *     Stop Time (UTCG)  *   Duration (s) *   Data (Mbytes)
         1   01 Jun 2027 04:01:36.465   01 Jun 2027 04:02:02.766            26.301         13150.500
         2   01 Jun 2027 04:03:20.289   01 Jun 2027 04:03:24.154             3.865          1932.500
         3   01 Jun 2027 04:04:17.094   01 Jun 2027 04:04:22.881             5.787          2893.500
         4   01 Jun 2027 04:04:57.183   01 Jun 2027 04:04:58.733             1.550           775.000
         5   01 Jun 2027 04:05:18.842   01 Jun 2027 04:05:21.157             2.315          1157.500
         6   01 Jun 2027 04:05:45.563   01 Jun 2027 04:05:48.713             3.150          1575.000
         7   01 Jun 2027 04:06:01.583   01 Jun 2027 04:06:15.914            14.331          7165.500
         8   01 Jun 2027 04:07:19.795   01 Jun 2027 04:07:27.578             7.783          3891.500
         9   01 Jun 2027 04:07:37.410   01 Jun 2027 04:07:47.354             9.944          4972.000
        10   01 Jun 2027 05:38:33.527   01 Jun 2027 05:38:43.675            10.148          5074.000
        11   01 Jun 2027 05:38:59.162   01 Jun 2027 05:39:17.071            17.909          8954.500
        12   01 Jun 2027 05:40:57.331   01 Jun 2027 05:41:10.038            12.707          6353.500
        13   01 Jun 2027 05:42:13.300   01 Jun 2027 05:42:20.404             7.104          3552.000
        14   01 Jun 2027 05:42:42.272   01 Jun 2027 05:42:48.371             6.099          3049.500
        15   01 Jun 2027 05:43:24.928   01 Jun 2027 05:43:26.673             1.745           872.500
        16   01 Jun 2027 05:43:35.277   01 Jun 2027 05:43:41.294             6.017          3008.500
        17   01 Jun 2027 07:15:23.935   01 Jun 2027 07:15:25.559             1.624           812.000
        18   01 Jun 2027 07:16:06.375   01 Jun 2027 07:16:28.153            21.778         10889.000
        19   01 Jun 2027 07:17:58.497   01 Jun 2027 07:17:59.757             1.260           630.000
        20   01 Jun 2027 07:18:09.238   01 Jun 2027 07:18:17.546             8.308          4154.000
        21   01 Jun 2027 07:18:24.426   01 Jun 2027 07:18:33.011             8.585          4292.500
        22   01 Jun 2027 07:18:54.173   01 Jun 2027 07:18:58.715             4.542          2271.000
        23   01 Jun 2027 08:53:03.932   01 Jun 2027 08:53:18.901            14.969          7484.500
        24   01 Jun 2027 08:54:40.120   01 Jun 2027 08:54:40.589             0.469           234.500
        25   02 Jun 2027 04:13:43.893   02 Jun 2027 04:14:02.655            18.762          9381.000
        26   02 Jun 2027 04:15:08.998   02 Jun 2027 04:15:14.164             5.166          2583.000
        27   02 Jun 2027 04:15:43.785   02 Jun 2027 04:15:46.190             2.405          1202.500
        28   02 Jun 2027 04:16:12.790   02 Jun 2027 04:16:16.251             3.461          1730.500
        29   02 Jun 2027 04:16:51.712   02 Jun 2027 04:17:02.244            10.532          5266.000
        30   02 Jun 2027 04:18:19.225   02 Jun 2027 04:18:22.179             2.954          1477.000
        31   02 Jun 2027 04:18:39.602   02 Jun 2027 04:18:46.624             7.022          3511.000
        32   02 Jun 2027 04:19:21.556   02 Jun 2027 04:19:32.379            10.823          5411.500
        33   02 Jun 2027 04:19:59.063   02 Jun 2027 04:20:06.013             6.950          3475.000
        34   02 Jun 2027 05:51:27.585   02 Jun 2027 05:51:32.723             5.138          2569.000
        35   02 Jun 2027 05:52:12.744   02 Jun 2027 05:52:13.848             1.104           552.000
        36   02 Jun 2027 05:52:36.168   02 Jun 2027 05:52:40.047             3.879          1939.500
        37   02 Jun 2027 05:53:32.607   02 Jun 2027 05:53:33.714             1.107           553.500
        38   02 Jun 2027 05:53:51.864   02 Jun 2027 05:53:54.664             2.800          1400.000
        39   02 Jun 2027 05:54:12.375   02 Jun 2027 05:54:25.114            12.739          6369.500
        40   02 Jun 2027 05:55:39.300   02 Jun 2027 05:55:47.319             8.019          4009.500
        41   02 Jun 2027 07:27:33.849   02 Jun 2027 07:27:36.943             3.094          1547.000
        42   02 Jun 2027 07:27:51.216   02 Jun 2027 07:27:52.360             1.144           572.000
        43   02 Jun 2027 07:28:04.276   02 Jun 2027 07:28:05.375             1.099           549.500
        44   02 Jun 2027 07:28:17.042   02 Jun 2027 07:28:19.115             2.073          1036.500
        45   02 Jun 2027 07:28:56.997   02 Jun 2027 07:29:15.041            18.044          9022.000
        46   02 Jun 2027 07:30:38.813   02 Jun 2027 07:30:47.414             8.601          4300.500
        47   02 Jun 2027 07:31:25.212   02 Jun 2027 07:31:29.045             3.833          1916.500
        48   03 Jun 2027 04:26:18.325   03 Jun 2027 04:26:26.214             7.889          3944.500
        49   03 Jun 2027 04:27:39.880   03 Jun 2027 04:27:39.968             0.088            44.000
        50   03 Jun 2027 04:27:42.351   03 Jun 2027 04:27:50.217             7.866          3933.000
        51   03 Jun 2027 04:27:54.531   03 Jun 2027 04:27:59.394             4.863          2431.500
        52   03 Jun 2027 04:29:10.791   03 Jun 2027 04:29:11.876             1.085           542.500
        53   03 Jun 2027 04:29:34.502   03 Jun 2027 04:29:37.243             2.741          1370.500
        54   03 Jun 2027 04:30:49.255   03 Jun 2027 04:31:12.885            23.630         11815.000
        55   03 Jun 2027 04:31:52.942   03 Jun 2027 04:32:01.058             8.116          4058.000
        56   03 Jun 2027 06:03:33.891   03 Jun 2027 06:03:41.873             7.982          3991.000
        57   03 Jun 2027 06:04:07.375   03 Jun 2027 06:04:14.296             6.921          3460.500
        58   03 Jun 2027 06:04:56.203   03 Jun 2027 06:05:04.334             8.131          4065.500
        59   03 Jun 2027 06:06:03.110   03 Jun 2027 06:06:04.899             1.789           894.500
        60   03 Jun 2027 06:06:19.554   03 Jun 2027 06:06:22.999             3.445          1722.500
        61   03 Jun 2027 06:06:37.105   03 Jun 2027 06:06:40.523             3.418          1709.000
        62   03 Jun 2027 06:07:06.165   03 Jun 2027 06:07:13.007             6.842          3421.000
        63   03 Jun 2027 06:07:15.997   03 Jun 2027 06:07:20.829             4.832          2416.000
        64   03 Jun 2027 06:07:55.314   03 Jun 2027 06:07:59.996             4.682          2341.000
        65   03 Jun 2027 07:39:48.172   03 Jun 2027 07:40:01.740            13.568          6784.000
        66   03 Jun 2027 07:40:59.753   03 Jun 2027 07:41:04.950             5.197          2598.500
        67   03 Jun 2027 07:41:35.140   03 Jun 2027 07:41:36.270             1.130           565.000
        68   03 Jun 2027 07:41:56.638   03 Jun 2027 07:42:18.541            21.903         10951.500
        69   03 Jun 2027 07:44:08.522   03 Jun 2027 07:44:14.800             6.278          3139.000
        70   04 Jun 2027 03:01:32.423   04 Jun 2027 03:01:34.046             1.623           811.500
        71   04 Jun 2027 03:01:49.270   04 Jun 2027 03:02:03.970            14.700          7350.000
        72   04 Jun 2027 03:03:25.383   04 Jun 2027 03:03:29.389             4.006          2003.000
        73   04 Jun 2027 03:03:34.846   04 Jun 2027 03:03:48.663            13.817          6908.500
        74   04 Jun 2027 03:05:12.984   04 Jun 2027 03:05:14.934             1.950           975.000
        75   04 Jun 2027 03:05:29.983   04 Jun 2027 03:05:35.041             5.058          2529.000
        76   04 Jun 2027 03:06:00.573   04 Jun 2027 03:06:01.708             1.135           567.500
        77   04 Jun 2027 03:06:36.363   04 Jun 2027 03:06:37.775             1.412           706.000
        78   04 Jun 2027 03:06:58.849   04 Jun 2027 03:07:02.769             3.920          1960.000
        79   04 Jun 2027 03:07:51.113   04 Jun 2027 03:07:56.752             5.639          2819.500
        80   04 Jun 2027 04:37:51.664   04 Jun 2027 04:38:01.235             9.571          4785.500
        81   04 Jun 2027 04:38:47.490   04 Jun 2027 04:39:00.346            12.856          6428.000
        82   04 Jun 2027 04:39:27.255   04 Jun 2027 04:39:29.416             2.161          1080.500
        83   04 Jun 2027 04:40:05.574   04 Jun 2027 04:40:15.654            10.080          5040.000
        84   04 Jun 2027 04:40:59.323   04 Jun 2027 04:41:00.601             1.278           639.000
        85   04 Jun 2027 04:41:09.222   04 Jun 2027 04:41:10.992             1.770           885.000
        86   04 Jun 2027 04:41:30.350   04 Jun 2027 04:41:35.976             5.626          2813.000
        87   04 Jun 2027 04:42:07.517   04 Jun 2027 04:42:08.712             1.195           597.500
        88   04 Jun 2027 04:42:34.620   04 Jun 2027 04:42:37.369             2.749          1374.500
        89   04 Jun 2027 04:42:43.448   04 Jun 2027 04:42:56.946            13.498          6749.000
        90   04 Jun 2027 04:43:20.685   04 Jun 2027 04:43:20.685             0.000             0.000
        91   04 Jun 2027 04:44:10.066   04 Jun 2027 04:44:16.218             6.152          3076.000
        92   04 Jun 2027 06:16:06.777   04 Jun 2027 06:16:09.002             2.225          1112.500
        93   04 Jun 2027 06:16:44.061   04 Jun 2027 06:16:48.881             4.820          2410.000
        94   04 Jun 2027 06:17:14.973   04 Jun 2027 06:17:22.634             7.661          3830.500
        95   04 Jun 2027 06:18:10.444   04 Jun 2027 06:18:10.884             0.440           220.000
        96   04 Jun 2027 06:18:41.889   04 Jun 2027 06:18:48.322             6.433          3216.500
        97   04 Jun 2027 06:19:29.496   04 Jun 2027 06:19:34.206             4.710          2355.000
        98   04 Jun 2027 07:51:27.129   04 Jun 2027 07:51:29.094             1.965           982.500
        99   04 Jun 2027 07:52:05.914   04 Jun 2027 07:52:08.376             2.462          1231.000
       100   04 Jun 2027 07:52:42.603   04 Jun 2027 07:52:42.797             0.194            97.000
       101   04 Jun 2027 07:53:41.842   04 Jun 2027 07:53:44.579             2.737          1368.500
       102   04 Jun 2027 07:54:24.442   04 Jun 2027 07:54:31.177             6.735          3367.500
       103   04 Jun 2027 07:55:19.527   04 Jun 2027 07:55:21.266             1.739           869.500
       104   04 Jun 2027 07:55:36.667   04 Jun 2027 07:55:38.475             1.808           904.000
       105   04 Jun 2027 07:55:59.433   04 Jun 2027 07:56:00.306             0.873           436.500
       106   04 Jun 2027 07:56:05.413   04 Jun 2027 07:56:09.961             4.548          2274.000
       107   04 Jun 2027 07:56:29.453   04 Jun 2027 07:56:35.377             5.924          2962.000
       108   05 Jun 2027 03:13:05.812   05 Jun 2027 03:13:12.477             6.665          3332.500
       109   05 Jun 2027 03:13:21.569   05 Jun 2027 03:13:21.569             0.000             0.000
       110   05 Jun 2027 03:13:41.310   05 Jun 2027 03:13:43.270             1.960           980.000
       111   05 Jun 2027 03:13:57.282   05 Jun 2027 03:14:05.005             7.723          3861.500
       112   05 Jun 2027 03:15:04.876   05 Jun 2027 03:15:07.132             2.256          1128.000
       113   05 Jun 2027 03:15:37.448   05 Jun 2027 03:15:40.809             3.361          1680.500
       114   05 Jun 2027 03:16:09.770   05 Jun 2027 03:16:13.353             3.583          1791.500
       115   05 Jun 2027 03:16:39.541   05 Jun 2027 03:16:41.353             1.812           906.000
       116   05 Jun 2027 03:17:25.786   05 Jun 2027 03:17:26.332             0.546           273.000
       117   05 Jun 2027 03:18:24.200   05 Jun 2027 03:18:24.771             0.571           285.500
       118   05 Jun 2027 03:18:37.351   05 Jun 2027 03:18:37.985             0.634           317.000
       119   05 Jun 2027 03:18:40.530   05 Jun 2027 03:18:47.655             7.125          3562.500
       120   05 Jun 2027 03:19:43.830   05 Jun 2027 03:19:48.588             4.758          2379.000
       121   05 Jun 2027 03:20:13.214   05 Jun 2027 03:20:15.315             2.101          1050.500
       122   05 Jun 2027 03:20:30.971   05 Jun 2027 03:20:32.764             1.793           896.500
       123   05 Jun 2027 03:20:39.363   05 Jun 2027 03:20:40.531             1.168           584.000
       124   05 Jun 2027 04:50:11.114   05 Jun 2027 04:50:27.400            16.286          8143.000
       125   05 Jun 2027 04:51:34.584   05 Jun 2027 04:51:37.491             2.907          1453.500
       126   05 Jun 2027 04:51:55.557   05 Jun 2027 04:52:08.051            12.494          6247.000
       127   05 Jun 2027 04:53:28.353   05 Jun 2027 04:53:31.589             3.236          1618.000
       128   05 Jun 2027 04:53:56.640   05 Jun 2027 04:54:01.655             5.015          2507.500
       129   05 Jun 2027 04:54:27.924   05 Jun 2027 04:54:28.107             0.183            91.500
       130   05 Jun 2027 04:54:43.806   05 Jun 2027 04:55:02.046            18.240          9120.000
       131   05 Jun 2027 04:55:43.646   05 Jun 2027 04:55:49.732             6.086          3043.000
       132   05 Jun 2027 06:28:09.892   05 Jun 2027 06:28:10.759             0.867           433.500
       133   05 Jun 2027 06:28:43.993   05 Jun 2027 06:28:46.032             2.039          1019.500
       134   05 Jun 2027 06:29:36.395   05 Jun 2027 06:29:43.164             6.769          3384.500
       135   05 Jun 2027 06:30:17.807   05 Jun 2027 06:30:19.037             1.230           615.000
       136   05 Jun 2027 06:30:26.989   05 Jun 2027 06:30:32.958             5.969          2984.500
       137   05 Jun 2027 06:31:01.264   05 Jun 2027 06:31:11.431            10.167          5083.500
       138   05 Jun 2027 06:31:48.497   05 Jun 2027 06:31:50.880             2.383          1191.500
       139   05 Jun 2027 08:01:18.501   05 Jun 2027 08:01:28.253             9.752          4876.000
       140   05 Jun 2027 08:01:36.973   05 Jun 2027 08:01:57.979            21.006         10503.000
       141   05 Jun 2027 08:03:45.137   05 Jun 2027 08:03:47.355             2.218          1109.000
       142   05 Jun 2027 08:04:07.747   05 Jun 2027 08:04:12.972             5.225          2612.500
       143   05 Jun 2027 08:04:22.486   05 Jun 2027 08:04:31.719             9.233          4616.500
       144   05 Jun 2027 08:05:29.316   05 Jun 2027 08:05:37.849             8.533          4266.500
       145   05 Jun 2027 08:06:14.759   05 Jun 2027 08:06:22.654             7.895          3947.500
       146   05 Jun 2027 08:07:06.525   05 Jun 2027 08:07:12.648             6.123          3061.500
       147   05 Jun 2027 08:07:45.988   05 Jun 2027 08:08:03.524            17.536          8768.000
       148   06 Jun 2027 03:25:24.317   06 Jun 2027 03:25:30.212             5.895          2947.500
       149   06 Jun 2027 03:26:08.039   06 Jun 2027 03:26:15.411             7.372          3686.000
       150   06 Jun 2027 03:27:02.054   06 Jun 2027 03:27:07.275             5.221          2610.500
       151   06 Jun 2027 03:27:44.447   06 Jun 2027 03:28:02.102            17.655          8827.500
       152   06 Jun 2027 03:29:37.895   06 Jun 2027 03:29:38.285             0.390           195.000
       153   06 Jun 2027 03:29:48.439   06 Jun 2027 03:30:01.671            13.232          6616.000
       154   06 Jun 2027 03:30:48.413   06 Jun 2027 03:30:49.561             1.148           574.000
       155   06 Jun 2027 03:31:40.569   06 Jun 2027 03:31:42.858             2.289          1144.500
       156   06 Jun 2027 03:32:06.610   06 Jun 2027 03:32:16.384             9.774          4887.000
       157   06 Jun 2027 05:02:12.488   06 Jun 2027 05:02:28.068            15.580          7790.000
       158   06 Jun 2027 05:03:19.889   06 Jun 2027 05:03:46.374            26.485         13242.500
       159   06 Jun 2027 05:06:01.264   06 Jun 2027 05:06:06.704             5.440          2720.000
       160   06 Jun 2027 05:07:42.372   06 Jun 2027 05:08:02.053            19.681          9840.500
       161   06 Jun 2027 06:40:09.621   06 Jun 2027 06:40:12.532             2.911          1455.500
       162   06 Jun 2027 06:40:50.614   06 Jun 2027 06:41:07.344            16.730          8365.000
       163   06 Jun 2027 06:42:24.019   06 Jun 2027 06:42:26.084             2.065          1032.500
       164   06 Jun 2027 06:42:43.689   06 Jun 2027 06:42:56.978            13.289          6644.500
       165   06 Jun 2027 06:43:45.923   06 Jun 2027 06:43:48.338             2.415          1207.500
       166   06 Jun 2027 08:13:45.704   06 Jun 2027 08:14:07.216            21.512         10756.000
       167   06 Jun 2027 08:15:06.452   06 Jun 2027 08:15:15.090             8.638          4319.000
       168   06 Jun 2027 08:16:43.055   06 Jun 2027 08:17:35.396            52.341         26170.500
       169   07 Jun 2027 03:37:18.840   07 Jun 2027 03:37:24.122             5.282          2641.000
       170   07 Jun 2027 03:37:48.975   07 Jun 2027 03:37:50.160             1.185           592.500
       171   07 Jun 2027 03:38:19.147   07 Jun 2027 03:38:22.451             3.304          1652.000
       172   07 Jun 2027 03:38:55.373   07 Jun 2027 03:38:57.270             1.897           948.500
       173   07 Jun 2027 03:40:07.695   07 Jun 2027 03:40:15.474             7.779          3889.500
       174   07 Jun 2027 03:41:03.586   07 Jun 2027 03:41:10.984             7.398          3699.000
       175   07 Jun 2027 03:42:18.851   07 Jun 2027 03:42:26.494             7.643          3821.500
       176   07 Jun 2027 03:42:45.857   07 Jun 2027 03:42:45.857             0.000             0.000
       177   07 Jun 2027 03:43:12.083   07 Jun 2027 03:43:15.011             2.928          1464.000
       178   07 Jun 2027 03:43:20.616   07 Jun 2027 03:43:20.799             0.183            91.500
       179   07 Jun 2027 03:43:33.810   07 Jun 2027 03:43:34.986             1.176           588.000
       180   07 Jun 2027 03:43:47.111   07 Jun 2027 03:43:54.996             7.885          3942.500
       181   07 Jun 2027 03:44:31.844   07 Jun 2027 03:44:44.328            12.484          6242.000
       182   07 Jun 2027 05:14:03.240   07 Jun 2027 05:14:05.322             2.082          1041.000
       183   07 Jun 2027 05:14:23.301   07 Jun 2027 05:14:30.842             7.541          3770.500
       184   07 Jun 2027 05:14:56.324   07 Jun 2027 05:15:04.139             7.815          3907.500
       185   07 Jun 2027 05:15:55.610   07 Jun 2027 05:16:05.269             9.659          4829.500
       186   07 Jun 2027 05:16:17.060   07 Jun 2027 05:16:18.091             1.031           515.500
       187   07 Jun 2027 05:17:37.597   07 Jun 2027 05:17:40.530             2.933          1466.500
       188   07 Jun 2027 05:18:03.800   07 Jun 2027 05:18:16.519            12.719          6359.500
       189   07 Jun 2027 05:19:06.961   07 Jun 2027 05:19:09.317             2.356          1178.000
       190   07 Jun 2027 05:19:20.614   07 Jun 2027 05:19:21.327             0.713           356.500
       191   07 Jun 2027 05:19:41.400   07 Jun 2027 05:19:41.473             0.073            36.500
       192   07 Jun 2027 05:19:42.637   07 Jun 2027 05:19:42.665             0.028            14.000
       193   07 Jun 2027 05:20:28.130   07 Jun 2027 05:20:31.429             3.299          1649.500
       194   07 Jun 2027 06:52:11.681   07 Jun 2027 06:52:14.392             2.711          1355.500
       195   07 Jun 2027 06:52:41.091   07 Jun 2027 06:52:51.789            10.698          5349.000
       196   07 Jun 2027 06:53:37.823   07 Jun 2027 06:53:39.002             1.179           589.500
       197   07 Jun 2027 06:53:49.231   07 Jun 2027 06:53:50.849             1.618           809.000
       198   07 Jun 2027 06:54:29.284   07 Jun 2027 06:54:29.619             0.335           167.500
       199   07 Jun 2027 06:55:06.207   07 Jun 2027 06:55:20.461            14.254          7127.000
       200   07 Jun 2027 08:26:02.199   07 Jun 2027 08:26:12.223            10.024          5012.000
       201   07 Jun 2027 08:26:20.045   07 Jun 2027 08:26:20.980             0.935           467.500
       202   07 Jun 2027 08:27:06.572   07 Jun 2027 08:27:09.359             2.787          1393.500
       203   07 Jun 2027 08:27:30.536   07 Jun 2027 08:27:33.582             3.046          1523.000
       204   07 Jun 2027 08:28:00.652   07 Jun 2027 08:28:02.436             1.784           892.000
       205   07 Jun 2027 08:28:34.690   07 Jun 2027 08:28:35.453             0.763           381.500
       206   07 Jun 2027 08:29:31.637   07 Jun 2027 08:29:41.425             9.788          4894.000
       207   07 Jun 2027 08:30:26.824   07 Jun 2027 08:30:30.791             3.967          1983.500
       208   07 Jun 2027 08:30:55.843   07 Jun 2027 08:30:59.557             3.714          1857.000
       209   07 Jun 2027 08:31:14.418   07 Jun 2027 08:31:20.231             5.813          2906.500
       210   07 Jun 2027 08:31:48.534   07 Jun 2027 08:31:58.419             9.885          4942.500
       211   08 Jun 2027 03:49:25.280   08 Jun 2027 03:49:25.621             0.341           170.500
       212   08 Jun 2027 03:49:36.308   08 Jun 2027 03:49:38.174             1.866           933.000
       213   08 Jun 2027 03:50:28.239   08 Jun 2027 03:50:41.311            13.072          6536.000
       214   08 Jun 2027 03:51:06.929   08 Jun 2027 03:51:08.439             1.510           755.000
       215   08 Jun 2027 03:52:03.819   08 Jun 2027 03:52:06.885             3.066          1533.000
       216   08 Jun 2027 03:52:20.244   08 Jun 2027 03:52:20.462             0.218           109.000
       217   08 Jun 2027 03:52:39.982   08 Jun 2027 03:52:57.801            17.819          8909.500
       218   08 Jun 2027 03:54:28.468   08 Jun 2027 03:54:35.392             6.924          3462.000
       219   08 Jun 2027 03:55:16.315   08 Jun 2027 03:55:17.302             0.987           493.500
       220   08 Jun 2027 03:55:25.383   08 Jun 2027 03:55:32.345             6.962          3481.000
       221   08 Jun 2027 03:56:03.262   08 Jun 2027 03:56:08.989             5.727          2863.500
       222   08 Jun 2027 05:26:28.226   08 Jun 2027 05:26:34.222             5.996          2998.000
       223   08 Jun 2027 05:27:06.407   08 Jun 2027 05:27:08.177             1.770           885.000
       224   08 Jun 2027 05:27:54.368   08 Jun 2027 05:27:55.400             1.032           516.000
       225   08 Jun 2027 05:28:11.282   08 Jun 2027 05:28:13.871             2.589          1294.500
       226   08 Jun 2027 05:28:18.028   08 Jun 2027 05:28:19.964             1.936           968.000
       227   08 Jun 2027 05:29:24.061   08 Jun 2027 05:29:27.901             3.840          1920.000
       228   08 Jun 2027 05:29:44.182   08 Jun 2027 05:29:46.540             2.358          1179.000
       229   08 Jun 2027 05:30:58.991   08 Jun 2027 05:31:03.114             4.123          2061.500
       230   08 Jun 2027 05:31:42.939   08 Jun 2027 05:31:44.355             1.416           708.000
       231   08 Jun 2027 05:32:01.836   08 Jun 2027 05:32:06.029             4.193          2096.500
       232   08 Jun 2027 05:32:29.926   08 Jun 2027 05:32:35.045             5.119          2559.500
       233   08 Jun 2027 07:03:26.100   08 Jun 2027 07:03:40.030            13.930          6965.000
       234   08 Jun 2027 07:04:00.150   08 Jun 2027 07:04:00.150             0.000             0.000
       235   08 Jun 2027 07:05:02.093   08 Jun 2027 07:05:05.290             3.197          1598.500
       236   08 Jun 2027 07:05:28.624   08 Jun 2027 07:05:42.476            13.852          6926.000
       237   08 Jun 2027 07:06:41.365   08 Jun 2027 07:06:47.541             6.176          3088.000
       238   08 Jun 2027 07:07:42.274   08 Jun 2027 07:07:45.852             3.578          1789.000
       239   08 Jun 2027 07:08:15.858   08 Jun 2027 07:08:17.646             1.788           894.000
       240   08 Jun 2027 08:38:29.044   08 Jun 2027 08:38:32.753             3.709          1854.500
       241   08 Jun 2027 08:40:09.042   08 Jun 2027 08:40:16.049             7.007          3503.500
       242   08 Jun 2027 08:40:46.091   08 Jun 2027 08:41:26.632            40.541         20270.500
       243   09 Jun 2027 04:01:51.515   09 Jun 2027 04:02:00.634             9.119          4559.500
       244   09 Jun 2027 04:03:28.214   09 Jun 2027 04:03:40.069            11.855          5927.500
       245   09 Jun 2027 04:04:31.722   09 Jun 2027 04:04:37.753             6.031          3015.500
       246   09 Jun 2027 04:04:44.668   09 Jun 2027 04:04:47.731             3.063          1531.500
       247   09 Jun 2027 04:05:36.194   09 Jun 2027 04:05:43.600             7.406          3703.000
       248   09 Jun 2027 04:06:14.041   09 Jun 2027 04:06:15.945             1.904           952.000
       249   09 Jun 2027 04:06:34.899   09 Jun 2027 04:06:36.381             1.482           741.000
       250   09 Jun 2027 04:07:05.551   09 Jun 2027 04:07:09.772             4.221          2110.500
       251   09 Jun 2027 04:07:31.000   09 Jun 2027 04:07:34.563             3.563          1781.500
       252   09 Jun 2027 04:08:32.875   09 Jun 2027 04:08:33.270             0.395           197.500
       253   09 Jun 2027 05:38:48.357   09 Jun 2027 05:38:51.959             3.602          1801.000
       254   09 Jun 2027 05:39:18.227   09 Jun 2027 05:39:31.460            13.233          6616.500
       255   09 Jun 2027 05:40:25.048   09 Jun 2027 05:40:33.626             8.578          4289.000
       256   09 Jun 2027 05:41:11.339   09 Jun 2027 05:41:25.178            13.839          6919.500
       257   09 Jun 2027 05:42:27.729   09 Jun 2027 05:42:28.084             0.355           177.500
       258   09 Jun 2027 05:42:55.828   09 Jun 2027 05:43:03.293             7.465          3732.500
       259   09 Jun 2027 05:43:41.556   09 Jun 2027 05:43:43.872             2.316          1158.000
       260   09 Jun 2027 05:43:47.204   09 Jun 2027 05:43:49.923             2.719          1359.500
       261   09 Jun 2027 05:44:12.395   09 Jun 2027 05:44:17.772             5.377          2688.500
       262   09 Jun 2027 07:15:38.849   09 Jun 2027 07:15:54.161            15.312          7656.000
       263   09 Jun 2027 07:16:56.640   09 Jun 2027 07:17:08.510            11.870          5935.000
       264   09 Jun 2027 07:18:39.214   09 Jun 2027 07:18:47.799             8.585          4292.500
       265   09 Jun 2027 07:18:56.347   09 Jun 2027 07:19:06.356            10.009          5004.500
       266   09 Jun 2027 08:53:19.397   09 Jun 2027 08:53:20.458             1.061           530.500
       267   09 Jun 2027 08:53:44.670   09 Jun 2027 08:53:56.340            11.670          5835.000
       268   09 Jun 2027 08:54:43.387   09 Jun 2027 08:54:43.720             0.333           166.500
       269   10 Jun 2027 04:13:58.937   10 Jun 2027 04:14:19.786            20.849         10424.500
       270   10 Jun 2027 04:15:37.015   10 Jun 2027 04:15:47.634            10.619          5309.500
       271   10 Jun 2027 04:16:21.603   10 Jun 2027 04:16:27.467             5.864          2932.000
       272   10 Jun 2027 04:17:16.170   10 Jun 2027 04:17:18.276             2.106          1053.000
       273   10 Jun 2027 04:17:38.994   10 Jun 2027 04:17:48.287             9.293          4646.500
       274   10 Jun 2027 04:19:08.468   10 Jun 2027 04:19:10.462             1.994           997.000
       275   10 Jun 2027 04:19:34.074   10 Jun 2027 04:19:37.294             3.220          1610.000
       276   10 Jun 2027 04:20:23.034   10 Jun 2027 04:20:27.167             4.133          2066.500
       277   10 Jun 2027 05:51:43.090   10 Jun 2027 05:51:47.367             4.277          2138.500
       278   10 Jun 2027 05:52:27.382   10 Jun 2027 05:52:28.646             1.264           632.000
       279   10 Jun 2027 05:52:52.387   10 Jun 2027 05:52:56.891             4.504          2252.000
       280   10 Jun 2027 05:53:44.231   10 Jun 2027 05:53:48.524             4.293          2146.500
       281   10 Jun 2027 05:54:06.459   10 Jun 2027 05:54:09.130             2.671          1335.500
       282   10 Jun 2027 05:55:06.452   10 Jun 2027 05:55:09.800             3.348          1674.000
       283   10 Jun 2027 05:55:49.491   10 Jun 2027 05:55:55.225             5.734          2867.000
       284   10 Jun 2027 07:27:48.921   10 Jun 2027 07:27:55.668             6.747          3373.500
       285   10 Jun 2027 07:28:29.573   10 Jun 2027 07:28:33.407             3.834          1917.000
       286   10 Jun 2027 07:29:11.636   10 Jun 2027 07:29:12.073             0.437           218.500
       287   10 Jun 2027 07:30:03.304   10 Jun 2027 07:30:06.636             3.332          1666.000
       288   10 Jun 2027 07:30:22.406   10 Jun 2027 07:30:28.756             6.350          3175.000
       289   10 Jun 2027 07:31:01.541   10 Jun 2027 07:31:09.255             7.714          3857.000
       290   10 Jun 2027 07:31:44.209   10 Jun 2027 07:31:48.098             3.889          1944.500
       291   10 Jun 2027 07:32:05.092   10 Jun 2027 07:32:09.374             4.282          2141.000
       292   11 Jun 2027 04:26:32.536   11 Jun 2027 04:26:44.125            11.589          5794.500
       293   11 Jun 2027 04:27:54.295   11 Jun 2027 04:27:54.865             0.570           285.000
       294   11 Jun 2027 04:27:57.432   11 Jun 2027 04:28:04.740             7.308          3654.000
       295   11 Jun 2027 04:29:14.793   11 Jun 2027 04:29:23.947             9.154          4577.000
       296   11 Jun 2027 04:30:44.204   11 Jun 2027 04:30:54.723            10.519          5259.500
       297   11 Jun 2027 04:31:37.517   11 Jun 2027 04:31:43.186             5.669          2834.500
       298   11 Jun 2027 06:03:48.965   11 Jun 2027 06:03:54.337             5.372          2686.000
       299   11 Jun 2027 06:04:46.784   11 Jun 2027 06:04:51.171             4.387          2193.500
       300   11 Jun 2027 06:05:19.223   11 Jun 2027 06:05:36.318            17.095          8547.500
       301   11 Jun 2027 06:06:27.868   11 Jun 2027 06:06:31.598             3.730          1865.000
       302   11 Jun 2027 06:07:36.771   11 Jun 2027 06:07:45.438             8.667          4333.500
       303   11 Jun 2027 07:40:02.659   11 Jun 2027 07:40:17.450            14.791          7395.500
       304   11 Jun 2027 07:42:03.263   11 Jun 2027 07:42:11.263             8.000          4000.000
       305   11 Jun 2027 07:42:54.371   11 Jun 2027 07:42:58.822             4.451          2225.500
       306   11 Jun 2027 07:43:13.464   11 Jun 2027 07:43:13.828             0.364           182.000
       307   11 Jun 2027 07:43:20.555   11 Jun 2027 07:43:40.054            19.499          9749.500
       308   11 Jun 2027 07:44:31.354   11 Jun 2027 07:44:31.617             0.263           131.500
       309   12 Jun 2027 03:01:47.120   12 Jun 2027 03:01:49.634             2.514          1257.000
       310   12 Jun 2027 03:02:06.901   12 Jun 2027 03:02:18.534            11.633          5816.500
       311   12 Jun 2027 03:03:15.660   12 Jun 2027 03:03:27.164            11.504          5752.000
       312   12 Jun 2027 03:04:24.817   12 Jun 2027 03:04:28.626             3.809          1904.500
       313   12 Jun 2027 03:04:47.267   12 Jun 2027 03:04:47.413             0.146            73.000
       314   12 Jun 2027 03:05:04.277   12 Jun 2027 03:05:17.267            12.990          6495.000
       315   12 Jun 2027 03:06:09.391   12 Jun 2027 03:06:10.789             1.398           699.000
       316   12 Jun 2027 03:06:23.046   12 Jun 2027 03:06:29.584             6.538          3269.000
       317   12 Jun 2027 03:07:25.563   12 Jun 2027 03:07:26.494             0.931           465.500
       318   12 Jun 2027 03:07:43.834   12 Jun 2027 03:07:52.812             8.978          4489.000
       319   12 Jun 2027 03:08:23.277   12 Jun 2027 03:08:27.269             3.992          1996.000
       320   12 Jun 2027 03:08:49.615   12 Jun 2027 03:08:53.717             4.102          2051.000
       321   12 Jun 2027 04:38:06.368   12 Jun 2027 04:38:18.298            11.930          5965.000
       322   12 Jun 2027 04:39:15.205   12 Jun 2027 04:39:25.584            10.379          5189.500
       323   12 Jun 2027 04:39:49.402   12 Jun 2027 04:40:08.929            19.527          9763.500
       324   12 Jun 2027 04:41:50.996   12 Jun 2027 04:41:55.760             4.764          2382.000
       325   12 Jun 2027 04:42:51.887   12 Jun 2027 04:42:52.390             0.503           251.500
       326   12 Jun 2027 04:42:55.168   12 Jun 2027 04:42:58.499             3.331          1665.500
       327   12 Jun 2027 04:43:25.059   12 Jun 2027 04:43:25.204             0.145            72.500
       328   12 Jun 2027 04:44:10.119   12 Jun 2027 04:44:27.091            16.972          8486.000
       329   12 Jun 2027 06:16:21.721   12 Jun 2027 06:16:29.630             7.909          3954.500
       330   12 Jun 2027 06:17:16.118   12 Jun 2027 06:17:18.446             2.328          1164.000
       331   12 Jun 2027 06:17:47.258   12 Jun 2027 06:17:48.746             1.488           744.000
       332   12 Jun 2027 06:18:07.693   12 Jun 2027 06:18:14.907             7.214          3607.000
       333   12 Jun 2027 06:18:46.278   12 Jun 2027 06:18:55.880             9.602          4801.000
       334   12 Jun 2027 06:19:21.263   12 Jun 2027 06:19:21.666             0.403           201.500
       335   12 Jun 2027 07:51:42.286   12 Jun 2027 07:51:46.895             4.609          2304.500
       336   12 Jun 2027 07:52:23.577   12 Jun 2027 07:52:26.643             3.066          1533.000
       337   12 Jun 2027 07:52:51.143   12 Jun 2027 07:52:51.851             0.708           354.000
       338   12 Jun 2027 07:52:55.698   12 Jun 2027 07:52:57.183             1.485           742.500
       339   12 Jun 2027 07:53:56.451   12 Jun 2027 07:53:56.795             0.344           172.000
       340   12 Jun 2027 07:54:10.365   12 Jun 2027 07:54:17.484             7.119          3559.500
       341   12 Jun 2027 07:55:36.269   12 Jun 2027 07:55:40.050             3.781          1890.500
       342   12 Jun 2027 07:56:15.385   12 Jun 2027 07:56:18.309             2.924          1462.000
       343   12 Jun 2027 07:56:30.165   12 Jun 2027 07:56:44.350            14.185          7092.500
       344   13 Jun 2027 03:13:20.434   13 Jun 2027 03:13:27.366             6.932          3466.000
       345   13 Jun 2027 03:13:36.273   13 Jun 2027 03:13:40.521             4.248          2124.000
       346   13 Jun 2027 03:14:00.799   13 Jun 2027 03:14:08.162             7.363          3681.500
       347   13 Jun 2027 03:15:01.961   13 Jun 2027 03:15:08.400             6.439          3219.500
       348   13 Jun 2027 03:16:03.657   13 Jun 2027 03:16:08.075             4.418          2209.000
       349   13 Jun 2027 03:16:34.424   13 Jun 2027 03:16:35.850             1.426           713.000
       350   13 Jun 2027 03:17:43.532   13 Jun 2027 03:17:50.033             6.501          3250.500
       351   13 Jun 2027 03:18:26.994   13 Jun 2027 03:18:38.773            11.779          5889.500
       352   13 Jun 2027 03:19:29.477   13 Jun 2027 03:19:35.415             5.938          2969.000
       353   13 Jun 2027 03:20:27.024   13 Jun 2027 03:20:32.281             5.257          2628.500
       354   13 Jun 2027 04:50:26.126   13 Jun 2027 04:50:40.908            14.782          7391.000
       355   13 Jun 2027 04:51:41.963   13 Jun 2027 04:51:46.347             4.384          2192.000
       356   13 Jun 2027 04:52:10.280   13 Jun 2027 04:52:11.577             1.297           648.500
       357   13 Jun 2027 04:52:17.320   13 Jun 2027 04:52:22.741             5.421          2710.500
       358   13 Jun 2027 04:53:42.520   13 Jun 2027 04:53:44.190             1.670           835.000
       359   13 Jun 2027 04:53:51.319   13 Jun 2027 04:53:52.438             1.119           559.500
       360   13 Jun 2027 04:53:59.494   13 Jun 2027 04:54:04.445             4.951          2475.500
       361   13 Jun 2027 04:56:20.235   13 Jun 2027 04:56:22.823             2.588          1294.000
       362   13 Jun 2027 04:56:42.573   13 Jun 2027 04:56:48.358             5.785          2892.500
       363   13 Jun 2027 06:28:24.438   13 Jun 2027 06:28:25.386             0.948           474.000
       364   13 Jun 2027 06:29:04.288   13 Jun 2027 06:29:04.919             0.631           315.500
       365   13 Jun 2027 06:29:54.410   13 Jun 2027 06:30:04.956            10.546          5273.000
       366   13 Jun 2027 06:30:50.202   13 Jun 2027 06:31:02.352            12.150          6075.000
       367   13 Jun 2027 06:32:01.027   13 Jun 2027 06:32:01.620             0.593           296.500
       368   13 Jun 2027 06:32:07.138   13 Jun 2027 06:32:19.164            12.026          6013.000
       369   13 Jun 2027 08:01:33.226   13 Jun 2027 08:01:44.022            10.796          5398.000
       370   13 Jun 2027 08:02:16.375   13 Jun 2027 08:02:23.218             6.843          3421.500
       371   13 Jun 2027 08:03:07.337   13 Jun 2027 08:03:18.798            11.461          5730.500
       372   13 Jun 2027 08:04:10.098   13 Jun 2027 08:04:22.981            12.883          6441.500
       373   13 Jun 2027 08:05:53.404   13 Jun 2027 08:05:55.490             2.086          1043.000
       374   13 Jun 2027 08:06:52.563   13 Jun 2027 08:06:54.210             1.647           823.500
       375   13 Jun 2027 08:07:05.976   13 Jun 2027 08:07:06.446             0.470           235.000
       376   13 Jun 2027 08:07:22.149   13 Jun 2027 08:07:26.895             4.746          2373.000
       377   13 Jun 2027 08:08:02.300   13 Jun 2027 08:08:18.494            16.194          8097.000
       378   13 Jun 2027 08:09:28.096   13 Jun 2027 08:09:29.005             0.909           454.500
