uniorb/output/strategy_2/Camera/Camera_KinoSat_110107.txt

KinoSat_110107
-------------------------
    Access    *     Start Time (UTCG)     *     Stop Time (UTCG)  *   Duration (s) *   Data (Mbytes)
         1   01 Jun 2027 03:47:48.833   01 Jun 2027 03:47:54.825             5.992          2996.000
         2   01 Jun 2027 03:48:42.361   01 Jun 2027 03:48:50.666             8.305          4152.500
         3   01 Jun 2027 03:49:46.763   01 Jun 2027 03:49:58.094            11.331          5665.500
         4   01 Jun 2027 03:50:15.389   01 Jun 2027 03:50:24.071             8.682          4341.000
         5   01 Jun 2027 03:51:28.686   01 Jun 2027 03:51:38.001             9.315          4657.500
         6   01 Jun 2027 03:52:38.018   01 Jun 2027 03:52:53.900            15.882          7941.000
         7   01 Jun 2027 03:53:21.835   01 Jun 2027 03:53:25.628             3.793          1896.500
         8   01 Jun 2027 05:25:20.519   01 Jun 2027 05:25:22.234             1.715           857.500
         9   01 Jun 2027 05:25:42.539   01 Jun 2027 05:25:45.605             3.066          1533.000
        10   01 Jun 2027 05:26:44.663   01 Jun 2027 05:26:50.903             6.240          3120.000
        11   01 Jun 2027 05:27:29.187   01 Jun 2027 05:27:30.495             1.308           654.000
        12   01 Jun 2027 05:28:53.154   01 Jun 2027 05:29:05.790            12.636          6318.000
        13   01 Jun 2027 05:29:44.153   01 Jun 2027 05:29:44.935             0.782           391.000
        14   01 Jun 2027 07:01:21.322   01 Jun 2027 07:01:25.816             4.494          2247.000
        15   01 Jun 2027 07:02:10.590   01 Jun 2027 07:02:13.478             2.888          1444.000
        16   01 Jun 2027 07:02:40.684   01 Jun 2027 07:02:46.881             6.197          3098.500
        17   01 Jun 2027 07:03:22.530   01 Jun 2027 07:03:34.756            12.226          6113.000
        18   01 Jun 2027 07:04:54.976   01 Jun 2027 07:04:56.963             1.987           993.500
        19   01 Jun 2027 07:05:47.260   01 Jun 2027 07:05:49.148             1.888           944.000
        20   01 Jun 2027 07:06:08.331   01 Jun 2027 07:06:11.455             3.124          1562.000
        21   02 Jun 2027 03:59:32.258   02 Jun 2027 03:59:39.140             6.882          3441.000
        22   02 Jun 2027 04:00:33.692   02 Jun 2027 04:00:43.337             9.645          4822.500
        23   02 Jun 2027 04:01:38.428   02 Jun 2027 04:01:40.337             1.909           954.500
        24   02 Jun 2027 04:02:05.981   02 Jun 2027 04:02:13.874             7.893          3946.500
        25   02 Jun 2027 04:03:03.310   02 Jun 2027 04:03:09.786             6.476          3238.000
        26   02 Jun 2027 04:03:50.069   02 Jun 2027 04:03:56.643             6.574          3287.000
        27   02 Jun 2027 04:04:27.201   02 Jun 2027 04:04:39.937            12.736          6368.000
        28   02 Jun 2027 04:05:37.133   02 Jun 2027 04:05:41.562             4.429          2214.500
        29   02 Jun 2027 04:05:48.878   02 Jun 2027 04:05:52.003             3.125          1562.500
        30   02 Jun 2027 05:37:49.475   02 Jun 2027 05:37:59.926            10.451          5225.500
        31   02 Jun 2027 05:38:22.804   02 Jun 2027 05:38:33.463            10.659          5329.500
        32   02 Jun 2027 05:38:50.070   02 Jun 2027 05:38:53.081             3.011          1505.500
        33   02 Jun 2027 05:39:50.512   02 Jun 2027 05:39:56.326             5.814          2907.000
        34   02 Jun 2027 05:40:40.015   02 Jun 2027 05:40:41.697             1.682           841.000
        35   02 Jun 2027 05:41:07.845   02 Jun 2027 05:41:15.898             8.053          4026.500
        36   02 Jun 2027 07:13:10.591   02 Jun 2027 07:13:12.944             2.353          1176.500
        37   02 Jun 2027 07:14:00.246   02 Jun 2027 07:14:05.936             5.690          2845.000
        38   02 Jun 2027 07:15:02.385   02 Jun 2027 07:15:11.084             8.699          4349.500
        39   02 Jun 2027 07:15:47.119   02 Jun 2027 07:15:59.499            12.380          6190.000
        40   02 Jun 2027 07:16:57.645   02 Jun 2027 07:16:59.783             2.138          1069.000
        41   02 Jun 2027 07:17:39.376   02 Jun 2027 07:17:40.899             1.523           761.500
        42   02 Jun 2027 07:18:06.590   02 Jun 2027 07:18:10.706             4.116          2058.000
        43   03 Jun 2027 04:11:52.716   03 Jun 2027 04:11:55.125             2.409          1204.500
        44   03 Jun 2027 04:13:10.320   03 Jun 2027 04:13:10.845             0.525           262.500
        45   03 Jun 2027 04:13:35.388   03 Jun 2027 04:13:40.496             5.108          2554.000
        46   03 Jun 2027 04:14:50.947   03 Jun 2027 04:14:54.668             3.721          1860.500
        47   03 Jun 2027 04:15:13.326   03 Jun 2027 04:15:24.579            11.253          5626.500
        48   03 Jun 2027 04:16:38.901   03 Jun 2027 04:16:41.920             3.019          1509.500
        49   03 Jun 2027 04:17:04.095   03 Jun 2027 04:17:11.827             7.732          3866.000
        50   03 Jun 2027 04:17:51.490   03 Jun 2027 04:17:57.270             5.780          2890.000
        51   03 Jun 2027 05:49:47.301   03 Jun 2027 05:49:51.989             4.688          2344.000
        52   03 Jun 2027 05:50:31.608   03 Jun 2027 05:50:43.926            12.318          6159.000
        53   03 Jun 2027 05:51:16.957   03 Jun 2027 05:51:19.167             2.210          1105.000
        54   03 Jun 2027 05:51:55.573   03 Jun 2027 05:52:08.207            12.634          6317.000
        55   03 Jun 2027 05:52:38.020   03 Jun 2027 05:52:39.890             1.870           935.000
        56   03 Jun 2027 05:53:06.621   03 Jun 2027 05:53:06.621             0.000             0.000
        57   03 Jun 2027 05:53:30.511   03 Jun 2027 05:53:43.090            12.579          6289.500
        58   03 Jun 2027 07:22:53.462   03 Jun 2027 07:23:04.867            11.405          5702.500
        59   03 Jun 2027 07:23:14.873   03 Jun 2027 07:23:26.361            11.488          5744.000
        60   03 Jun 2027 07:24:48.631   03 Jun 2027 07:24:52.689             4.058          2029.000
        61   03 Jun 2027 07:25:19.607   03 Jun 2027 07:25:20.985             1.378           689.000
        62   03 Jun 2027 07:25:51.478   03 Jun 2027 07:26:00.888             9.410          4705.000
        63   03 Jun 2027 07:26:55.853   03 Jun 2027 07:26:59.118             3.265          1632.500
        64   03 Jun 2027 07:27:41.152   03 Jun 2027 07:27:55.376            14.224          7112.000
        65   03 Jun 2027 07:29:55.081   03 Jun 2027 07:29:55.256             0.175            87.500
        66   03 Jun 2027 07:30:03.506   03 Jun 2027 07:30:03.534             0.028            14.000
        67   03 Jun 2027 07:30:14.515   03 Jun 2027 07:30:19.426             4.911          2455.500
        68   03 Jun 2027 07:30:31.208   03 Jun 2027 07:30:38.192             6.984          3492.000
        69   04 Jun 2027 04:23:47.597   04 Jun 2027 04:23:49.326             1.729           864.500
        70   04 Jun 2027 04:24:18.052   04 Jun 2027 04:24:44.379            26.327         13163.500
        71   04 Jun 2027 04:26:36.865   04 Jun 2027 04:26:38.873             2.008          1004.000
        72   04 Jun 2027 04:26:54.742   04 Jun 2027 04:26:59.019             4.277          2138.500
        73   04 Jun 2027 04:27:41.358   04 Jun 2027 04:27:41.455             0.097            48.500
        74   04 Jun 2027 04:27:41.958   04 Jun 2027 04:27:49.970             8.012          4006.000
        75   04 Jun 2027 04:29:00.702   04 Jun 2027 04:29:17.557            16.855          8427.500
        76   04 Jun 2027 06:01:47.343   04 Jun 2027 06:01:53.448             6.105          3052.500
        77   04 Jun 2027 06:02:19.624   04 Jun 2027 06:02:21.190             1.566           783.000
        78   04 Jun 2027 06:02:33.121   04 Jun 2027 06:02:34.492             1.371           685.500
        79   04 Jun 2027 06:02:53.731   04 Jun 2027 06:02:57.428             3.697          1848.500
        80   04 Jun 2027 06:03:24.757   04 Jun 2027 06:03:25.878             1.121           560.500
        81   04 Jun 2027 06:03:58.484   04 Jun 2027 06:04:03.389             4.905          2452.500
        82   04 Jun 2027 06:04:34.925   04 Jun 2027 06:04:41.152             6.227          3113.500
        83   04 Jun 2027 06:05:23.489   04 Jun 2027 06:05:27.334             3.845          1922.500
        84   04 Jun 2027 06:05:50.757   04 Jun 2027 06:05:53.846             3.089          1544.500
        85   04 Jun 2027 07:35:23.667   04 Jun 2027 07:35:31.928             8.261          4130.500
        86   04 Jun 2027 07:36:50.073   04 Jun 2027 07:36:54.151             4.078          2039.000
        87   04 Jun 2027 07:37:12.728   04 Jun 2027 07:37:39.667            26.939         13469.500
        88   04 Jun 2027 07:39:43.007   04 Jun 2027 07:39:48.286             5.279          2639.500
        89   04 Jun 2027 07:40:11.806   04 Jun 2027 07:40:15.545             3.739          1869.500
        90   04 Jun 2027 07:40:52.994   04 Jun 2027 07:40:55.300             2.306          1153.000
        91   04 Jun 2027 07:41:08.563   04 Jun 2027 07:41:26.654            18.091          9045.500
        92   04 Jun 2027 07:42:40.459   04 Jun 2027 07:42:48.017             7.558          3779.000
        93   05 Jun 2027 03:00:00.000   05 Jun 2027 03:00:18.746            18.746          9373.000
        94   05 Jun 2027 03:00:20.012   05 Jun 2027 03:00:21.028             1.016           508.000
        95   05 Jun 2027 03:01:39.027   05 Jun 2027 03:01:47.552             8.525          4262.500
        96   05 Jun 2027 03:02:33.773   05 Jun 2027 03:02:33.976             0.203           101.500
        97   05 Jun 2027 03:02:49.026   05 Jun 2027 03:02:54.661             5.635          2817.500
        98   05 Jun 2027 03:03:30.677   05 Jun 2027 03:03:34.681             4.004          2002.000
        99   05 Jun 2027 03:04:06.105   05 Jun 2027 03:04:15.482             9.377          4688.500
       100   05 Jun 2027 03:05:35.416   05 Jun 2027 03:05:49.201            13.785          6892.500
       101   05 Jun 2027 04:35:44.341   05 Jun 2027 04:35:53.823             9.482          4741.000
       102   05 Jun 2027 04:36:57.767   05 Jun 2027 04:37:12.321            14.554          7277.000
       103   05 Jun 2027 04:38:15.746   05 Jun 2027 04:38:19.123             3.377          1688.500
       104   05 Jun 2027 04:38:46.213   05 Jun 2027 04:38:47.659             1.446           723.000
       105   05 Jun 2027 04:39:00.602   05 Jun 2027 04:39:02.320             1.718           859.000
       106   05 Jun 2027 04:40:13.117   05 Jun 2027 04:40:13.537             0.420           210.000
       107   05 Jun 2027 04:41:02.902   05 Jun 2027 04:41:06.648             3.746          1873.000
       108   05 Jun 2027 04:42:03.003   05 Jun 2027 04:42:22.935            19.932          9966.000
       109   05 Jun 2027 06:13:34.561   05 Jun 2027 06:13:49.068            14.507          7253.500
       110   05 Jun 2027 06:14:52.452   05 Jun 2027 06:14:59.550             7.098          3549.000
       111   05 Jun 2027 06:15:44.175   05 Jun 2027 06:15:59.689            15.514          7757.000
       112   05 Jun 2027 06:17:15.901   05 Jun 2027 06:17:20.609             4.708          2354.000
       113   05 Jun 2027 07:49:33.341   05 Jun 2027 07:49:33.425             0.084            42.000
       114   05 Jun 2027 07:49:56.744   05 Jun 2027 07:50:17.965            21.221         10610.500
       115   05 Jun 2027 07:51:55.842   05 Jun 2027 07:51:58.659             2.817          1408.500
       116   05 Jun 2027 07:52:22.041   05 Jun 2027 07:52:22.258             0.217           108.500
       117   05 Jun 2027 07:52:31.613   05 Jun 2027 07:52:34.907             3.294          1647.000
       118   05 Jun 2027 07:52:54.962   05 Jun 2027 07:53:04.448             9.486          4743.000
       119   05 Jun 2027 07:53:46.770   05 Jun 2027 07:53:50.623             3.853          1926.500
       120   06 Jun 2027 03:11:08.722   06 Jun 2027 03:11:24.367            15.645          7822.500
       121   06 Jun 2027 03:12:18.435   06 Jun 2027 03:12:29.408            10.973          5486.500
       122   06 Jun 2027 03:13:04.683   06 Jun 2027 03:13:04.683             0.000             0.000
       123   06 Jun 2027 03:13:39.784   06 Jun 2027 03:13:43.830             4.046          2023.000
       124   06 Jun 2027 03:13:47.994   06 Jun 2027 03:13:48.313             0.319           159.500
       125   06 Jun 2027 03:14:33.877   06 Jun 2027 03:14:35.583             1.706           853.000
       126   06 Jun 2027 03:14:46.277   06 Jun 2027 03:14:50.548             4.271          2135.500
       127   06 Jun 2027 03:15:19.081   06 Jun 2027 03:15:22.604             3.523          1761.500
       128   06 Jun 2027 03:15:38.476   06 Jun 2027 03:15:48.552            10.076          5038.000
       129   06 Jun 2027 03:15:55.587   06 Jun 2027 03:15:56.253             0.666           333.000
       130   06 Jun 2027 03:16:28.751   06 Jun 2027 03:16:35.830             7.079          3539.500
       131   06 Jun 2027 03:17:17.592   06 Jun 2027 03:17:23.594             6.002          3001.000
       132   06 Jun 2027 03:18:04.409   06 Jun 2027 03:18:08.426             4.017          2008.500
       133   06 Jun 2027 04:48:20.899   06 Jun 2027 04:49:00.916            40.017         20008.500
       134   06 Jun 2027 04:51:43.808   06 Jun 2027 04:51:47.970             4.162          2081.000
       135   06 Jun 2027 04:52:05.127   06 Jun 2027 04:52:15.687            10.560          5280.000
       136   06 Jun 2027 04:53:09.214   06 Jun 2027 04:53:13.592             4.378          2189.000
       137   06 Jun 2027 04:54:02.180   06 Jun 2027 04:54:03.586             1.406           703.000
       138   06 Jun 2027 06:25:03.848   06 Jun 2027 06:25:18.165            14.317          7158.500
       139   06 Jun 2027 06:26:17.651   06 Jun 2027 06:26:18.520             0.869           434.500
       140   06 Jun 2027 06:26:22.361   06 Jun 2027 06:26:30.900             8.539          4269.500
       141   06 Jun 2027 06:27:26.497   06 Jun 2027 06:27:35.944             9.447          4723.500
       142   06 Jun 2027 06:28:21.596   06 Jun 2027 06:28:25.504             3.908          1954.000
       143   06 Jun 2027 06:28:59.816   06 Jun 2027 06:29:02.114             2.298          1149.000
       144   06 Jun 2027 06:29:22.344   06 Jun 2027 06:29:32.126             9.782          4891.000
       145   06 Jun 2027 08:00:18.813   06 Jun 2027 08:00:22.211             3.398          1699.000
       146   06 Jun 2027 08:02:00.836   06 Jun 2027 08:02:04.321             3.485          1742.500
       147   06 Jun 2027 08:02:38.896   06 Jun 2027 08:02:54.394            15.498          7749.000
       148   06 Jun 2027 08:03:45.084   06 Jun 2027 08:03:45.084             0.000             0.000
       149   06 Jun 2027 08:03:56.742   06 Jun 2027 08:04:26.060            29.318         14659.000
       150   07 Jun 2027 03:23:29.494   07 Jun 2027 03:23:40.886            11.392          5696.000
       151   07 Jun 2027 03:24:52.213   07 Jun 2027 03:24:56.889             4.676          2338.000
       152   07 Jun 2027 03:25:37.185   07 Jun 2027 03:25:49.316            12.131          6065.500
       153   07 Jun 2027 03:26:45.244   07 Jun 2027 03:26:45.983             0.739           369.500
       154   07 Jun 2027 03:27:07.573   07 Jun 2027 03:27:09.785             2.212          1106.000
       155   07 Jun 2027 03:28:15.326   07 Jun 2027 03:28:16.844             1.518           759.000
       156   07 Jun 2027 03:28:20.540   07 Jun 2027 03:28:27.846             7.306          3653.000
       157   07 Jun 2027 03:29:11.602   07 Jun 2027 03:29:21.976            10.374          5187.000
       158   07 Jun 2027 03:30:12.061   07 Jun 2027 03:30:12.119             0.058            29.000
       159   07 Jun 2027 05:00:27.421   07 Jun 2027 05:00:49.726            22.305         11152.500
       160   07 Jun 2027 05:01:09.066   07 Jun 2027 05:01:09.756             0.690           345.000
       161   07 Jun 2027 05:02:07.080   07 Jun 2027 05:02:07.125             0.045            22.500
       162   07 Jun 2027 05:02:41.937   07 Jun 2027 05:02:46.128             4.191          2095.500
       163   07 Jun 2027 05:03:04.338   07 Jun 2027 05:03:07.710             3.372          1686.000
       164   07 Jun 2027 05:03:49.866   07 Jun 2027 05:03:54.422             4.556          2278.000
       165   07 Jun 2027 05:04:06.080   07 Jun 2027 05:04:14.251             8.171          4085.500
       166   07 Jun 2027 06:37:13.057   07 Jun 2027 06:37:21.852             8.795          4397.500
       167   07 Jun 2027 06:38:06.245   07 Jun 2027 06:38:24.803            18.558          9279.000
       168   07 Jun 2027 06:40:19.891   07 Jun 2027 06:40:20.089             0.198            99.000
       169   07 Jun 2027 06:40:25.009   07 Jun 2027 06:40:28.742             3.733          1866.500
       170   07 Jun 2027 06:40:40.753   07 Jun 2027 06:40:43.477             2.724          1362.000
       171   07 Jun 2027 06:40:50.864   07 Jun 2027 06:40:50.864             0.000             0.000
       172   07 Jun 2027 06:41:24.393   07 Jun 2027 06:41:25.699             1.306           653.000
       173   07 Jun 2027 08:15:24.679   07 Jun 2027 08:15:25.510             0.831           415.500
       174   08 Jun 2027 03:35:56.878   08 Jun 2027 03:35:58.207             1.329           664.500
       175   08 Jun 2027 03:36:16.900   08 Jun 2027 03:36:25.926             9.026          4513.000
       176   08 Jun 2027 03:37:16.862   08 Jun 2027 03:37:17.530             0.668           334.000
       177   08 Jun 2027 03:37:31.777   08 Jun 2027 03:37:35.564             3.787          1893.500
       178   08 Jun 2027 03:37:53.163   08 Jun 2027 03:37:55.605             2.442          1221.000
       179   08 Jun 2027 03:38:24.558   08 Jun 2027 03:38:32.959             8.401          4200.500
       180   08 Jun 2027 03:39:23.051   08 Jun 2027 03:39:24.461             1.410           705.000
       181   08 Jun 2027 03:40:04.185   08 Jun 2027 03:40:06.298             2.113          1056.500
       182   08 Jun 2027 03:40:21.893   08 Jun 2027 03:40:36.682            14.789          7394.500
       183   08 Jun 2027 03:41:51.774   08 Jun 2027 03:41:52.807             1.033           516.500
       184   08 Jun 2027 03:42:01.216   08 Jun 2027 03:42:07.845             6.629          3314.500
       185   08 Jun 2027 05:13:28.954   08 Jun 2027 05:13:29.986             1.032           516.000
       186   08 Jun 2027 05:14:09.325   08 Jun 2027 05:14:14.032             4.707          2353.500
       187   08 Jun 2027 05:14:40.706   08 Jun 2027 05:14:42.602             1.896           948.000
       188   08 Jun 2027 05:15:06.401   08 Jun 2027 05:15:08.973             2.572          1286.000
       189   08 Jun 2027 05:16:10.351   08 Jun 2027 05:16:14.546             4.195          2097.500
       190   08 Jun 2027 05:16:33.868   08 Jun 2027 05:16:49.000            15.132          7566.000
       191   08 Jun 2027 05:17:00.702   08 Jun 2027 05:17:05.775             5.073          2536.500
       192   08 Jun 2027 05:17:19.640   08 Jun 2027 05:17:24.044             4.404          2202.000
       193   08 Jun 2027 06:49:33.179   08 Jun 2027 06:49:42.359             9.180          4590.000
       194   08 Jun 2027 06:50:06.963   08 Jun 2027 06:50:27.892            20.929         10464.500
       195   08 Jun 2027 06:52:25.615   08 Jun 2027 06:52:27.609             1.994           997.000
       196   08 Jun 2027 06:52:42.857   08 Jun 2027 06:52:43.659             0.802           401.000
       197   08 Jun 2027 06:52:53.122   08 Jun 2027 06:52:57.176             4.054          2027.000
       198   08 Jun 2027 06:53:20.183   08 Jun 2027 06:53:22.196             2.013          1006.500
       199   08 Jun 2027 06:53:32.629   08 Jun 2027 06:53:47.249            14.620          7310.000
       200   09 Jun 2027 03:48:03.877   09 Jun 2027 03:48:15.959            12.082          6041.000
       201   09 Jun 2027 03:49:00.302   09 Jun 2027 03:49:06.509             6.207          3103.500
       202   09 Jun 2027 03:50:00.784   09 Jun 2027 03:50:13.587            12.803          6401.500
       203   09 Jun 2027 03:50:45.197   09 Jun 2027 03:50:49.590             4.393          2196.500
       204   09 Jun 2027 03:51:44.172   09 Jun 2027 03:51:52.499             8.327          4163.500
       205   09 Jun 2027 03:52:29.783   09 Jun 2027 03:52:33.969             4.186          2093.000
       206   09 Jun 2027 03:53:11.792   09 Jun 2027 03:53:15.092             3.300          1650.000
       207   09 Jun 2027 03:53:40.169   09 Jun 2027 03:53:50.890            10.721          5360.500
       208   09 Jun 2027 05:25:34.784   09 Jun 2027 05:25:38.494             3.710          1855.000
       209   09 Jun 2027 05:26:12.755   09 Jun 2027 05:26:21.431             8.676          4338.000
       210   09 Jun 2027 05:26:50.492   09 Jun 2027 05:26:59.274             8.782          4391.000
       211   09 Jun 2027 05:27:49.129   09 Jun 2027 05:27:49.585             0.456           228.000
       212   09 Jun 2027 05:28:14.609   09 Jun 2027 05:28:16.337             1.728           864.000
       213   09 Jun 2027 05:28:27.304   09 Jun 2027 05:28:39.307            12.003          6001.500
       214   09 Jun 2027 05:29:58.292   09 Jun 2027 05:30:03.341             5.049          2524.500
       215   09 Jun 2027 07:01:35.866   09 Jun 2027 07:01:40.860             4.994          2497.000
       216   09 Jun 2027 07:02:25.255   09 Jun 2027 07:02:31.499             6.244          3122.000
       217   09 Jun 2027 07:03:06.086   09 Jun 2027 07:03:06.994             0.908           454.000
       218   09 Jun 2027 07:03:28.625   09 Jun 2027 07:03:35.986             7.361          3680.500
       219   09 Jun 2027 07:04:26.452   09 Jun 2027 07:04:26.884             0.432           216.000
       220   09 Jun 2027 07:04:32.556   09 Jun 2027 07:04:34.820             2.264          1132.000
       221   09 Jun 2027 07:04:55.343   09 Jun 2027 07:04:58.684             3.341          1670.500
       222   09 Jun 2027 07:06:02.797   09 Jun 2027 07:06:03.755             0.958           479.000
       223   09 Jun 2027 07:06:25.683   09 Jun 2027 07:06:29.280             3.597          1798.500
       224   10 Jun 2027 03:59:47.072   10 Jun 2027 04:00:06.896            19.824          9912.000
       225   10 Jun 2027 04:00:29.313   10 Jun 2027 04:00:47.132            17.819          8909.500
       226   10 Jun 2027 04:02:19.672   10 Jun 2027 04:02:20.523             0.851           425.500
       227   10 Jun 2027 04:02:35.829   10 Jun 2027 04:02:49.275            13.446          6723.000
       228   10 Jun 2027 04:05:17.534   10 Jun 2027 04:05:18.578             1.044           522.000
       229   10 Jun 2027 04:05:57.953   10 Jun 2027 04:05:58.521             0.568           284.000
       230   10 Jun 2027 04:06:03.459   10 Jun 2027 04:06:08.258             4.799          2399.500
       231   10 Jun 2027 05:38:04.635   10 Jun 2027 05:38:14.550             9.915          4957.500
       232   10 Jun 2027 05:38:57.613   10 Jun 2027 05:39:04.340             6.727          3363.500
       233   10 Jun 2027 05:39:39.065   10 Jun 2027 05:39:39.108             0.043            21.500
       234   10 Jun 2027 05:39:40.436   10 Jun 2027 05:39:42.811             2.375          1187.500
       235   10 Jun 2027 05:40:05.138   10 Jun 2027 05:40:10.958             5.820          2910.000
       236   10 Jun 2027 05:40:58.124   10 Jun 2027 05:41:14.146            16.022          8011.000
       237   10 Jun 2027 07:12:05.533   10 Jun 2027 07:12:05.782             0.249           124.500
       238   10 Jun 2027 07:12:23.676   10 Jun 2027 07:12:27.779             4.103          2051.500
       239   10 Jun 2027 07:13:25.096   10 Jun 2027 07:13:27.982             2.886          1443.000
       240   10 Jun 2027 07:14:14.926   10 Jun 2027 07:14:20.493             5.567          2783.500
       241   10 Jun 2027 07:15:11.230   10 Jun 2027 07:15:14.571             3.341          1670.500
       242   10 Jun 2027 07:15:31.588   10 Jun 2027 07:15:35.103             3.515          1757.500
       243   10 Jun 2027 07:15:55.652   10 Jun 2027 07:16:01.924             6.272          3136.000
       244   10 Jun 2027 07:17:04.972   10 Jun 2027 07:17:06.354             1.382           691.000
       245   10 Jun 2027 07:17:55.514   10 Jun 2027 07:17:58.732             3.218          1609.000
       246   10 Jun 2027 07:18:23.831   10 Jun 2027 07:18:25.579             1.748           874.000
       247   10 Jun 2027 07:18:34.562   10 Jun 2027 07:18:41.289             6.727          3363.500
       248   10 Jun 2027 07:18:44.017   10 Jun 2027 07:18:53.601             9.584          4792.000
       249   11 Jun 2027 04:12:08.642   11 Jun 2027 04:12:09.232             0.590           295.000
       250   11 Jun 2027 04:13:24.069   11 Jun 2027 04:13:30.258             6.189          3094.500
       251   11 Jun 2027 04:14:12.773   11 Jun 2027 04:14:24.259            11.486          5743.000
       252   11 Jun 2027 04:14:33.531   11 Jun 2027 04:14:45.325            11.794          5897.000
       253   11 Jun 2027 04:16:53.786   11 Jun 2027 04:16:58.632             4.846          2423.000
       254   11 Jun 2027 04:17:18.658   11 Jun 2027 04:17:26.043             7.385          3692.500
       255   11 Jun 2027 04:18:07.595   11 Jun 2027 04:18:13.449             5.854          2927.000
       256   11 Jun 2027 05:50:02.213   11 Jun 2027 05:50:10.793             8.580          4290.000
       257   11 Jun 2027 05:51:07.465   11 Jun 2027 05:51:12.886             5.421          2710.500
       258   11 Jun 2027 05:51:41.924   11 Jun 2027 05:51:51.218             9.294          4647.000
       259   11 Jun 2027 05:52:28.772   11 Jun 2027 05:52:33.804             5.032          2516.000
       260   11 Jun 2027 05:53:00.132   11 Jun 2027 05:53:03.683             3.551          1775.500
       261   11 Jun 2027 05:53:30.646   11 Jun 2027 05:53:36.174             5.528          2764.000
       262   11 Jun 2027 07:23:08.940   11 Jun 2027 07:23:19.665            10.725          5362.500
       263   11 Jun 2027 07:23:41.148   11 Jun 2027 07:24:01.230            20.082         10041.000
       264   11 Jun 2027 07:26:06.083   11 Jun 2027 07:26:15.504             9.421          4710.500
       265   11 Jun 2027 07:27:10.337   11 Jun 2027 07:27:14.145             3.808          1904.000
       266   11 Jun 2027 07:27:34.996   11 Jun 2027 07:27:36.345             1.349           674.500
       267   11 Jun 2027 07:28:10.513   11 Jun 2027 07:28:10.812             0.299           149.500
       268   11 Jun 2027 07:28:18.661   11 Jun 2027 07:28:26.516             7.855          3927.500
       269   11 Jun 2027 07:28:59.669   11 Jun 2027 07:29:02.227             2.558          1279.000
       270   11 Jun 2027 07:30:10.751   11 Jun 2027 07:30:17.576             6.825          3412.500
       271   11 Jun 2027 07:30:45.871   11 Jun 2027 07:30:55.378             9.507          4753.500
       272   12 Jun 2027 04:23:59.341   12 Jun 2027 04:24:00.204             0.863           431.500
       273   12 Jun 2027 04:24:06.489   12 Jun 2027 04:24:24.132            17.643          8821.500
       274   12 Jun 2027 04:25:39.320   12 Jun 2027 04:25:42.026             2.706          1353.000
       275   12 Jun 2027 04:25:45.396   12 Jun 2027 04:25:55.752            10.356          5178.000
       276   12 Jun 2027 04:26:54.908   12 Jun 2027 04:26:55.859             0.951           475.500
       277   12 Jun 2027 04:27:15.045   12 Jun 2027 04:27:16.600             1.555           777.500
       278   12 Jun 2027 04:27:59.148   12 Jun 2027 04:28:05.385             6.237          3118.500
       279   12 Jun 2027 04:29:16.056   12 Jun 2027 04:29:32.217            16.161          8080.500
       280   12 Jun 2027 06:02:02.228   12 Jun 2027 06:02:07.843             5.615          2807.500
       281   12 Jun 2027 06:02:26.848   12 Jun 2027 06:02:29.948             3.100          1550.000
       282   12 Jun 2027 06:02:48.819   12 Jun 2027 06:02:56.775             7.956          3978.000
       283   12 Jun 2027 06:03:39.384   12 Jun 2027 06:03:40.416             1.032           516.000
       284   12 Jun 2027 06:04:08.023   12 Jun 2027 06:04:13.437             5.414          2707.000
       285   12 Jun 2027 06:04:57.189   12 Jun 2027 06:04:57.793             0.604           302.000
       286   12 Jun 2027 06:05:02.259   12 Jun 2027 06:05:05.695             3.436          1718.000
       287   12 Jun 2027 06:05:59.016   12 Jun 2027 06:06:03.134             4.118          2059.000
       288   12 Jun 2027 07:35:38.664   12 Jun 2027 07:35:46.708             8.044          4022.000
       289   12 Jun 2027 07:37:07.792   12 Jun 2027 07:37:09.221             1.429           714.500
       290   12 Jun 2027 07:37:29.686   12 Jun 2027 07:37:54.317            24.631         12315.500
       291   12 Jun 2027 07:39:36.585   12 Jun 2027 07:39:39.099             2.514          1257.000
       292   12 Jun 2027 07:39:58.265   12 Jun 2027 07:40:00.759             2.494          1247.000
       293   12 Jun 2027 07:40:20.325   12 Jun 2027 07:40:21.286             0.961           480.500
       294   12 Jun 2027 07:40:40.447   12 Jun 2027 07:40:43.280             2.833          1416.500
       295   12 Jun 2027 07:41:10.530   12 Jun 2027 07:41:41.290            30.760         15380.000
       296   13 Jun 2027 03:00:00.000   13 Jun 2027 03:00:08.723             8.723          4361.500
       297   13 Jun 2027 03:01:06.398   13 Jun 2027 03:01:10.595             4.197          2098.500
       298   13 Jun 2027 03:01:39.193   13 Jun 2027 03:01:45.503             6.310          3155.000
       299   13 Jun 2027 03:02:35.030   13 Jun 2027 03:02:44.402             9.372          4686.000
       300   13 Jun 2027 03:03:50.585   13 Jun 2027 03:03:50.795             0.210           105.000
       301   13 Jun 2027 03:03:56.725   13 Jun 2027 03:04:14.683            17.958          8979.000
       302   13 Jun 2027 03:05:51.651   13 Jun 2027 03:06:07.945            16.294          8147.000
       303   13 Jun 2027 04:35:59.924   13 Jun 2027 04:36:07.979             8.055          4027.500
       304   13 Jun 2027 04:37:15.912   13 Jun 2027 04:37:27.798            11.886          5943.000
       305   13 Jun 2027 04:38:22.565   13 Jun 2027 04:38:30.297             7.732          3866.000
       306   13 Jun 2027 04:39:02.145   13 Jun 2027 04:39:03.107             0.962           481.000
       307   13 Jun 2027 04:39:17.022   13 Jun 2027 04:39:18.199             1.177           588.500
       308   13 Jun 2027 04:40:08.188   13 Jun 2027 04:40:09.407             1.219           609.500
       309   13 Jun 2027 04:40:49.421   13 Jun 2027 04:40:59.809            10.388          5194.000
       310   13 Jun 2027 04:42:19.041   13 Jun 2027 04:42:37.582            18.541          9270.500
       311   13 Jun 2027 06:13:49.346   13 Jun 2027 06:13:51.679             2.333          1166.500
       312   13 Jun 2027 06:14:38.097   13 Jun 2027 06:14:45.449             7.352          3676.000
       313   13 Jun 2027 06:15:17.160   13 Jun 2027 06:15:18.251             1.091           545.500
       314   13 Jun 2027 06:15:31.651   13 Jun 2027 06:15:37.557             5.906          2953.000
       315   13 Jun 2027 06:16:21.392   13 Jun 2027 06:16:26.669             5.277          2638.500
       316   13 Jun 2027 06:17:36.664   13 Jun 2027 06:17:48.664            12.000          6000.000
       317   13 Jun 2027 06:17:53.801   13 Jun 2027 06:17:56.600             2.799          1399.500
       318   13 Jun 2027 07:49:49.133   13 Jun 2027 07:49:58.223             9.090          4545.000
       319   13 Jun 2027 07:50:35.378   13 Jun 2027 07:50:50.917            15.539          7769.500
       320   13 Jun 2027 07:51:53.776   13 Jun 2027 07:52:08.392            14.616          7308.000
       321   13 Jun 2027 07:53:35.285   13 Jun 2027 07:53:42.363             7.078          3539.000
