uniorb/output/strategy_2/Camera/Camera_KinoSat_110308.txt

KinoSat_110308
-------------------------
    Access    *     Start Time (UTCG)     *     Stop Time (UTCG)  *   Duration (s) *   Data (Mbytes)
         1   01 Jun 2027 03:28:14.469   01 Jun 2027 03:28:17.676             3.207          1603.500
         2   01 Jun 2027 03:28:50.716   01 Jun 2027 03:29:01.990            11.274          5637.000
         3   01 Jun 2027 03:29:11.923   01 Jun 2027 03:29:14.313             2.390          1195.000
         4   01 Jun 2027 03:30:05.910   01 Jun 2027 03:30:06.982             1.072           536.000
         5   01 Jun 2027 03:30:34.774   01 Jun 2027 03:30:36.608             1.834           917.000
         6   01 Jun 2027 03:31:22.770   01 Jun 2027 03:31:32.509             9.739          4869.500
         7   01 Jun 2027 03:32:42.347   01 Jun 2027 03:32:50.591             8.244          4122.000
         8   01 Jun 2027 03:33:18.789   01 Jun 2027 03:33:28.789            10.000          5000.000
         9   01 Jun 2027 03:34:21.627   01 Jun 2027 03:34:23.562             1.935           967.500
        10   01 Jun 2027 03:34:41.142   01 Jun 2027 03:34:46.482             5.340          2670.000
        11   01 Jun 2027 05:04:36.948   01 Jun 2027 05:04:43.594             6.646          3323.000
        12   01 Jun 2027 05:05:45.840   01 Jun 2027 05:05:56.761            10.921          5460.500
        13   01 Jun 2027 05:06:49.764   01 Jun 2027 05:06:50.424             0.660           330.000
        14   01 Jun 2027 05:07:14.068   01 Jun 2027 05:07:37.112            23.044         11522.000
        15   01 Jun 2027 05:09:19.599   01 Jun 2027 05:09:21.239             1.640           820.000
        16   01 Jun 2027 05:09:43.447   01 Jun 2027 05:09:45.104             1.657           828.500
        17   01 Jun 2027 05:10:16.616   01 Jun 2027 05:10:34.074            17.458          8729.000
        18   01 Jun 2027 06:41:52.340   01 Jun 2027 06:41:53.813             1.473           736.500
        19   01 Jun 2027 06:42:08.441   01 Jun 2027 06:42:16.562             8.121          4060.500
        20   01 Jun 2027 06:43:04.596   01 Jun 2027 06:43:16.036            11.440          5720.000
        21   01 Jun 2027 06:44:19.613   01 Jun 2027 06:44:20.584             0.971           485.500
        22   01 Jun 2027 06:44:42.708   01 Jun 2027 06:44:45.557             2.849          1424.500
        23   01 Jun 2027 06:45:10.952   01 Jun 2027 06:45:16.003             5.051          2525.500
        24   01 Jun 2027 06:45:45.287   01 Jun 2027 06:45:46.581             1.294           647.000
        25   01 Jun 2027 06:46:12.364   01 Jun 2027 06:46:24.025            11.661          5830.500
        26   01 Jun 2027 08:18:06.897   01 Jun 2027 08:18:18.494            11.597          5798.500
        27   01 Jun 2027 08:19:04.481   01 Jun 2027 08:19:18.845            14.364          7182.000
        28   01 Jun 2027 08:20:23.483   01 Jun 2027 08:20:31.159             7.676          3838.000
        29   01 Jun 2027 08:21:22.267   01 Jun 2027 08:21:28.571             6.304          3152.000
        30   01 Jun 2027 08:22:10.137   01 Jun 2027 08:22:10.366             0.229           114.500
        31   01 Jun 2027 08:22:35.530   01 Jun 2027 08:22:46.120            10.590          5295.000
        32   02 Jun 2027 03:39:56.248   02 Jun 2027 03:39:58.623             2.375          1187.500
        33   02 Jun 2027 03:40:12.299   02 Jun 2027 03:40:34.322            22.023         11011.500
        34   02 Jun 2027 03:42:02.808   02 Jun 2027 03:42:06.351             3.543          1771.500
        35   02 Jun 2027 03:42:21.047   02 Jun 2027 03:42:22.568             1.521           760.500
        36   02 Jun 2027 03:42:31.622   02 Jun 2027 03:42:52.791            21.169         10584.500
        37   02 Jun 2027 03:43:38.491   02 Jun 2027 03:43:39.571             1.080           540.000
        38   02 Jun 2027 03:44:38.199   02 Jun 2027 03:44:38.595             0.396           198.000
        39   02 Jun 2027 03:44:48.721   02 Jun 2027 03:44:51.586             2.865          1432.500
        40   02 Jun 2027 03:45:13.638   02 Jun 2027 03:45:19.477             5.839          2919.500
        41   02 Jun 2027 03:45:45.627   02 Jun 2027 03:45:45.963             0.336           168.000
        42   02 Jun 2027 03:46:23.140   02 Jun 2027 03:46:23.439             0.299           149.500
        43   02 Jun 2027 03:46:31.350   02 Jun 2027 03:46:35.820             4.470          2235.000
        44   02 Jun 2027 05:16:08.876   02 Jun 2027 05:16:24.815            15.939          7969.500
        45   02 Jun 2027 05:17:48.457   02 Jun 2027 05:17:51.840             3.383          1691.500
        46   02 Jun 2027 05:18:22.137   02 Jun 2027 05:18:26.067             3.930          1965.000
        47   02 Jun 2027 05:18:50.341   02 Jun 2027 05:19:03.713            13.372          6686.000
        48   02 Jun 2027 05:20:47.025   02 Jun 2027 05:20:53.481             6.456          3228.000
        49   02 Jun 2027 05:21:11.516   02 Jun 2027 05:21:16.358             4.842          2421.000
        50   02 Jun 2027 05:21:39.816   02 Jun 2027 05:21:55.967            16.151          8075.500
        51   02 Jun 2027 06:54:21.345   02 Jun 2027 06:54:21.780             0.435           217.500
        52   02 Jun 2027 06:54:22.284   02 Jun 2027 06:54:22.776             0.492           246.000
        53   02 Jun 2027 06:54:35.467   02 Jun 2027 06:54:56.508            21.041         10520.500
        54   02 Jun 2027 06:56:39.265   02 Jun 2027 06:56:40.710             1.445           722.500
        55   02 Jun 2027 06:57:05.650   02 Jun 2027 06:57:06.473             0.823           411.500
        56   02 Jun 2027 06:57:24.698   02 Jun 2027 06:57:27.516             2.818          1409.000
        57   02 Jun 2027 06:57:42.475   02 Jun 2027 06:57:46.871             4.396          2198.000
        58   02 Jun 2027 06:57:57.709   02 Jun 2027 06:58:00.639             2.930          1465.000
        59   02 Jun 2027 08:29:49.533   02 Jun 2027 08:30:01.622            12.089          6044.500
        60   02 Jun 2027 08:31:10.633   02 Jun 2027 08:31:22.411            11.778          5889.000
        61   02 Jun 2027 08:32:30.317   02 Jun 2027 08:32:52.048            21.731         10865.500
        62   02 Jun 2027 08:34:22.784   02 Jun 2027 08:34:22.914             0.130            65.000
        63   02 Jun 2027 08:34:37.684   02 Jun 2027 08:34:46.412             8.728          4364.000
        64   02 Jun 2027 08:35:15.355   02 Jun 2027 08:35:17.466             2.111          1055.500
        65   03 Jun 2027 03:51:29.689   03 Jun 2027 03:51:30.830             1.141           570.500
        66   03 Jun 2027 03:51:54.578   03 Jun 2027 03:52:05.423            10.845          5422.500
        67   03 Jun 2027 03:52:59.863   03 Jun 2027 03:53:11.636            11.773          5886.500
        68   03 Jun 2027 03:54:01.521   03 Jun 2027 03:54:15.372            13.851          6925.500
        69   03 Jun 2027 03:55:13.793   03 Jun 2027 03:55:14.905             1.112           556.000
        70   03 Jun 2027 03:55:24.405   03 Jun 2027 03:55:34.126             9.721          4860.500
        71   03 Jun 2027 03:56:24.763   03 Jun 2027 03:56:25.947             1.184           592.000
        72   03 Jun 2027 03:57:07.827   03 Jun 2027 03:57:10.727             2.900          1450.000
        73   03 Jun 2027 03:57:30.114   03 Jun 2027 03:57:30.575             0.461           230.500
        74   03 Jun 2027 03:57:40.994   03 Jun 2027 03:57:44.397             3.403          1701.500
        75   03 Jun 2027 03:58:20.902   03 Jun 2027 03:58:30.982            10.080          5040.000
        76   03 Jun 2027 03:58:39.310   03 Jun 2027 03:58:48.613             9.303          4651.500
        77   03 Jun 2027 03:59:00.158   03 Jun 2027 03:59:03.621             3.463          1731.500
        78   03 Jun 2027 05:28:30.824   03 Jun 2027 05:28:35.374             4.550          2275.000
        79   03 Jun 2027 05:29:14.699   03 Jun 2027 05:29:21.121             6.422          3211.000
        80   03 Jun 2027 05:29:53.353   03 Jun 2027 05:29:55.151             1.798           899.000
        81   03 Jun 2027 05:30:23.497   03 Jun 2027 05:30:23.666             0.169            84.500
        82   03 Jun 2027 05:30:28.232   03 Jun 2027 05:30:39.135            10.903          5451.500
        83   03 Jun 2027 05:32:00.764   03 Jun 2027 05:32:08.332             7.568          3784.000
        84   03 Jun 2027 05:33:34.716   03 Jun 2027 05:33:35.172             0.456           228.000
        85   03 Jun 2027 05:34:03.838   03 Jun 2027 05:34:12.400             8.562          4281.000
        86   03 Jun 2027 07:06:31.034   03 Jun 2027 07:06:40.450             9.416          4708.000
        87   03 Jun 2027 07:07:38.210   03 Jun 2027 07:07:41.557             3.347          1673.500
        88   03 Jun 2027 07:08:05.058   03 Jun 2027 07:08:11.826             6.768          3384.000
        89   03 Jun 2027 07:09:01.031   03 Jun 2027 07:09:02.700             1.669           834.500
        90   03 Jun 2027 07:09:43.690   03 Jun 2027 07:09:45.627             1.937           968.500
        91   03 Jun 2027 08:39:44.675   03 Jun 2027 08:40:14.007            29.332         14666.000
        92   03 Jun 2027 08:42:29.516   03 Jun 2027 08:42:50.608            21.092         10546.000
        93   03 Jun 2027 08:45:11.133   03 Jun 2027 08:45:15.708             4.575          2287.500
        94   03 Jun 2027 08:45:35.088   03 Jun 2027 08:45:36.049             0.961           480.500
        95   03 Jun 2027 08:46:05.878   03 Jun 2027 08:46:10.140             4.262          2131.000
        96   03 Jun 2027 08:47:07.087   03 Jun 2027 08:47:08.774             1.687           843.500
        97   03 Jun 2027 08:47:16.011   03 Jun 2027 08:47:20.042             4.031          2015.500
        98   04 Jun 2027 04:03:38.855   04 Jun 2027 04:03:43.226             4.371          2185.500
        99   04 Jun 2027 04:04:40.610   04 Jun 2027 04:04:50.037             9.427          4713.500
       100   04 Jun 2027 04:05:29.715   04 Jun 2027 04:05:32.480             2.765          1382.500
       101   04 Jun 2027 04:05:36.990   04 Jun 2027 04:05:53.373            16.383          8191.500
       102   04 Jun 2027 04:07:14.862   04 Jun 2027 04:07:15.974             1.112           556.000
       103   04 Jun 2027 04:07:38.981   04 Jun 2027 04:07:41.778             2.797          1398.500
       104   04 Jun 2027 04:08:17.404   04 Jun 2027 04:08:24.199             6.795          3397.500
       105   04 Jun 2027 04:09:17.937   04 Jun 2027 04:09:18.309             0.372           186.000
       106   04 Jun 2027 04:09:27.339   04 Jun 2027 04:09:32.065             4.726          2363.000
       107   04 Jun 2027 04:10:01.204   04 Jun 2027 04:10:14.851            13.647          6823.500
       108   04 Jun 2027 04:11:04.143   04 Jun 2027 04:11:04.583             0.440           220.000
       109   04 Jun 2027 05:40:35.647   04 Jun 2027 05:40:46.974            11.327          5663.500
       110   04 Jun 2027 05:41:36.016   04 Jun 2027 05:41:38.890             2.874          1437.000
       111   04 Jun 2027 05:42:09.996   04 Jun 2027 05:42:23.993            13.997          6998.500
       112   04 Jun 2027 05:42:56.445   04 Jun 2027 05:43:08.796            12.351          6175.500
       113   04 Jun 2027 05:44:36.274   04 Jun 2027 05:44:38.424             2.150          1075.000
       114   04 Jun 2027 05:44:50.845   04 Jun 2027 05:45:00.830             9.985          4992.500
       115   04 Jun 2027 05:46:15.109   04 Jun 2027 05:46:25.343            10.234          5117.000
       116   04 Jun 2027 07:18:29.040   04 Jun 2027 07:18:35.811             6.771          3385.500
       117   04 Jun 2027 07:19:13.123   04 Jun 2027 07:19:25.115            11.992          5996.000
       118   04 Jun 2027 07:20:53.998   04 Jun 2027 07:20:57.074             3.076          1538.000
       119   04 Jun 2027 07:21:17.309   04 Jun 2027 07:21:17.367             0.058            29.000
       120   04 Jun 2027 07:21:31.839   04 Jun 2027 07:21:37.960             6.121          3060.500
       121   04 Jun 2027 07:21:49.453   04 Jun 2027 07:22:11.644            22.191         11095.500
       122   04 Jun 2027 08:52:03.331   04 Jun 2027 08:52:22.738            19.407          9703.500
       123   04 Jun 2027 08:54:05.068   04 Jun 2027 08:54:18.459            13.391          6695.500
       124   04 Jun 2027 08:55:23.106   04 Jun 2027 08:55:41.930            18.824          9412.000
       125   04 Jun 2027 08:57:24.640   04 Jun 2027 08:57:24.643             0.003             1.500
       126   04 Jun 2027 08:57:42.209   04 Jun 2027 08:57:48.879             6.670          3335.000
       127   04 Jun 2027 08:58:29.384   04 Jun 2027 08:58:37.050             7.666          3833.000
       128   04 Jun 2027 08:59:09.382   04 Jun 2027 08:59:16.225             6.843          3421.500
       129   05 Jun 2027 04:15:40.747   05 Jun 2027 04:15:53.103            12.356          6178.000
       130   05 Jun 2027 04:16:38.416   05 Jun 2027 04:16:43.348             4.932          2466.000
       131   05 Jun 2027 04:17:56.206   05 Jun 2027 04:18:02.492             6.286          3143.000
       132   05 Jun 2027 04:19:10.840   05 Jun 2027 04:19:14.259             3.419          1709.500
       133   05 Jun 2027 04:19:30.068   05 Jun 2027 04:19:43.336            13.268          6634.000
       134   05 Jun 2027 04:21:28.187   05 Jun 2027 04:21:34.072             5.885          2942.500
       135   05 Jun 2027 04:22:14.695   05 Jun 2027 04:22:27.707            13.012          6506.000
       136   05 Jun 2027 05:52:28.452   05 Jun 2027 05:52:35.946             7.494          3747.000
       137   05 Jun 2027 05:53:34.216   05 Jun 2027 05:53:42.589             8.373          4186.500
       138   05 Jun 2027 05:54:27.124   05 Jun 2027 05:54:31.834             4.710          2355.000
       139   05 Jun 2027 05:54:51.857   05 Jun 2027 05:54:56.013             4.156          2078.000
       140   05 Jun 2027 05:55:22.894   05 Jun 2027 05:55:30.755             7.861          3930.500
       141   05 Jun 2027 05:56:04.991   05 Jun 2027 05:56:11.813             6.822          3411.000
       142   05 Jun 2027 05:56:45.873   05 Jun 2027 05:57:01.232            15.359          7679.500
       143   05 Jun 2027 05:58:18.966   05 Jun 2027 05:58:20.446             1.480           740.000
       144   05 Jun 2027 05:58:41.958   05 Jun 2027 05:58:47.723             5.765          2882.500
       145   05 Jun 2027 05:59:00.080   05 Jun 2027 05:59:00.549             0.469           234.500
       146   05 Jun 2027 05:59:08.234   05 Jun 2027 05:59:10.908             2.674          1337.000
       147   05 Jun 2027 07:30:32.202   05 Jun 2027 07:30:37.361             5.159          2579.500
       148   05 Jun 2027 07:31:15.681   05 Jun 2027 07:31:33.252            17.571          8785.500
       149   05 Jun 2027 07:33:07.920   05 Jun 2027 07:33:14.167             6.247          3123.500
       150   05 Jun 2027 09:04:22.497   05 Jun 2027 09:04:33.657            11.160          5580.000
       151   05 Jun 2027 09:04:47.598   05 Jun 2027 09:05:12.372            24.774         12387.000
       152   05 Jun 2027 09:07:40.746   05 Jun 2027 09:08:00.155            19.409          9704.500
       153   05 Jun 2027 09:09:27.905   05 Jun 2027 09:09:29.638             1.733           866.500
       154   05 Jun 2027 09:09:38.421   05 Jun 2027 09:09:40.009             1.588           794.000
       155   05 Jun 2027 09:10:05.851   05 Jun 2027 09:10:07.785             1.934           967.000
       156   05 Jun 2027 09:10:38.168   05 Jun 2027 09:10:50.365            12.197          6098.500
       157   06 Jun 2027 04:27:43.639   06 Jun 2027 04:28:08.059            24.420         12210.000
       158   06 Jun 2027 04:29:04.155   06 Jun 2027 04:29:07.526             3.371          1685.500
       159   06 Jun 2027 04:30:04.130   06 Jun 2027 04:30:18.053            13.923          6961.500
       160   06 Jun 2027 04:31:15.966   06 Jun 2027 04:31:29.050            13.084          6542.000
       161   06 Jun 2027 04:32:23.809   06 Jun 2027 04:32:27.151             3.342          1671.000
       162   06 Jun 2027 04:33:06.850   06 Jun 2027 04:33:18.783            11.933          5966.500
       163   06 Jun 2027 04:34:08.002   06 Jun 2027 04:34:19.785            11.783          5891.500
       164   06 Jun 2027 06:04:38.022   06 Jun 2027 06:04:45.808             7.786          3893.000
       165   06 Jun 2027 06:05:59.175   06 Jun 2027 06:06:10.092            10.917          5458.500
       166   06 Jun 2027 06:07:04.460   06 Jun 2027 06:07:10.922             6.462          3231.000
       167   06 Jun 2027 06:07:32.372   06 Jun 2027 06:07:49.811            17.439          8719.500
       168   06 Jun 2027 06:09:09.234   06 Jun 2027 06:09:11.549             2.315          1157.500
       169   06 Jun 2027 06:09:51.753   06 Jun 2027 06:09:59.913             8.160          4080.000
       170   06 Jun 2027 06:10:44.266   06 Jun 2027 06:10:48.501             4.235          2117.500
       171   06 Jun 2027 07:41:44.410   06 Jun 2027 07:41:44.830             0.420           210.000
       172   06 Jun 2027 07:41:59.838   06 Jun 2027 07:42:17.036            17.198          8599.000
       173   06 Jun 2027 07:43:34.614   06 Jun 2027 07:43:42.019             7.405          3702.500
       174   06 Jun 2027 07:44:07.153   06 Jun 2027 07:44:09.125             1.972           986.000
       175   06 Jun 2027 07:44:28.843   06 Jun 2027 07:44:35.212             6.369          3184.500
       176   06 Jun 2027 07:45:32.117   06 Jun 2027 07:45:34.778             2.661          1330.500
       177   06 Jun 2027 07:46:15.091   06 Jun 2027 07:46:32.524            17.433          8716.500
       178   06 Jun 2027 09:16:45.954   06 Jun 2027 09:16:52.018             6.064          3032.000
       179   06 Jun 2027 09:17:20.546   06 Jun 2027 09:17:29.107             8.561          4280.500
       180   06 Jun 2027 09:18:25.516   06 Jun 2027 09:18:26.770             1.254           627.000
       181   06 Jun 2027 09:18:44.774   06 Jun 2027 09:19:01.625            16.851          8425.500
       182   06 Jun 2027 09:20:30.401   06 Jun 2027 09:21:13.822            43.421         21710.500
       183   06 Jun 2027 09:21:30.685   06 Jun 2027 09:21:30.860             0.175            87.500
       184   07 Jun 2027 03:01:15.333   07 Jun 2027 03:01:35.617            20.284         10142.000
       185   07 Jun 2027 03:02:55.188   07 Jun 2027 03:02:55.188             0.000             0.000
       186   07 Jun 2027 03:03:05.805   07 Jun 2027 03:03:31.088            25.283         12641.500
       187   07 Jun 2027 03:05:30.167   07 Jun 2027 03:05:38.836             8.669          4334.500
       188   07 Jun 2027 03:06:15.648   07 Jun 2027 03:06:19.160             3.512          1756.000
       189   07 Jun 2027 03:06:36.730   07 Jun 2027 03:06:41.802             5.072          2536.000
       190   07 Jun 2027 03:07:25.581   07 Jun 2027 03:07:27.094             1.513           756.500
       191   07 Jun 2027 03:07:49.963   07 Jun 2027 03:07:56.580             6.617          3308.500
       192   07 Jun 2027 03:08:27.919   07 Jun 2027 03:08:33.045             5.126          2563.000
       193   07 Jun 2027 03:08:59.245   07 Jun 2027 03:09:06.240             6.995          3497.500
       194   07 Jun 2027 03:10:00.405   07 Jun 2027 03:10:03.038             2.633          1316.500
       195   07 Jun 2027 03:10:22.751   07 Jun 2027 03:10:24.274             1.523           761.500
       196   07 Jun 2027 03:10:44.318   07 Jun 2027 03:10:53.218             8.900          4450.000
       197   07 Jun 2027 04:40:09.440   07 Jun 2027 04:40:16.021             6.581          3290.500
       198   07 Jun 2027 04:40:53.965   07 Jun 2027 04:41:35.758            41.793         20896.500
       199   07 Jun 2027 04:44:19.740   07 Jun 2027 04:44:20.678             0.938           469.000
       200   07 Jun 2027 04:45:26.448   07 Jun 2027 04:45:32.716             6.268          3134.000
       201   07 Jun 2027 04:45:59.800   07 Jun 2027 04:46:15.112            15.312          7656.000
       202   07 Jun 2027 06:17:05.394   07 Jun 2027 06:17:16.185            10.791          5395.500
       203   07 Jun 2027 06:17:34.357   07 Jun 2027 06:18:12.758            38.401         19200.500
       204   07 Jun 2027 06:21:34.457   07 Jun 2027 06:21:38.270             3.813          1906.500
       205   07 Jun 2027 06:22:03.086   07 Jun 2027 06:22:11.714             8.628          4314.000
       206   07 Jun 2027 07:53:55.813   07 Jun 2027 07:54:04.877             9.064          4532.000
       207   07 Jun 2027 07:55:06.433   07 Jun 2027 07:55:08.093             1.660           830.000
       208   07 Jun 2027 07:55:42.247   07 Jun 2027 07:55:42.590             0.343           171.500
       209   07 Jun 2027 07:55:59.323   07 Jun 2027 07:56:00.441             1.118           559.000
       210   07 Jun 2027 07:56:10.713   07 Jun 2027 07:56:11.014             0.301           150.500
       211   07 Jun 2027 07:56:16.049   07 Jun 2027 07:56:20.444             4.395          2197.500
       212   07 Jun 2027 07:56:53.571   07 Jun 2027 07:56:57.371             3.800          1900.000
       213   07 Jun 2027 07:57:24.680   07 Jun 2027 07:57:34.022             9.342          4671.000
       214   07 Jun 2027 09:31:32.942   07 Jun 2027 09:32:05.797            32.855         16427.500
       215   08 Jun 2027 03:15:28.305   08 Jun 2027 03:15:35.900             7.595          3797.500
       216   08 Jun 2027 03:16:16.614   08 Jun 2027 03:16:22.008             5.394          2697.000
       217   08 Jun 2027 03:16:58.844   08 Jun 2027 03:17:08.844            10.000          5000.000
       218   08 Jun 2027 03:18:39.689   08 Jun 2027 03:18:40.585             0.896           448.000
       219   08 Jun 2027 03:18:55.435   08 Jun 2027 03:19:05.057             9.622          4811.000
       220   08 Jun 2027 03:19:51.440   08 Jun 2027 03:20:04.983            13.543          6771.500
       221   08 Jun 2027 03:20:42.846   08 Jun 2027 03:20:46.066             3.220          1610.000
       222   08 Jun 2027 03:21:16.310   08 Jun 2027 03:21:18.131             1.821           910.500
       223   08 Jun 2027 03:21:24.311   08 Jun 2027 03:21:33.600             9.289          4644.500
       224   08 Jun 2027 03:23:02.297   08 Jun 2027 03:23:04.119             1.822           911.000
       225   08 Jun 2027 04:52:16.553   08 Jun 2027 04:52:21.173             4.620          2310.000
       226   08 Jun 2027 04:52:46.170   08 Jun 2027 04:53:28.277            42.107         21053.500
       227   08 Jun 2027 04:56:01.997   08 Jun 2027 04:56:14.511            12.514          6257.000
       228   08 Jun 2027 04:57:24.671   08 Jun 2027 04:57:29.904             5.233          2616.500
       229   08 Jun 2027 04:58:01.671   08 Jun 2027 04:58:10.736             9.065          4532.500
       230   08 Jun 2027 06:29:57.477   08 Jun 2027 06:30:05.134             7.657          3828.500
       231   08 Jun 2027 06:30:34.243   08 Jun 2027 06:30:34.352             0.109            54.500
       232   08 Jun 2027 06:30:36.012   08 Jun 2027 06:30:47.431            11.419          5709.500
       233   08 Jun 2027 06:31:00.175   08 Jun 2027 06:31:04.666             4.491          2245.500
       234   08 Jun 2027 06:32:17.644   08 Jun 2027 06:32:18.257             0.613           306.500
       235   08 Jun 2027 06:32:25.127   08 Jun 2027 06:32:25.977             0.850           425.000
       236   08 Jun 2027 06:33:01.577   08 Jun 2027 06:33:05.843             4.266          2133.000
       237   08 Jun 2027 06:33:31.521   08 Jun 2027 06:33:34.532             3.011          1505.500
       238   08 Jun 2027 06:33:53.747   08 Jun 2027 06:34:01.424             7.677          3838.500
       239   08 Jun 2027 06:34:09.242   08 Jun 2027 06:34:20.806            11.564          5782.000
       240   08 Jun 2027 08:05:58.298   08 Jun 2027 08:06:03.576             5.278          2639.000
       241   08 Jun 2027 08:06:37.610   08 Jun 2027 08:06:46.821             9.211          4605.500
       242   08 Jun 2027 08:07:39.582   08 Jun 2027 08:07:49.789            10.207          5103.500
       243   08 Jun 2027 08:08:31.950   08 Jun 2027 08:08:37.792             5.842          2921.000
       244   08 Jun 2027 08:09:40.164   08 Jun 2027 08:09:47.747             7.583          3791.500
       245   08 Jun 2027 08:10:29.774   08 Jun 2027 08:10:35.273             5.499          2749.500
       246   09 Jun 2027 03:28:29.137   09 Jun 2027 03:28:32.762             3.625          1812.500
       247   09 Jun 2027 03:29:06.567   09 Jun 2027 03:29:09.115             2.548          1274.000
       248   09 Jun 2027 03:29:49.643   09 Jun 2027 03:30:00.390            10.747          5373.500
       249   09 Jun 2027 03:30:52.282   09 Jun 2027 03:31:00.752             8.470          4235.000
       250   09 Jun 2027 03:32:01.989   09 Jun 2027 03:32:13.659            11.670          5835.000
       251   09 Jun 2027 03:32:25.194   09 Jun 2027 03:32:32.866             7.672          3836.000
       252   09 Jun 2027 03:33:58.457   09 Jun 2027 03:33:58.720             0.263           131.500
       253   09 Jun 2027 03:34:07.432   09 Jun 2027 03:34:09.780             2.348          1174.000
       254   09 Jun 2027 03:34:32.882   09 Jun 2027 03:34:36.442             3.560          1780.000
       255   09 Jun 2027 03:35:01.493   09 Jun 2027 03:35:02.656             1.163           581.500
       256   09 Jun 2027 05:04:51.898   09 Jun 2027 05:04:57.453             5.555          2777.500
       257   09 Jun 2027 05:06:04.100   09 Jun 2027 05:06:11.523             7.423          3711.500
       258   09 Jun 2027 05:06:53.077   09 Jun 2027 05:06:55.675             2.598          1299.000
       259   09 Jun 2027 05:07:51.818   09 Jun 2027 05:08:01.347             9.529          4764.500
       260   09 Jun 2027 05:08:51.789   09 Jun 2027 05:08:55.328             3.539          1769.500
       261   09 Jun 2027 05:09:13.675   09 Jun 2027 05:09:17.381             3.706          1853.000
       262   09 Jun 2027 05:09:41.989   09 Jun 2027 05:09:45.431             3.442          1721.000
       263   09 Jun 2027 05:10:33.682   09 Jun 2027 05:10:34.030             0.348           174.000
       264   09 Jun 2027 05:10:56.907   09 Jun 2027 05:11:04.713             7.806          3903.000
       265   09 Jun 2027 06:42:06.705   09 Jun 2027 06:42:09.598             2.893          1446.500
       266   09 Jun 2027 06:42:35.458   09 Jun 2027 06:42:39.578             4.120          2060.000
       267   09 Jun 2027 06:43:17.567   09 Jun 2027 06:43:20.508             2.941          1470.500
       268   09 Jun 2027 06:43:33.985   09 Jun 2027 06:43:36.013             2.028          1014.000
       269   09 Jun 2027 06:44:04.201   09 Jun 2027 06:44:08.905             4.704          2352.000
       270   09 Jun 2027 06:44:38.478   09 Jun 2027 06:44:54.455            15.977          7988.500
       271   09 Jun 2027 06:46:01.061   09 Jun 2027 06:46:10.210             9.149          4574.500
       272   09 Jun 2027 08:18:21.939   09 Jun 2027 08:18:33.637            11.698          5849.000
       273   09 Jun 2027 08:19:21.465   09 Jun 2027 08:19:33.398            11.933          5966.500
       274   09 Jun 2027 08:20:38.130   09 Jun 2027 08:20:45.769             7.639          3819.500
       275   09 Jun 2027 08:21:40.283   09 Jun 2027 08:21:43.468             3.185          1592.500
       276   09 Jun 2027 08:22:24.965   09 Jun 2027 08:22:27.119             2.154          1077.000
       277   09 Jun 2027 08:22:44.309   09 Jun 2027 08:22:48.206             3.897          1948.500
       278   10 Jun 2027 03:40:10.981   10 Jun 2027 03:40:13.337             2.356          1178.000
       279   10 Jun 2027 03:40:27.366   10 Jun 2027 03:40:49.256            21.890         10945.000
       280   10 Jun 2027 03:42:19.646   10 Jun 2027 03:42:27.759             8.113          4056.500
       281   10 Jun 2027 03:44:07.296   10 Jun 2027 03:44:07.333             0.037            18.500
       282   10 Jun 2027 03:44:09.325   10 Jun 2027 03:44:11.334             2.009          1004.500
       283   10 Jun 2027 03:44:35.128   10 Jun 2027 03:44:38.140             3.012          1506.000
       284   10 Jun 2027 03:45:01.058   10 Jun 2027 03:45:06.378             5.320          2660.000
       285   10 Jun 2027 03:45:28.351   10 Jun 2027 03:45:34.713             6.362          3181.000
       286   10 Jun 2027 03:46:09.157   10 Jun 2027 03:46:20.453            11.296          5648.000
       287   10 Jun 2027 03:47:12.321   10 Jun 2027 03:47:13.398             1.077           538.500
       288   10 Jun 2027 05:16:23.614   10 Jun 2027 05:16:25.452             1.838           919.000
       289   10 Jun 2027 05:17:07.613   10 Jun 2027 05:17:25.708            18.095          9047.500
       290   10 Jun 2027 05:17:45.423   10 Jun 2027 05:18:02.868            17.445          8722.500
       291   10 Jun 2027 05:21:01.711   10 Jun 2027 05:21:10.839             9.128          4564.000
       292   10 Jun 2027 05:22:37.567   10 Jun 2027 05:22:47.597            10.030          5015.000
       293   10 Jun 2027 06:54:44.220   10 Jun 2027 06:54:52.470             8.250          4125.000
       294   10 Jun 2027 06:55:39.930   10 Jun 2027 06:55:50.620            10.690          5345.000
       295   10 Jun 2027 06:56:48.625   10 Jun 2027 06:56:54.095             5.470          2735.000
       296   10 Jun 2027 06:57:13.544   10 Jun 2027 06:57:18.269             4.725          2362.500
       297   10 Jun 2027 06:58:02.081   10 Jun 2027 06:58:06.041             3.960          1980.000
       298   10 Jun 2027 08:30:04.127   10 Jun 2027 08:30:10.794             6.667          3333.500
       299   10 Jun 2027 08:30:44.888   10 Jun 2027 08:30:50.983             6.095          3047.500
       300   10 Jun 2027 08:31:25.157   10 Jun 2027 08:31:26.680             1.523           761.500
       301   10 Jun 2027 08:31:37.853   10 Jun 2027 08:31:38.383             0.530           265.000
       302   10 Jun 2027 08:31:48.134   10 Jun 2027 08:31:48.927             0.793           396.500
       303   10 Jun 2027 08:32:09.237   10 Jun 2027 08:32:12.985             3.748          1874.000
       304   10 Jun 2027 08:32:44.928   10 Jun 2027 08:33:02.289            17.361          8680.500
       305   10 Jun 2027 08:34:18.027   10 Jun 2027 08:34:25.860             7.833          3916.500
       306   10 Jun 2027 08:34:57.851   10 Jun 2027 08:35:01.175             3.324          1662.000
       307   10 Jun 2027 08:35:24.669   10 Jun 2027 08:35:26.209             1.540           770.000
       308   11 Jun 2027 03:51:44.188   11 Jun 2027 03:51:45.452             1.264           632.000
       309   11 Jun 2027 03:52:09.666   11 Jun 2027 03:52:10.615             0.949           474.500
       310   11 Jun 2027 03:52:20.170   11 Jun 2027 03:52:28.310             8.140          4070.000
       311   11 Jun 2027 03:53:10.012   11 Jun 2027 03:53:14.847             4.835          2417.500
       312   11 Jun 2027 03:53:50.520   11 Jun 2027 03:53:51.802             1.282           641.000
       313   11 Jun 2027 03:54:31.740   11 Jun 2027 03:54:33.325             1.585           792.500
       314   11 Jun 2027 03:55:20.251   11 Jun 2027 03:55:22.609             2.358          1179.000
       315   11 Jun 2027 03:55:31.860   11 Jun 2027 03:55:39.151             7.291          3645.500
       316   11 Jun 2027 03:56:25.358   11 Jun 2027 03:56:29.716             4.358          2179.000
       317   11 Jun 2027 03:57:04.969   11 Jun 2027 03:57:07.151             2.182          1091.000
       318   11 Jun 2027 03:57:37.030   11 Jun 2027 03:57:46.822             9.792          4896.000
       319   11 Jun 2027 03:58:26.584   11 Jun 2027 03:58:45.534            18.950          9475.000
       320   11 Jun 2027 05:28:45.641   11 Jun 2027 05:28:49.809             4.168          2084.000
       321   11 Jun 2027 05:29:25.319   11 Jun 2027 05:29:30.807             5.488          2744.000
       322   11 Jun 2027 05:30:08.414   11 Jun 2027 05:30:09.065             0.651           325.500
       323   11 Jun 2027 05:30:38.148   11 Jun 2027 05:30:38.400             0.252           126.000
       324   11 Jun 2027 05:30:43.264   11 Jun 2027 05:30:57.995            14.731          7365.500
       325   11 Jun 2027 05:32:14.990   11 Jun 2027 05:32:23.248             8.258          4129.000
       326   11 Jun 2027 05:33:49.201   11 Jun 2027 05:33:50.094             0.893           446.500
       327   11 Jun 2027 05:34:21.067   11 Jun 2027 05:34:22.140             1.073           536.500
       328   11 Jun 2027 05:34:32.015   11 Jun 2027 05:34:46.345            14.330          7165.000
       329   11 Jun 2027 07:06:45.648   11 Jun 2027 07:06:57.933            12.285          6142.500
       330   11 Jun 2027 07:07:52.939   11 Jun 2027 07:07:59.110             6.171          3085.500
       331   11 Jun 2027 07:08:20.061   11 Jun 2027 07:08:20.061             0.000             0.000
       332   11 Jun 2027 07:08:26.520   11 Jun 2027 07:08:36.499             9.979          4989.500
       333   11 Jun 2027 07:09:31.189   11 Jun 2027 07:09:34.616             3.427          1713.500
       334   11 Jun 2027 07:09:44.652   11 Jun 2027 07:09:44.652             0.000             0.000
       335   11 Jun 2027 07:10:00.362   11 Jun 2027 07:10:07.779             7.417          3708.500
       336   11 Jun 2027 08:39:58.864   11 Jun 2027 08:40:29.623            30.759         15379.500
       337   11 Jun 2027 08:42:48.196   11 Jun 2027 08:43:05.077            16.881          8440.500
       338   11 Jun 2027 08:45:25.315   11 Jun 2027 08:45:30.544             5.229          2614.500
       339   11 Jun 2027 08:45:59.093   11 Jun 2027 08:45:59.500             0.407           203.500
       340   11 Jun 2027 08:46:08.104   11 Jun 2027 08:46:09.189             1.085           542.500
       341   11 Jun 2027 08:46:11.151   11 Jun 2027 08:46:25.966            14.815          7407.500
       342   11 Jun 2027 08:47:41.316   11 Jun 2027 08:47:42.538             1.222           611.000
       343   12 Jun 2027 04:03:53.707   12 Jun 2027 04:03:58.321             4.614          2307.000
       344   12 Jun 2027 04:04:56.381   12 Jun 2027 04:05:07.603            11.222          5611.000
       345   12 Jun 2027 04:05:55.030   12 Jun 2027 04:06:08.919            13.889          6944.500
       346   12 Jun 2027 04:07:07.504   12 Jun 2027 04:07:18.679            11.175          5587.500
       347   12 Jun 2027 04:08:19.692   12 Jun 2027 04:08:20.155             0.463           231.500
       348   12 Jun 2027 04:08:28.434   12 Jun 2027 04:08:34.426             5.992          2996.000
       349   12 Jun 2027 04:09:32.723   12 Jun 2027 04:09:32.938             0.215           107.500
       350   12 Jun 2027 04:09:42.212   12 Jun 2027 04:09:48.089             5.877          2938.500
       351   12 Jun 2027 04:09:53.473   12 Jun 2027 04:10:02.867             9.394          4697.000
       352   12 Jun 2027 04:10:19.569   12 Jun 2027 04:10:30.280            10.711          5355.500
       353   12 Jun 2027 04:11:18.900   12 Jun 2027 04:11:19.310             0.410           205.000
       354   12 Jun 2027 05:40:50.022   12 Jun 2027 05:41:02.373            12.351          6175.500
       355   12 Jun 2027 05:42:38.633   12 Jun 2027 05:42:45.115             6.482          3241.000
       356   12 Jun 2027 05:43:32.034   12 Jun 2027 05:43:35.916             3.882          1941.000
       357   12 Jun 2027 05:43:57.684   12 Jun 2027 05:43:59.869             2.185          1092.500
       358   12 Jun 2027 05:44:20.593   12 Jun 2027 05:44:22.295             1.702           851.000
       359   12 Jun 2027 05:44:33.354   12 Jun 2027 05:44:33.399             0.045            22.500
       360   12 Jun 2027 05:44:50.898   12 Jun 2027 05:44:59.929             9.031          4515.500
       361   12 Jun 2027 05:45:50.530   12 Jun 2027 05:46:13.229            22.699         11349.500
       362   12 Jun 2027 07:18:43.960   12 Jun 2027 07:19:01.917            17.957          8978.500
       363   12 Jun 2027 07:20:21.279   12 Jun 2027 07:20:24.053             2.774          1387.000
       364   12 Jun 2027 07:20:43.923   12 Jun 2027 07:20:45.122             1.199           599.500
       365   12 Jun 2027 07:21:37.025   12 Jun 2027 07:21:46.813             9.788          4894.000
       366   12 Jun 2027 08:52:18.048   12 Jun 2027 08:52:37.665            19.617          9808.500
       367   12 Jun 2027 08:54:20.023   12 Jun 2027 08:54:33.716            13.693          6846.500
       368   12 Jun 2027 08:56:07.081   12 Jun 2027 08:56:14.820             7.739          3869.500
       369   12 Jun 2027 08:56:49.789   12 Jun 2027 08:56:52.190             2.401          1200.500
       370   12 Jun 2027 08:57:50.717   12 Jun 2027 08:57:51.608             0.891           445.500
       371   12 Jun 2027 08:57:56.400   12 Jun 2027 08:57:56.948             0.548           274.000
       372   12 Jun 2027 08:58:15.841   12 Jun 2027 08:58:18.268             2.427          1213.500
       373   12 Jun 2027 08:59:04.792   12 Jun 2027 08:59:18.991            14.199          7099.500
       374   13 Jun 2027 04:15:55.627   13 Jun 2027 04:16:07.952            12.325          6162.500
       375   13 Jun 2027 04:16:34.592   13 Jun 2027 04:16:34.592             0.000             0.000
       376   13 Jun 2027 04:16:42.102   13 Jun 2027 04:16:42.961             0.859           429.500
       377   13 Jun 2027 04:17:50.390   13 Jun 2027 04:18:11.748            21.358         10679.000
       378   13 Jun 2027 04:19:46.509   13 Jun 2027 04:19:58.226            11.717          5858.500
       379   13 Jun 2027 04:20:22.029   13 Jun 2027 04:20:27.286             5.257          2628.500
       380   13 Jun 2027 04:21:43.096   13 Jun 2027 04:21:50.779             7.683          3841.500
       381   13 Jun 2027 04:22:29.362   13 Jun 2027 04:22:42.547            13.185          6592.500
       382   13 Jun 2027 05:52:43.166   13 Jun 2027 05:52:49.044             5.878          2939.000
       383   13 Jun 2027 05:53:18.324   13 Jun 2027 05:53:19.845             1.521           760.500
       384   13 Jun 2027 05:53:54.469   13 Jun 2027 05:53:57.682             3.213          1606.500
       385   13 Jun 2027 05:54:41.860   13 Jun 2027 05:54:46.864             5.004          2502.000
       386   13 Jun 2027 05:55:06.485   13 Jun 2027 05:55:10.545             4.060          2030.000
       387   13 Jun 2027 05:55:38.870   13 Jun 2027 05:55:46.702             7.832          3916.000
       388   13 Jun 2027 05:56:20.422   13 Jun 2027 05:56:26.829             6.407          3203.500
       389   13 Jun 2027 05:57:00.911   13 Jun 2027 05:57:11.645            10.734          5367.000
       390   13 Jun 2027 05:57:42.652   13 Jun 2027 05:57:48.395             5.743          2871.500
       391   13 Jun 2027 05:58:34.638   13 Jun 2027 05:58:35.892             1.254           627.000
       392   13 Jun 2027 05:59:00.866   13 Jun 2027 05:59:03.504             2.638          1319.000
       393   13 Jun 2027 05:59:17.543   13 Jun 2027 05:59:18.070             0.527           263.500
       394   13 Jun 2027 05:59:21.613   13 Jun 2027 05:59:24.520             2.907          1453.500
       395   13 Jun 2027 07:30:46.938   13 Jun 2027 07:30:51.983             5.045          2522.500
       396   13 Jun 2027 07:31:33.789   13 Jun 2027 07:31:48.857            15.068          7534.000
       397   13 Jun 2027 07:31:53.475   13 Jun 2027 07:31:55.309             1.834           917.000
       398   13 Jun 2027 07:33:01.273   13 Jun 2027 07:33:08.316             7.043          3521.500
       399   13 Jun 2027 07:33:51.887   13 Jun 2027 07:33:51.939             0.052            26.000
       400   13 Jun 2027 07:34:36.170   13 Jun 2027 07:34:49.678            13.508          6754.000
       401   13 Jun 2027 09:04:37.014   13 Jun 2027 09:04:48.389            11.375          5687.500
       402   13 Jun 2027 09:05:36.189   13 Jun 2027 09:05:39.069             2.880          1440.000
       403   13 Jun 2027 09:06:25.827   13 Jun 2027 09:06:29.272             3.445          1722.500
       404   13 Jun 2027 09:06:43.230   13 Jun 2027 09:06:49.165             5.935          2967.500
       405   13 Jun 2027 09:07:02.283   13 Jun 2027 09:07:02.283             0.000             0.000
       406   13 Jun 2027 09:07:26.575   13 Jun 2027 09:07:41.248            14.673          7336.500
       407   13 Jun 2027 09:08:44.550   13 Jun 2027 09:09:00.275            15.725          7862.500
       408   13 Jun 2027 09:10:18.166   13 Jun 2027 09:10:18.516             0.350           175.000
       409   13 Jun 2027 09:10:22.685   13 Jun 2027 09:10:26.245             3.560          1780.000
       410   13 Jun 2027 09:10:53.644   13 Jun 2027 09:11:05.099            11.455          5727.500
