uniorb/output/strategy_2/Camera/Camera_KinoSat_111602.txt

KinoSat_111602
-------------------------
    Access    *     Start Time (UTCG)     *     Stop Time (UTCG)  *   Duration (s) *   Data (Mbytes)
         1   01 Jun 2027 03:43:13.705   01 Jun 2027 03:44:15.390            61.685         30842.500
         2   01 Jun 2027 03:44:22.091   01 Jun 2027 03:45:59.288            97.197         48598.500
         3   01 Jun 2027 03:47:08.155   01 Jun 2027 03:47:58.765            50.610         25305.000
         4   01 Jun 2027 03:48:04.921   01 Jun 2027 03:48:38.007            33.086         16543.000
         5   01 Jun 2027 05:21:31.599   01 Jun 2027 05:22:05.075            33.476         16738.000
         6   01 Jun 2027 05:22:20.142   01 Jun 2027 05:22:53.306            33.164         16582.000
         7   01 Jun 2027 05:23:42.592   01 Jun 2027 05:24:11.648            29.056         14528.000
         8   01 Jun 2027 05:24:37.148   01 Jun 2027 05:25:20.786            43.638         21819.000
         9   01 Jun 2027 06:44:53.998   01 Jun 2027 06:46:08.845            74.847         37423.500
        10   01 Jun 2027 08:21:26.752   01 Jun 2027 08:24:02.760           156.008         78004.000
        11   01 Jun 2027 09:56:37.240   01 Jun 2027 09:58:45.044           127.804         63902.000
        12   01 Jun 2027 10:01:41.989   01 Jun 2027 10:01:41.989             0.000             0.000
        13   01 Jun 2027 10:02:54.588   01 Jun 2027 10:03:13.231            18.643          9321.500
        14   01 Jun 2027 11:32:58.787   01 Jun 2027 11:34:01.472            62.685         31342.500
        15   01 Jun 2027 11:35:16.014   01 Jun 2027 11:36:24.573            68.559         34279.500
        16   01 Jun 2027 11:38:23.886   01 Jun 2027 11:38:26.027             2.141          1070.500
        17   01 Jun 2027 11:38:32.080   01 Jun 2027 11:38:38.909             6.829          3414.500
        18   02 Jun 2027 03:56:20.334   02 Jun 2027 03:57:44.023            83.689         41844.500
        19   02 Jun 2027 03:58:10.249   02 Jun 2027 03:58:56.720            46.471         23235.500
        20   02 Jun 2027 03:59:51.115   02 Jun 2027 04:00:54.429            63.314         31657.000
        21   02 Jun 2027 04:03:05.397   02 Jun 2027 04:03:28.951            23.554         11777.000
        22   02 Jun 2027 04:03:58.648   02 Jun 2027 04:04:17.065            18.417          9208.500
        23   02 Jun 2027 05:33:28.373   02 Jun 2027 05:34:08.264            39.891         19945.500
        24   02 Jun 2027 05:34:27.551   02 Jun 2027 05:34:47.225            19.674          9837.000
        25   02 Jun 2027 05:35:09.574   02 Jun 2027 05:35:17.677             8.103          4051.500
        26   02 Jun 2027 05:35:18.337   02 Jun 2027 05:35:35.980            17.643          8821.500
        27   02 Jun 2027 05:35:45.490   02 Jun 2027 05:35:45.490             0.000             0.000
        28   02 Jun 2027 05:36:19.776   02 Jun 2027 05:37:03.565            43.789         21894.500
        29   02 Jun 2027 06:57:23.744   02 Jun 2027 06:59:29.446           125.702         62851.000
        30   02 Jun 2027 08:33:18.502   02 Jun 2027 08:34:48.619            90.117         45058.500
        31   02 Jun 2027 08:36:35.888   02 Jun 2027 08:36:35.888             0.000             0.000
        32   02 Jun 2027 10:08:12.039   02 Jun 2027 10:08:28.498            16.459          7925.219
        33   02 Jun 2027 10:08:54.239   02 Jun 2027 10:08:56.385             2.146           593.937
        34   02 Jun 2027 10:10:03.875   02 Jun 2027 10:10:14.154            10.279           612.969
        35   02 Jun 2027 10:11:11.782   02 Jun 2027 10:11:11.782             0.000             0.000
        36   02 Jun 2027 10:11:28.451   02 Jun 2027 10:11:28.451             0.000             0.000
        37   02 Jun 2027 10:13:41.757   02 Jun 2027 10:14:00.830            19.073          6080.750
        38   02 Jun 2027 10:14:38.931   02 Jun 2027 10:14:41.315             2.384           838.969
        39   02 Jun 2027 10:14:47.380   02 Jun 2027 10:14:49.700             2.320           122.875
        40   02 Jun 2027 10:15:17.744   02 Jun 2027 10:15:21.529             3.785           795.031
        41   02 Jun 2027 11:44:35.164   02 Jun 2027 11:44:51.883            16.719          7506.656
        42   02 Jun 2027 11:47:26.631   02 Jun 2027 11:47:35.130             8.499          3930.188
        43   02 Jun 2027 11:48:16.466   02 Jun 2027 11:48:19.150             2.684          1246.281
        44   02 Jun 2027 11:48:48.543   02 Jun 2027 11:48:49.108             0.565           282.500
        45   02 Jun 2027 11:48:58.270   02 Jun 2027 11:49:00.677             2.407           878.906
        46   02 Jun 2027 11:49:52.478   02 Jun 2027 11:49:57.540             5.062          1618.781
        47   03 Jun 2027 04:08:24.289   03 Jun 2027 04:11:42.778           198.489         99244.500
        48   03 Jun 2027 04:12:11.836   03 Jun 2027 04:12:44.014            32.178         16089.000
        49   03 Jun 2027 04:13:10.845   03 Jun 2027 04:13:31.938            21.093         10546.500
        50   03 Jun 2027 05:34:10.218   03 Jun 2027 05:35:06.639            56.421         28210.500
        51   03 Jun 2027 05:45:24.666   03 Jun 2027 05:45:39.125            14.459          7229.500
        52   03 Jun 2027 05:45:52.399   03 Jun 2027 05:46:12.776            20.377         10188.500
        53   03 Jun 2027 05:46:24.649   03 Jun 2027 05:46:27.746             3.097          1182.657
        54   03 Jun 2027 05:46:53.530   03 Jun 2027 05:46:56.592             3.062           759.906
        55   03 Jun 2027 07:08:01.240   03 Jun 2027 07:08:16.539            15.299          6248.813
        56   03 Jun 2027 07:09:15.220   03 Jun 2027 07:09:20.315             5.095          1774.906
        57   03 Jun 2027 07:09:26.307   03 Jun 2027 07:09:27.313             1.006           187.250
        58   03 Jun 2027 07:09:45.296   03 Jun 2027 07:09:45.296             0.000             0.000
        59   03 Jun 2027 07:09:46.417   03 Jun 2027 07:09:49.661             3.244           362.625
        60   03 Jun 2027 07:11:33.115   03 Jun 2027 07:11:45.933            12.818          3083.281
        61   03 Jun 2027 07:12:28.414   03 Jun 2027 07:12:37.108             8.694          1030.000
        62   03 Jun 2027 08:43:35.884   03 Jun 2027 08:43:47.336            11.452          4310.687
        63   03 Jun 2027 08:44:07.859   03 Jun 2027 08:44:12.119             4.260           113.250
        64   03 Jun 2027 08:45:19.499   03 Jun 2027 08:45:19.499             0.000             0.000
        65   03 Jun 2027 08:46:14.520   03 Jun 2027 08:46:23.288             8.768          3603.656
        66   03 Jun 2027 08:46:51.968   03 Jun 2027 08:46:53.661             1.693           738.937
        67   03 Jun 2027 08:47:42.031   03 Jun 2027 08:47:42.031             0.000             0.000
        68   03 Jun 2027 08:47:58.404   03 Jun 2027 08:48:03.351             4.947          1713.500
        69   03 Jun 2027 10:19:48.694   03 Jun 2027 10:19:57.698             9.004          3721.250
        70   03 Jun 2027 10:22:59.820   03 Jun 2027 10:23:11.254            11.434          5043.094
        71   03 Jun 2027 10:23:27.470   03 Jun 2027 10:23:30.782             3.312           506.750
        72   03 Jun 2027 10:24:28.823   03 Jun 2027 10:24:30.949             2.126          1063.000
        73   03 Jun 2027 10:24:33.603   03 Jun 2027 10:24:33.704             0.101            50.500
        74   03 Jun 2027 10:24:53.592   03 Jun 2027 10:24:56.380             2.788           856.344
        75   03 Jun 2027 10:24:56.830   03 Jun 2027 10:24:59.151             2.321            14.063
        76   03 Jun 2027 10:24:59.575   03 Jun 2027 10:25:00.954             1.379            13.250
        77   03 Jun 2027 10:25:22.072   03 Jun 2027 10:25:23.636             1.564           494.656
        78   03 Jun 2027 10:25:30.502   03 Jun 2027 10:25:30.825             0.323           161.500
        79   03 Jun 2027 10:26:06.828   03 Jun 2027 10:26:12.346             5.518          1178.156
        80   03 Jun 2027 10:26:28.771   03 Jun 2027 10:26:28.993             0.222           111.000
        81   03 Jun 2027 10:26:46.265   03 Jun 2027 10:26:51.903             5.638           942.031
        82   03 Jun 2027 10:27:07.159   03 Jun 2027 10:27:09.051             1.892           273.531
        83   03 Jun 2027 11:56:55.066   03 Jun 2027 11:57:13.388            18.322          8082.062
        84   03 Jun 2027 11:57:55.083   03 Jun 2027 11:57:59.247             4.164           838.938
        85   03 Jun 2027 11:58:24.974   03 Jun 2027 11:58:25.189             0.215           107.500
        86   04 Jun 2027 04:20:53.700   04 Jun 2027 04:23:21.514           147.814         73907.000
        87   04 Jun 2027 04:23:25.803   04 Jun 2027 04:23:35.169             9.366          4683.000
        88   04 Jun 2027 04:24:12.988   04 Jun 2027 04:24:18.052             5.064          2532.000
        89   04 Jun 2027 04:24:52.604   04 Jun 2027 04:25:43.023            50.419         25209.500
        90   04 Jun 2027 04:26:39.799   04 Jun 2027 04:26:39.799             0.000             0.000
        91   04 Jun 2027 04:26:59.019   04 Jun 2027 04:27:18.913            19.894          9947.000
        92   04 Jun 2027 05:45:44.631   04 Jun 2027 05:46:19.240            34.609         17304.500
        93   04 Jun 2027 05:57:28.061   04 Jun 2027 05:58:27.307            59.246         29623.000
        94   04 Jun 2027 07:19:43.540   04 Jun 2027 07:19:58.740            15.200          7269.906
        95   04 Jun 2027 07:20:40.343   04 Jun 2027 07:20:43.524             3.181          1044.562
        96   04 Jun 2027 07:22:09.043   04 Jun 2027 07:22:15.548             6.505          2045.687
        97   04 Jun 2027 07:23:14.323   04 Jun 2027 07:23:18.567             4.244          1677.125
        98   04 Jun 2027 07:23:58.366   04 Jun 2027 07:24:01.205             2.839           816.062
        99   04 Jun 2027 07:24:35.233   04 Jun 2027 07:24:39.675             4.442           808.000
       100   04 Jun 2027 08:54:42.609   04 Jun 2027 08:54:52.938            10.329          4407.250
       101   04 Jun 2027 08:55:08.804   04 Jun 2027 08:55:15.285             6.481           469.094
       102   04 Jun 2027 08:56:17.890   04 Jun 2027 08:56:25.777             7.887          1539.063
       103   04 Jun 2027 08:57:38.395   04 Jun 2027 08:57:41.293             2.898          1449.000
       104   04 Jun 2027 08:57:48.879   04 Jun 2027 08:57:51.299             2.420           293.344
       105   04 Jun 2027 08:58:20.266   04 Jun 2027 08:58:23.458             3.192           748.687
       106   04 Jun 2027 08:59:56.102   04 Jun 2027 09:00:01.285             5.183          2528.313
       107   04 Jun 2027 10:32:08.923   04 Jun 2027 10:32:20.862            11.939          5698.344
       108   04 Jun 2027 10:33:02.218   04 Jun 2027 10:33:06.787             4.569           970.531
       109   04 Jun 2027 10:34:04.893   04 Jun 2027 10:34:06.971             2.078          1039.000
       110   04 Jun 2027 10:35:07.720   04 Jun 2027 10:35:14.612             6.892          2359.563
       111   04 Jun 2027 10:38:24.051   04 Jun 2027 10:38:36.149            12.098          5919.969
       112   04 Jun 2027 10:38:58.799   04 Jun 2027 10:39:00.910             2.111           705.594
       113   05 Jun 2027 03:00:00.000   05 Jun 2027 03:00:09.456             9.456          4728.000
       114   05 Jun 2027 04:32:55.939   05 Jun 2027 04:36:57.767           241.828        120914.000
       115   05 Jun 2027 04:37:43.939   05 Jun 2027 04:38:08.692            24.753         12376.500
       116   05 Jun 2027 04:39:08.732   05 Jun 2027 04:39:22.394            13.662          6831.000
       117   05 Jun 2027 05:57:17.053   05 Jun 2027 05:57:47.233            30.180         15090.000
       118   05 Jun 2027 05:59:03.419   05 Jun 2027 05:59:04.363             0.944           472.000
       119   05 Jun 2027 06:09:33.549   05 Jun 2027 06:09:51.988            18.439          8701.125
       120   05 Jun 2027 06:09:57.041   05 Jun 2027 06:10:01.158             4.117           109.656
       121   05 Jun 2027 07:31:22.320   05 Jun 2027 07:31:38.964            16.644          5904.969
       122   05 Jun 2027 07:32:33.741   05 Jun 2027 07:32:36.771             3.030          1515.000
       123   05 Jun 2027 07:33:40.600   05 Jun 2027 07:33:46.497             5.897          1890.844
       124   05 Jun 2027 07:33:58.245   05 Jun 2027 07:34:04.330             6.085           192.781
       125   05 Jun 2027 07:35:01.955   05 Jun 2027 07:35:06.448             4.493          1685.156
       126   05 Jun 2027 07:36:01.132   05 Jun 2027 07:36:07.762             6.630           952.875
       127   05 Jun 2027 09:06:10.649   05 Jun 2027 09:06:21.355            10.706          4887.344
       128   05 Jun 2027 09:08:03.385   05 Jun 2027 09:08:07.354             3.969          1984.500
       129   05 Jun 2027 09:08:10.926   05 Jun 2027 09:08:13.716             2.790           474.969
       130   05 Jun 2027 09:09:17.813   05 Jun 2027 09:09:24.781             6.968          1978.562
       131   05 Jun 2027 09:11:56.282   05 Jun 2027 09:12:07.368            11.086          4316.562
       132   05 Jun 2027 09:13:06.584   05 Jun 2027 09:13:14.067             7.483          1196.812
       133   05 Jun 2027 09:13:55.601   05 Jun 2027 09:14:06.170            10.569          1055.875
       134   05 Jun 2027 09:14:39.817   05 Jun 2027 09:14:44.564             4.747          1051.469
       135   05 Jun 2027 09:14:51.680   05 Jun 2027 09:14:53.507             1.827           119.281
       136   05 Jun 2027 10:44:03.329   05 Jun 2027 10:44:13.922            10.593          5296.500
       137   05 Jun 2027 10:44:55.339   05 Jun 2027 10:44:58.129             2.790          1395.000
       138   05 Jun 2027 10:44:59.118   05 Jun 2027 10:45:01.911             2.793           138.031
       139   05 Jun 2027 10:46:12.277   05 Jun 2027 10:46:17.633             5.356          1780.062
       140   05 Jun 2027 10:47:38.987   05 Jun 2027 10:47:43.628             4.641          1137.313
       141   05 Jun 2027 10:49:59.357   05 Jun 2027 10:50:08.577             9.220          3729.531
       142   05 Jun 2027 10:50:43.383   05 Jun 2027 10:50:46.147             2.764          1087.688
       143   05 Jun 2027 10:50:52.643   05 Jun 2027 10:50:53.721             1.078           203.000
       144   06 Jun 2027 03:06:52.081   06 Jun 2027 03:07:10.826            18.745          9372.500
       145   06 Jun 2027 03:07:16.592   06 Jun 2027 03:08:15.235            58.643         29321.500
       146   06 Jun 2027 03:08:56.517   06 Jun 2027 03:10:02.429            65.912         32956.000
       147   06 Jun 2027 03:10:49.751   06 Jun 2027 03:10:49.880             0.129            64.500
       148   06 Jun 2027 03:11:31.703   06 Jun 2027 03:11:37.314             5.611          2805.500
       149   06 Jun 2027 03:11:53.463   06 Jun 2027 03:11:58.200             4.737          2368.500
       150   06 Jun 2027 04:45:20.092   06 Jun 2027 04:47:17.798           117.706         58853.000
       151   06 Jun 2027 04:47:27.945   06 Jun 2027 04:47:54.561            26.616         13308.000
       152   06 Jun 2027 04:49:02.301   06 Jun 2027 04:49:02.301             0.000             0.000
       153   06 Jun 2027 04:50:17.990   06 Jun 2027 04:50:27.295             9.305          4652.500
       154   06 Jun 2027 06:09:14.660   06 Jun 2027 06:09:36.634            21.974         10957.937
       155   06 Jun 2027 06:10:19.446   06 Jun 2027 06:10:19.446             0.000             0.000
       156   06 Jun 2027 07:45:12.834   06 Jun 2027 07:45:26.787            13.953          5673.531
       157   06 Jun 2027 07:45:55.497   06 Jun 2027 07:45:55.497             0.000             0.000
       158   06 Jun 2027 07:45:59.677   06 Jun 2027 07:46:04.484             4.807           761.688
       159   06 Jun 2027 07:47:08.410   06 Jun 2027 07:47:16.986             8.576          1942.500
       160   06 Jun 2027 07:48:03.710   06 Jun 2027 07:48:06.402             2.692          1112.063
       161   06 Jun 2027 07:48:31.274   06 Jun 2027 07:48:31.274             0.000             0.000
       162   06 Jun 2027 09:19:01.273   06 Jun 2027 09:19:10.867             9.594          4150.844
       163   06 Jun 2027 09:19:50.855   06 Jun 2027 09:19:54.569             3.714           454.500
       164   06 Jun 2027 09:20:31.185   06 Jun 2027 09:20:35.364             4.179           603.875
       165   06 Jun 2027 09:21:15.702   06 Jun 2027 09:21:17.550             1.848           541.031
       166   06 Jun 2027 09:21:33.838   06 Jun 2027 09:21:37.312             3.474           509.000
       167   06 Jun 2027 09:22:38.764   06 Jun 2027 09:22:38.764             0.000             0.000
       168   06 Jun 2027 09:24:57.348   06 Jun 2027 09:25:09.566            12.218          5497.531
       169   06 Jun 2027 09:25:41.528   06 Jun 2027 09:25:43.722             2.194           934.125
       170   06 Jun 2027 09:25:57.254   06 Jun 2027 09:26:00.361             3.107           422.875
       171   06 Jun 2027 09:26:48.022   06 Jun 2027 09:26:50.774             2.752          1355.562
       172   06 Jun 2027 09:27:04.186   06 Jun 2027 09:27:06.325             2.139           419.125
       173   06 Jun 2027 10:56:10.450   06 Jun 2027 10:56:25.987            15.537          7158.187
       174   06 Jun 2027 10:56:58.465   06 Jun 2027 10:57:03.504             5.039           323.594
       175   06 Jun 2027 10:58:48.935   06 Jun 2027 10:58:48.935             0.000             0.000
       176   06 Jun 2027 11:00:27.904   06 Jun 2027 11:00:40.309            12.405          5968.063
       177   06 Jun 2027 11:01:16.726   06 Jun 2027 11:01:22.155             5.429           636.281
       178   06 Jun 2027 11:01:22.599   06 Jun 2027 11:01:22.834             0.235            13.875
       179   06 Jun 2027 11:01:36.229   06 Jun 2027 11:01:36.254             0.025            12.500
       180   06 Jun 2027 11:01:41.580   06 Jun 2027 11:01:45.880             4.300           572.531
       181   06 Jun 2027 11:02:43.951   06 Jun 2027 11:02:47.608             3.657          1387.937
       182   07 Jun 2027 03:19:36.725   07 Jun 2027 03:19:46.002             9.277          4638.500
       183   07 Jun 2027 03:19:47.816   07 Jun 2027 03:19:56.106             8.290          4145.000
       184   07 Jun 2027 03:20:10.867   07 Jun 2027 03:21:04.696            53.829         26914.500
       185   07 Jun 2027 03:21:06.306   07 Jun 2027 03:21:29.323            23.017         11508.500
       186   07 Jun 2027 03:21:57.956   07 Jun 2027 03:23:32.964            95.008         47504.000
       187   07 Jun 2027 03:24:07.471   07 Jun 2027 03:24:31.553            24.082         12041.000
       188   07 Jun 2027 03:24:50.295   07 Jun 2027 03:24:50.295             0.000             0.000
       189   07 Jun 2027 03:25:07.097   07 Jun 2027 03:25:26.033            18.936          9468.000
       190   07 Jun 2027 03:25:37.102   07 Jun 2027 03:25:38.413             1.311           655.500
       191   07 Jun 2027 04:57:44.488   07 Jun 2027 04:58:29.321            44.833         22416.500
       192   07 Jun 2027 04:59:39.427   07 Jun 2027 05:00:15.500            36.073         17917.844
       193   07 Jun 2027 05:00:24.334   07 Jun 2027 05:00:24.590             0.256             4.437
       194   07 Jun 2027 05:01:03.731   07 Jun 2027 05:01:09.066             5.335          1166.406
       195   07 Jun 2027 05:02:20.644   07 Jun 2027 05:02:20.644             0.000             0.000
       196   07 Jun 2027 05:02:21.929   07 Jun 2027 05:02:26.376             4.447          2106.219
       197   07 Jun 2027 06:21:07.444   07 Jun 2027 06:21:23.782            16.338          7599.781
       198   07 Jun 2027 06:22:23.562   07 Jun 2027 06:22:24.984             1.422           711.000
       199   07 Jun 2027 07:57:29.906   07 Jun 2027 07:57:48.345            18.439          8769.281
       200   07 Jun 2027 07:58:44.046   07 Jun 2027 07:58:49.077             5.031          1411.219
       201   07 Jun 2027 07:59:24.337   07 Jun 2027 07:59:26.814             2.477          1043.375
       202   07 Jun 2027 08:00:06.080   07 Jun 2027 08:00:09.854             3.774          1069.844
       203   07 Jun 2027 09:31:24.005   07 Jun 2027 09:31:33.201             9.196          4570.875
       204   07 Jun 2027 09:34:01.647   07 Jun 2027 09:34:15.905            14.258          3416.937
       205   07 Jun 2027 09:38:02.179   07 Jun 2027 09:38:16.117            13.938          6707.812
       206   07 Jun 2027 09:38:52.131   07 Jun 2027 09:38:54.914             2.783           992.406
       207   07 Jun 2027 09:39:29.943   07 Jun 2027 09:39:32.333             2.390          1029.406
       208   07 Jun 2027 11:08:36.562   07 Jun 2027 11:08:48.868            12.306          5867.625
       209   07 Jun 2027 11:08:50.180   07 Jun 2027 11:08:50.468             0.288             6.406
       210   07 Jun 2027 11:10:37.344   07 Jun 2027 11:10:40.803             3.459          1715.750
       211   07 Jun 2027 11:10:56.201   07 Jun 2027 11:10:59.794             3.593           481.187
       212   07 Jun 2027 11:11:36.162   07 Jun 2027 11:11:46.299            10.137           535.188
       213   07 Jun 2027 11:11:50.458   07 Jun 2027 11:11:54.810             4.352           129.969
       214   07 Jun 2027 11:12:35.697   07 Jun 2027 11:12:39.000             3.303           594.719
       215   07 Jun 2027 11:12:44.499   07 Jun 2027 11:12:44.726             0.227            79.562
       216   07 Jun 2027 11:13:00.228   07 Jun 2027 11:13:02.038             1.810           420.000
       217   07 Jun 2027 11:13:04.761   07 Jun 2027 11:13:06.020             1.259            62.875
       218   07 Jun 2027 11:13:32.977   07 Jun 2027 11:13:33.938             0.961           480.500
       219   07 Jun 2027 11:14:36.164   07 Jun 2027 11:14:40.749             4.585          1969.219
       220   07 Jun 2027 11:14:57.237   07 Jun 2027 11:14:59.333             2.096           515.250
       221   08 Jun 2027 03:31:44.673   08 Jun 2027 03:32:36.357            51.684         25842.000
       222   08 Jun 2027 03:32:53.477   08 Jun 2027 03:34:11.680            78.203         39101.500
       223   08 Jun 2027 03:34:37.538   08 Jun 2027 03:35:02.186            24.648         12324.000
       224   08 Jun 2027 03:35:29.600   08 Jun 2027 03:36:14.991            45.391         22695.500
       225   08 Jun 2027 03:36:51.945   08 Jun 2027 03:37:38.290            46.345         23172.500
       226   08 Jun 2027 05:10:03.211   08 Jun 2027 05:10:10.061             6.850          3425.000
       227   08 Jun 2027 05:10:20.730   08 Jun 2027 05:11:03.812            43.082         21541.000
       228   08 Jun 2027 05:11:11.437   08 Jun 2027 05:11:33.093            21.656          9248.750
       229   08 Jun 2027 05:12:16.887   08 Jun 2027 05:12:16.887             0.000             0.000
       230   08 Jun 2027 06:32:57.490   08 Jun 2027 06:33:08.075            10.585          5202.875
       231   08 Jun 2027 06:34:24.641   08 Jun 2027 06:34:29.309             4.668          2287.125
       232   08 Jun 2027 08:09:33.375   08 Jun 2027 08:09:41.415             8.040          3976.062
       233   08 Jun 2027 08:10:20.590   08 Jun 2027 08:10:22.258             1.668           657.594
       234   08 Jun 2027 08:11:28.968   08 Jun 2027 08:11:34.058             5.090          1899.469
       235   08 Jun 2027 08:12:08.198   08 Jun 2027 08:12:10.026             1.828           797.312
       236   08 Jun 2027 08:12:38.512   08 Jun 2027 08:12:41.400             2.888           890.188
       237   08 Jun 2027 09:44:41.481   08 Jun 2027 09:44:50.574             9.093          4452.813
       238   08 Jun 2027 09:45:24.823   08 Jun 2027 09:45:30.746             5.923           610.844
       239   08 Jun 2027 09:45:53.795   08 Jun 2027 09:45:53.795             0.000             0.000
       240   08 Jun 2027 09:46:05.504   08 Jun 2027 09:46:08.654             3.150           766.500
       241   08 Jun 2027 09:48:28.883   08 Jun 2027 09:48:35.489             6.606          3005.531
       242   08 Jun 2027 09:49:05.980   08 Jun 2027 09:49:08.044             2.064           789.625
       243   08 Jun 2027 09:49:24.861   08 Jun 2027 09:49:30.635             5.774           497.750
       244   08 Jun 2027 09:49:34.718   08 Jun 2027 09:49:35.664             0.946           127.594
       245   08 Jun 2027 09:50:43.305   08 Jun 2027 09:50:43.305             0.000             0.000
       246   08 Jun 2027 09:51:12.485   08 Jun 2027 09:51:17.196             4.711          2285.344
       247   08 Jun 2027 09:51:24.988   08 Jun 2027 09:51:28.796             3.808           243.500
       248   08 Jun 2027 11:21:01.728   08 Jun 2027 11:21:12.119            10.391          4967.438
       249   08 Jun 2027 11:22:23.745   08 Jun 2027 11:22:26.119             2.374          1058.594
       250   08 Jun 2027 11:22:49.127   08 Jun 2027 11:22:50.494             1.367           643.562
       251   08 Jun 2027 11:23:12.878   08 Jun 2027 11:23:14.295             1.417           554.125
       252   08 Jun 2027 11:23:25.607   08 Jun 2027 11:23:26.692             1.085           353.500
       253   08 Jun 2027 11:24:38.507   08 Jun 2027 11:24:42.805             4.298          2149.000
       254   08 Jun 2027 11:25:01.602   08 Jun 2027 11:25:05.086             3.484           647.969
       255   08 Jun 2027 11:25:25.348   08 Jun 2027 11:25:27.280             1.932           633.187
       256   08 Jun 2027 11:25:36.752   08 Jun 2027 11:25:37.880             1.128           201.500
       257   08 Jun 2027 11:26:42.643   08 Jun 2027 11:26:48.083             5.440          1975.031
       258   08 Jun 2027 11:27:14.809   08 Jun 2027 11:27:16.477             1.668           546.750
       259   09 Jun 2027 03:43:30.632   09 Jun 2027 03:44:31.462            60.830         30415.000
       260   09 Jun 2027 03:44:38.357   09 Jun 2027 03:46:34.717           116.360         58180.000
       261   09 Jun 2027 03:47:04.089   09 Jun 2027 03:47:09.799             5.710          2855.000
       262   09 Jun 2027 03:48:20.814   09 Jun 2027 03:49:09.767            48.953         24476.500
       263   09 Jun 2027 05:21:47.905   09 Jun 2027 05:22:22.581            34.676         17338.000
       264   09 Jun 2027 05:23:06.075   09 Jun 2027 05:23:17.477            11.402          5701.000
       265   09 Jun 2027 05:23:35.371   09 Jun 2027 05:24:05.622            30.251         14708.782
       266   09 Jun 2027 05:24:51.906   09 Jun 2027 05:24:54.730             2.824          1369.250
       267   09 Jun 2027 05:25:27.130   09 Jun 2027 05:25:29.427             2.297           570.156
       268   09 Jun 2027 06:45:09.924   09 Jun 2027 06:45:25.038            15.114          6143.594
       269   09 Jun 2027 06:46:04.006   09 Jun 2027 06:46:06.424             2.418           216.156
       270   09 Jun 2027 06:46:36.085   09 Jun 2027 06:46:36.085             0.000             0.000
       271   09 Jun 2027 06:46:42.587   09 Jun 2027 06:46:44.980             2.393          1130.094
       272   09 Jun 2027 06:47:48.751   09 Jun 2027 06:47:49.540             0.789           394.500
       273   09 Jun 2027 06:48:07.139   09 Jun 2027 06:48:13.216             6.077          1730.812
       274   09 Jun 2027 08:21:44.533   09 Jun 2027 08:21:57.290            12.757          5145.313
       275   09 Jun 2027 08:22:05.477   09 Jun 2027 08:22:05.477             0.000             0.000
       276   09 Jun 2027 08:23:02.974   09 Jun 2027 08:23:09.046             6.072          1923.312
       277   09 Jun 2027 08:24:10.033   09 Jun 2027 08:24:10.033             0.000             0.000
       278   09 Jun 2027 08:24:43.954   09 Jun 2027 08:24:50.559             6.605          2847.000
       279   09 Jun 2027 09:56:54.044   09 Jun 2027 09:57:06.874            12.830          6392.656
       280   09 Jun 2027 09:59:03.833   09 Jun 2027 09:59:13.936            10.103          3582.094
       281   09 Jun 2027 09:59:30.150   09 Jun 2027 09:59:31.457             1.307             1.438
       282   09 Jun 2027 10:03:14.003   09 Jun 2027 10:03:29.251            15.248          6388.031
       283   09 Jun 2027 11:33:15.362   09 Jun 2027 11:33:30.313            14.951          5475.938
       284   09 Jun 2027 11:34:00.603   09 Jun 2027 11:34:02.832             2.229           946.562
       285   09 Jun 2027 11:34:59.594   09 Jun 2027 11:35:04.518             4.924          1350.594
       286   09 Jun 2027 11:35:26.105   09 Jun 2027 11:35:29.327             3.222           368.031
       287   09 Jun 2027 11:36:56.313   09 Jun 2027 11:37:01.706             5.393          2219.188
       288   09 Jun 2027 11:37:28.669   09 Jun 2027 11:37:36.970             8.301           842.594
       289   09 Jun 2027 11:37:41.105   09 Jun 2027 11:37:41.105             0.000             0.000
       290   09 Jun 2027 11:38:40.004   09 Jun 2027 11:38:44.574             4.570          1969.812
       291   09 Jun 2027 11:39:22.704   09 Jun 2027 11:39:26.150             3.446          1191.562
       292   10 Jun 2027 03:56:37.244   10 Jun 2027 03:58:10.558            93.314         46657.000
       293   10 Jun 2027 03:58:26.908   10 Jun 2027 03:59:11.817            44.909         22454.500
       294   10 Jun 2027 04:00:06.896   10 Jun 2027 04:01:11.444            64.548         32274.000
       295   10 Jun 2027 04:01:37.577   10 Jun 2027 04:01:44.801             7.224          3612.000
       296   10 Jun 2027 04:03:27.850   10 Jun 2027 04:03:45.081            17.231          8615.500
       297   10 Jun 2027 05:33:44.706   10 Jun 2027 05:34:25.403            40.697         20348.500
       298   10 Jun 2027 05:34:42.476   10 Jun 2027 05:35:18.378            35.902         17951.000
       299   10 Jun 2027 05:35:51.411   10 Jun 2027 05:35:51.411             0.000             0.000
       300   10 Jun 2027 05:36:37.480   10 Jun 2027 05:36:37.480             0.000             0.000
       301   10 Jun 2027 06:57:40.541   10 Jun 2027 06:57:57.358            16.817          8215.438
       302   10 Jun 2027 06:58:08.895   10 Jun 2027 06:58:08.895             0.000             0.000
       303   10 Jun 2027 06:58:15.700   10 Jun 2027 06:58:17.270             1.570           482.562
       304   10 Jun 2027 06:59:49.036   10 Jun 2027 06:59:56.607             7.571          2796.406
       305   10 Jun 2027 08:33:33.713   10 Jun 2027 08:33:41.343             7.630          3458.500
       306   10 Jun 2027 08:34:31.294   10 Jun 2027 08:34:35.176             3.882          1409.563
       307   10 Jun 2027 08:34:50.998   10 Jun 2027 08:34:52.965             1.967           252.156
       308   10 Jun 2027 08:35:42.225   10 Jun 2027 08:35:45.360             3.135          1364.250
       309   10 Jun 2027 08:36:11.529   10 Jun 2027 08:36:16.387             4.858           817.781
       310   10 Jun 2027 10:08:27.202   10 Jun 2027 10:08:38.369            11.167          3951.344
       311   10 Jun 2027 10:10:08.162   10 Jun 2027 10:10:08.162             0.000             0.000
       312   10 Jun 2027 10:10:46.635   10 Jun 2027 10:10:55.034             8.399          3505.562
       313   10 Jun 2027 10:11:15.035   10 Jun 2027 10:11:16.117             1.082           446.500
       314   10 Jun 2027 10:11:41.661   10 Jun 2027 10:11:44.211             2.550           798.250
       315   10 Jun 2027 10:15:09.132   10 Jun 2027 10:15:23.727            14.595          6372.594
       316   10 Jun 2027 11:44:53.040   10 Jun 2027 11:45:07.503            14.463          6379.656
       317   10 Jun 2027 11:46:02.717   10 Jun 2027 11:46:07.367             4.650          1284.187
       318   10 Jun 2027 11:46:34.670   10 Jun 2027 11:46:36.024             1.354           622.531
       319   10 Jun 2027 11:46:52.329   10 Jun 2027 11:46:54.014             1.685           197.344
       320   10 Jun 2027 11:47:47.008   10 Jun 2027 11:47:51.459             4.451           830.969
       321   10 Jun 2027 11:49:04.368   10 Jun 2027 11:49:09.542             5.174          2204.688
       322   10 Jun 2027 11:49:30.977   10 Jun 2027 11:49:34.411             3.434           551.156
       323   10 Jun 2027 11:50:33.324   10 Jun 2027 11:50:37.924             4.600          1579.781
       324   10 Jun 2027 11:50:48.321   10 Jun 2027 11:50:48.321             0.000             0.000
       325   11 Jun 2027 04:08:41.421   11 Jun 2027 04:10:45.907           124.486         62243.000
       326   11 Jun 2027 04:12:27.333   11 Jun 2027 04:14:17.028           109.695         54847.500
       327   11 Jun 2027 04:14:54.107   11 Jun 2027 04:15:12.083            17.976          8988.000
       328   11 Jun 2027 05:34:23.875   11 Jun 2027 05:34:44.380            20.505         10252.500
       329   11 Jun 2027 05:35:03.762   11 Jun 2027 05:35:26.634            22.872         11436.000
       330   11 Jun 2027 05:45:41.615   11 Jun 2027 05:46:21.342            39.727         17663.187
       331   11 Jun 2027 05:47:20.529   11 Jun 2027 05:47:21.714             1.185           592.500
       332   11 Jun 2027 07:08:16.927   11 Jun 2027 07:08:31.227            14.300          6107.219
       333   11 Jun 2027 07:08:48.135   11 Jun 2027 07:08:49.245             1.110           388.687
       334   11 Jun 2027 07:09:36.598   11 Jun 2027 07:09:39.085             2.487          1210.406
       335   11 Jun 2027 07:09:50.405   11 Jun 2027 07:09:53.008             2.603           282.500
       336   11 Jun 2027 07:10:11.161   11 Jun 2027 07:10:12.310             1.149           275.406
       337   11 Jun 2027 07:11:38.471   11 Jun 2027 07:11:43.534             5.063          2265.000
       338   11 Jun 2027 07:12:12.857   11 Jun 2027 07:12:14.413             1.556           752.344
       339   11 Jun 2027 07:12:54.819   11 Jun 2027 07:12:54.819             0.000             0.000
       340   11 Jun 2027 08:43:49.482   11 Jun 2027 08:43:59.398             9.916          3994.313
       341   11 Jun 2027 08:44:25.452   11 Jun 2027 08:44:29.702             4.250           104.031
       342   11 Jun 2027 08:45:35.237   11 Jun 2027 08:45:41.985             6.748          1834.344
       343   11 Jun 2027 08:46:43.571   11 Jun 2027 08:46:50.437             6.866          1736.125
       344   11 Jun 2027 08:46:54.519   11 Jun 2027 08:46:55.441             0.922            84.719
       345   11 Jun 2027 08:47:33.576   11 Jun 2027 08:47:35.328             1.752           824.125
       346   11 Jun 2027 08:48:10.153   11 Jun 2027 08:48:12.633             2.480          1044.906
       347   11 Jun 2027 08:48:28.370   11 Jun 2027 08:48:30.214             1.844           491.781
       348   11 Jun 2027 08:49:33.641   11 Jun 2027 08:49:35.928             2.287           865.906
       349   11 Jun 2027 10:20:33.432   11 Jun 2027 10:20:44.211            10.779          5008.875
       350   11 Jun 2027 10:21:40.680   11 Jun 2027 10:21:47.938             7.258          1241.062
       351   11 Jun 2027 10:21:52.731   11 Jun 2027 10:21:57.447             4.716           149.781
       352   11 Jun 2027 10:24:22.532   11 Jun 2027 10:24:35.906            13.374          4178.562
       353   11 Jun 2027 10:25:06.360   11 Jun 2027 10:25:07.667             1.307           545.938
       354   11 Jun 2027 10:25:12.131   11 Jun 2027 10:25:12.363             0.232            38.031
       355   11 Jun 2027 10:25:22.545   11 Jun 2027 10:25:25.591             3.046           318.187
       356   11 Jun 2027 10:26:14.895   11 Jun 2027 10:26:17.796             2.901          1139.750
       357   11 Jun 2027 10:26:57.940   11 Jun 2027 10:27:00.550             2.610          1078.906
       358   11 Jun 2027 10:27:08.058   11 Jun 2027 10:27:14.668             6.610           234.625
       359   11 Jun 2027 10:27:24.776   11 Jun 2027 10:27:28.071             3.295           315.875
       360   11 Jun 2027 11:57:13.046   11 Jun 2027 11:57:27.281            14.235          7117.500
       361   11 Jun 2027 11:58:23.686   11 Jun 2027 11:58:32.552             8.866          2838.344
       362   11 Jun 2027 11:58:39.732   11 Jun 2027 11:58:40.440             0.708           224.375
       363   11 Jun 2027 11:59:22.690   11 Jun 2027 11:59:29.034             6.344          1293.438
       364   11 Jun 2027 11:59:50.125   11 Jun 2027 11:59:51.691             1.566           337.375
       365   12 Jun 2027 04:21:11.612   12 Jun 2027 04:23:15.955           124.343         62171.500
       366   12 Jun 2027 04:23:31.250   12 Jun 2027 04:23:40.049             8.799          4399.500
       367   12 Jun 2027 04:23:40.355   12 Jun 2027 04:23:49.861             9.506          4753.000
       368   12 Jun 2027 04:24:57.203   12 Jun 2027 04:25:10.708            13.505          6752.500
       369   12 Jun 2027 04:26:09.989   12 Jun 2027 04:27:15.045            65.056         32528.000
       370   12 Jun 2027 04:27:59.148   12 Jun 2027 04:28:19.183            20.035         10017.500
       371   12 Jun 2027 05:46:01.155   12 Jun 2027 05:46:35.911            34.756         17378.000
       372   12 Jun 2027 05:57:42.003   12 Jun 2027 05:58:42.487            60.484         30242.000
       373   12 Jun 2027 07:20:00.312   12 Jun 2027 07:20:18.541            18.229          8908.845
       374   12 Jun 2027 07:20:49.781   12 Jun 2027 07:20:49.781             0.000             0.000
       375   12 Jun 2027 07:21:57.239   12 Jun 2027 07:22:04.236             6.997          2582.125
       376   12 Jun 2027 07:22:40.232   12 Jun 2027 07:22:40.232             0.000             0.000
       377   12 Jun 2027 07:23:13.374   12 Jun 2027 07:23:24.915            11.541          2076.594
       378   12 Jun 2027 07:23:35.696   12 Jun 2027 07:23:37.369             1.673           336.906
       379   12 Jun 2027 07:24:25.469   12 Jun 2027 07:24:25.469             0.000             0.000
       380   12 Jun 2027 07:24:51.813   12 Jun 2027 07:24:56.358             4.545          1997.594
       381   12 Jun 2027 08:54:57.983   12 Jun 2027 08:55:07.553             9.570          3848.125
       382   12 Jun 2027 08:55:24.335   12 Jun 2027 08:55:31.380             7.045           414.156
       383   12 Jun 2027 08:55:58.843   12 Jun 2027 08:55:58.843             0.000             0.000
       384   12 Jun 2027 08:57:19.279   12 Jun 2027 08:57:25.786             6.507          2833.031
       385   12 Jun 2027 08:58:14.482   12 Jun 2027 08:58:15.841             1.359           527.438
       386   12 Jun 2027 09:00:11.269   12 Jun 2027 09:00:17.765             6.496          3056.719
       387   12 Jun 2027 09:02:56.873   12 Jun 2027 09:03:08.540            11.667          3359.563
       388   12 Jun 2027 10:34:08.922   12 Jun 2027 10:34:26.569            17.647          7308.094
       389   12 Jun 2027 10:35:32.469   12 Jun 2027 10:35:34.122             1.653           288.625
       390   12 Jun 2027 10:38:39.495   12 Jun 2027 10:38:50.870            11.375          5117.031
       391   12 Jun 2027 10:39:15.132   12 Jun 2027 10:39:17.953             2.821           695.594
       392   13 Jun 2027 03:00:00.000   13 Jun 2027 03:00:25.676            25.676         12838.000
       393   13 Jun 2027 04:33:13.689   13 Jun 2027 04:36:58.038           224.349        112174.500
       394   13 Jun 2027 04:37:49.188   13 Jun 2027 04:37:49.188             0.000             0.000
       395   13 Jun 2027 04:38:30.297   13 Jun 2027 04:38:30.297             0.000             0.000
       396   13 Jun 2027 04:40:08.188   13 Jun 2027 04:40:12.459             4.271          2135.500
       397   13 Jun 2027 05:57:34.517   13 Jun 2027 05:58:06.220            31.703         15851.500
       398   13 Jun 2027 05:58:13.854   13 Jun 2027 05:58:37.474            23.620         11810.000
       399   13 Jun 2027 06:09:50.188   13 Jun 2027 06:10:04.106            13.918          6842.531
       400   13 Jun 2027 07:31:33.482   13 Jun 2027 07:31:47.019            13.537          6064.500
       401   13 Jun 2027 07:32:51.284   13 Jun 2027 07:32:53.303             2.019          1009.500
       402   13 Jun 2027 07:33:41.935   13 Jun 2027 07:33:45.486             3.551           657.469
       403   13 Jun 2027 07:35:17.015   13 Jun 2027 07:35:19.667             2.652          1326.000
       404   13 Jun 2027 07:36:37.610   13 Jun 2027 07:36:37.610             0.000             0.000
       405   13 Jun 2027 09:06:26.061   13 Jun 2027 09:06:39.292            13.231          5746.156
       406   13 Jun 2027 09:07:13.683   13 Jun 2027 09:07:13.683             0.000             0.000
       407   13 Jun 2027 09:08:21.530   13 Jun 2027 09:08:28.451             6.921          2367.969
       408   13 Jun 2027 09:09:19.609   13 Jun 2027 09:09:29.646            10.037          1598.687
       409   13 Jun 2027 09:10:34.025   13 Jun 2027 09:10:34.025             0.000             0.000
       410   13 Jun 2027 09:10:48.323   13 Jun 2027 09:10:53.577             5.254          2289.906
       411   13 Jun 2027 09:12:13.422   13 Jun 2027 09:12:13.422             0.000             0.000
       412   13 Jun 2027 09:13:14.042   13 Jun 2027 09:13:24.492            10.450          4389.531
       413   13 Jun 2027 09:14:49.854   13 Jun 2027 09:14:53.087             3.233          1616.500
       414   13 Jun 2027 10:44:19.918   13 Jun 2027 10:44:21.775             1.857           928.500
       415   13 Jun 2027 10:46:08.376   13 Jun 2027 10:46:24.667            16.291          8076.094
       416   13 Jun 2027 10:46:52.255   13 Jun 2027 10:46:57.244             4.989           723.844
       417   13 Jun 2027 10:48:22.346   13 Jun 2027 10:48:26.801             4.455          2001.750
       418   13 Jun 2027 10:49:05.990   13 Jun 2027 10:49:10.754             4.764           837.875
       419   13 Jun 2027 10:49:17.956   13 Jun 2027 10:49:21.477             3.521            47.187
       420   13 Jun 2027 10:49:49.442   13 Jun 2027 10:49:53.617             4.175           730.938
       421   13 Jun 2027 10:50:14.048   13 Jun 2027 10:50:17.011             2.963           638.469
       422   13 Jun 2027 10:50:58.231   13 Jun 2027 10:51:01.027             2.796          1043.313
       423   13 Jun 2027 10:51:09.130   13 Jun 2027 10:51:10.047             0.917           253.219
