uniorb/output/strategy_2/Camera/Camera_KinoSat_110303.txt

KinoSat_110303
-------------------------
    Access    *     Start Time (UTCG)     *     Stop Time (UTCG)  *   Duration (s) *   Data (Mbytes)
         1   01 Jun 2027 04:15:33.279   01 Jun 2027 04:15:45.680            12.401          6200.500
         2   01 Jun 2027 04:16:12.013   01 Jun 2027 04:16:12.013             0.000             0.000
         3   01 Jun 2027 04:16:19.874   01 Jun 2027 04:16:22.093             2.219          1109.500
         4   01 Jun 2027 04:17:29.633   01 Jun 2027 04:17:48.430            18.797          9398.500
         5   01 Jun 2027 04:19:06.945   01 Jun 2027 04:19:12.594             5.649          2824.500
         6   01 Jun 2027 04:19:39.658   01 Jun 2027 04:19:46.389             6.731          3365.500
         7   01 Jun 2027 04:20:21.165   01 Jun 2027 04:20:21.658             0.493           246.500
         8   01 Jun 2027 04:21:58.761   01 Jun 2027 04:22:07.361             8.600          4300.000
         9   01 Jun 2027 04:22:42.073   01 Jun 2027 04:22:50.694             8.621          4310.500
        10   01 Jun 2027 05:52:21.050   01 Jun 2027 05:52:25.979             4.929          2464.500
        11   01 Jun 2027 05:52:56.430   01 Jun 2027 05:52:58.081             1.651           825.500
        12   01 Jun 2027 05:53:24.164   01 Jun 2027 05:53:35.044            10.880          5440.000
        13   01 Jun 2027 05:54:19.754   01 Jun 2027 05:54:24.318             4.564          2282.000
        14   01 Jun 2027 05:54:44.540   01 Jun 2027 05:54:48.749             4.209          2104.500
        15   01 Jun 2027 05:55:14.903   01 Jun 2027 05:55:22.776             7.873          3936.500
        16   01 Jun 2027 05:55:54.552   01 Jun 2027 05:55:57.273             2.721          1360.500
        17   01 Jun 2027 05:56:24.379   01 Jun 2027 05:56:27.973             3.594          1797.000
        18   01 Jun 2027 05:57:11.795   01 Jun 2027 05:57:23.424            11.629          5814.500
        19   01 Jun 2027 05:58:11.129   01 Jun 2027 05:58:12.720             1.591           795.500
        20   01 Jun 2027 05:58:14.394   01 Jun 2027 05:58:14.431             0.037            18.500
        21   01 Jun 2027 05:58:51.742   01 Jun 2027 05:58:53.332             1.590           795.000
        22   01 Jun 2027 07:30:24.780   01 Jun 2027 07:30:30.049             5.269          2634.500
        23   01 Jun 2027 07:31:06.625   01 Jun 2027 07:31:25.452            18.827          9413.500
        24   01 Jun 2027 07:32:50.263   01 Jun 2027 07:32:51.021             0.758           379.000
        25   01 Jun 2027 07:32:55.089   01 Jun 2027 07:32:57.753             2.664          1332.000
        26   01 Jun 2027 07:33:24.803   01 Jun 2027 07:33:24.866             0.063            31.500
        27   01 Jun 2027 07:33:39.679   01 Jun 2027 07:34:14.224            34.545         17272.500
        28   01 Jun 2027 09:04:15.256   01 Jun 2027 09:04:26.290            11.034          5517.000
        29   01 Jun 2027 09:04:40.260   01 Jun 2027 09:05:04.940            24.680         12340.000
        30   01 Jun 2027 09:07:34.060   01 Jun 2027 09:07:50.785            16.725          8362.500
        31   01 Jun 2027 09:09:07.873   01 Jun 2027 09:09:20.567            12.694          6347.000
        32   01 Jun 2027 09:10:09.623   01 Jun 2027 09:10:30.427            20.804         10402.000
        33   02 Jun 2027 04:27:36.207   02 Jun 2027 04:27:59.213            23.006         11503.000
        34   02 Jun 2027 04:29:37.168   02 Jun 2027 04:29:40.609             3.441          1720.500
        35   02 Jun 2027 04:29:55.594   02 Jun 2027 04:30:10.643            15.049          7524.500
        36   02 Jun 2027 04:31:46.801   02 Jun 2027 04:31:47.667             0.866           433.000
        37   02 Jun 2027 04:32:16.477   02 Jun 2027 04:32:19.721             3.244          1622.000
        38   02 Jun 2027 04:32:59.817   02 Jun 2027 04:33:10.242            10.425          5212.500
        39   02 Jun 2027 04:34:00.748   02 Jun 2027 04:34:12.361            11.613          5806.500
        40   02 Jun 2027 04:34:23.336   02 Jun 2027 04:34:36.610            13.274          6637.000
        41   02 Jun 2027 06:04:30.630   02 Jun 2027 06:04:46.168            15.538          7769.000
        42   02 Jun 2027 06:06:19.890   02 Jun 2027 06:06:21.599             1.709           854.500
        43   02 Jun 2027 06:06:45.536   02 Jun 2027 06:06:48.924             3.388          1694.000
        44   02 Jun 2027 06:07:03.317   02 Jun 2027 06:07:08.603             5.286          2643.000
        45   02 Jun 2027 06:07:36.884   02 Jun 2027 06:07:41.001             4.117          2058.500
        46   02 Jun 2027 06:08:03.276   02 Jun 2027 06:08:06.398             3.122          1561.000
        47   02 Jun 2027 06:08:24.658   02 Jun 2027 06:08:28.656             3.998          1999.000
        48   02 Jun 2027 06:08:45.392   02 Jun 2027 06:08:59.427            14.035          7017.500
        49   02 Jun 2027 06:10:31.741   02 Jun 2027 06:10:33.275             1.534           767.000
        50   02 Jun 2027 06:10:41.055   02 Jun 2027 06:10:48.776             7.721          3860.500
        51   02 Jun 2027 07:41:36.974   02 Jun 2027 07:41:50.558            13.584          6792.000
        52   02 Jun 2027 07:43:00.338   02 Jun 2027 07:43:02.345             2.007          1003.500
        53   02 Jun 2027 07:43:36.288   02 Jun 2027 07:43:40.059             3.771          1885.500
        54   02 Jun 2027 07:44:11.741   02 Jun 2027 07:44:16.694             4.953          2476.500
        55   02 Jun 2027 07:45:24.649   02 Jun 2027 07:45:26.694             2.045          1022.500
        56   02 Jun 2027 07:46:07.770   02 Jun 2027 07:46:23.535            15.765          7882.500
        57   02 Jun 2027 09:16:38.471   02 Jun 2027 09:16:44.683             6.212          3106.000
        58   02 Jun 2027 09:17:13.123   02 Jun 2027 09:17:21.691             8.568          4284.000
        59   02 Jun 2027 09:18:18.159   02 Jun 2027 09:18:19.238             1.079           539.500
        60   02 Jun 2027 09:18:38.518   02 Jun 2027 09:18:54.340            15.822          7911.000
        61   02 Jun 2027 09:19:59.770   02 Jun 2027 09:20:04.780             5.010          2505.000
        62   02 Jun 2027 09:21:06.422   02 Jun 2027 09:21:09.610             3.188          1594.000
        63   02 Jun 2027 09:21:24.153   02 Jun 2027 09:21:24.424             0.271           135.500
        64   03 Jun 2027 03:01:07.930   03 Jun 2027 03:01:28.282            20.352         10176.000
        65   03 Jun 2027 03:02:58.425   03 Jun 2027 03:03:23.236            24.811         12405.500
        66   03 Jun 2027 03:05:22.851   03 Jun 2027 03:05:31.429             8.578          4289.000
        67   03 Jun 2027 03:06:08.198   03 Jun 2027 03:06:11.881             3.683          1841.500
        68   03 Jun 2027 03:06:28.580   03 Jun 2027 03:06:34.487             5.907          2953.500
        69   03 Jun 2027 03:07:18.248   03 Jun 2027 03:07:19.616             1.368           684.000
        70   03 Jun 2027 03:07:41.913   03 Jun 2027 03:07:49.329             7.416          3708.000
        71   03 Jun 2027 03:08:20.473   03 Jun 2027 03:08:25.058             4.585          2292.500
        72   03 Jun 2027 03:08:50.256   03 Jun 2027 03:08:58.448             8.192          4096.000
        73   03 Jun 2027 03:09:53.296   03 Jun 2027 03:09:54.800             1.504           752.000
        74   03 Jun 2027 03:10:15.494   03 Jun 2027 03:10:27.613            12.119          6059.500
        75   03 Jun 2027 03:10:43.395   03 Jun 2027 03:10:45.928             2.533          1266.500
        76   03 Jun 2027 04:40:01.928   03 Jun 2027 04:40:07.143             5.215          2607.500
        77   03 Jun 2027 04:40:18.459   03 Jun 2027 04:40:19.078             0.619           309.500
        78   03 Jun 2027 04:40:43.328   03 Jun 2027 04:41:27.058            43.730         21865.000
        79   03 Jun 2027 04:44:34.218   03 Jun 2027 04:44:34.477             0.259           129.500
        80   03 Jun 2027 04:44:36.594   03 Jun 2027 04:44:41.494             4.900          2450.000
        81   03 Jun 2027 04:45:17.625   03 Jun 2027 04:45:25.423             7.798          3899.000
        82   03 Jun 2027 04:46:04.804   03 Jun 2027 04:46:18.514            13.710          6855.000
        83   03 Jun 2027 06:16:58.056   03 Jun 2027 06:17:08.456            10.400          5200.000
        84   03 Jun 2027 06:17:26.797   03 Jun 2027 06:18:05.519            38.722         19361.000
        85   03 Jun 2027 06:21:27.500   03 Jun 2027 06:21:29.794             2.294          1147.000
        86   03 Jun 2027 06:21:55.291   03 Jun 2027 06:22:04.479             9.188          4594.000
        87   03 Jun 2027 07:53:48.464   03 Jun 2027 07:53:57.697             9.233          4616.500
        88   03 Jun 2027 07:54:59.135   03 Jun 2027 07:54:59.404             0.269           134.500
        89   03 Jun 2027 07:55:36.925   03 Jun 2027 07:55:51.726            14.801          7400.500
        90   03 Jun 2027 07:56:56.175   03 Jun 2027 07:57:01.441             5.266          2633.000
        91   03 Jun 2027 07:57:08.270   03 Jun 2027 07:57:16.306             8.036          4018.000
        92   03 Jun 2027 09:31:25.581   03 Jun 2027 09:31:58.429            32.848         16424.000
        93   04 Jun 2027 03:15:20.771   04 Jun 2027 03:15:28.585             7.814          3907.000
        94   04 Jun 2027 03:16:09.620   04 Jun 2027 03:16:14.473             4.853          2426.500
        95   04 Jun 2027 03:16:51.557   04 Jun 2027 03:17:07.915            16.358          8179.000
        96   04 Jun 2027 03:18:13.923   04 Jun 2027 03:18:19.770             5.847          2923.500
        97   04 Jun 2027 03:18:47.903   04 Jun 2027 03:18:57.243             9.340          4670.000
        98   04 Jun 2027 03:19:43.382   04 Jun 2027 03:19:52.476             9.094          4547.000
        99   04 Jun 2027 03:21:10.922   04 Jun 2027 03:21:14.836             3.914          1957.000
       100   04 Jun 2027 03:21:58.863   04 Jun 2027 03:22:09.552            10.689          5344.500
       101   04 Jun 2027 03:22:56.022   04 Jun 2027 03:22:57.097             1.075           537.500
       102   04 Jun 2027 04:52:08.781   04 Jun 2027 04:52:13.791             5.010          2505.000
       103   04 Jun 2027 04:52:37.600   04 Jun 2027 04:52:57.383            19.783          9891.500
       104   04 Jun 2027 04:53:20.195   04 Jun 2027 04:53:26.527             6.332          3166.000
       105   04 Jun 2027 04:54:43.974   04 Jun 2027 04:54:58.150            14.176          7088.000
       106   04 Jun 2027 04:55:54.543   04 Jun 2027 04:56:06.569            12.026          6013.000
       107   04 Jun 2027 04:56:08.922   04 Jun 2027 04:56:13.119             4.197          2098.500
       108   04 Jun 2027 04:57:40.844   04 Jun 2027 04:57:52.646            11.802          5901.000
       109   04 Jun 2027 06:29:49.792   04 Jun 2027 06:29:56.971             7.179          3589.500
       110   04 Jun 2027 06:30:26.089   04 Jun 2027 06:30:26.295             0.206           103.000
       111   04 Jun 2027 06:31:05.454   04 Jun 2027 06:31:05.825             0.371           185.500
       112   04 Jun 2027 06:31:23.532   04 Jun 2027 06:31:32.556             9.024          4512.000
       113   04 Jun 2027 06:32:22.398   04 Jun 2027 06:32:23.971             1.573           786.500
       114   04 Jun 2027 06:32:57.504   04 Jun 2027 06:32:59.682             2.178          1089.000
       115   04 Jun 2027 06:33:10.530   04 Jun 2027 06:33:16.356             5.826          2913.000
       116   04 Jun 2027 06:34:10.398   04 Jun 2027 06:34:12.868             2.470          1235.000
       117   04 Jun 2027 08:05:50.965   04 Jun 2027 08:05:54.618             3.653          1826.500
       118   04 Jun 2027 08:06:05.815   04 Jun 2027 08:06:06.778             0.963           481.500
       119   04 Jun 2027 08:06:55.184   04 Jun 2027 08:06:57.336             2.152          1076.000
       120   04 Jun 2027 08:07:23.355   04 Jun 2027 08:07:24.448             1.093           546.500
       121   04 Jun 2027 08:07:37.242   04 Jun 2027 08:07:37.922             0.680           340.000
       122   04 Jun 2027 08:07:44.775   04 Jun 2027 08:07:54.501             9.726          4863.000
       123   04 Jun 2027 08:08:30.467   04 Jun 2027 08:08:39.731             9.264          4632.000
       124   04 Jun 2027 08:09:57.029   04 Jun 2027 08:10:01.643             4.614          2307.000
       125   05 Jun 2027 03:28:21.834   05 Jun 2027 03:28:25.221             3.387          1693.500
       126   05 Jun 2027 03:28:58.642   05 Jun 2027 03:28:59.816             1.174           587.000
       127   05 Jun 2027 03:29:42.508   05 Jun 2027 03:29:52.613            10.105          5052.500
       128   05 Jun 2027 03:30:14.266   05 Jun 2027 03:30:15.061             0.795           397.500
       129   05 Jun 2027 03:30:41.981   05 Jun 2027 03:30:44.041             2.060          1030.000
       130   05 Jun 2027 03:31:30.230   05 Jun 2027 03:31:41.128            10.898          5449.000
       131   05 Jun 2027 03:32:51.088   05 Jun 2027 03:32:59.271             8.183          4091.500
       132   05 Jun 2027 03:33:27.401   05 Jun 2027 03:33:30.841             3.440          1720.000
       133   05 Jun 2027 03:33:51.779   05 Jun 2027 03:33:59.139             7.360          3680.000
       134   05 Jun 2027 03:34:29.032   05 Jun 2027 03:34:29.857             0.825           412.500
       135   05 Jun 2027 03:34:42.608   05 Jun 2027 03:34:47.270             4.662          2331.000
       136   05 Jun 2027 05:04:44.418   05 Jun 2027 05:04:46.426             2.008          1004.000
       137   05 Jun 2027 05:05:09.229   05 Jun 2027 05:05:21.384            12.155          6077.500
       138   05 Jun 2027 05:06:27.316   05 Jun 2027 05:06:28.048             0.732           366.000
       139   05 Jun 2027 05:06:31.884   05 Jun 2027 05:06:39.400             7.516          3758.000
       140   05 Jun 2027 05:07:23.050   05 Jun 2027 05:07:44.465            21.415         10707.500
       141   05 Jun 2027 05:09:27.067   05 Jun 2027 05:09:33.643             6.576          3288.000
       142   05 Jun 2027 05:09:39.477   05 Jun 2027 05:09:50.718            11.241          5620.500
       143   05 Jun 2027 06:41:59.491   05 Jun 2027 06:42:01.094             1.603           801.500
       144   05 Jun 2027 06:42:16.364   05 Jun 2027 06:42:28.397            12.033          6016.500
       145   05 Jun 2027 06:44:01.438   05 Jun 2027 06:44:09.012             7.574          3787.000
       146   05 Jun 2027 06:44:39.372   05 Jun 2027 06:44:47.567             8.195          4097.500
       147   05 Jun 2027 06:45:23.158   05 Jun 2027 06:45:26.615             3.457          1728.500
       148   05 Jun 2027 06:46:02.770   05 Jun 2027 06:46:05.134             2.364          1182.000
       149   05 Jun 2027 06:46:37.443   05 Jun 2027 06:46:37.574             0.131            65.500
       150   05 Jun 2027 08:18:14.387   05 Jun 2027 08:18:26.068            11.681          5840.500
       151   05 Jun 2027 08:18:49.425   05 Jun 2027 08:18:49.745             0.320           160.000
       152   05 Jun 2027 08:19:30.447   05 Jun 2027 08:19:37.191             6.744          3372.000
       153   05 Jun 2027 08:20:05.006   05 Jun 2027 08:20:06.584             1.578           789.000
       154   05 Jun 2027 08:20:14.626   05 Jun 2027 08:20:38.467            23.841         11920.500
       155   05 Jun 2027 08:22:18.746   05 Jun 2027 08:22:27.917             9.171          4585.500
       156   06 Jun 2027 03:40:03.615   06 Jun 2027 03:40:05.981             2.366          1183.000
       157   06 Jun 2027 03:40:19.834   06 Jun 2027 03:40:41.790            21.956         10978.000
       158   06 Jun 2027 03:42:11.229   06 Jun 2027 03:42:13.649             2.420          1210.000
       159   06 Jun 2027 03:42:28.351   06 Jun 2027 03:43:00.196            31.845         15922.500
       160   06 Jun 2027 03:45:34.914   06 Jun 2027 03:45:36.609             1.695           847.500
       161   06 Jun 2027 03:46:00.402   06 Jun 2027 03:46:12.169            11.767          5883.500
       162   06 Jun 2027 03:47:04.704   06 Jun 2027 03:47:06.037             1.333           666.500
       163   06 Jun 2027 05:16:16.237   06 Jun 2027 05:16:23.261             7.024          3512.000
       164   06 Jun 2027 05:16:57.984   06 Jun 2027 05:17:00.417             2.433          1216.500
       165   06 Jun 2027 05:17:59.208   06 Jun 2027 05:18:07.252             8.044          4022.000
       166   06 Jun 2027 05:18:33.833   06 Jun 2027 05:18:34.179             0.346           173.000
       167   06 Jun 2027 05:18:57.652   06 Jun 2027 05:19:10.719            13.067          6533.500
       168   06 Jun 2027 05:19:56.487   06 Jun 2027 05:19:59.607             3.120          1560.000
       169   06 Jun 2027 05:20:38.026   06 Jun 2027 05:20:54.370            16.344          8172.000
       170   06 Jun 2027 05:21:18.615   06 Jun 2027 05:21:23.630             5.015          2507.500
       171   06 Jun 2027 05:21:47.271   06 Jun 2027 05:22:03.283            16.012          8006.000
       172   06 Jun 2027 06:54:29.101   06 Jun 2027 06:54:31.724             2.623          1311.500
       173   06 Jun 2027 06:54:43.965   06 Jun 2027 06:54:51.237             7.272          3636.000
       174   06 Jun 2027 06:55:28.124   06 Jun 2027 06:55:32.684             4.560          2280.000
       175   06 Jun 2027 06:56:06.663   06 Jun 2027 06:56:11.533             4.870          2435.000
       176   06 Jun 2027 06:56:48.968   06 Jun 2027 06:56:54.856             5.888          2944.000
       177   06 Jun 2027 06:57:46.439   06 Jun 2027 06:57:48.406             1.967           983.500
       178   06 Jun 2027 06:58:09.455   06 Jun 2027 06:58:12.729             3.274          1637.000
       179   06 Jun 2027 08:29:56.830   06 Jun 2027 08:30:03.367             6.537          3268.500
       180   06 Jun 2027 08:31:12.748   06 Jun 2027 08:31:17.896             5.148          2574.000
       181   06 Jun 2027 08:32:22.266   06 Jun 2027 08:32:37.623            15.357          7678.500
       182   06 Jun 2027 08:33:48.992   06 Jun 2027 08:33:56.573             7.581          3790.500
       183   06 Jun 2027 08:34:30.831   06 Jun 2027 08:34:31.282             0.451           225.500
       184   06 Jun 2027 08:34:35.446   06 Jun 2027 08:34:37.256             1.810           905.000
       185   06 Jun 2027 08:34:50.701   06 Jun 2027 08:35:01.427            10.726          5363.000
       186   07 Jun 2027 03:51:36.942   07 Jun 2027 03:51:38.141             1.199           599.500
       187   07 Jun 2027 03:52:02.123   07 Jun 2027 03:52:02.396             0.273           136.500
       188   07 Jun 2027 03:52:12.797   07 Jun 2027 03:52:21.130             8.333          4166.500
       189   07 Jun 2027 03:53:01.101   07 Jun 2027 03:53:01.546             0.445           222.500
       190   07 Jun 2027 03:53:12.600   07 Jun 2027 03:53:19.017             6.417          3208.500
       191   07 Jun 2027 03:53:58.290   07 Jun 2027 03:54:09.986            11.696          5848.000
       192   07 Jun 2027 03:55:22.228   07 Jun 2027 03:55:24.392             2.164          1082.000
       193   07 Jun 2027 03:56:02.641   07 Jun 2027 03:56:08.446             5.805          2902.500
       194   07 Jun 2027 03:56:57.961   07 Jun 2027 03:57:15.239            17.278          8639.000
       195   07 Jun 2027 03:58:28.168   07 Jun 2027 03:58:28.652             0.484           242.000
       196   07 Jun 2027 03:59:06.871   07 Jun 2027 03:59:10.926             4.055          2027.500
       197   07 Jun 2027 05:28:38.231   07 Jun 2027 05:28:42.592             4.361          2180.500
       198   07 Jun 2027 05:29:19.964   07 Jun 2027 05:29:28.410             8.446          4223.000
       199   07 Jun 2027 05:30:31.034   07 Jun 2027 05:30:35.748             4.714          2357.000
       200   07 Jun 2027 05:30:57.890   07 Jun 2027 05:30:58.635             0.745           372.500
       201   07 Jun 2027 05:31:27.947   07 Jun 2027 05:31:28.964             1.017           508.500
       202   07 Jun 2027 05:31:52.113   07 Jun 2027 05:31:54.173             2.060          1030.000
       203   07 Jun 2027 05:32:05.403   07 Jun 2027 05:32:06.438             1.035           517.500
       204   07 Jun 2027 05:32:27.063   07 Jun 2027 05:32:28.963             1.900           950.000
       205   07 Jun 2027 05:32:59.135   07 Jun 2027 05:33:11.962            12.827          6413.500
       206   07 Jun 2027 05:34:19.954   07 Jun 2027 05:34:21.576             1.622           811.000
       207   07 Jun 2027 07:06:38.327   07 Jun 2027 07:06:49.193            10.866          5433.000
       208   07 Jun 2027 07:07:45.573   07 Jun 2027 07:07:50.333             4.760          2380.000
       209   07 Jun 2027 07:08:12.558   07 Jun 2027 07:08:16.931             4.373          2186.500
       210   07 Jun 2027 07:08:36.207   07 Jun 2027 07:08:37.841             1.634           817.000
       211   07 Jun 2027 07:09:10.201   07 Jun 2027 07:09:11.637             1.436           718.000
       212   07 Jun 2027 07:09:51.681   07 Jun 2027 07:10:00.399             8.718          4359.000
       213   07 Jun 2027 08:39:51.780   07 Jun 2027 08:40:21.820            30.040         15020.000
       214   07 Jun 2027 08:42:38.851   07 Jun 2027 08:42:57.843            18.992          9496.000
       215   07 Jun 2027 08:45:18.230   07 Jun 2027 08:45:28.254            10.024          5012.000
       216   07 Jun 2027 08:46:59.977   07 Jun 2027 08:47:02.926             2.949          1474.500
       217   07 Jun 2027 08:47:16.375   07 Jun 2027 08:47:21.251             4.876          2438.000
       218   08 Jun 2027 04:03:46.275   08 Jun 2027 04:03:50.774             4.499          2249.500
       219   08 Jun 2027 04:04:48.499   08 Jun 2027 04:04:58.823            10.324          5162.000
       220   08 Jun 2027 04:05:39.755   08 Jun 2027 04:05:46.010             6.255          3127.500
       221   08 Jun 2027 04:06:26.119   08 Jun 2027 04:06:37.595            11.476          5738.000
       222   08 Jun 2027 04:07:12.642   08 Jun 2027 04:07:13.869             1.227           613.500
       223   08 Jun 2027 04:07:18.474   08 Jun 2027 04:07:22.181             3.707          1853.500
       224   08 Jun 2027 04:07:50.220   08 Jun 2027 04:07:51.936             1.716           858.000
       225   08 Jun 2027 04:08:25.915   08 Jun 2027 04:08:31.158             5.243          2621.500
       226   08 Jun 2027 04:08:48.281   08 Jun 2027 04:09:07.924            19.643          9821.500
       227   08 Jun 2027 04:10:31.763   08 Jun 2027 04:10:39.658             7.895          3947.500
       228   08 Jun 2027 04:11:11.520   08 Jun 2027 04:11:11.949             0.429           214.500
       229   08 Jun 2027 05:40:42.834   08 Jun 2027 05:40:54.672            11.838          5919.000
       230   08 Jun 2027 05:41:43.346   08 Jun 2027 05:41:45.962             2.616          1308.000
       231   08 Jun 2027 05:42:19.240   08 Jun 2027 05:42:31.313            12.073          6036.500
       232   08 Jun 2027 05:43:03.796   08 Jun 2027 05:43:16.061            12.265          6132.500
       233   08 Jun 2027 05:44:25.920   08 Jun 2027 05:44:27.058             1.138           569.000
       234   08 Jun 2027 05:44:55.204   08 Jun 2027 05:44:58.488             3.284          1642.000
       235   08 Jun 2027 05:45:09.386   08 Jun 2027 05:45:09.805             0.419           209.500
       236   08 Jun 2027 05:45:38.611   08 Jun 2027 05:45:41.476             2.865          1432.500
       237   08 Jun 2027 05:46:10.256   08 Jun 2027 05:46:24.394            14.138          7069.000
       238   08 Jun 2027 07:18:36.481   08 Jun 2027 07:18:44.525             8.044          4022.000
       239   08 Jun 2027 07:18:54.784   08 Jun 2027 07:18:58.039             3.255          1627.500
       240   08 Jun 2027 07:19:33.921   08 Jun 2027 07:19:37.662             3.741          1870.500
       241   08 Jun 2027 07:19:53.830   08 Jun 2027 07:19:57.948             4.118          2059.000
       242   08 Jun 2027 07:20:37.781   08 Jun 2027 07:20:50.931            13.150          6575.000
       243   08 Jun 2027 07:21:45.968   08 Jun 2027 07:21:48.129             2.161          1080.500
       244   08 Jun 2027 07:22:36.042   08 Jun 2027 07:22:37.603             1.561           780.500
       245   08 Jun 2027 08:52:10.689   08 Jun 2027 08:52:30.202            19.513          9756.500
       246   08 Jun 2027 08:54:12.545   08 Jun 2027 08:54:26.411            13.866          6933.000
       247   08 Jun 2027 08:55:57.788   08 Jun 2027 08:56:07.184             9.396          4698.000
       248   08 Jun 2027 08:56:41.590   08 Jun 2027 08:57:02.687            21.097         10548.500
       249   08 Jun 2027 08:58:36.707   08 Jun 2027 08:58:44.787             8.080          4040.000
       250   08 Jun 2027 08:59:23.546   08 Jun 2027 08:59:25.346             1.800           900.000
       251   09 Jun 2027 04:15:48.211   09 Jun 2027 04:16:00.530            12.319          6159.500
       252   09 Jun 2027 04:16:34.692   09 Jun 2027 04:16:36.018             1.326           663.000
       253   09 Jun 2027 04:17:43.475   09 Jun 2027 04:17:50.400             6.925          3462.500
       254   09 Jun 2027 04:18:27.277   09 Jun 2027 04:18:27.807             0.530           265.000
       255   09 Jun 2027 04:19:18.296   09 Jun 2027 04:19:21.573             3.277          1638.500
       256   09 Jun 2027 04:19:38.291   09 Jun 2027 04:19:50.780            12.489          6244.500
       257   09 Jun 2027 04:21:35.641   09 Jun 2027 04:21:42.427             6.786          3393.000
       258   09 Jun 2027 04:22:22.029   09 Jun 2027 04:22:25.975             3.946          1973.000
       259   09 Jun 2027 04:22:35.127   09 Jun 2027 04:22:43.570             8.443          4221.500
       260   09 Jun 2027 05:52:35.809   09 Jun 2027 05:52:41.353             5.544          2772.000
       261   09 Jun 2027 05:53:11.026   09 Jun 2027 05:53:12.591             1.565           782.500
       262   09 Jun 2027 05:53:44.318   09 Jun 2027 05:53:50.136             5.818          2909.000
       263   09 Jun 2027 05:54:34.492   09 Jun 2027 05:54:39.349             4.857          2428.500
       264   09 Jun 2027 05:54:59.171   09 Jun 2027 05:55:03.279             4.108          2054.000
       265   09 Jun 2027 05:55:30.883   09 Jun 2027 05:55:38.730             7.847          3923.500
       266   09 Jun 2027 05:56:09.224   09 Jun 2027 05:56:19.522            10.298          5149.000
       267   09 Jun 2027 05:58:08.953   09 Jun 2027 05:58:26.803            17.850          8925.000
       268   09 Jun 2027 05:59:08.229   09 Jun 2027 05:59:08.229             0.000             0.000
       269   09 Jun 2027 07:30:39.622   09 Jun 2027 07:30:45.202             5.580          2790.000
       270   09 Jun 2027 07:31:21.542   09 Jun 2027 07:31:24.734             3.192          1596.000
       271   09 Jun 2027 07:32:27.627   09 Jun 2027 07:32:35.037             7.410          3705.000
       272   09 Jun 2027 07:33:09.457   09 Jun 2027 07:33:10.097             0.640           320.000
       273   09 Jun 2027 07:33:40.916   09 Jun 2027 07:33:42.896             1.980           990.000
       274   09 Jun 2027 07:34:28.854   09 Jun 2027 07:34:41.949            13.095          6547.500
       275   09 Jun 2027 09:04:29.736   09 Jun 2027 09:04:41.022            11.286          5643.000
       276   09 Jun 2027 09:05:28.259   09 Jun 2027 09:05:31.795             3.536          1768.000
       277   09 Jun 2027 09:06:17.413   09 Jun 2027 09:06:21.767             4.354          2177.000
       278   09 Jun 2027 09:07:47.416   09 Jun 2027 09:08:09.530            22.114         11057.000
       279   09 Jun 2027 09:09:35.243   09 Jun 2027 09:09:37.894             2.651          1325.500
       280   09 Jun 2027 09:09:52.528   09 Jun 2027 09:09:52.611             0.083            41.500
       281   09 Jun 2027 09:10:13.527   09 Jun 2027 09:10:24.716            11.189          5594.500
       282   10 Jun 2027 04:27:51.071   10 Jun 2027 04:27:56.168             5.097          2548.500
       283   10 Jun 2027 04:28:37.314   10 Jun 2027 04:28:39.763             2.449          1224.500
       284   10 Jun 2027 04:29:05.329   10 Jun 2027 04:29:11.471             6.142          3071.000
       285   10 Jun 2027 04:29:55.290   10 Jun 2027 04:30:01.706             6.416          3208.000
       286   10 Jun 2027 04:30:52.031   10 Jun 2027 04:30:58.578             6.547          3273.500
       287   10 Jun 2027 04:31:25.971   10 Jun 2027 04:31:38.068            12.097          6048.500
       288   10 Jun 2027 04:32:31.140   10 Jun 2027 04:32:34.579             3.439          1719.500
       289   10 Jun 2027 04:33:13.876   10 Jun 2027 04:33:15.884             2.008          1004.000
       290   10 Jun 2027 04:33:33.385   10 Jun 2027 04:33:44.444            11.059          5529.500
       291   10 Jun 2027 04:35:01.187   10 Jun 2027 04:35:03.095             1.908           954.000
       292   10 Jun 2027 06:04:45.451   10 Jun 2027 06:05:01.585            16.134          8067.000
       293   10 Jun 2027 06:05:13.013   10 Jun 2027 06:05:15.175             2.162          1081.000
       294   10 Jun 2027 06:06:17.932   10 Jun 2027 06:06:29.365            11.433          5716.500
       295   10 Jun 2027 06:07:57.383   10 Jun 2027 06:07:58.619             1.236           618.000
       296   10 Jun 2027 06:08:17.901   10 Jun 2027 06:08:21.053             3.152          1576.000
       297   10 Jun 2027 06:08:40.379   10 Jun 2027 06:08:44.408             4.029          2014.500
       298   10 Jun 2027 06:09:05.505   10 Jun 2027 06:09:12.661             7.156          3578.000
       299   10 Jun 2027 06:09:58.894   10 Jun 2027 06:10:07.881             8.987          4493.500
       300   10 Jun 2027 06:10:51.564   10 Jun 2027 06:10:55.944             4.380          2190.000
       301   10 Jun 2027 07:41:51.904   10 Jun 2027 07:41:53.701             1.797           898.500
       302   10 Jun 2027 07:42:08.268   10 Jun 2027 07:42:21.794            13.526          6763.000
       303   10 Jun 2027 07:43:28.661   10 Jun 2027 07:43:30.028             1.367           683.500
       304   10 Jun 2027 07:44:05.773   10 Jun 2027 07:44:14.735             8.962          4481.000
       305   10 Jun 2027 07:44:56.676   10 Jun 2027 07:44:57.640             0.964           482.000
       306   10 Jun 2027 07:45:16.624   10 Jun 2027 07:45:21.165             4.541          2270.500
       307   10 Jun 2027 07:45:57.652   10 Jun 2027 07:46:11.411            13.759          6879.500
       308   10 Jun 2027 09:16:53.466   10 Jun 2027 09:16:59.352             5.886          2943.000
       309   10 Jun 2027 09:17:27.968   10 Jun 2027 09:17:36.526             8.558          4279.000
       310   10 Jun 2027 09:18:32.894   10 Jun 2027 09:18:34.302             1.408           704.000
       311   10 Jun 2027 09:18:50.999   10 Jun 2027 09:19:08.908            17.909          8954.500
       312   10 Jun 2027 09:20:37.713   10 Jun 2027 09:21:21.219            43.506         21753.000
       313   10 Jun 2027 09:21:38.020   10 Jun 2027 09:21:38.552             0.532           266.000
       314   11 Jun 2027 03:01:22.740   11 Jun 2027 03:01:42.950            20.210         10105.000
       315   11 Jun 2027 03:03:13.178   11 Jun 2027 03:03:38.940            25.762         12881.000
       316   11 Jun 2027 03:05:37.483   11 Jun 2027 03:05:49.306            11.823          5911.500
       317   11 Jun 2027 03:06:38.967   11 Jun 2027 03:06:42.172             3.205          1602.500
       318   11 Jun 2027 03:06:56.902   11 Jun 2027 03:07:03.143             6.241          3120.500
       319   11 Jun 2027 03:07:33.459   11 Jun 2027 03:07:34.569             1.110           555.000
       320   11 Jun 2027 03:07:58.010   11 Jun 2027 03:08:03.830             5.820          2910.000
       321   11 Jun 2027 03:08:35.364   11 Jun 2027 03:08:35.432             0.068            34.000
       322   11 Jun 2027 03:08:58.039   11 Jun 2027 03:09:06.897             8.858          4429.000
       323   11 Jun 2027 03:09:47.731   11 Jun 2027 03:09:55.486             7.755          3877.500
       324   11 Jun 2027 03:11:00.508   11 Jun 2027 03:11:08.333             7.825          3912.500
       325   11 Jun 2027 04:40:16.957   11 Jun 2027 04:40:24.899             7.942          3971.000
       326   11 Jun 2027 04:41:01.303   11 Jun 2027 04:41:44.456            43.153         21576.500
       327   11 Jun 2027 04:44:27.075   11 Jun 2027 04:44:29.482             2.407          1203.500
       328   11 Jun 2027 04:45:33.960   11 Jun 2027 04:45:40.009             6.049          3024.500
       329   11 Jun 2027 04:46:09.286   11 Jun 2027 04:46:25.414            16.128          8064.000
       330   11 Jun 2027 06:17:12.723   11 Jun 2027 06:17:23.917            11.194          5597.000
       331   11 Jun 2027 06:17:41.918   11 Jun 2027 06:18:19.996            38.078         19039.000
       332   11 Jun 2027 06:21:41.547   11 Jun 2027 06:21:42.168             0.621           310.500
       333   11 Jun 2027 06:21:45.540   11 Jun 2027 06:21:47.925             2.385          1192.500
       334   11 Jun 2027 06:22:10.878   11 Jun 2027 06:22:18.946             8.068          4034.000
       335   11 Jun 2027 07:54:03.172   11 Jun 2027 07:54:12.051             8.879          4439.500
       336   11 Jun 2027 07:54:46.033   11 Jun 2027 07:54:53.797             7.764          3882.000
       337   11 Jun 2027 07:55:54.391   11 Jun 2027 07:56:06.918            12.527          6263.500
       338   11 Jun 2027 07:57:04.749   11 Jun 2027 07:57:11.196             6.447          3223.500
       339   11 Jun 2027 07:57:41.465   11 Jun 2027 07:57:53.595            12.130          6065.000
       340   11 Jun 2027 09:31:40.310   11 Jun 2027 09:32:13.163            32.853         16426.500
       341   12 Jun 2027 03:15:44.910   12 Jun 2027 03:16:14.714            29.804         14902.000
       342   12 Jun 2027 03:18:36.301   12 Jun 2027 03:18:36.383             0.082            41.000
       343   12 Jun 2027 03:18:47.191   12 Jun 2027 03:18:47.894             0.703           351.500
       344   12 Jun 2027 03:19:02.967   12 Jun 2027 03:19:12.875             9.908          4954.000
       345   12 Jun 2027 03:19:59.496   12 Jun 2027 03:20:07.468             7.972          3986.000
       346   12 Jun 2027 03:21:25.338   12 Jun 2027 03:21:33.800             8.462          4231.000
       347   12 Jun 2027 03:22:13.696   12 Jun 2027 03:22:25.182            11.486          5743.000
       348   12 Jun 2027 03:23:05.608   12 Jun 2027 03:23:09.446             3.838          1919.000
       349   12 Jun 2027 04:52:24.731   12 Jun 2027 04:52:28.554             3.823          1911.500
       350   12 Jun 2027 04:52:54.744   12 Jun 2027 04:53:12.283            17.539          8769.500
       351   12 Jun 2027 04:53:36.357   12 Jun 2027 04:53:43.889             7.532          3766.000
       352   12 Jun 2027 04:55:00.273   12 Jun 2027 04:55:12.761            12.488          6244.000
       353   12 Jun 2027 04:56:09.451   12 Jun 2027 04:56:21.779            12.328          6164.000
       354   12 Jun 2027 04:57:31.970   12 Jun 2027 04:57:37.448             5.478          2739.000
       355   12 Jun 2027 04:58:10.692   12 Jun 2027 04:58:11.905             1.213           606.500
       356   12 Jun 2027 04:58:17.991   12 Jun 2027 04:58:25.947             7.956          3978.000
       357   12 Jun 2027 04:58:45.385   12 Jun 2027 04:58:48.805             3.420          1710.000
       358   12 Jun 2027 06:30:05.171   12 Jun 2027 06:30:11.848             6.677          3338.500
       359   12 Jun 2027 06:30:41.447   12 Jun 2027 06:30:42.612             1.165           582.500
       360   12 Jun 2027 06:30:54.825   12 Jun 2027 06:31:02.725             7.900          3950.000
       361   12 Jun 2027 06:31:53.308   12 Jun 2027 06:31:58.425             5.117          2558.500
       362   12 Jun 2027 06:32:23.704   12 Jun 2027 06:32:25.139             1.435           717.500
       363   12 Jun 2027 06:32:38.644   12 Jun 2027 06:32:54.752            16.108          8054.000
       364   12 Jun 2027 06:33:26.386   12 Jun 2027 06:33:27.620             1.234           617.000
       365   12 Jun 2027 06:33:28.113   12 Jun 2027 06:33:30.320             2.207          1103.500
       366   12 Jun 2027 06:34:28.743   12 Jun 2027 06:34:28.970             0.227           113.500
       367   12 Jun 2027 06:34:30.539   12 Jun 2027 06:34:32.241             1.702           851.000
       368   12 Jun 2027 08:06:05.654   12 Jun 2027 08:06:12.533             6.879          3439.500
       369   12 Jun 2027 08:06:44.564   12 Jun 2027 08:06:48.393             3.829          1914.500
       370   12 Jun 2027 08:07:12.447   12 Jun 2027 08:07:13.006             0.559           279.500
       371   12 Jun 2027 08:07:20.148   12 Jun 2027 08:07:40.301            20.153         10076.500
       372   12 Jun 2027 08:09:12.122   12 Jun 2027 08:09:14.476             2.354          1177.000
       373   12 Jun 2027 08:09:29.553   12 Jun 2027 08:09:47.611            18.058          9029.000
       374   13 Jun 2027 03:28:36.454   13 Jun 2027 03:28:40.301             3.847          1923.500
       375   13 Jun 2027 03:29:14.489   13 Jun 2027 03:29:15.312             0.823           411.500
       376   13 Jun 2027 03:29:43.135   13 Jun 2027 03:29:47.869             4.734          2367.000
       377   13 Jun 2027 03:30:08.166   13 Jun 2027 03:30:10.110             1.944           972.000
       378   13 Jun 2027 03:30:26.712   13 Jun 2027 03:30:30.975             4.263          2131.500
       379   13 Jun 2027 03:30:59.559   13 Jun 2027 03:31:08.436             8.877          4438.500
       380   13 Jun 2027 03:32:09.520   13 Jun 2027 03:32:22.501            12.981          6490.500
       381   13 Jun 2027 03:33:20.181   13 Jun 2027 03:33:29.007             8.826          4413.000
       382   13 Jun 2027 03:34:06.103   13 Jun 2027 03:34:08.023             1.920           960.000
       383   13 Jun 2027 03:34:46.372   13 Jun 2027 03:34:47.202             0.830           415.000
       384   13 Jun 2027 03:35:06.298   13 Jun 2027 03:35:10.163             3.865          1932.500
       385   13 Jun 2027 05:04:59.385   13 Jun 2027 05:05:01.316             1.931           965.500
       386   13 Jun 2027 05:05:25.372   13 Jun 2027 05:05:35.736            10.364          5182.000
       387   13 Jun 2027 05:06:18.902   13 Jun 2027 05:06:29.318            10.416          5208.000
       388   13 Jun 2027 05:07:12.343   13 Jun 2027 05:07:40.996            28.653         14326.500
       389   13 Jun 2027 05:09:46.390   13 Jun 2027 05:09:54.458             8.068          4034.000
       390   13 Jun 2027 05:10:42.999   13 Jun 2027 05:10:55.803            12.804          6402.000
       391   13 Jun 2027 06:42:13.966   13 Jun 2027 06:42:15.651             1.685           842.500
       392   13 Jun 2027 06:42:32.197   13 Jun 2027 06:42:32.422             0.225           112.500
       393   13 Jun 2027 06:42:48.540   13 Jun 2027 06:42:48.647             0.107            53.500
       394   13 Jun 2027 06:43:26.540   13 Jun 2027 06:43:28.456             1.916           958.000
       395   13 Jun 2027 06:43:41.310   13 Jun 2027 06:43:43.389             2.079          1039.500
       396   13 Jun 2027 06:44:11.529   13 Jun 2027 06:44:16.371             4.842          2421.000
       397   13 Jun 2027 06:44:45.869   13 Jun 2027 06:45:01.330            15.461          7730.500
       398   13 Jun 2027 06:46:08.380   13 Jun 2027 06:46:17.649             9.269          4634.500
       399   13 Jun 2027 08:18:29.625   13 Jun 2027 08:18:41.210            11.585          5792.500
       400   13 Jun 2027 08:19:29.955   13 Jun 2027 08:19:40.671            10.716          5358.000
       401   13 Jun 2027 08:20:26.589   13 Jun 2027 08:20:29.598             3.009          1504.500
       402   13 Jun 2027 08:20:53.073   13 Jun 2027 08:21:13.264            20.191         10095.500
       403   13 Jun 2027 08:22:56.677   13 Jun 2027 08:22:58.369             1.692           846.000
       404   13 Jun 2027 08:23:12.887   13 Jun 2027 08:23:12.978             0.091            45.500
