uniorb/output/strategy_2/Camera/Camera_KinoSat_110902.txt

KinoSat_110902
-------------------------
    Access    *     Start Time (UTCG)     *     Stop Time (UTCG)  *   Duration (s) *   Data (Mbytes)
         1   01 Jun 2027 04:00:18.809   01 Jun 2027 04:00:59.629            40.820         20410.000
         2   01 Jun 2027 04:02:56.660   01 Jun 2027 04:03:02.241             5.581          2790.500
         3   01 Jun 2027 05:36:04.117   01 Jun 2027 05:36:58.013            53.896         26948.000
         4   01 Jun 2027 05:36:59.996   01 Jun 2027 05:38:07.605            67.609         33804.500
         5   01 Jun 2027 05:39:17.071   01 Jun 2027 05:40:17.838            60.767         30383.500
         6   01 Jun 2027 07:10:55.658   01 Jun 2027 07:14:07.802           192.144         96072.000
         7   01 Jun 2027 07:14:29.156   01 Jun 2027 07:14:55.344            26.188         13094.000
         8   01 Jun 2027 07:17:41.779   01 Jun 2027 07:18:17.148            35.369         17684.500
         9   01 Jun 2027 08:47:31.053   01 Jun 2027 08:49:17.546           106.493         53246.500
        10   01 Jun 2027 08:50:06.377   01 Jun 2027 08:50:29.361            22.984         11492.000
        11   01 Jun 2027 08:51:15.512   01 Jun 2027 08:51:41.185            25.673         12836.500
        12   01 Jun 2027 08:51:47.986   01 Jun 2027 08:52:02.654            14.668          7334.000
        13   01 Jun 2027 10:25:48.685   01 Jun 2027 10:27:53.346           124.661         62330.500
        14   01 Jun 2027 10:28:24.366   01 Jun 2027 10:29:02.162            37.796         18898.000
        15   01 Jun 2027 10:29:10.714   01 Jun 2027 10:29:12.674             1.960           980.000
        16   01 Jun 2027 11:59:48.682   01 Jun 2027 12:00:00.000            11.318          5659.000
        17   02 Jun 2027 04:10:57.279   02 Jun 2027 04:11:56.277            58.998         29499.000
        18   02 Jun 2027 04:12:33.041   02 Jun 2027 04:12:56.703            23.662         11831.000
        19   02 Jun 2027 04:14:57.702   02 Jun 2027 04:15:07.017             9.315          4657.500
        20   02 Jun 2027 05:46:18.184   02 Jun 2027 05:47:15.704            57.520         28760.000
        21   02 Jun 2027 05:47:49.264   02 Jun 2027 05:49:31.327           102.063         51031.500
        22   02 Jun 2027 05:51:32.723   02 Jun 2027 05:51:53.865            21.142         10571.000
        23   02 Jun 2027 05:52:11.057   02 Jun 2027 05:52:11.057             0.000             0.000
        24   02 Jun 2027 05:52:20.397   02 Jun 2027 05:52:20.727             0.330           165.000
        25   02 Jun 2027 07:22:46.808   02 Jun 2027 07:24:50.243           123.435         61717.500
        26   02 Jun 2027 07:25:37.707   02 Jun 2027 07:26:07.655            29.948         14974.000
        27   02 Jun 2027 07:27:24.230   02 Jun 2027 07:28:04.276            40.046         20023.000
        28   02 Jun 2027 07:28:19.115   02 Jun 2027 07:28:42.277            23.162         11581.000
        29   02 Jun 2027 07:29:28.250   02 Jun 2027 07:29:48.449            20.199         10099.500
        30   02 Jun 2027 07:29:50.802   02 Jun 2027 07:29:57.967             7.165          3582.500
        31   02 Jun 2027 07:30:10.930   02 Jun 2027 07:30:17.551             6.621          3310.500
        32   02 Jun 2027 08:59:52.247   02 Jun 2027 09:01:55.282           123.035         60567.625
        33   02 Jun 2027 09:02:16.750   02 Jun 2027 09:02:18.748             1.998           670.875
        34   02 Jun 2027 09:03:07.168   02 Jun 2027 09:03:14.064             6.896          1409.906
        35   02 Jun 2027 09:03:53.438   02 Jun 2027 09:03:58.360             4.922          1019.094
        36   02 Jun 2027 09:04:41.092   02 Jun 2027 09:04:41.513             0.421           210.500
        37   02 Jun 2027 09:05:04.130   02 Jun 2027 09:05:11.241             7.111          1831.657
        38   02 Jun 2027 10:37:46.302   02 Jun 2027 10:38:15.372            29.070          9857.281
        39   02 Jun 2027 10:38:42.830   02 Jun 2027 10:38:43.268             0.438            58.594
        40   02 Jun 2027 10:39:01.782   02 Jun 2027 10:39:02.542             0.760           179.156
        41   02 Jun 2027 10:39:42.600   02 Jun 2027 10:39:46.848             4.248          1201.969
        42   02 Jun 2027 10:40:49.929   02 Jun 2027 10:40:56.334             6.405          1660.156
        43   02 Jun 2027 10:41:20.048   02 Jun 2027 10:41:21.160             1.112           556.000
        44   02 Jun 2027 10:41:27.589   02 Jun 2027 10:41:32.028             4.439           367.563
        45   02 Jun 2027 10:41:37.155   02 Jun 2027 10:41:39.088             1.933            20.563
        46   03 Jun 2027 03:00:17.673   03 Jun 2027 03:00:53.862            36.189         18094.500
        47   03 Jun 2027 04:22:33.216   03 Jun 2027 04:23:39.878            66.662         33331.000
        48   03 Jun 2027 04:24:28.730   03 Jun 2027 04:25:02.708            33.978         16989.000
        49   03 Jun 2027 04:25:40.828   03 Jun 2027 04:26:10.573            29.745         14872.500
        50   03 Jun 2027 04:26:14.266   03 Jun 2027 04:26:14.266             0.000             0.000
        51   03 Jun 2027 04:26:44.218   03 Jun 2027 04:26:57.446            13.228          6614.000
        52   03 Jun 2027 05:57:27.230   03 Jun 2027 05:59:19.687           112.457         56228.500
        53   03 Jun 2027 05:59:49.650   03 Jun 2027 05:59:56.429             6.779          3389.500
        54   03 Jun 2027 06:01:20.697   03 Jun 2027 06:01:44.161            23.464         11403.781
        55   03 Jun 2027 06:03:04.412   03 Jun 2027 06:03:04.412             0.000             0.000
        56   03 Jun 2027 06:03:51.804   03 Jun 2027 06:03:56.816             5.012          2506.000
        57   03 Jun 2027 06:04:27.611   03 Jun 2027 06:04:32.227             4.616          2251.000
        58   03 Jun 2027 06:04:40.105   03 Jun 2027 06:04:40.345             0.240            70.344
        59   03 Jun 2027 07:35:00.680   03 Jun 2027 07:35:14.796            14.116          6662.094
        60   03 Jun 2027 07:35:33.826   03 Jun 2027 07:35:36.361             2.535           311.281
        61   03 Jun 2027 07:35:49.748   03 Jun 2027 07:35:50.259             0.511           135.031
        62   03 Jun 2027 07:36:32.367   03 Jun 2027 07:36:35.807             3.440           534.375
        63   03 Jun 2027 07:36:56.422   03 Jun 2027 07:36:59.012             2.590           128.719
        64   03 Jun 2027 07:38:12.844   03 Jun 2027 07:38:17.193             4.349          1726.406
        65   03 Jun 2027 07:39:20.900   03 Jun 2027 07:39:29.518             8.618          1680.313
        66   03 Jun 2027 07:40:46.278   03 Jun 2027 07:40:54.884             8.606          2354.312
        67   03 Jun 2027 07:42:05.069   03 Jun 2027 07:42:10.208             5.139          2018.625
        68   03 Jun 2027 09:11:43.153   03 Jun 2027 09:12:05.941            22.788         11326.625
        69   03 Jun 2027 09:12:47.624   03 Jun 2027 09:12:49.901             2.277           960.562
        70   03 Jun 2027 09:12:58.350   03 Jun 2027 09:13:05.376             7.026           140.844
        71   03 Jun 2027 09:13:27.337   03 Jun 2027 09:13:31.206             3.869           645.062
        72   03 Jun 2027 09:14:15.965   03 Jun 2027 09:14:16.886             0.921           373.219
        73   03 Jun 2027 09:15:01.793   03 Jun 2027 09:15:05.467             3.674          1287.531
        74   03 Jun 2027 09:16:27.450   03 Jun 2027 09:16:33.252             5.802          2044.594
        75   03 Jun 2027 09:16:53.799   03 Jun 2027 09:16:55.130             1.331           602.031
        76   03 Jun 2027 09:18:01.226   03 Jun 2027 09:18:06.305             5.079          2025.188
        77   03 Jun 2027 10:49:46.232   03 Jun 2027 10:50:04.509            18.277          8875.750
        78   03 Jun 2027 10:50:36.470   03 Jun 2027 10:50:38.570             2.100           516.687
        79   03 Jun 2027 10:51:20.930   03 Jun 2027 10:51:25.600             4.670           895.281
        80   03 Jun 2027 10:51:29.039   03 Jun 2027 10:51:32.946             3.907           107.469
        81   03 Jun 2027 10:52:00.553   03 Jun 2027 10:52:03.380             2.827           731.156
        82   03 Jun 2027 10:52:54.330   03 Jun 2027 10:52:57.756             3.426          1592.188
        83   03 Jun 2027 10:53:32.073   03 Jun 2027 10:53:37.653             5.580          1072.406
        84   03 Jun 2027 10:53:44.088   03 Jun 2027 10:53:45.517             1.429           162.406
        85   04 Jun 2027 03:00:10.500   04 Jun 2027 03:00:21.616            11.116          5558.000
        86   04 Jun 2027 03:01:10.239   04 Jun 2027 03:01:10.239             0.000             0.000
        87   04 Jun 2027 03:01:33.525   04 Jun 2027 03:01:59.394            25.869         12934.500
        88   04 Jun 2027 03:12:25.984   04 Jun 2027 03:12:52.983            26.999         13499.500
        89   04 Jun 2027 04:34:02.698   04 Jun 2027 04:35:25.742            83.044         41522.000
        90   04 Jun 2027 04:36:02.178   04 Jun 2027 04:36:51.636            49.458         24729.000
        91   04 Jun 2027 04:37:11.133   04 Jun 2027 04:37:17.607             6.474          3237.000
        92   04 Jun 2027 04:38:31.964   04 Jun 2027 04:38:51.655            19.691          9845.500
        93   04 Jun 2027 04:39:31.338   04 Jun 2027 04:40:02.890            31.552         15776.000
        94   04 Jun 2027 06:08:57.867   04 Jun 2027 06:10:05.999            68.132         34066.000
        95   04 Jun 2027 06:11:34.522   04 Jun 2027 06:11:39.664             5.142          2571.000
        96   04 Jun 2027 06:12:17.166   04 Jun 2027 06:12:27.301            10.135          4709.156
        97   04 Jun 2027 06:12:38.530   04 Jun 2027 06:12:40.826             2.296           119.687
        98   04 Jun 2027 06:14:17.858   04 Jun 2027 06:14:24.183             6.325          3031.281
        99   04 Jun 2027 06:15:05.814   04 Jun 2027 06:15:11.059             5.245          1214.219
       100   04 Jun 2027 06:15:12.109   04 Jun 2027 06:15:12.109             0.000             0.000
       101   04 Jun 2027 06:15:32.603   04 Jun 2027 06:15:33.037             0.434           217.000
       102   04 Jun 2027 06:16:18.812   04 Jun 2027 06:16:29.285            10.473          1865.906
       103   04 Jun 2027 06:16:30.007   04 Jun 2027 06:16:30.007             0.000             0.000
       104   04 Jun 2027 06:17:27.539   04 Jun 2027 06:17:31.392             3.853          1820.437
       105   04 Jun 2027 06:17:52.457   04 Jun 2027 06:17:58.628             6.171           564.844
       106   04 Jun 2027 07:46:54.652   04 Jun 2027 07:47:12.151            17.499          8421.719
       107   04 Jun 2027 07:48:31.732   04 Jun 2027 07:48:37.952             6.220          2048.875
       108   04 Jun 2027 07:48:58.664   04 Jun 2027 07:49:04.598             5.934           159.594
       109   04 Jun 2027 07:49:35.977   04 Jun 2027 07:49:42.479             6.502           980.594
       110   04 Jun 2027 07:50:18.454   04 Jun 2027 07:50:20.657             2.203           413.625
       111   04 Jun 2027 07:50:43.149   04 Jun 2027 07:50:46.653             3.504           117.813
       112   04 Jun 2027 07:51:28.656   04 Jun 2027 07:51:31.971             3.315          1139.094
       113   04 Jun 2027 07:51:53.827   04 Jun 2027 07:51:55.480             1.653           599.281
       114   04 Jun 2027 07:52:08.899   04 Jun 2027 07:52:10.161             1.262           408.344
       115   04 Jun 2027 07:52:41.334   04 Jun 2027 07:52:43.294             1.960           974.156
       116   04 Jun 2027 07:53:44.579   04 Jun 2027 07:53:50.370             5.791          1856.812
       117   04 Jun 2027 09:23:46.464   04 Jun 2027 09:24:05.565            19.101          9300.438
       118   04 Jun 2027 09:24:54.060   04 Jun 2027 09:24:54.859             0.799           186.344
       119   04 Jun 2027 09:25:39.762   04 Jun 2027 09:25:42.994             3.232           421.375
       120   04 Jun 2027 09:26:11.812   04 Jun 2027 09:26:14.077             2.265           900.562
       121   04 Jun 2027 09:27:12.431   04 Jun 2027 09:27:16.109             3.678          1823.562
       122   04 Jun 2027 09:27:54.862   04 Jun 2027 09:27:57.703             2.841           982.781
       123   04 Jun 2027 09:28:44.473   04 Jun 2027 09:28:48.370             3.897          1388.750
       124   04 Jun 2027 09:29:31.850   04 Jun 2027 09:29:34.559             2.709          1354.500
       125   04 Jun 2027 09:30:16.994   04 Jun 2027 09:30:21.093             4.099          1330.344
       126   04 Jun 2027 11:01:32.798   04 Jun 2027 11:01:50.985            18.187          8558.906
       127   04 Jun 2027 11:02:51.423   04 Jun 2027 11:02:55.929             4.506          1863.500
       128   04 Jun 2027 11:03:08.186   04 Jun 2027 11:03:11.516             3.330           383.031
       129   04 Jun 2027 11:04:14.197   04 Jun 2027 11:04:23.311             9.114          1522.438
       130   04 Jun 2027 11:04:36.017   04 Jun 2027 11:04:37.325             1.308           397.063
       131   04 Jun 2027 11:04:43.402   04 Jun 2027 11:04:58.075            14.673           187.656
       132   05 Jun 2027 03:12:06.463   05 Jun 2027 03:12:56.692            50.229         25114.500
       133   05 Jun 2027 03:13:21.569   05 Jun 2027 03:13:34.550            12.981          6490.500
       134   05 Jun 2027 04:48:05.885   05 Jun 2027 04:51:11.237           185.352         92676.000
       135   05 Jun 2027 04:51:33.718   05 Jun 2027 04:51:36.405             2.687          1343.500
       136   05 Jun 2027 06:21:51.876   05 Jun 2027 06:22:54.951            63.075         30564.656
       137   05 Jun 2027 06:23:53.238   05 Jun 2027 06:23:58.881             5.643          1752.969
       138   05 Jun 2027 06:24:40.423   05 Jun 2027 06:24:42.944             2.521          1106.844
       139   05 Jun 2027 06:24:52.244   05 Jun 2027 06:24:55.110             2.866           290.625
       140   05 Jun 2027 06:25:52.154   05 Jun 2027 06:25:52.154             0.000             0.000
       141   05 Jun 2027 06:26:18.936   05 Jun 2027 06:26:24.928             5.992          2565.906
       142   05 Jun 2027 06:27:15.078   05 Jun 2027 06:27:24.219             9.141          1268.312
       143   05 Jun 2027 06:28:12.068   05 Jun 2027 06:28:14.801             2.733          1366.500
       144   05 Jun 2027 06:29:05.672   05 Jun 2027 06:29:11.181             5.509          1665.687
       145   05 Jun 2027 06:29:30.810   05 Jun 2027 06:29:35.152             4.342           564.594
       146   05 Jun 2027 06:30:19.037   05 Jun 2027 06:30:21.134             2.097           902.750
       147   05 Jun 2027 07:59:14.839   05 Jun 2027 07:59:30.965            16.126          7398.438
       148   05 Jun 2027 08:00:34.239   05 Jun 2027 08:00:34.884             0.645           253.813
       149   05 Jun 2027 08:01:27.695   05 Jun 2027 08:01:31.416             3.721          1643.188
       150   05 Jun 2027 08:02:42.757   05 Jun 2027 08:02:49.532             6.775          2182.625
       151   05 Jun 2027 08:03:39.411   05 Jun 2027 08:03:45.137             5.726          1410.594
       152   05 Jun 2027 08:03:54.225   05 Jun 2027 08:03:55.521             1.296           214.688
       153   05 Jun 2027 08:04:14.198   05 Jun 2027 08:04:15.693             1.495           583.656
       154   05 Jun 2027 08:04:31.119   05 Jun 2027 08:04:32.640             1.521           471.094
       155   05 Jun 2027 08:05:37.849   05 Jun 2027 08:05:40.893             3.044          1451.187
       156   05 Jun 2027 08:05:49.116   05 Jun 2027 08:05:50.799             1.683           256.969
       157   05 Jun 2027 08:05:51.889   05 Jun 2027 08:05:55.222             3.333            34.062
       158   05 Jun 2027 09:36:35.358   05 Jun 2027 09:36:55.090            19.732          9810.719
       159   05 Jun 2027 09:37:27.963   05 Jun 2027 09:37:30.990             3.027          1025.156
       160   05 Jun 2027 09:37:44.915   05 Jun 2027 09:37:46.777             1.862           156.219
       161   05 Jun 2027 09:38:06.108   05 Jun 2027 09:38:08.203             2.095           243.469
       162   05 Jun 2027 09:38:31.428   05 Jun 2027 09:38:34.152             2.724           720.813
       163   05 Jun 2027 09:39:48.810   05 Jun 2027 09:39:50.059             1.249           624.500
       164   05 Jun 2027 09:40:28.772   05 Jun 2027 09:40:34.422             5.650          1554.719
       165   05 Jun 2027 09:41:36.592   05 Jun 2027 09:41:46.092             9.500          1712.437
       166   05 Jun 2027 09:41:58.064   05 Jun 2027 09:41:58.064             0.000             0.000
       167   05 Jun 2027 11:13:03.636   05 Jun 2027 11:13:18.051            14.415          6941.906
       168   05 Jun 2027 11:13:52.936   05 Jun 2027 11:13:56.135             3.199          1020.063
       169   05 Jun 2027 11:14:35.366   05 Jun 2027 11:14:38.005             2.639           986.094
       170   05 Jun 2027 11:15:35.500   05 Jun 2027 11:15:39.685             4.185          1789.344
       171   05 Jun 2027 11:16:02.957   05 Jun 2027 11:16:05.493             2.536           727.250
       172   05 Jun 2027 11:17:15.336   05 Jun 2027 11:17:19.515             4.179          2000.250
       173   05 Jun 2027 11:17:35.927   05 Jun 2027 11:17:36.990             1.063           484.562
       174   05 Jun 2027 11:17:47.189   05 Jun 2027 11:17:51.341             4.152           209.656
       175   06 Jun 2027 03:23:58.121   06 Jun 2027 03:24:35.337            37.216         18608.000
       176   06 Jun 2027 03:24:56.869   06 Jun 2027 03:25:14.967            18.098          9049.000
       177   06 Jun 2027 03:25:20.433   06 Jun 2027 03:25:27.993             7.560          3780.000
       178   06 Jun 2027 03:25:58.452   06 Jun 2027 03:26:08.039             9.587          4793.500
       179   06 Jun 2027 03:26:15.411   06 Jun 2027 03:26:15.411             0.000             0.000
       180   06 Jun 2027 05:00:20.167   06 Jun 2027 05:03:17.265           177.098         88549.000
       181   06 Jun 2027 05:03:46.374   06 Jun 2027 05:03:54.289             7.915          3957.500
       182   06 Jun 2027 06:32:37.007   06 Jun 2027 06:32:55.605            18.598          9299.000
       183   06 Jun 2027 06:34:24.173   06 Jun 2027 06:34:55.558            31.385         14564.313
       184   06 Jun 2027 06:35:54.984   06 Jun 2027 06:35:58.450             3.466          1711.594
       185   06 Jun 2027 06:36:09.904   06 Jun 2027 06:36:10.583             0.679           326.969
       186   06 Jun 2027 06:36:40.570   06 Jun 2027 06:36:41.141             0.571           243.375
       187   06 Jun 2027 06:36:55.532   06 Jun 2027 06:36:58.904             3.372           335.906
       188   06 Jun 2027 06:37:04.754   06 Jun 2027 06:37:07.119             2.365            57.781
       189   06 Jun 2027 06:37:53.522   06 Jun 2027 06:37:55.989             2.467          1218.344
       190   06 Jun 2027 06:38:07.754   06 Jun 2027 06:38:11.245             3.491           367.656
       191   06 Jun 2027 06:38:31.719   06 Jun 2027 06:38:33.043             1.324           436.750
       192   06 Jun 2027 06:38:47.827   06 Jun 2027 06:38:47.827             0.000             0.000
       193   06 Jun 2027 06:38:57.067   06 Jun 2027 06:38:58.742             1.675           750.750
       194   06 Jun 2027 06:39:14.693   06 Jun 2027 06:39:14.693             0.000             0.000
       195   06 Jun 2027 06:39:55.568   06 Jun 2027 06:39:58.879             3.311          1486.031
       196   06 Jun 2027 06:40:04.115   06 Jun 2027 06:40:08.099             3.984            43.250
       197   06 Jun 2027 06:40:34.992   06 Jun 2027 06:40:37.911             2.919           840.406
       198   06 Jun 2027 06:40:51.326   06 Jun 2027 06:40:52.581             1.255           419.219
       199   06 Jun 2027 06:41:26.146   06 Jun 2027 06:41:31.810             5.664           586.375
       200   06 Jun 2027 08:11:28.665   06 Jun 2027 08:11:51.291            22.626         10090.062
       201   06 Jun 2027 08:13:21.616   06 Jun 2027 08:13:28.400             6.784           909.625
       202   06 Jun 2027 08:13:55.017   06 Jun 2027 08:13:59.121             4.104           202.406
       203   06 Jun 2027 08:14:37.871   06 Jun 2027 08:14:38.685             0.814           367.344
       204   06 Jun 2027 08:15:09.080   06 Jun 2027 08:15:11.444             2.364           944.250
       205   06 Jun 2027 08:15:33.948   06 Jun 2027 08:15:34.506             0.558           189.844
       206   06 Jun 2027 08:16:11.442   06 Jun 2027 08:16:16.531             5.089          1129.031
       207   06 Jun 2027 08:17:06.061   06 Jun 2027 08:17:09.400             3.339          1527.031
       208   06 Jun 2027 08:17:17.230   06 Jun 2027 08:17:19.336             2.106            34.563
       209   06 Jun 2027 08:17:32.519   06 Jun 2027 08:17:33.426             0.907             8.813
       210   06 Jun 2027 08:17:39.928   06 Jun 2027 08:17:40.272             0.344           141.625
       211   06 Jun 2027 08:17:53.390   06 Jun 2027 08:17:55.060             1.670           402.594
       212   06 Jun 2027 09:48:24.805   06 Jun 2027 09:48:45.919            21.114          9010.281
       213   06 Jun 2027 09:48:59.535   06 Jun 2027 09:49:08.599             9.064           203.750
       214   06 Jun 2027 09:50:06.114   06 Jun 2027 09:50:06.243             0.129            64.500
       215   06 Jun 2027 09:50:24.037   06 Jun 2027 09:50:27.239             3.202          1295.469
       216   06 Jun 2027 09:51:00.365   06 Jun 2027 09:51:04.194             3.829           339.156
       217   06 Jun 2027 09:51:17.832   06 Jun 2027 09:51:19.002             1.170           210.500
       218   06 Jun 2027 09:51:51.129   06 Jun 2027 09:51:52.745             1.616           624.750
       219   06 Jun 2027 09:52:32.668   06 Jun 2027 09:52:36.289             3.621          1133.094
       220   06 Jun 2027 09:52:59.897   06 Jun 2027 09:53:02.904             3.007           560.969
       221   06 Jun 2027 11:25:11.408   06 Jun 2027 11:25:24.715            13.307          6239.188
       222   06 Jun 2027 11:26:05.215   06 Jun 2027 11:26:10.778             5.563          1080.344
       223   06 Jun 2027 11:26:35.900   06 Jun 2027 11:26:35.900             0.000             0.000
       224   06 Jun 2027 11:26:59.959   06 Jun 2027 11:27:10.697            10.738          1158.719
       225   06 Jun 2027 11:27:30.362   06 Jun 2027 11:27:33.728             3.366           602.687
       226   06 Jun 2027 11:27:50.756   06 Jun 2027 11:27:50.756             0.000             0.000
       227   06 Jun 2027 11:29:12.760   06 Jun 2027 11:29:19.904             7.144          3023.531
       228   06 Jun 2027 11:29:44.363   06 Jun 2027 11:29:45.707             1.344           672.000
       229   07 Jun 2027 03:36:01.603   07 Jun 2027 03:36:12.267            10.664          5332.000
       230   07 Jun 2027 03:36:37.445   07 Jun 2027 03:37:35.946            58.501         29250.500
       231   07 Jun 2027 03:37:48.490   07 Jun 2027 03:37:53.630             5.140          2570.000
       232   07 Jun 2027 03:38:42.993   07 Jun 2027 03:38:42.993             0.000             0.000
       233   07 Jun 2027 05:12:30.721   07 Jun 2027 05:12:32.680             1.959           979.500
       234   07 Jun 2027 05:12:48.122   07 Jun 2027 05:13:30.751            42.629         21314.500
       235   07 Jun 2027 05:15:04.139   07 Jun 2027 05:15:55.610            51.471         25735.500
       236   07 Jun 2027 06:47:35.621   07 Jun 2027 06:49:58.887           143.266         71502.656
       237   07 Jun 2027 06:50:33.858   07 Jun 2027 06:50:36.998             3.140           151.031
       238   07 Jun 2027 06:50:54.585   07 Jun 2027 06:50:56.292             1.707           549.594
       239   07 Jun 2027 06:52:32.214   07 Jun 2027 06:52:41.091             8.877          2411.625
       240   07 Jun 2027 06:52:51.789   07 Jun 2027 06:52:55.512             3.723           334.313
       241   07 Jun 2027 06:53:10.015   07 Jun 2027 06:53:11.077             1.062           242.250
       242   07 Jun 2027 06:54:02.635   07 Jun 2027 06:54:06.112             3.477          1579.656
       243   07 Jun 2027 06:54:19.509   07 Jun 2027 06:54:20.458             0.949           287.125
       244   07 Jun 2027 08:23:57.412   07 Jun 2027 08:24:13.835            16.423          7807.688
       245   07 Jun 2027 08:26:03.433   07 Jun 2027 08:26:06.519             3.086           406.313
       246   07 Jun 2027 08:26:28.192   07 Jun 2027 08:26:34.338             6.146           677.281
       247   07 Jun 2027 08:27:11.081   07 Jun 2027 08:27:13.030             1.949           340.063
       248   07 Jun 2027 08:27:32.475   07 Jun 2027 08:27:33.582             1.107           517.125
       249   07 Jun 2027 08:28:35.453   07 Jun 2027 08:28:45.778            10.325          1627.812
       250   07 Jun 2027 08:29:07.438   07 Jun 2027 08:29:09.209             1.771           676.875
       251   07 Jun 2027 08:29:18.562   07 Jun 2027 08:29:19.972             1.410           106.031
       252   07 Jun 2027 08:29:46.770   07 Jun 2027 08:29:50.629             3.859           619.063
       253   07 Jun 2027 10:01:27.905   07 Jun 2027 10:01:43.695            15.790          7895.000
       254   07 Jun 2027 10:02:11.395   07 Jun 2027 10:02:13.992             2.597          1298.500
       255   07 Jun 2027 10:02:13.998   07 Jun 2027 10:02:13.998             0.000             0.000
       256   07 Jun 2027 10:02:33.102   07 Jun 2027 10:02:41.620             8.518           603.406
       257   07 Jun 2027 10:03:27.897   07 Jun 2027 10:03:31.097             3.200           433.031
       258   07 Jun 2027 10:03:57.881   07 Jun 2027 10:03:59.963             2.082           576.406
       259   07 Jun 2027 10:04:32.230   07 Jun 2027 10:04:33.982             1.752           794.844
       260   07 Jun 2027 10:05:42.356   07 Jun 2027 10:05:47.438             5.082          2136.688
       261   07 Jun 2027 10:05:49.445   07 Jun 2027 10:05:49.445             0.000             0.000
       262   07 Jun 2027 11:37:32.521   07 Jun 2027 11:37:45.323            12.802          6401.000
       263   07 Jun 2027 11:37:56.325   07 Jun 2027 11:37:57.601             1.276           583.750
       264   07 Jun 2027 11:38:27.149   07 Jun 2027 11:38:31.553             4.404           904.281
       265   07 Jun 2027 11:39:12.180   07 Jun 2027 11:39:18.628             6.448          1269.594
       266   07 Jun 2027 11:39:26.897   07 Jun 2027 11:39:28.669             1.772           191.406
       267   07 Jun 2027 11:39:43.020   07 Jun 2027 11:39:44.388             1.368           448.469
       268   07 Jun 2027 11:40:01.771   07 Jun 2027 11:40:04.335             2.564           543.219
       269   07 Jun 2027 11:41:24.678   07 Jun 2027 11:41:32.315             7.637          2297.187
       270   08 Jun 2027 03:47:57.629   08 Jun 2027 03:48:39.864            42.235         21117.500
       271   08 Jun 2027 03:49:19.520   08 Jun 2027 03:49:52.397            32.877         16438.500
       272   08 Jun 2027 03:51:10.687   08 Jun 2027 03:51:13.426             2.739          1369.500
       273   08 Jun 2027 05:24:35.425   08 Jun 2027 05:25:19.991            44.566         22283.000
       274   08 Jun 2027 05:25:21.129   08 Jun 2027 05:27:43.242           142.113         71056.500
       275   08 Jun 2027 06:59:45.693   08 Jun 2027 07:00:29.468            43.775         21547.531
       276   08 Jun 2027 07:01:02.142   08 Jun 2027 07:01:03.694             1.552           456.750
       277   08 Jun 2027 07:01:45.034   08 Jun 2027 07:01:48.857             3.823          1291.875
       278   08 Jun 2027 07:03:14.714   08 Jun 2027 07:03:18.352             3.638          1819.000
       279   08 Jun 2027 07:04:32.298   08 Jun 2027 07:04:44.457            12.159          2933.000
       280   08 Jun 2027 07:05:39.825   08 Jun 2027 07:05:44.530             4.705          1437.344
       281   08 Jun 2027 07:05:57.871   08 Jun 2027 07:05:58.245             0.374           187.000
       282   08 Jun 2027 07:06:10.386   08 Jun 2027 07:06:13.283             2.897           609.312
       283   08 Jun 2027 08:36:00.800   08 Jun 2027 08:36:27.108            26.308         12147.969
       284   08 Jun 2027 08:37:36.141   08 Jun 2027 08:37:38.330             2.189          1074.500
       285   08 Jun 2027 08:38:20.602   08 Jun 2027 08:38:24.292             3.690          1015.156
       286   08 Jun 2027 08:38:30.698   08 Jun 2027 08:38:31.150             0.452            94.594
       287   08 Jun 2027 08:39:20.781   08 Jun 2027 08:39:24.945             4.164          1340.563
       288   08 Jun 2027 08:39:37.261   08 Jun 2027 08:39:38.494             1.233           269.250
       289   08 Jun 2027 08:40:13.918   08 Jun 2027 08:40:16.049             2.131           194.844
       290   08 Jun 2027 08:40:28.602   08 Jun 2027 08:40:29.601             0.999           323.469
       291   08 Jun 2027 08:40:59.891   08 Jun 2027 08:41:06.435             6.544           692.406
       292   08 Jun 2027 08:41:21.754   08 Jun 2027 08:41:23.173             1.419           453.094
       293   08 Jun 2027 08:41:31.890   08 Jun 2027 08:41:33.341             1.451           272.406
       294   08 Jun 2027 08:41:58.976   08 Jun 2027 08:42:03.616             4.640           576.125
       295   08 Jun 2027 10:13:33.458   08 Jun 2027 10:13:49.882            16.424          7941.344
       296   08 Jun 2027 10:14:13.524   08 Jun 2027 10:14:19.994             6.470           568.750
       297   08 Jun 2027 10:15:11.547   08 Jun 2027 10:15:14.103             2.556          1000.281
       298   08 Jun 2027 10:15:35.168   08 Jun 2027 10:15:40.959             5.791           149.344
       299   08 Jun 2027 10:15:58.331   08 Jun 2027 10:16:02.457             4.126           518.312
       300   08 Jun 2027 10:16:23.144   08 Jun 2027 10:16:26.014             2.870           489.906
       301   08 Jun 2027 10:16:45.825   08 Jun 2027 10:16:46.890             1.065           532.125
       302   08 Jun 2027 10:17:27.095   08 Jun 2027 10:17:31.804             4.709          1256.406
       303   08 Jun 2027 10:17:42.507   08 Jun 2027 10:17:43.165             0.658           298.219
       304   08 Jun 2027 10:17:51.086   08 Jun 2027 10:17:51.086             0.000             0.000
       305   08 Jun 2027 11:49:34.780   08 Jun 2027 11:49:51.364            16.584          7249.875
       306   08 Jun 2027 11:50:50.555   08 Jun 2027 11:50:55.732             5.177          1846.625
       307   08 Jun 2027 11:51:06.151   08 Jun 2027 11:51:13.916             7.765           305.188
       308   08 Jun 2027 11:51:44.931   08 Jun 2027 11:51:58.406            13.475           969.219
       309   08 Jun 2027 11:52:03.295   08 Jun 2027 11:52:03.986             0.691           152.781
       310   08 Jun 2027 11:52:59.738   08 Jun 2027 11:53:00.682             0.944           472.000
       311   08 Jun 2027 11:53:13.561   08 Jun 2027 11:53:16.607             3.046          1381.250
       312   08 Jun 2027 11:53:22.126   08 Jun 2027 11:53:22.300             0.174            84.625
       313   08 Jun 2027 11:54:30.742   08 Jun 2027 11:54:34.570             3.828          1914.000
       314   09 Jun 2027 04:00:33.482   09 Jun 2027 04:01:50.506            77.024         38512.000
       315   09 Jun 2027 04:03:11.885   09 Jun 2027 04:03:13.347             1.462           731.000
       316   09 Jun 2027 05:36:19.051   09 Jun 2027 05:36:23.744             4.693          2346.500
       317   09 Jun 2027 05:37:12.952   09 Jun 2027 05:38:22.011            69.059         34529.500
       318   09 Jun 2027 05:39:31.460   09 Jun 2027 05:40:32.961            61.501         30750.500
       319   09 Jun 2027 07:11:10.264   09 Jun 2027 07:12:48.330            98.066         48426.750
       320   09 Jun 2027 07:13:05.398   09 Jun 2027 07:13:09.775             4.377           533.375
       321   09 Jun 2027 07:14:15.225   09 Jun 2027 07:14:16.358             1.133           566.500
       322   09 Jun 2027 07:14:38.618   09 Jun 2027 07:14:40.513             1.895           947.500
       323   09 Jun 2027 07:15:20.067   09 Jun 2027 07:15:20.668             0.601           300.500
       324   09 Jun 2027 07:16:31.809   09 Jun 2027 07:16:39.272             7.463          3237.375
       325   09 Jun 2027 07:18:14.372   09 Jun 2027 07:18:20.878             6.506          2536.094
       326   09 Jun 2027 08:47:45.940   09 Jun 2027 08:48:12.690            26.750         11443.563
       327   09 Jun 2027 08:48:37.312   09 Jun 2027 08:48:38.867             1.555           462.187
       328   09 Jun 2027 08:49:24.923   09 Jun 2027 08:49:27.644             2.721          1262.125
       329   09 Jun 2027 08:49:32.361   09 Jun 2027 08:49:36.961             4.600           147.406
       330   09 Jun 2027 08:49:57.758   09 Jun 2027 08:49:59.673             1.915           158.063
       331   09 Jun 2027 08:51:56.516   09 Jun 2027 08:52:02.936             6.420          2989.844
       332   09 Jun 2027 08:52:54.611   09 Jun 2027 08:52:57.069             2.458          1229.000
       333   09 Jun 2027 08:54:04.449   09 Jun 2027 08:54:09.761             5.312          2491.469
       334   09 Jun 2027 10:26:03.561   09 Jun 2027 10:26:19.496            15.935          7839.125
       335   09 Jun 2027 10:26:23.984   09 Jun 2027 10:26:27.473             3.489           140.250
       336   09 Jun 2027 10:26:58.825   09 Jun 2027 10:27:04.171             5.346           624.844
       337   09 Jun 2027 10:27:45.847   09 Jun 2027 10:27:52.368             6.521           122.375
       338   09 Jun 2027 10:28:38.000   09 Jun 2027 10:28:41.546             3.546          1426.000
       339   09 Jun 2027 10:29:39.541   09 Jun 2027 10:29:45.032             5.491          1707.438
       340   09 Jun 2027 10:29:58.116   09 Jun 2027 10:29:58.369             0.253           126.500
       341   09 Jun 2027 11:59:24.314   09 Jun 2027 11:59:32.531             8.217          4108.500
       342   10 Jun 2027 04:11:12.230   10 Jun 2027 04:12:11.117            58.887         29443.500
       343   10 Jun 2027 04:12:47.744   10 Jun 2027 04:13:11.879            24.135         12067.500
       344   10 Jun 2027 04:15:12.923   10 Jun 2027 04:15:22.474             9.551          4775.500
       345   10 Jun 2027 04:15:42.148   10 Jun 2027 04:15:42.148             0.000             0.000
       346   10 Jun 2027 04:15:46.954   10 Jun 2027 04:15:52.041             5.087          2543.500
       347   10 Jun 2027 05:46:32.053   10 Jun 2027 05:47:31.073            59.020         29510.000
       348   10 Jun 2027 05:48:04.087   10 Jun 2027 05:49:28.100            84.013         42006.500
       349   10 Jun 2027 05:50:16.427   10 Jun 2027 05:50:35.574            19.147          9573.500
       350   10 Jun 2027 05:50:44.954   10 Jun 2027 05:50:47.119             2.165          1082.500
       351   10 Jun 2027 05:51:59.593   10 Jun 2027 05:52:09.475             9.882          4941.000
       352   10 Jun 2027 07:23:02.443   10 Jun 2027 07:24:02.458            60.015         29022.125
       353   10 Jun 2027 07:25:05.126   10 Jun 2027 07:25:08.581             3.455          1655.625
       354   10 Jun 2027 07:25:52.970   10 Jun 2027 07:26:00.914             7.944          1387.156
       355   10 Jun 2027 07:26:02.486   10 Jun 2027 07:26:05.527             3.041            42.938
       356   10 Jun 2027 07:26:16.669   10 Jun 2027 07:26:20.003             3.334           348.188
       357   10 Jun 2027 07:26:33.009   10 Jun 2027 07:26:33.639             0.630           311.625
       358   10 Jun 2027 07:27:24.584   10 Jun 2027 07:27:25.523             0.939           469.500
       359   10 Jun 2027 07:28:30.640   10 Jun 2027 07:28:35.151             4.511          2255.500
       360   10 Jun 2027 07:28:43.481   10 Jun 2027 07:28:47.667             4.186          1038.219
       361   10 Jun 2027 07:29:12.073   10 Jun 2027 07:29:15.752             3.679           493.469
       362   10 Jun 2027 07:30:32.163   10 Jun 2027 07:30:32.715             0.552           276.000
       363   10 Jun 2027 09:00:07.028   10 Jun 2027 09:00:28.204            21.176          9857.000
       364   10 Jun 2027 09:00:41.100   10 Jun 2027 09:00:47.649             6.549           126.094
       365   10 Jun 2027 09:01:27.522   10 Jun 2027 09:01:32.964             5.442           335.906
       366   10 Jun 2027 09:03:05.316   10 Jun 2027 09:03:07.724             2.408           963.562
       367   10 Jun 2027 09:03:59.071   10 Jun 2027 09:04:02.986             3.915          1518.094
       368   10 Jun 2027 09:04:12.826   10 Jun 2027 09:04:14.406             1.580            28.594
       369   10 Jun 2027 09:04:15.635   10 Jun 2027 09:04:15.852             0.217            38.406
       370   10 Jun 2027 09:04:22.261   10 Jun 2027 09:04:29.652             7.391           200.281
       371   10 Jun 2027 09:04:36.409   10 Jun 2027 09:04:42.275             5.866           193.656
       372   10 Jun 2027 09:04:56.563   10 Jun 2027 09:04:57.297             0.734           296.062
       373   10 Jun 2027 09:05:13.195   10 Jun 2027 09:05:13.195             0.000             0.000
       374   10 Jun 2027 09:05:29.360   10 Jun 2027 09:05:34.377             5.017          1001.969
       375   10 Jun 2027 10:38:01.269   10 Jun 2027 10:38:15.271            14.002          7001.000
       376   10 Jun 2027 10:38:57.605   10 Jun 2027 10:39:02.585             4.980          1827.063
       377   10 Jun 2027 10:39:56.932   10 Jun 2027 10:40:02.098             5.166          1504.250
       378   10 Jun 2027 10:41:05.383   10 Jun 2027 10:41:12.540             7.157          1684.375
       379   10 Jun 2027 10:41:34.495   10 Jun 2027 10:41:36.527             2.032           686.094
       380   10 Jun 2027 10:41:42.434   10 Jun 2027 10:41:42.434             0.000             0.000
       381   10 Jun 2027 10:41:54.417   10 Jun 2027 10:41:58.363             3.946           559.062
       382   11 Jun 2027 03:00:32.467   11 Jun 2027 03:01:30.104            57.637         28818.500
       383   11 Jun 2027 04:22:48.040   11 Jun 2027 04:23:54.570            66.530         33265.000
       384   11 Jun 2027 04:24:43.450   11 Jun 2027 04:25:10.955            27.505         13752.500
       385   11 Jun 2027 04:26:25.413   11 Jun 2027 04:26:25.413             0.000             0.000
       386   11 Jun 2027 04:26:59.156   11 Jun 2027 04:27:11.549            12.393          6196.500
       387   11 Jun 2027 04:27:23.975   11 Jun 2027 04:27:41.854            17.879          8939.500
       388   11 Jun 2027 04:27:46.860   11 Jun 2027 04:27:51.771             4.911          2455.500
       389   11 Jun 2027 05:57:41.763   11 Jun 2027 05:59:44.456           122.693         61346.500
       390   11 Jun 2027 06:00:47.070   11 Jun 2027 06:00:54.646             7.576          3788.000
       391   11 Jun 2027 06:01:05.174   11 Jun 2027 06:01:10.341             5.167          2182.594
       392   11 Jun 2027 06:02:47.142   11 Jun 2027 06:02:47.830             0.688           344.000
       393   11 Jun 2027 06:03:21.072   11 Jun 2027 06:03:28.553             7.481          3709.469
       394   11 Jun 2027 06:04:55.997   11 Jun 2027 06:04:55.997             0.000             0.000
       395   11 Jun 2027 06:05:43.476   11 Jun 2027 06:05:51.477             8.001          3683.031
       396   11 Jun 2027 07:35:15.507   11 Jun 2027 07:35:32.595            17.088          7957.844
       397   11 Jun 2027 07:36:00.843   11 Jun 2027 07:36:03.175             2.332           632.625
       398   11 Jun 2027 07:37:07.170   11 Jun 2027 07:37:11.665             4.495          1956.969
       399   11 Jun 2027 07:38:41.815   11 Jun 2027 07:38:44.856             3.041           438.719
       400   11 Jun 2027 07:39:01.403   11 Jun 2027 07:39:05.020             3.617           517.094
       401   11 Jun 2027 07:39:30.657   11 Jun 2027 07:39:33.032             2.375           801.156
       402   11 Jun 2027 07:40:28.664   11 Jun 2027 07:40:29.878             1.214           607.000
       403   11 Jun 2027 07:40:32.978   11 Jun 2027 07:40:37.621             4.643          1228.375
       404   11 Jun 2027 07:41:02.345   11 Jun 2027 07:41:03.860             1.515           526.719
       405   11 Jun 2027 07:41:15.171   11 Jun 2027 07:41:17.847             2.676           353.469
       406   11 Jun 2027 07:41:31.732   11 Jun 2027 07:41:38.151             6.419           207.031
       407   11 Jun 2027 07:42:11.263   11 Jun 2027 07:42:11.263             0.000             0.000
       408   11 Jun 2027 09:11:58.044   11 Jun 2027 09:12:16.795            18.751          9375.500
       409   11 Jun 2027 09:12:37.554   11 Jun 2027 09:12:45.458             7.904           938.656
       410   11 Jun 2027 09:13:12.931   11 Jun 2027 09:13:14.525             1.594           129.094
       411   11 Jun 2027 09:14:35.438   11 Jun 2027 09:14:38.657             3.219          1609.500
       412   11 Jun 2027 09:14:47.501   11 Jun 2027 09:14:49.272             1.771           284.469
       413   11 Jun 2027 09:14:58.990   11 Jun 2027 09:15:00.686             1.696            10.687
       414   11 Jun 2027 09:15:37.503   11 Jun 2027 09:15:38.272             0.769           384.500
       415   11 Jun 2027 09:17:13.274   11 Jun 2027 09:17:19.857             6.583          3291.500
       416   11 Jun 2027 09:17:34.023   11 Jun 2027 09:17:37.021             2.998           724.969
       417   11 Jun 2027 09:18:02.380   11 Jun 2027 09:18:06.778             4.398           762.719
       418   11 Jun 2027 09:18:33.741   11 Jun 2027 09:18:35.946             2.205           842.594
       419   11 Jun 2027 10:50:01.163   11 Jun 2027 10:50:15.045            13.882          6583.063
       420   11 Jun 2027 10:51:04.608   11 Jun 2027 10:51:08.786             4.178          1524.031
       421   11 Jun 2027 10:51:12.475   11 Jun 2027 10:51:13.198             0.723            97.500
       422   11 Jun 2027 10:51:22.076   11 Jun 2027 10:51:29.271             7.195           142.313
       423   11 Jun 2027 10:51:48.258   11 Jun 2027 10:51:54.107             5.849           369.875
       424   11 Jun 2027 10:52:17.121   11 Jun 2027 10:52:22.207             5.086           719.188
       425   11 Jun 2027 10:52:33.098   11 Jun 2027 10:52:35.070             1.972           338.719
       426   11 Jun 2027 10:53:14.054   11 Jun 2027 10:53:16.262             2.208           999.813
       427   11 Jun 2027 10:54:00.350   11 Jun 2027 10:54:04.154             3.804          1335.281
       428   12 Jun 2027 03:00:25.238   12 Jun 2027 03:00:36.604            11.366          5683.000
       429   12 Jun 2027 03:00:36.768   12 Jun 2027 03:00:44.944             8.176          4088.000
       430   12 Jun 2027 03:01:30.265   12 Jun 2027 03:01:48.377            18.112          9056.000
       431   12 Jun 2027 03:12:41.034   12 Jun 2027 03:13:07.573            26.539         13269.500
       432   12 Jun 2027 04:34:17.170   12 Jun 2027 04:35:40.287            83.117         41558.500
       433   12 Jun 2027 04:36:17.454   12 Jun 2027 04:37:09.078            51.624         25812.000
       434   12 Jun 2027 04:37:25.986   12 Jun 2027 04:37:32.387             6.401          3200.500
       435   12 Jun 2027 04:38:47.325   12 Jun 2027 04:39:14.294            26.969         13484.500
       436   12 Jun 2027 06:09:12.472   12 Jun 2027 06:10:39.534            87.062         41560.406
       437   12 Jun 2027 06:11:49.863   12 Jun 2027 06:11:55.190             5.327          2091.312
       438   12 Jun 2027 06:12:56.943   12 Jun 2027 06:13:00.894             3.951          1929.781
       439   12 Jun 2027 06:13:01.593   12 Jun 2027 06:13:03.391             1.798            21.844
       440   12 Jun 2027 06:14:33.467   12 Jun 2027 06:14:39.715             6.248          2710.125
       441   12 Jun 2027 06:15:28.778   12 Jun 2027 06:15:29.768             0.990           495.000
       442   12 Jun 2027 06:16:21.733   12 Jun 2027 06:16:27.113             5.380          2592.406
       443   12 Jun 2027 06:16:44.535   12 Jun 2027 06:16:52.015             7.480           321.219
       444   12 Jun 2027 06:17:40.567   12 Jun 2027 06:17:42.918             2.351          1040.312
       445   12 Jun 2027 07:47:09.447   12 Jun 2027 07:47:26.881            17.434          7957.281
       446   12 Jun 2027 07:48:47.645   12 Jun 2027 07:48:52.784             5.139          2018.125
       447   12 Jun 2027 07:50:20.124   12 Jun 2027 07:50:26.150             6.026          2053.500
       448   12 Jun 2027 07:50:49.067   12 Jun 2027 07:50:52.716             3.649           523.187
       449   12 Jun 2027 07:51:50.073   12 Jun 2027 07:51:56.162             6.089          1773.375
       450   12 Jun 2027 07:53:13.524   12 Jun 2027 07:53:19.088             5.564          2189.594
       451   12 Jun 2027 09:24:03.802   12 Jun 2027 09:24:24.218            20.416         10091.438
       452   12 Jun 2027 09:25:09.740   12 Jun 2027 09:25:10.591             0.851           346.750
       453   12 Jun 2027 09:26:35.732   12 Jun 2027 09:26:44.319             8.587          1415.531
       454   12 Jun 2027 09:27:43.575   12 Jun 2027 09:27:44.557             0.982           491.000
       455   12 Jun 2027 09:28:27.421   12 Jun 2027 09:28:32.635             5.214          2465.063
       456   12 Jun 2027 09:30:12.313   12 Jun 2027 09:30:19.573             7.260          3035.156
       457   12 Jun 2027 11:01:47.502   12 Jun 2027 11:02:02.930            15.428          7089.781
       458   12 Jun 2027 11:02:08.442   12 Jun 2027 11:02:09.032             0.590            58.000
       459   12 Jun 2027 11:03:06.080   12 Jun 2027 11:03:10.140             4.060          1678.719
       460   12 Jun 2027 11:03:35.096   12 Jun 2027 11:03:36.668             1.572           752.719
       461   12 Jun 2027 11:03:55.269   12 Jun 2027 11:03:57.683             2.414           525.781
       462   12 Jun 2027 11:04:43.225   12 Jun 2027 11:04:45.827             2.602          1108.281
       463   12 Jun 2027 11:05:31.870   12 Jun 2027 11:05:34.418             2.548          1260.969
       464   12 Jun 2027 11:05:57.601   12 Jun 2027 11:05:58.563             0.962           466.688
       465   13 Jun 2027 03:12:20.987   13 Jun 2027 03:12:41.793            20.806         10403.000
       466   13 Jun 2027 03:12:49.756   13 Jun 2027 03:13:26.939            37.183         18591.500
       467   13 Jun 2027 03:13:49.397   13 Jun 2027 03:13:57.071             7.674          3837.000
       468   13 Jun 2027 03:14:12.846   13 Jun 2027 03:14:35.201            22.355         11177.500
       469   13 Jun 2027 04:48:20.950   13 Jun 2027 04:50:47.806           146.856         73428.000
       470   13 Jun 2027 04:50:54.419   13 Jun 2027 04:51:07.290            12.871          6435.500
       471   13 Jun 2027 04:51:38.615   13 Jun 2027 04:51:47.092             8.477          4238.500
       472   13 Jun 2027 06:22:05.959   13 Jun 2027 06:22:59.868            53.909         26954.500
       473   13 Jun 2027 06:23:14.246   13 Jun 2027 06:23:24.700            10.454          2317.250
       474   13 Jun 2027 06:24:34.635   13 Jun 2027 06:24:36.393             1.758           878.156
       475   13 Jun 2027 06:24:59.016   13 Jun 2027 06:25:01.595             2.579           673.406
       476   13 Jun 2027 06:25:27.468   13 Jun 2027 06:25:27.468             0.000             0.000
       477   13 Jun 2027 06:26:53.194   13 Jun 2027 06:26:58.747             5.553          2776.500
       478   13 Jun 2027 06:27:13.539   13 Jun 2027 06:27:18.328             4.789           911.188
       479   13 Jun 2027 06:27:55.218   13 Jun 2027 06:27:55.218             0.000             0.000
       480   13 Jun 2027 06:28:16.631   13 Jun 2027 06:28:22.052             5.421          1655.281
       481   13 Jun 2027 06:28:25.386   13 Jun 2027 06:28:26.449             1.063           104.187
       482   13 Jun 2027 06:28:46.384   13 Jun 2027 06:28:46.384             0.000             0.000
       483   13 Jun 2027 06:29:01.771   13 Jun 2027 06:29:04.288             2.517          1081.750
       484   13 Jun 2027 06:30:06.992   13 Jun 2027 06:30:11.420             4.428          1959.500
       485   13 Jun 2027 06:30:17.500   13 Jun 2027 06:30:17.545             0.045            22.500
       486   13 Jun 2027 07:59:30.322   13 Jun 2027 07:59:49.763            19.441          9654.375
       487   13 Jun 2027 08:01:17.427   13 Jun 2027 08:01:20.834             3.407           771.531
       488   13 Jun 2027 08:01:59.392   13 Jun 2027 08:02:02.543             3.151          1066.969
       489   13 Jun 2027 08:02:59.508   13 Jun 2027 08:03:00.996             1.488           722.625
       490   13 Jun 2027 08:03:11.087   13 Jun 2027 08:03:14.923             3.836           315.344
       491   13 Jun 2027 08:04:11.531   13 Jun 2027 08:04:19.457             7.926          1511.344
       492   13 Jun 2027 08:04:31.300   13 Jun 2027 08:04:34.369             3.069           315.062
       493   13 Jun 2027 08:05:10.662   13 Jun 2027 08:05:11.676             1.014           507.000
       494   13 Jun 2027 08:05:49.670   13 Jun 2027 08:05:53.404             3.734          1493.750
       495   13 Jun 2027 08:06:09.857   13 Jun 2027 08:06:09.857             0.000             0.000
       496   13 Jun 2027 09:36:34.127   13 Jun 2027 09:36:55.984            21.857          8883.188
       497   13 Jun 2027 09:38:11.958   13 Jun 2027 09:38:14.206             2.248           481.906
       498   13 Jun 2027 09:38:29.400   13 Jun 2027 09:38:29.400             0.000             0.000
       499   13 Jun 2027 09:38:43.627   13 Jun 2027 09:38:47.962             4.335           919.406
       500   13 Jun 2027 09:39:40.356   13 Jun 2027 09:39:44.417             4.061           226.219
       501   13 Jun 2027 09:40:01.431   13 Jun 2027 09:40:03.732             2.301           112.125
       502   13 Jun 2027 09:40:45.725   13 Jun 2027 09:40:48.290             2.565          1272.469
       503   13 Jun 2027 09:41:00.618   13 Jun 2027 09:41:02.287             1.669           281.469
       504   13 Jun 2027 09:41:14.857   13 Jun 2027 09:41:17.367             2.510           107.094
       505   13 Jun 2027 09:41:51.380   13 Jun 2027 09:41:52.477             1.097           548.500
       506   13 Jun 2027 11:13:18.906   13 Jun 2027 11:13:34.748            15.842          6165.750
       507   13 Jun 2027 11:14:07.504   13 Jun 2027 11:14:10.432             2.928          1023.625
       508   13 Jun 2027 11:14:52.122   13 Jun 2027 11:14:54.008             1.886           943.000
       509   13 Jun 2027 11:15:16.891   13 Jun 2027 11:15:20.689             3.798           821.344
       510   13 Jun 2027 11:15:38.632   13 Jun 2027 11:15:40.059             1.427           560.719
       511   13 Jun 2027 11:15:56.662   13 Jun 2027 11:16:07.645            10.983           507.375
       512   13 Jun 2027 11:16:17.599   13 Jun 2027 11:16:18.758             1.159           236.406
       513   13 Jun 2027 11:17:30.746   13 Jun 2027 11:17:35.382             4.636          2019.438
       514   13 Jun 2027 11:17:56.488   13 Jun 2027 11:17:56.488             0.000             0.000
       515   13 Jun 2027 11:17:59.053   13 Jun 2027 11:18:01.119             2.066           534.469
       516   13 Jun 2027 11:18:01.146   13 Jun 2027 11:18:04.825             3.679             0.844
