uniorb/output/strategy_2/Camera/Camera_KinoSat_111404.txt

KinoSat_111404
-------------------------
    Access    *     Start Time (UTCG)     *     Stop Time (UTCG)  *   Duration (s) *   Data (Mbytes)
         1   01 Jun 2027 03:33:07.342   01 Jun 2027 03:35:11.686           124.344         62172.000
         2   01 Jun 2027 03:35:16.017   01 Jun 2027 03:35:37.259            21.242         10621.000
         3   01 Jun 2027 03:36:39.854   01 Jun 2027 03:36:41.932             2.078          1039.000
         4   01 Jun 2027 03:37:11.808   01 Jun 2027 03:38:25.937            74.129         37064.500
         5   01 Jun 2027 03:38:31.916   01 Jun 2027 03:39:02.324            30.408         15204.000
         6   01 Jun 2027 03:39:17.279   01 Jun 2027 03:39:17.279             0.000             0.000
         7   01 Jun 2027 03:39:55.263   01 Jun 2027 03:40:15.499            20.236         10118.000
         8   01 Jun 2027 04:57:57.439   01 Jun 2027 04:58:15.451            18.012          9006.000
         9   01 Jun 2027 04:58:33.462   01 Jun 2027 04:58:33.462             0.000             0.000
        10   01 Jun 2027 04:58:57.034   01 Jun 2027 04:59:03.558             6.524          3262.000
        11   01 Jun 2027 05:09:41.604   01 Jun 2027 05:10:40.316            58.712         29356.000
        12   01 Jun 2027 06:31:56.610   01 Jun 2027 06:33:02.547            65.937         32968.500
        13   01 Jun 2027 06:33:53.642   01 Jun 2027 06:34:22.763            29.121         14560.500
        14   01 Jun 2027 06:35:20.557   01 Jun 2027 06:35:37.414            16.857          8428.500
        15   01 Jun 2027 08:06:54.269   01 Jun 2027 08:08:49.154           114.885         57442.500
        16   01 Jun 2027 08:08:58.176   01 Jun 2027 08:09:15.236            17.060          8530.000
        17   01 Jun 2027 08:09:22.046   01 Jun 2027 08:10:20.657            58.611         29305.500
        18   01 Jun 2027 08:11:48.758   01 Jun 2027 08:12:01.738            12.980          6490.000
        19   01 Jun 2027 08:12:35.621   01 Jun 2027 08:12:36.269             0.648           324.000
        20   01 Jun 2027 09:44:22.919   01 Jun 2027 09:45:52.876            89.957         44978.500
        21   01 Jun 2027 09:46:24.847   01 Jun 2027 09:47:06.480            41.633         20816.500
        22   01 Jun 2027 09:48:53.022   01 Jun 2027 09:49:01.971             8.949          4474.500
        23   01 Jun 2027 09:50:35.220   01 Jun 2027 09:50:50.498            15.278          7639.000
        24   01 Jun 2027 11:21:07.655   01 Jun 2027 11:22:43.147            95.492         47746.000
        25   01 Jun 2027 11:24:40.825   01 Jun 2027 11:24:50.486             9.661          4830.500
        26   01 Jun 2027 11:27:06.911   01 Jun 2027 11:27:09.692             2.781          1390.500
        27   01 Jun 2027 11:27:13.140   01 Jun 2027 11:27:17.246             4.106          2053.000
        28   02 Jun 2027 03:45:09.450   02 Jun 2027 03:47:17.786           128.336         64168.000
        29   02 Jun 2027 03:48:23.959   02 Jun 2027 03:48:41.027            17.068          8534.000
        30   02 Jun 2027 03:48:41.517   02 Jun 2027 03:48:46.618             5.101          2550.500
        31   02 Jun 2027 03:49:35.486   02 Jun 2027 03:50:22.216            46.730         23365.000
        32   02 Jun 2027 03:51:03.851   02 Jun 2027 03:51:18.780            14.929          7464.500
        33   02 Jun 2027 03:51:58.620   02 Jun 2027 03:52:09.292            10.672          5336.000
        34   02 Jun 2027 05:09:30.820   02 Jun 2027 05:10:09.644            38.824         19412.000
        35   02 Jun 2027 05:21:46.739   02 Jun 2027 05:22:14.409            27.670         13835.000
        36   02 Jun 2027 06:43:29.529   02 Jun 2027 06:44:49.362            79.833         39916.500
        37   02 Jun 2027 06:45:23.080   02 Jun 2027 06:46:39.817            76.737         38368.500
        38   02 Jun 2027 06:48:05.290   02 Jun 2027 06:48:05.290             0.000             0.000
        39   02 Jun 2027 06:48:15.868   02 Jun 2027 06:48:34.632            18.764          9382.000
        40   02 Jun 2027 08:18:22.375   02 Jun 2027 08:20:05.070           102.695         50306.688
        41   02 Jun 2027 08:21:16.985   02 Jun 2027 08:21:20.810             3.825          1788.875
        42   02 Jun 2027 08:24:02.113   02 Jun 2027 08:24:02.113             0.000             0.000
        43   02 Jun 2027 08:25:14.426   02 Jun 2027 08:25:21.443             7.017          3508.500
        44   02 Jun 2027 08:26:18.803   02 Jun 2027 08:26:25.352             6.549          3274.500
        45   02 Jun 2027 08:27:18.085   02 Jun 2027 08:27:22.374             4.289          2144.500
        46   02 Jun 2027 09:56:16.200   02 Jun 2027 09:56:30.775            14.575          6976.125
        47   02 Jun 2027 09:58:19.534   02 Jun 2027 09:58:19.534             0.000             0.000
        48   02 Jun 2027 09:59:16.463   02 Jun 2027 09:59:28.231            11.768          4308.438
        49   02 Jun 2027 09:59:37.096   02 Jun 2027 09:59:41.172             4.076           277.031
        50   02 Jun 2027 10:00:21.881   02 Jun 2027 10:00:27.676             5.795          1165.281
        51   02 Jun 2027 10:00:31.822   02 Jun 2027 10:00:40.939             9.117           129.563
        52   02 Jun 2027 10:02:09.598   02 Jun 2027 10:02:15.390             5.792          2770.594
        53   02 Jun 2027 10:02:21.209   02 Jun 2027 10:02:21.665             0.456           181.844
        54   02 Jun 2027 10:02:29.968   02 Jun 2027 10:02:33.621             3.653           259.469
        55   02 Jun 2027 10:03:10.380   02 Jun 2027 10:03:12.524             2.144          1062.094
        56   02 Jun 2027 10:03:16.325   02 Jun 2027 10:03:17.978             1.653            35.469
        57   02 Jun 2027 11:33:00.191   02 Jun 2027 11:33:14.634            14.443          7221.500
        58   02 Jun 2027 11:33:54.692   02 Jun 2027 11:34:07.717            13.025          1786.469
        59   02 Jun 2027 11:34:10.669   02 Jun 2027 11:34:14.840             4.171            92.250
        60   02 Jun 2027 11:34:19.795   02 Jun 2027 11:34:31.967            12.172            97.125
        61   02 Jun 2027 11:35:43.687   02 Jun 2027 11:35:48.929             5.242          1897.437
        62   02 Jun 2027 11:36:22.920   02 Jun 2027 11:36:25.965             3.045          1062.219
        63   02 Jun 2027 11:36:51.981   02 Jun 2027 11:36:53.205             1.224           222.375
        64   02 Jun 2027 11:37:24.137   02 Jun 2027 11:37:27.127             2.990           950.625
        65   02 Jun 2027 11:38:04.469   02 Jun 2027 11:38:08.052             3.583          1166.937
        66   02 Jun 2027 11:39:05.980   02 Jun 2027 11:39:10.059             4.079          1583.906
        67   02 Jun 2027 11:39:37.713   02 Jun 2027 11:39:43.281             5.568           846.531
        68   03 Jun 2027 03:57:33.904   03 Jun 2027 04:00:10.905           157.001         78500.500
        69   03 Jun 2027 04:01:17.973   03 Jun 2027 04:01:21.005             3.032          1516.000
        70   03 Jun 2027 04:01:34.625   03 Jun 2027 04:02:11.744            37.119         18559.500
        71   03 Jun 2027 05:21:26.881   03 Jun 2027 05:22:38.979            72.098         36049.000
        72   03 Jun 2027 05:23:08.699   03 Jun 2027 05:23:12.506             3.807          1903.500
        73   03 Jun 2027 06:57:27.794   03 Jun 2027 06:58:11.172            43.378         21281.437
        74   03 Jun 2027 06:58:54.907   03 Jun 2027 06:58:54.907             0.000             0.000
        75   03 Jun 2027 07:00:35.056   03 Jun 2027 07:00:43.019             7.963          3981.500
        76   03 Jun 2027 07:01:18.669   03 Jun 2027 07:01:18.669             0.000             0.000
        77   03 Jun 2027 08:31:15.260   03 Jun 2027 08:31:25.153             9.893          4613.531
        78   03 Jun 2027 08:32:47.793   03 Jun 2027 08:32:47.793             0.000             0.000
        79   03 Jun 2027 08:33:14.233   03 Jun 2027 08:33:17.653             3.420          1401.719
        80   03 Jun 2027 08:33:37.037   03 Jun 2027 08:33:40.664             3.627           176.938
        81   03 Jun 2027 08:34:45.475   03 Jun 2027 08:34:45.475             0.000             0.000
        82   03 Jun 2027 08:35:53.946   03 Jun 2027 08:36:02.663             8.717          4165.062
        83   03 Jun 2027 08:36:20.096   03 Jun 2027 08:36:25.113             5.017           413.000
        84   03 Jun 2027 08:36:51.369   03 Jun 2027 08:36:55.787             4.418           678.500
        85   03 Jun 2027 08:37:10.783   03 Jun 2027 08:37:12.038             1.255           299.813
        86   03 Jun 2027 08:37:58.295   03 Jun 2027 08:38:03.103             4.808          1445.531
        87   03 Jun 2027 08:38:58.450   03 Jun 2027 08:39:03.865             5.415          1538.187
        88   03 Jun 2027 10:08:24.221   03 Jun 2027 10:08:38.369            14.148          6666.094
        89   03 Jun 2027 10:09:25.704   03 Jun 2027 10:09:30.822             5.118           434.562
        90   03 Jun 2027 10:09:58.938   03 Jun 2027 10:10:08.285             9.347           500.000
        91   03 Jun 2027 10:10:42.402   03 Jun 2027 10:10:45.563             3.161           802.438
        92   03 Jun 2027 10:12:59.269   03 Jun 2027 10:13:08.207             8.938          3696.188
        93   03 Jun 2027 10:13:23.280   03 Jun 2027 10:13:25.482             2.202           392.688
        94   03 Jun 2027 10:14:26.469   03 Jun 2027 10:14:30.608             4.139          1905.844
        95   03 Jun 2027 10:15:08.683   03 Jun 2027 10:15:10.768             2.085           984.531
        96   03 Jun 2027 10:15:17.958   03 Jun 2027 10:15:21.181             3.223           224.687
        97   03 Jun 2027 10:15:23.399   03 Jun 2027 10:15:25.390             1.991            63.500
        98   03 Jun 2027 10:15:30.128   03 Jun 2027 10:15:31.032             0.904            61.531
        99   03 Jun 2027 11:45:38.753   03 Jun 2027 11:45:55.276            16.523          8041.281
       100   03 Jun 2027 11:46:46.057   03 Jun 2027 11:46:48.081             2.024          1004.031
       101   03 Jun 2027 11:47:12.467   03 Jun 2027 11:47:15.009             2.542           206.875
       102   03 Jun 2027 11:47:27.097   03 Jun 2027 11:47:28.136             1.039           377.750
       103   03 Jun 2027 11:48:11.709   03 Jun 2027 11:48:15.103             3.394          1142.344
       104   03 Jun 2027 11:48:36.331   03 Jun 2027 11:48:43.292             6.961           568.594
       105   03 Jun 2027 11:48:54.958   03 Jun 2027 11:48:55.788             0.830           364.562
       106   03 Jun 2027 11:49:45.678   03 Jun 2027 11:49:49.975             4.297          1559.063
       107   03 Jun 2027 11:51:04.095   03 Jun 2027 11:51:10.153             6.058          2100.594
       108   04 Jun 2027 04:09:57.415   04 Jun 2027 04:12:11.627           134.212         67106.000
       109   04 Jun 2027 04:12:32.893   04 Jun 2027 04:13:17.649            44.756         22378.000
       110   04 Jun 2027 04:13:52.769   04 Jun 2027 04:13:52.769             0.000             0.000
       111   04 Jun 2027 04:14:37.766   04 Jun 2027 04:14:38.002             0.236           118.000
       112   04 Jun 2027 05:33:19.959   04 Jun 2027 05:34:52.008            92.049         46024.500
       113   04 Jun 2027 07:09:40.861   04 Jun 2027 07:10:28.375            47.514         22557.875
       114   04 Jun 2027 07:10:41.548   04 Jun 2027 07:10:42.746             1.198           357.187
       115   04 Jun 2027 07:11:43.137   04 Jun 2027 07:11:48.411             5.274          1452.375
       116   04 Jun 2027 07:11:55.482   04 Jun 2027 07:11:55.962             0.480           144.844
       117   04 Jun 2027 07:12:17.688   04 Jun 2027 07:12:19.118             1.430           299.969
       118   04 Jun 2027 07:12:46.141   04 Jun 2027 07:12:52.027             5.886           799.656
       119   04 Jun 2027 08:43:40.787   04 Jun 2027 08:43:50.942            10.155          5076.094
       120   04 Jun 2027 08:45:20.385   04 Jun 2027 08:45:25.394             5.009          1586.031
       121   04 Jun 2027 08:46:33.988   04 Jun 2027 08:46:40.913             6.925          2137.906
       122   04 Jun 2027 08:47:09.033   04 Jun 2027 08:47:15.763             6.730           738.969
       123   04 Jun 2027 08:49:24.839   04 Jun 2027 08:49:32.292             7.453          3200.500
       124   04 Jun 2027 08:49:41.557   04 Jun 2027 08:49:44.155             2.598           226.438
       125   04 Jun 2027 08:50:07.662   04 Jun 2027 08:50:14.682             7.020           734.594
       126   04 Jun 2027 08:50:24.622   04 Jun 2027 08:50:27.018             2.396           310.625
       127   04 Jun 2027 08:51:23.395   04 Jun 2027 08:51:28.864             5.469          1585.500
       128   04 Jun 2027 08:51:41.253   04 Jun 2027 08:51:41.253             0.000             0.000
       129   04 Jun 2027 10:20:49.674   04 Jun 2027 10:21:06.068            16.394          6262.563
       130   04 Jun 2027 10:21:32.789   04 Jun 2027 10:21:36.226             3.437           398.281
       131   04 Jun 2027 10:23:09.344   04 Jun 2027 10:23:19.240             9.896          1680.094
       132   04 Jun 2027 10:23:33.101   04 Jun 2027 10:23:34.751             1.650           433.156
       133   04 Jun 2027 10:23:58.614   04 Jun 2027 10:24:01.192             2.578           676.125
       134   04 Jun 2027 10:24:29.807   04 Jun 2027 10:24:33.876             4.069           872.937
       135   04 Jun 2027 10:24:58.669   04 Jun 2027 10:25:00.670             2.001           258.188
       136   04 Jun 2027 10:25:46.613   04 Jun 2027 10:25:48.467             1.854           883.187
       137   04 Jun 2027 10:26:12.274   04 Jun 2027 10:26:13.503             1.229           554.031
       138   04 Jun 2027 10:27:07.009   04 Jun 2027 10:27:14.352             7.343          1672.063
       139   04 Jun 2027 10:27:19.454   04 Jun 2027 10:27:19.625             0.171            85.500
       140   04 Jun 2027 11:57:48.437   04 Jun 2027 11:58:06.768            18.331          7506.844
       141   04 Jun 2027 11:59:20.122   04 Jun 2027 11:59:22.599             2.477          1238.500
       142   04 Jun 2027 11:59:36.246   04 Jun 2027 11:59:36.796             0.550           275.000
       143   04 Jun 2027 11:59:40.744   04 Jun 2027 11:59:41.004             0.260           130.000
       144   04 Jun 2027 11:59:56.427   04 Jun 2027 12:00:00.000             3.573          1380.094
       145   05 Jun 2027 04:22:16.571   05 Jun 2027 04:25:19.600           183.029         91514.500
       146   05 Jun 2027 05:45:14.078   05 Jun 2027 05:46:38.361            84.283         42141.500
       147   05 Jun 2027 07:21:46.677   05 Jun 2027 07:22:36.473            49.796         23327.375
       148   05 Jun 2027 07:22:53.818   05 Jun 2027 07:22:56.478             2.660           505.031
       149   05 Jun 2027 07:24:00.053   05 Jun 2027 07:24:04.205             4.152          1930.000
       150   05 Jun 2027 08:56:55.524   05 Jun 2027 08:57:07.271            11.747          4192.375
       151   05 Jun 2027 08:57:44.795   05 Jun 2027 08:57:46.938             2.143           961.938
       152   05 Jun 2027 08:59:18.042   05 Jun 2027 08:59:23.199             5.157          2493.000
       153   05 Jun 2027 09:00:22.676   05 Jun 2027 09:00:22.676             0.000             0.000
       154   05 Jun 2027 09:01:00.872   05 Jun 2027 09:01:05.360             4.488          1704.844
       155   05 Jun 2027 09:01:43.326   05 Jun 2027 09:01:46.529             3.203          1033.156
       156   05 Jun 2027 09:01:54.600   05 Jun 2027 09:01:57.153             2.553           204.063
       157   05 Jun 2027 09:02:33.809   05 Jun 2027 09:02:38.168             4.359           372.156
       158   05 Jun 2027 09:03:20.468   05 Jun 2027 09:03:24.257             3.789          1252.063
       159   05 Jun 2027 09:03:32.281   05 Jun 2027 09:03:32.281             0.000             0.000
       160   05 Jun 2027 10:33:15.868   05 Jun 2027 10:33:27.417            11.549          5459.125
       161   05 Jun 2027 10:34:15.108   05 Jun 2027 10:34:20.966             5.858          1279.063
       162   05 Jun 2027 10:34:59.437   05 Jun 2027 10:35:01.981             2.544          1141.563
       163   05 Jun 2027 10:35:15.071   05 Jun 2027 10:35:20.045             4.974           163.844
       164   05 Jun 2027 10:35:35.939   05 Jun 2027 10:35:38.131             2.192           465.250
       165   05 Jun 2027 10:36:02.850   05 Jun 2027 10:36:04.679             1.829           772.469
       166   05 Jun 2027 10:36:33.659   05 Jun 2027 10:36:37.740             4.081           905.625
       167   05 Jun 2027 10:37:03.096   05 Jun 2027 10:37:04.830             1.734           137.906
       168   05 Jun 2027 10:37:24.857   05 Jun 2027 10:37:27.495             2.638           520.156
       169   05 Jun 2027 10:38:00.538   05 Jun 2027 10:38:03.947             3.409           803.844
       170   05 Jun 2027 10:39:03.865   05 Jun 2027 10:39:07.596             3.731          1783.156
       171   05 Jun 2027 10:39:19.056   05 Jun 2027 10:39:21.291             2.235           358.125
       172   06 Jun 2027 03:00:00.000   06 Jun 2027 03:00:03.657             3.657          1828.500
       173   06 Jun 2027 03:00:08.366   06 Jun 2027 03:00:29.206            20.840         10420.000
       174   06 Jun 2027 03:01:07.234   06 Jun 2027 03:01:17.292            10.058          5029.000
       175   06 Jun 2027 03:01:21.046   06 Jun 2027 03:01:21.411             0.365           182.500
       176   06 Jun 2027 03:01:44.079   06 Jun 2027 03:01:52.346             8.267          4133.500
       177   06 Jun 2027 04:34:00.811   06 Jun 2027 04:34:35.607            34.796         17398.000
       178   06 Jun 2027 04:34:49.428   06 Jun 2027 04:37:06.927           137.499         68749.500
       179   06 Jun 2027 05:57:21.604   06 Jun 2027 05:58:31.435            69.831         34915.500
       180   06 Jun 2027 06:00:15.768   06 Jun 2027 06:00:21.327             5.559          2779.500
       181   06 Jun 2027 07:33:57.181   06 Jun 2027 07:34:24.634            27.453         12884.594
       182   06 Jun 2027 07:35:10.489   06 Jun 2027 07:35:14.080             3.591          1064.250
       183   06 Jun 2027 07:36:09.500   06 Jun 2027 07:36:14.744             5.244          1636.375
       184   06 Jun 2027 07:36:24.229   06 Jun 2027 07:36:25.107             0.878           176.344
       185   06 Jun 2027 07:37:24.385   06 Jun 2027 07:37:25.397             1.012           506.000
       186   06 Jun 2027 09:09:07.453   06 Jun 2027 09:09:17.941            10.488          5088.562
       187   06 Jun 2027 09:10:34.433   06 Jun 2027 09:10:36.901             2.468          1234.000
       188   06 Jun 2027 09:10:42.648   06 Jun 2027 09:10:53.568            10.920          1230.094
       189   06 Jun 2027 09:12:03.033   06 Jun 2027 09:12:05.281             2.248          1035.437
       190   06 Jun 2027 09:12:25.306   06 Jun 2027 09:12:29.474             4.168           297.000
       191   06 Jun 2027 09:13:11.628   06 Jun 2027 09:13:12.548             0.920           328.313
       192   06 Jun 2027 09:13:28.356   06 Jun 2027 09:13:28.592             0.236            94.187
       193   06 Jun 2027 09:13:51.214   06 Jun 2027 09:14:01.288            10.074           706.937
       194   06 Jun 2027 09:15:08.049   06 Jun 2027 09:15:14.815             6.766          1586.625
       195   06 Jun 2027 10:45:27.526   06 Jun 2027 10:45:44.283            16.757          7371.312
       196   06 Jun 2027 10:46:10.464   06 Jun 2027 10:46:11.376             0.912           116.531
       197   06 Jun 2027 10:47:18.910   06 Jun 2027 10:47:21.698             2.788          1374.844
       198   06 Jun 2027 10:47:40.261   06 Jun 2027 10:47:43.139             2.878           547.656
       199   06 Jun 2027 10:48:06.679   06 Jun 2027 10:48:11.665             4.986           376.312
       200   06 Jun 2027 10:48:27.864   06 Jun 2027 10:48:29.073             1.209           205.594
       201   06 Jun 2027 10:48:39.198   06 Jun 2027 10:48:40.905             1.707           164.563
       202   06 Jun 2027 10:49:26.891   06 Jun 2027 10:49:41.188            14.297          1437.063
       203   06 Jun 2027 10:50:09.943   06 Jun 2027 10:50:18.526             8.583           834.594
       204   06 Jun 2027 10:51:01.301   06 Jun 2027 10:51:06.150             4.849          1336.719
       205   06 Jun 2027 10:51:22.929   06 Jun 2027 10:51:26.224             3.295           408.938
       206   06 Jun 2027 10:51:27.279   06 Jun 2027 10:51:28.377             1.098            32.969
       207   07 Jun 2027 03:08:50.142   07 Jun 2027 03:10:44.318           114.176         57088.000
       208   07 Jun 2027 03:11:01.720   07 Jun 2027 03:11:32.201            30.481         15240.500
       209   07 Jun 2027 03:12:45.319   07 Jun 2027 03:12:51.357             6.038          3019.000
       210   07 Jun 2027 03:13:13.816   07 Jun 2027 03:13:18.105             4.289          2144.500
       211   07 Jun 2027 03:13:48.320   07 Jun 2027 03:13:55.544             7.224          3612.000
       212   07 Jun 2027 03:15:16.267   07 Jun 2027 03:15:18.470             2.203          1101.500
       213   07 Jun 2027 04:35:14.646   07 Jun 2027 04:35:15.489             0.843           421.500
       214   07 Jun 2027 04:45:57.489   07 Jun 2027 04:46:38.338            40.849         20424.500
       215   07 Jun 2027 04:46:55.155   07 Jun 2027 04:48:38.427           103.272         51562.844
       216   07 Jun 2027 04:49:29.522   07 Jun 2027 04:49:33.117             3.595          1209.375
       217   07 Jun 2027 06:09:55.245   07 Jun 2027 06:10:02.151             6.906          3453.000
       218   07 Jun 2027 06:11:45.676   07 Jun 2027 06:12:01.862            16.186          6823.687
       219   07 Jun 2027 07:45:44.141   07 Jun 2027 07:45:53.132             8.991          4455.531
       220   07 Jun 2027 07:47:01.052   07 Jun 2027 07:47:05.010             3.958          1958.562
       221   07 Jun 2027 07:47:26.970   07 Jun 2027 07:47:28.572             1.602           230.469
       222   07 Jun 2027 07:48:26.393   07 Jun 2027 07:48:30.555             4.162          1238.969
       223   07 Jun 2027 07:49:53.053   07 Jun 2027 07:49:53.809             0.756           378.000
       224   07 Jun 2027 09:20:36.910   07 Jun 2027 09:20:44.969             8.059          3896.094
       225   07 Jun 2027 09:22:37.740   07 Jun 2027 09:22:45.206             7.466          2866.031
       226   07 Jun 2027 09:23:31.204   07 Jun 2027 09:23:35.727             4.523           878.094
       227   07 Jun 2027 09:24:27.699   07 Jun 2027 09:24:32.269             4.570          1624.125
       228   07 Jun 2027 09:25:13.785   07 Jun 2027 09:25:19.999             6.214           420.062
       229   07 Jun 2027 09:26:09.212   07 Jun 2027 09:26:12.116             2.904          1345.531
       230   07 Jun 2027 09:27:20.809   07 Jun 2027 09:27:24.716             3.907          1857.094
       231   07 Jun 2027 09:27:47.938   07 Jun 2027 09:27:52.231             4.293           668.281
       232   07 Jun 2027 10:57:07.182   07 Jun 2027 10:57:25.928            18.746          8670.094
       233   07 Jun 2027 10:58:23.090   07 Jun 2027 10:58:24.796             1.706           595.031
       234   07 Jun 2027 10:59:05.224   07 Jun 2027 10:59:09.553             4.329           452.875
       235   07 Jun 2027 10:59:23.284   07 Jun 2027 10:59:24.255             0.971           429.094
       236   07 Jun 2027 10:59:39.820   07 Jun 2027 10:59:42.576             2.756           486.406
       237   07 Jun 2027 11:00:04.135   07 Jun 2027 11:00:05.735             1.600           363.281
       238   07 Jun 2027 11:00:51.703   07 Jun 2027 11:00:57.045             5.342          1436.500
       239   07 Jun 2027 11:01:43.910   07 Jun 2027 11:01:52.800             8.890          1270.594
       240   07 Jun 2027 11:02:46.323   07 Jun 2027 11:02:54.732             8.409          1546.531
       241   07 Jun 2027 11:03:00.373   07 Jun 2027 11:03:00.779             0.406           176.281
       242   07 Jun 2027 11:03:06.580   07 Jun 2027 11:03:08.162             1.582           181.281
       243   07 Jun 2027 11:03:24.502   07 Jun 2027 11:03:26.055             1.553           458.344
       244   07 Jun 2027 11:03:27.984   07 Jun 2027 11:03:29.138             1.154            55.531
       245   08 Jun 2027 03:20:54.288   08 Jun 2027 03:24:11.074           196.786         98393.000
       246   08 Jun 2027 03:27:16.183   08 Jun 2027 03:27:20.211             4.028          2014.000
       247   08 Jun 2027 03:27:49.132   08 Jun 2027 03:28:04.245            15.113          7556.500
       248   08 Jun 2027 04:46:33.114   08 Jun 2027 04:46:53.773            20.659         10329.500
       249   08 Jun 2027 04:57:54.430   08 Jun 2027 04:59:08.447            74.017         36881.782
       250   08 Jun 2027 06:20:30.090   08 Jun 2027 06:20:39.359             9.269          4634.500
       251   08 Jun 2027 06:21:32.518   08 Jun 2027 06:21:33.463             0.945           472.500
       252   08 Jun 2027 06:21:46.925   08 Jun 2027 06:21:47.946             1.021           510.500
       253   08 Jun 2027 06:21:52.479   08 Jun 2027 06:22:01.448             8.969          1005.906
       254   08 Jun 2027 06:22:23.593   08 Jun 2027 06:22:24.604             1.011           460.250
       255   08 Jun 2027 06:22:34.686   08 Jun 2027 06:22:36.606             1.920           303.344
       256   08 Jun 2027 06:23:34.569   08 Jun 2027 06:23:40.556             5.987          1727.781
       257   08 Jun 2027 06:23:51.983   08 Jun 2027 06:23:56.586             4.603           137.906
       258   08 Jun 2027 06:24:49.460   08 Jun 2027 06:24:49.460             0.000             0.000
       259   08 Jun 2027 06:24:56.042   08 Jun 2027 06:25:01.196             5.154          1666.125
       260   08 Jun 2027 06:25:09.528   08 Jun 2027 06:25:09.528             0.000             0.000
       261   08 Jun 2027 07:56:00.918   08 Jun 2027 07:56:09.489             8.571          4157.969
       262   08 Jun 2027 07:57:29.530   08 Jun 2027 07:57:31.710             2.180          1052.656
       263   08 Jun 2027 07:59:02.065   08 Jun 2027 07:59:09.256             7.191          2739.750
       264   08 Jun 2027 07:59:16.133   08 Jun 2027 07:59:17.372             1.239            99.063
       265   08 Jun 2027 08:00:28.465   08 Jun 2027 08:00:29.744             1.279           316.031
       266   08 Jun 2027 08:00:45.923   08 Jun 2027 08:00:47.019             1.096           499.812
       267   08 Jun 2027 08:01:45.520   08 Jun 2027 08:01:45.733             0.213           106.500
       268   08 Jun 2027 08:01:49.192   08 Jun 2027 08:01:55.240             6.048          1655.906
       269   08 Jun 2027 09:32:21.080   08 Jun 2027 09:32:30.579             9.499          3843.062
       270   08 Jun 2027 09:33:10.153   08 Jun 2027 09:33:11.861             1.708           812.625
       271   08 Jun 2027 09:33:35.773   08 Jun 2027 09:33:37.388             1.615           472.250
       272   08 Jun 2027 09:33:59.334   08 Jun 2027 09:34:01.712             2.378           189.719
       273   08 Jun 2027 09:34:36.991   08 Jun 2027 09:34:39.354             2.363           961.125
       274   08 Jun 2027 09:35:53.693   08 Jun 2027 09:35:56.723             3.030          1124.750
       275   08 Jun 2027 09:36:22.748   08 Jun 2027 09:36:25.971             3.223           716.656
       276   08 Jun 2027 09:36:42.504   08 Jun 2027 09:36:53.171            10.667           396.156
       277   08 Jun 2027 09:37:36.796   08 Jun 2027 09:37:45.576             8.780          1085.094
       278   08 Jun 2027 09:38:23.350   08 Jun 2027 09:38:27.209             3.859          1151.688
       279   08 Jun 2027 09:39:05.527   08 Jun 2027 09:39:08.067             2.540          1195.375
       280   08 Jun 2027 11:09:27.157   08 Jun 2027 11:09:45.277            18.120          7588.125
       281   08 Jun 2027 11:10:19.691   08 Jun 2027 11:10:24.177             4.486          1064.281
       282   08 Jun 2027 11:11:16.001   08 Jun 2027 11:11:22.916             6.915          1202.281
       283   08 Jun 2027 11:11:28.262   08 Jun 2027 11:11:32.000             3.738           167.063
       284   08 Jun 2027 11:12:09.196   08 Jun 2027 11:12:10.310             1.114           557.000
       285   08 Jun 2027 11:12:38.232   08 Jun 2027 11:12:39.432             1.200           600.000
       286   08 Jun 2027 11:13:06.288   08 Jun 2027 11:13:10.934             4.646          1578.406
       287   08 Jun 2027 11:13:45.150   08 Jun 2027 11:13:49.487             4.337           717.687
       288   08 Jun 2027 11:14:13.704   08 Jun 2027 11:14:22.335             8.631           697.562
       289   08 Jun 2027 11:15:35.299   08 Jun 2027 11:15:40.099             4.800          1638.844
       290   09 Jun 2027 03:33:24.446   09 Jun 2027 03:35:18.906           114.460         57230.000
       291   09 Jun 2027 03:35:26.515   09 Jun 2027 03:35:51.871            25.356         12678.000
       292   09 Jun 2027 03:36:45.440   09 Jun 2027 03:36:57.127            11.687          5843.500
       293   09 Jun 2027 03:37:28.200   09 Jun 2027 03:38:28.224            60.024         30012.000
       294   09 Jun 2027 03:38:39.405   09 Jun 2027 03:38:41.880             2.475          1237.500
       295   09 Jun 2027 03:39:17.811   09 Jun 2027 03:39:17.811             0.000             0.000
       296   09 Jun 2027 03:39:34.272   09 Jun 2027 03:40:11.647            37.375         18687.500
       297   09 Jun 2027 04:58:13.707   09 Jun 2027 04:58:31.173            17.466          8733.000
       298   09 Jun 2027 04:59:14.545   09 Jun 2027 04:59:18.321             3.776          1888.000
       299   09 Jun 2027 04:59:45.753   09 Jun 2027 04:59:49.041             3.288          1644.000
       300   09 Jun 2027 05:09:54.622   09 Jun 2027 05:10:48.559            53.937         25801.313
       301   09 Jun 2027 05:10:53.183   09 Jun 2027 05:10:53.561             0.378           144.500
       302   09 Jun 2027 06:32:12.246   09 Jun 2027 06:32:23.124            10.878          5439.000
       303   09 Jun 2027 06:32:54.044   09 Jun 2027 06:32:56.699             2.655          1251.812
       304   09 Jun 2027 06:33:07.017   09 Jun 2027 06:33:07.017             0.000             0.000
       305   09 Jun 2027 06:34:06.220   09 Jun 2027 06:34:15.232             9.012          1969.000
       306   09 Jun 2027 06:34:26.861   09 Jun 2027 06:34:28.274             1.413           363.406
       307   09 Jun 2027 06:36:15.456   09 Jun 2027 06:36:20.510             5.054          2527.000
       308   09 Jun 2027 06:36:29.988   09 Jun 2027 06:36:32.852             2.864           815.719
       309   09 Jun 2027 06:37:04.253   09 Jun 2027 06:37:04.253             0.000             0.000
       310   09 Jun 2027 08:07:08.473   09 Jun 2027 08:07:19.376            10.903          4150.813
       311   09 Jun 2027 08:07:42.715   09 Jun 2027 08:07:44.666             1.951           158.656
       312   09 Jun 2027 08:08:35.437   09 Jun 2027 08:08:37.925             2.488           986.594
       313   09 Jun 2027 08:09:22.758   09 Jun 2027 08:09:28.538             5.780          1198.281
       314   09 Jun 2027 08:09:40.633   09 Jun 2027 08:09:40.633             0.000             0.000
       315   09 Jun 2027 08:11:02.757   09 Jun 2027 08:11:09.586             6.829          2891.656
       316   09 Jun 2027 08:12:27.052   09 Jun 2027 08:12:32.088             5.036          2250.281
       317   09 Jun 2027 08:13:08.270   09 Jun 2027 08:13:08.270             0.000             0.000
       318   09 Jun 2027 08:13:57.416   09 Jun 2027 08:14:02.258             4.842          1983.906
       319   09 Jun 2027 09:44:38.601   09 Jun 2027 09:44:46.095             7.494          3721.563
       320   09 Jun 2027 09:47:43.663   09 Jun 2027 09:47:56.128            12.465          4729.250
       321   09 Jun 2027 09:48:48.820   09 Jun 2027 09:48:52.830             4.010          1480.844
       322   09 Jun 2027 09:49:08.168   09 Jun 2027 09:49:08.513             0.345           172.500
       323   09 Jun 2027 09:49:33.924   09 Jun 2027 09:49:36.753             2.829          1082.187
       324   09 Jun 2027 09:49:43.910   09 Jun 2027 09:49:44.889             0.979           180.125
       325   09 Jun 2027 09:50:51.671   09 Jun 2027 09:50:56.715             5.044          1970.062
       326   09 Jun 2027 09:51:31.782   09 Jun 2027 09:51:34.006             2.224           788.906
       327   09 Jun 2027 09:51:50.066   09 Jun 2027 09:51:51.729             1.663           477.500
       328   09 Jun 2027 09:51:57.021   09 Jun 2027 09:51:57.497             0.476            19.281
       329   09 Jun 2027 11:21:23.373   09 Jun 2027 11:21:38.514            15.141          7315.562
       330   09 Jun 2027 11:21:56.823   09 Jun 2027 11:21:59.155             2.332           572.156
       331   09 Jun 2027 11:22:31.559   09 Jun 2027 11:22:35.968             4.409           222.469
       332   09 Jun 2027 11:23:17.997   09 Jun 2027 11:23:26.574             8.577          1095.781
       333   09 Jun 2027 11:23:39.115   09 Jun 2027 11:23:41.995             2.880           391.906
       334   09 Jun 2027 11:24:07.278   09 Jun 2027 11:24:08.067             0.789           394.500
       335   09 Jun 2027 11:24:19.808   09 Jun 2027 11:24:19.808             0.000             0.000
       336   09 Jun 2027 11:24:44.311   09 Jun 2027 11:24:52.239             7.928          1134.250
       337   09 Jun 2027 11:25:06.449   09 Jun 2027 11:25:08.045             1.596           444.063
       338   09 Jun 2027 11:25:34.024   09 Jun 2027 11:25:35.836             1.812           811.844
       339   09 Jun 2027 11:26:21.114   09 Jun 2027 11:26:29.509             8.395          1294.219
       340   09 Jun 2027 11:27:41.242   09 Jun 2027 11:27:49.448             8.206          1685.875
       341   10 Jun 2027 03:45:26.427   10 Jun 2027 03:47:35.619           129.192         64596.000
       342   10 Jun 2027 03:48:40.744   10 Jun 2027 03:48:56.050            15.306          7653.000
       343   10 Jun 2027 03:48:56.104   10 Jun 2027 03:49:05.622             9.518          4759.000
       344   10 Jun 2027 03:49:53.107   10 Jun 2027 03:50:36.792            43.685         21842.500
       345   10 Jun 2027 03:51:19.335   10 Jun 2027 03:51:35.791            16.456          8228.000
       346   10 Jun 2027 03:52:13.099   10 Jun 2027 03:52:24.625            11.526          5763.000
       347   10 Jun 2027 05:09:47.302   10 Jun 2027 05:10:36.040            48.738         24369.000
       348   10 Jun 2027 05:22:02.841   10 Jun 2027 05:22:30.245            27.404         13702.000
       349   10 Jun 2027 06:43:44.240   10 Jun 2027 06:44:11.604            27.364         12575.375
       350   10 Jun 2027 06:45:52.390   10 Jun 2027 06:45:55.437             3.047          1523.500
       351   10 Jun 2027 06:47:10.674   10 Jun 2027 06:47:17.369             6.695          2836.938
       352   10 Jun 2027 06:47:43.595   10 Jun 2027 06:47:44.480             0.885           198.375
       353   10 Jun 2027 06:48:37.217   10 Jun 2027 06:48:39.000             1.783           857.375
       354   10 Jun 2027 06:48:59.295   10 Jun 2027 06:48:59.295             0.000             0.000
       355   10 Jun 2027 08:18:37.784   10 Jun 2027 08:18:47.169             9.385          4392.125
       356   10 Jun 2027 08:19:31.011   10 Jun 2027 08:19:33.335             2.324          1158.000
       357   10 Jun 2027 08:20:30.895   10 Jun 2027 08:20:33.121             2.226           625.188
       358   10 Jun 2027 08:20:46.301   10 Jun 2027 08:20:48.718             2.417           183.312
       359   10 Jun 2027 08:20:53.956   10 Jun 2027 08:20:53.956             0.000             0.000
       360   10 Jun 2027 08:21:49.031   10 Jun 2027 08:21:55.607             6.576          1742.406
       361   10 Jun 2027 08:22:23.654   10 Jun 2027 08:22:26.441             2.787           510.406
       362   10 Jun 2027 08:23:16.398   10 Jun 2027 08:23:19.515             3.117           905.875
       363   10 Jun 2027 08:24:10.431   10 Jun 2027 08:24:17.019             6.588           535.938
       364   10 Jun 2027 08:24:20.607   10 Jun 2027 08:24:24.013             3.406           112.125
       365   10 Jun 2027 08:24:31.938   10 Jun 2027 08:24:33.672             1.734           153.469
       366   10 Jun 2027 08:24:53.129   10 Jun 2027 08:24:54.080             0.951           434.812
       367   10 Jun 2027 08:25:49.940   10 Jun 2027 08:25:53.632             3.692          1742.406
       368   10 Jun 2027 08:26:36.089   10 Jun 2027 08:26:41.986             5.897          1326.781
       369   10 Jun 2027 08:27:27.000   10 Jun 2027 08:27:33.454             6.454          1305.594
       370   10 Jun 2027 09:56:32.804   10 Jun 2027 09:56:46.012            13.208          5734.375
       371   10 Jun 2027 09:57:24.792   10 Jun 2027 09:57:28.541             3.749          1015.281
       372   10 Jun 2027 09:58:03.519   10 Jun 2027 09:58:05.207             1.688           435.656
       373   10 Jun 2027 09:58:19.018   10 Jun 2027 09:58:20.771             1.753           431.594
       374   10 Jun 2027 09:58:26.596   10 Jun 2027 09:58:31.401             4.805           182.031
       375   10 Jun 2027 09:59:32.199   10 Jun 2027 09:59:36.418             4.219          1729.688
       376   10 Jun 2027 09:59:53.255   10 Jun 2027 09:59:55.893             2.638           313.250
       377   10 Jun 2027 10:00:37.176   10 Jun 2027 10:00:43.067             5.891          1181.219
       378   10 Jun 2027 10:00:47.882   10 Jun 2027 10:00:49.467             1.585           150.469
       379   10 Jun 2027 10:01:00.511   10 Jun 2027 10:01:02.652             2.141           345.125
       380   10 Jun 2027 10:01:39.728   10 Jun 2027 10:01:42.579             2.851           591.688
       381   10 Jun 2027 10:02:17.237   10 Jun 2027 10:02:20.264             3.027           793.594
       382   10 Jun 2027 10:02:54.606   10 Jun 2027 10:03:00.600             5.994           570.406
       383   10 Jun 2027 10:03:33.783   10 Jun 2027 10:03:36.577             2.794           812.750
       384   10 Jun 2027 10:03:47.806   10 Jun 2027 10:03:52.799             4.993           350.906
       385   10 Jun 2027 11:33:17.422   10 Jun 2027 11:33:30.126            12.704          6352.000
       386   10 Jun 2027 11:36:02.293   10 Jun 2027 11:36:13.488            11.195          4780.406
       387   10 Jun 2027 11:36:45.230   10 Jun 2027 11:36:49.268             4.038           991.937
       388   10 Jun 2027 11:37:30.116   10 Jun 2027 11:37:33.200             3.084           913.563
       389   10 Jun 2027 11:37:52.833   10 Jun 2027 11:37:59.942             7.109           523.844
       390   10 Jun 2027 11:38:56.025   10 Jun 2027 11:39:02.919             6.894          1752.594
       391   10 Jun 2027 11:39:28.471   10 Jun 2027 11:39:31.587             3.116           711.187
       392   11 Jun 2027 03:57:52.047   11 Jun 2027 04:00:25.706           153.659         76829.500
       393   11 Jun 2027 04:00:51.457   11 Jun 2027 04:00:51.495             0.038            19.000
       394   11 Jun 2027 04:01:09.857   11 Jun 2027 04:01:41.569            31.712         15856.000
       395   11 Jun 2027 04:02:51.224   11 Jun 2027 04:02:51.224             0.000             0.000
       396   11 Jun 2027 05:21:43.051   11 Jun 2027 05:23:15.147            92.096         46048.000
       397   11 Jun 2027 06:57:43.021   11 Jun 2027 06:58:27.267            44.246         21132.750
       398   11 Jun 2027 06:58:44.575   11 Jun 2027 06:58:50.479             5.904           463.938
       399   11 Jun 2027 06:59:51.255   11 Jun 2027 06:59:51.255             0.000             0.000
       400   11 Jun 2027 07:00:51.634   11 Jun 2027 07:00:58.241             6.607          3098.219
       401   11 Jun 2027 08:31:31.107   11 Jun 2027 08:31:40.339             9.232          4028.281
       402   11 Jun 2027 08:32:54.681   11 Jun 2027 08:32:58.699             4.018           722.875
       403   11 Jun 2027 08:33:48.924   11 Jun 2027 08:33:51.956             3.032          1367.313
       404   11 Jun 2027 08:33:59.671   11 Jun 2027 08:33:59.671             0.000             0.000
       405   11 Jun 2027 08:36:09.883   11 Jun 2027 08:36:21.133            11.250          4310.219
       406   11 Jun 2027 08:36:35.056   11 Jun 2027 08:36:35.056             0.000             0.000
       407   11 Jun 2027 08:37:27.279   11 Jun 2027 08:37:27.279             0.000             0.000
       408   11 Jun 2027 08:38:15.849   11 Jun 2027 08:38:24.500             8.651          3420.969
       409   11 Jun 2027 08:39:13.316   11 Jun 2027 08:39:18.039             4.723          1400.219
       410   11 Jun 2027 10:08:42.691   11 Jun 2027 10:08:56.707            14.016          6920.875
       411   11 Jun 2027 10:09:05.738   11 Jun 2027 10:09:10.513             4.775           282.219
       412   11 Jun 2027 10:09:29.306   11 Jun 2027 10:09:32.958             3.652           587.281
       413   11 Jun 2027 10:10:00.651   11 Jun 2027 10:10:03.817             3.166           798.063
       414   11 Jun 2027 10:10:50.528   11 Jun 2027 10:10:53.232             2.704           554.562
       415   11 Jun 2027 10:12:34.131   11 Jun 2027 10:12:34.131             0.000             0.000
       416   11 Jun 2027 10:13:18.802   11 Jun 2027 10:13:26.349             7.547          3773.500
       417   11 Jun 2027 10:13:40.091   11 Jun 2027 10:13:42.870             2.779           480.906
       418   11 Jun 2027 10:14:04.842   11 Jun 2027 10:14:06.463             1.621           686.625
       419   11 Jun 2027 10:14:11.924   11 Jun 2027 10:14:19.028             7.104           170.656
       420   11 Jun 2027 10:14:35.942   11 Jun 2027 10:14:37.254             1.312           234.094
       421   11 Jun 2027 10:15:06.480   11 Jun 2027 10:15:08.037             1.557           772.906
       422   11 Jun 2027 10:15:28.212   11 Jun 2027 10:15:29.601             1.389           630.469
       423   11 Jun 2027 10:15:44.696   11 Jun 2027 10:15:46.069             1.373           471.719
       424   11 Jun 2027 11:45:56.399   11 Jun 2027 11:46:05.971             9.572          4786.000
       425   11 Jun 2027 11:46:10.747   11 Jun 2027 11:46:16.123             5.376          2536.500
       426   11 Jun 2027 11:47:03.589   11 Jun 2027 11:47:08.104             4.515           999.656
       427   11 Jun 2027 11:47:41.241   11 Jun 2027 11:47:43.942             2.701           594.125
       428   11 Jun 2027 11:48:28.360   11 Jun 2027 11:48:32.568             4.208          1388.063
       429   11 Jun 2027 11:48:43.642   11 Jun 2027 11:48:48.709             5.067           253.813
       430   11 Jun 2027 11:49:44.845   11 Jun 2027 11:49:51.803             6.958          1679.062
       431   11 Jun 2027 11:50:00.601   11 Jun 2027 11:50:00.601             0.000             0.000
       432   11 Jun 2027 11:50:36.344   11 Jun 2027 11:50:40.469             4.125          1241.844
       433   11 Jun 2027 11:50:55.750   11 Jun 2027 11:50:57.914             2.164           334.719
       434   11 Jun 2027 11:51:02.213   11 Jun 2027 11:51:04.684             2.471            55.312
       435   11 Jun 2027 11:51:15.291   11 Jun 2027 11:51:16.146             0.855           270.687
       436   11 Jun 2027 11:51:44.869   11 Jun 2027 11:51:47.360             2.491           786.813
       437   12 Jun 2027 04:10:13.519   12 Jun 2027 04:12:47.495           153.976         76988.000
       438   12 Jun 2027 04:12:58.954   12 Jun 2027 04:13:34.035            35.081         17540.500
       439   12 Jun 2027 05:33:35.405   12 Jun 2027 05:34:52.624            77.219         38609.500
       440   12 Jun 2027 05:35:07.390   12 Jun 2027 05:35:14.415             7.025          3512.500
       441   12 Jun 2027 07:09:56.523   12 Jun 2027 07:10:43.607            47.084         21814.531
       442   12 Jun 2027 07:11:14.228   12 Jun 2027 07:11:17.138             2.910           764.750
       443   12 Jun 2027 07:11:59.953   12 Jun 2027 07:12:01.125             1.172           586.000
       444   12 Jun 2027 07:12:51.601   12 Jun 2027 07:12:55.979             4.378          2046.406
       445   12 Jun 2027 08:43:59.529   12 Jun 2027 08:44:10.505            10.976          5386.750
       446   12 Jun 2027 08:45:37.988   12 Jun 2027 08:45:41.449             3.461          1609.188
       447   12 Jun 2027 08:46:06.655   12 Jun 2027 08:46:06.655             0.000             0.000
       448   12 Jun 2027 08:46:51.573   12 Jun 2027 08:46:58.046             6.473          2152.375
       449   12 Jun 2027 08:47:58.096   12 Jun 2027 08:48:01.714             3.618          1558.250
       450   12 Jun 2027 08:48:26.163   12 Jun 2027 08:48:28.029             1.866           364.750
       451   12 Jun 2027 08:48:56.246   12 Jun 2027 08:48:58.532             2.286           877.719
       452   12 Jun 2027 08:50:34.418   12 Jun 2027 08:50:38.524             4.106          2053.000
       453   12 Jun 2027 08:51:34.557   12 Jun 2027 08:51:40.153             5.596          2694.469
       454   12 Jun 2027 08:51:57.018   12 Jun 2027 08:51:58.374             1.356           527.031
       455   12 Jun 2027 08:52:00.315   12 Jun 2027 08:52:00.956             0.641            44.500
       456   12 Jun 2027 10:21:06.274   12 Jun 2027 10:21:20.424            14.150          5551.906
       457   12 Jun 2027 10:21:37.479   12 Jun 2027 10:21:38.458             0.979           193.281
       458   12 Jun 2027 10:24:02.818   12 Jun 2027 10:24:10.023             7.205          3519.500
       459   12 Jun 2027 10:24:46.203   12 Jun 2027 10:24:50.401             4.198           861.188
       460   12 Jun 2027 10:25:14.161   12 Jun 2027 10:25:14.427             0.266           133.000
       461   12 Jun 2027 10:25:24.143   12 Jun 2027 10:25:24.143             0.000             0.000
       462   12 Jun 2027 10:25:30.326   12 Jun 2027 10:25:33.248             2.922           656.032
       463   12 Jun 2027 10:25:41.000   12 Jun 2027 10:25:45.554             4.554           215.781
       464   12 Jun 2027 10:25:52.792   12 Jun 2027 10:25:53.435             0.643           226.188
       465   12 Jun 2027 10:26:23.796   12 Jun 2027 10:26:26.595             2.799           649.531
       466   12 Jun 2027 10:27:40.559   12 Jun 2027 10:27:45.748             5.189          2311.375
       467   12 Jun 2027 11:58:03.913   12 Jun 2027 11:58:24.295            20.382          6612.906
       468   12 Jun 2027 11:59:38.525   12 Jun 2027 11:59:40.753             2.228          1114.000
       469   12 Jun 2027 11:59:54.826   12 Jun 2027 11:59:59.369             4.543          1457.906
       470   13 Jun 2027 04:22:37.769   13 Jun 2027 04:26:04.076           206.307        103153.500
       471   13 Jun 2027 04:26:26.454   13 Jun 2027 04:26:35.783             9.329          4664.500
       472   13 Jun 2027 05:45:37.103   13 Jun 2027 05:46:18.226            41.123         20561.500
       473   13 Jun 2027 07:22:02.997   13 Jun 2027 07:23:03.830            60.833         28855.031
       474   13 Jun 2027 07:24:13.283   13 Jun 2027 07:24:17.413             4.130          1920.750
       475   13 Jun 2027 07:24:39.219   13 Jun 2027 07:24:39.219             0.000             0.000
       476   13 Jun 2027 07:25:06.972   13 Jun 2027 07:25:10.012             3.040          1048.250
       477   13 Jun 2027 08:57:11.337   13 Jun 2027 08:57:21.685            10.348          4577.125
       478   13 Jun 2027 08:58:00.170   13 Jun 2027 08:58:02.736             2.566           951.125
       479   13 Jun 2027 08:58:27.790   13 Jun 2027 08:58:35.152             7.362           364.125
       480   13 Jun 2027 08:59:35.997   13 Jun 2027 08:59:39.440             3.443          1337.844
       481   13 Jun 2027 09:00:14.058   13 Jun 2027 09:00:15.746             1.688           644.344
       482   13 Jun 2027 09:00:32.869   13 Jun 2027 09:00:36.116             3.247           362.687
       483   13 Jun 2027 09:00:49.300   13 Jun 2027 09:00:50.793             1.493           412.000
       484   13 Jun 2027 09:00:56.741   13 Jun 2027 09:00:59.392             2.651             5.937
       485   13 Jun 2027 09:01:18.276   13 Jun 2027 09:01:18.554             0.278           139.000
       486   13 Jun 2027 09:02:44.144   13 Jun 2027 09:02:44.144             0.000             0.000
       487   13 Jun 2027 09:03:12.166   13 Jun 2027 09:03:20.130             7.964          3773.125
       488   13 Jun 2027 09:03:42.027   13 Jun 2027 09:03:46.353             4.326           684.281
       489   13 Jun 2027 09:03:54.014   13 Jun 2027 09:03:58.237             4.223           189.937
       490   13 Jun 2027 10:33:32.047   13 Jun 2027 10:33:44.793            12.746          6176.687
       491   13 Jun 2027 10:34:27.174   13 Jun 2027 10:34:28.176             1.002           368.844
       492   13 Jun 2027 10:35:17.891   13 Jun 2027 10:35:27.111             9.220          1234.469
       493   13 Jun 2027 10:35:36.073   13 Jun 2027 10:35:37.483             1.410           280.063
       494   13 Jun 2027 10:35:53.546   13 Jun 2027 10:35:57.006             3.460           248.594
       495   13 Jun 2027 10:36:36.798   13 Jun 2027 10:36:41.805             5.007          1154.875
       496   13 Jun 2027 10:36:50.231   13 Jun 2027 10:36:52.392             2.161           180.219
       497   13 Jun 2027 10:37:15.433   13 Jun 2027 10:37:17.220             1.787           416.344
       498   13 Jun 2027 10:38:00.763   13 Jun 2027 10:38:03.375             2.612           779.187
       499   13 Jun 2027 10:39:05.403   13 Jun 2027 10:39:12.444             7.041          1477.250
       500   13 Jun 2027 10:39:41.079   13 Jun 2027 10:39:44.028             2.949           890.844
       501   13 Jun 2027 10:39:48.701   13 Jun 2027 10:39:51.165             2.464           146.031
