uniorb/output/strategy_2/Camera/Camera_KinoSat_111606.txt

KinoSat_111606
-------------------------
    Access    *     Start Time (UTCG)     *     Stop Time (UTCG)  *   Duration (s) *   Data (Mbytes)
         1   01 Jun 2027 03:04:16.053   01 Jun 2027 03:04:39.945            23.892         11946.000
         2   01 Jun 2027 03:04:43.060   01 Jun 2027 03:05:38.274            55.214         27607.000
         3   01 Jun 2027 03:05:40.338   01 Jun 2027 03:05:58.373            18.035          9017.500
         4   01 Jun 2027 03:06:05.578   01 Jun 2027 03:06:45.683            40.105         20052.500
         5   01 Jun 2027 03:08:44.819   01 Jun 2027 03:08:49.739             4.920          2460.000
         6   01 Jun 2027 04:42:38.855   01 Jun 2027 04:44:20.593           101.738         50869.000
         7   01 Jun 2027 04:44:52.226   01 Jun 2027 04:44:53.959             1.733           866.500
         8   01 Jun 2027 04:45:00.458   01 Jun 2027 04:45:16.659            16.201          8100.500
         9   01 Jun 2027 04:45:38.035   01 Jun 2027 04:46:27.377            49.342         24671.000
        10   01 Jun 2027 04:46:41.439   01 Jun 2027 04:46:53.942            12.503          6251.500
        11   01 Jun 2027 04:47:43.386   01 Jun 2027 04:47:53.395            10.009          5004.500
        12   01 Jun 2027 06:06:41.830   01 Jun 2027 06:08:21.647            99.817         49908.500
        13   01 Jun 2027 07:42:39.200   01 Jun 2027 07:44:15.107            95.907         47953.500
        14   01 Jun 2027 07:45:46.584   01 Jun 2027 07:46:32.942            46.358         23179.000
        15   01 Jun 2027 09:16:28.778   01 Jun 2027 09:18:12.308           103.530         51765.000
        16   01 Jun 2027 09:18:37.631   01 Jun 2027 09:19:01.054            23.423         11711.500
        17   01 Jun 2027 10:53:32.818   01 Jun 2027 10:54:20.651            47.833         23916.500
        18   01 Jun 2027 10:54:52.724   01 Jun 2027 10:54:52.724             0.000             0.000
        19   01 Jun 2027 10:56:18.785   01 Jun 2027 10:56:18.785             0.000             0.000
        20   01 Jun 2027 10:57:45.829   01 Jun 2027 10:58:26.824            40.995         20497.500
        21   01 Jun 2027 10:58:56.372   01 Jun 2027 11:00:05.741            69.369         34684.500
        22   02 Jun 2027 03:16:51.041   02 Jun 2027 03:17:38.544            47.503         23751.500
        23   02 Jun 2027 03:17:47.678   02 Jun 2027 03:18:30.989            43.311         21655.500
        24   02 Jun 2027 03:18:32.197   02 Jun 2027 03:19:48.223            76.026         38013.000
        25   02 Jun 2027 03:20:27.384   02 Jun 2027 03:20:33.233             5.849          2924.500
        26   02 Jun 2027 03:20:51.648   02 Jun 2027 03:20:59.442             7.794          3897.000
        27   02 Jun 2027 03:21:32.139   02 Jun 2027 03:21:37.908             5.769          2884.500
        28   02 Jun 2027 04:55:13.550   02 Jun 2027 04:56:16.654            63.104         31552.000
        29   02 Jun 2027 04:57:17.891   02 Jun 2027 04:57:30.657            12.766          6383.000
        30   02 Jun 2027 04:57:35.277   02 Jun 2027 04:58:23.751            48.474         24237.000
        31   02 Jun 2027 04:58:29.744   02 Jun 2027 04:58:43.781            14.037          7018.500
        32   02 Jun 2027 06:18:36.023   02 Jun 2027 06:19:26.332            50.309         25154.500
        33   02 Jun 2027 07:54:58.143   02 Jun 2027 07:57:46.854           168.711         84355.500
        34   02 Jun 2027 09:28:27.062   02 Jun 2027 09:29:08.576            41.514         19543.125
        35   02 Jun 2027 09:30:54.204   02 Jun 2027 09:30:55.565             1.361           680.500
        36   02 Jun 2027 09:31:28.338   02 Jun 2027 09:31:28.338             0.000             0.000
        37   02 Jun 2027 09:32:08.098   02 Jun 2027 09:32:16.596             8.498          4137.656
        38   02 Jun 2027 09:35:51.775   02 Jun 2027 09:36:02.589            10.814          5398.969
        39   02 Jun 2027 09:36:16.405   02 Jun 2027 09:36:19.082             2.677           431.750
        40   02 Jun 2027 09:36:56.802   02 Jun 2027 09:36:58.384             1.582           791.000
        41   02 Jun 2027 11:05:59.556   02 Jun 2027 11:06:15.766            16.210          7574.625
        42   02 Jun 2027 11:06:35.893   02 Jun 2027 11:06:39.077             3.184           361.437
        43   02 Jun 2027 11:07:08.480   02 Jun 2027 11:07:10.999             2.519           867.719
        44   02 Jun 2027 11:08:00.039   02 Jun 2027 11:08:02.736             2.697          1086.938
        45   02 Jun 2027 11:08:21.736   02 Jun 2027 11:08:30.672             8.936           457.031
        46   02 Jun 2027 11:08:56.109   02 Jun 2027 11:08:59.356             3.247           642.344
        47   02 Jun 2027 11:09:12.146   02 Jun 2027 11:09:13.916             1.770           399.687
        48   02 Jun 2027 11:10:23.569   02 Jun 2027 11:10:27.141             3.572          1786.000
        49   02 Jun 2027 11:10:45.219   02 Jun 2027 11:10:48.085             2.866           844.063
        50   02 Jun 2027 11:12:09.631   02 Jun 2027 11:12:13.087             3.456          1728.000
        51   02 Jun 2027 11:12:31.274   02 Jun 2027 11:12:33.837             2.563          1219.344
        52   03 Jun 2027 03:28:47.468   03 Jun 2027 03:28:53.368             5.900          2950.000
        53   03 Jun 2027 03:29:04.866   03 Jun 2027 03:31:10.244           125.378         62689.000
        54   03 Jun 2027 03:31:27.038   03 Jun 2027 03:31:58.498            31.460         15730.000
        55   03 Jun 2027 03:32:27.980   03 Jun 2027 03:33:39.545            71.565         35782.500
        56   03 Jun 2027 05:06:51.591   03 Jun 2027 05:07:23.274            31.683         15841.500
        57   03 Jun 2027 05:07:24.297   03 Jun 2027 05:07:47.745            23.448         11724.000
        58   03 Jun 2027 05:07:48.066   03 Jun 2027 05:07:49.840             1.774           887.000
        59   03 Jun 2027 05:07:50.465   03 Jun 2027 05:08:05.460            14.995          7497.500
        60   03 Jun 2027 05:08:40.138   03 Jun 2027 05:08:49.328             9.190          3756.219
        61   03 Jun 2027 05:09:47.921   03 Jun 2027 05:09:55.282             7.361          1778.031
        62   03 Jun 2027 05:09:58.831   03 Jun 2027 05:10:00.054             1.223           110.906
        63   03 Jun 2027 05:10:32.902   03 Jun 2027 05:10:36.584             3.682           707.563
        64   03 Jun 2027 05:11:02.494   03 Jun 2027 05:11:05.258             2.764           760.719
        65   03 Jun 2027 06:30:26.830   03 Jun 2027 06:30:42.418            15.588          5806.812
        66   03 Jun 2027 06:32:32.816   03 Jun 2027 06:32:38.797             5.981          2948.906
        67   03 Jun 2027 06:33:09.702   03 Jun 2027 06:33:09.702             0.000             0.000
        68   03 Jun 2027 08:07:00.366   03 Jun 2027 08:07:09.765             9.399          3878.437
        69   03 Jun 2027 08:07:27.288   03 Jun 2027 08:07:29.378             2.090            20.906
        70   03 Jun 2027 08:07:57.771   03 Jun 2027 08:08:02.680             4.909           616.312
        71   03 Jun 2027 08:08:47.384   03 Jun 2027 08:08:51.246             3.862           595.406
        72   03 Jun 2027 08:09:46.638   03 Jun 2027 08:09:55.866             9.228          1731.000
        73   03 Jun 2027 09:41:30.725   03 Jun 2027 09:41:37.813             7.088          3544.000
        74   03 Jun 2027 09:42:48.140   03 Jun 2027 09:42:57.630             9.490          4077.062
        75   03 Jun 2027 09:43:14.084   03 Jun 2027 09:43:14.084             0.000             0.000
        76   03 Jun 2027 09:43:30.307   03 Jun 2027 09:43:38.040             7.733          1021.156
        77   03 Jun 2027 09:44:08.985   03 Jun 2027 09:44:09.615             0.630           117.781
        78   03 Jun 2027 09:44:32.825   03 Jun 2027 09:44:33.983             1.158           534.313
        79   03 Jun 2027 09:45:38.573   03 Jun 2027 09:45:43.676             5.103          1309.563
        80   03 Jun 2027 09:46:29.167   03 Jun 2027 09:46:32.369             3.202          1421.594
        81   03 Jun 2027 09:46:35.644   03 Jun 2027 09:46:37.412             1.768           102.344
        82   03 Jun 2027 09:48:03.186   03 Jun 2027 09:48:08.467             5.281          2253.844
        83   03 Jun 2027 09:48:29.413   03 Jun 2027 09:48:32.921             3.508           117.500
        84   03 Jun 2027 09:48:52.216   03 Jun 2027 09:48:52.889             0.673           336.500
        85   03 Jun 2027 11:18:06.830   03 Jun 2027 11:18:17.719            10.889          5444.500
        86   03 Jun 2027 11:18:27.701   03 Jun 2027 11:18:30.544             2.843           514.875
        87   03 Jun 2027 11:18:38.204   03 Jun 2027 11:18:38.747             0.543           187.969
        88   03 Jun 2027 11:20:17.118   03 Jun 2027 11:20:23.199             6.081          1956.937
        89   03 Jun 2027 11:22:04.441   03 Jun 2027 11:22:10.205             5.764          2882.000
        90   03 Jun 2027 11:22:28.545   03 Jun 2027 11:22:32.257             3.712           854.938
        91   03 Jun 2027 11:23:32.344   03 Jun 2027 11:23:37.595             5.251          1877.719
        92   03 Jun 2027 11:23:52.206   03 Jun 2027 11:23:52.956             0.750           302.781
        93   03 Jun 2027 11:24:27.590   03 Jun 2027 11:24:30.831             3.241           905.656
        94   04 Jun 2027 03:40:56.230   04 Jun 2027 03:41:55.959            59.729         29864.500
        95   04 Jun 2027 03:42:05.369   04 Jun 2027 03:43:26.218            80.849         40424.500
        96   04 Jun 2027 03:43:47.918   04 Jun 2027 03:43:54.166             6.248          3124.000
        97   04 Jun 2027 03:44:53.365   04 Jun 2027 03:45:46.236            52.871         26435.500
        98   04 Jun 2027 03:46:19.901   04 Jun 2027 03:46:35.252            15.351          7675.500
        99   04 Jun 2027 05:19:14.635   04 Jun 2027 05:19:45.386            30.751         15375.500
       100   04 Jun 2027 05:20:03.882   04 Jun 2027 05:20:06.191             2.309          1154.500
       101   04 Jun 2027 05:20:24.224   04 Jun 2027 05:21:24.732            60.508         28098.657
       102   04 Jun 2027 05:21:52.955   04 Jun 2027 05:21:57.105             4.150           843.125
       103   04 Jun 2027 05:22:41.195   04 Jun 2027 05:22:44.907             3.712          1286.781
       104   04 Jun 2027 05:23:02.492   04 Jun 2027 05:23:04.061             1.569           440.312
       105   04 Jun 2027 06:42:37.623   04 Jun 2027 06:42:53.918            16.295          7872.719
       106   04 Jun 2027 06:43:57.943   04 Jun 2027 06:43:57.943             0.000             0.000
       107   04 Jun 2027 06:44:37.306   04 Jun 2027 06:44:42.414             5.108          2550.500
       108   04 Jun 2027 06:45:28.603   04 Jun 2027 06:45:31.366             2.763           808.344
       109   04 Jun 2027 08:19:09.315   04 Jun 2027 08:19:17.091             7.776          3515.687
       110   04 Jun 2027 08:19:54.681   04 Jun 2027 08:19:57.379             2.698          1035.656
       111   04 Jun 2027 08:21:04.419   04 Jun 2027 08:21:09.255             4.836          1510.000
       112   04 Jun 2027 08:22:07.940   04 Jun 2027 08:22:10.212             2.272          1019.594
       113   04 Jun 2027 09:54:18.560   04 Jun 2027 09:54:26.168             7.608          3804.000
       114   04 Jun 2027 09:54:47.385   04 Jun 2027 09:54:51.379             3.994          1619.313
       115   04 Jun 2027 09:55:37.554   04 Jun 2027 09:55:38.277             0.723           175.531
       116   04 Jun 2027 09:57:16.163   04 Jun 2027 09:57:22.891             6.728          3009.281
       117   04 Jun 2027 09:57:48.370   04 Jun 2027 09:57:49.756             1.386           623.281
       118   04 Jun 2027 09:58:33.766   04 Jun 2027 09:58:37.291             3.525           804.344
       119   04 Jun 2027 09:58:48.552   04 Jun 2027 09:58:49.494             0.942           346.187
       120   04 Jun 2027 09:58:57.213   04 Jun 2027 09:58:57.653             0.440           196.500
       121   04 Jun 2027 09:59:09.592   04 Jun 2027 09:59:11.709             2.117           373.094
       122   04 Jun 2027 10:00:45.948   04 Jun 2027 10:00:51.765             5.817          2528.531
       123   04 Jun 2027 11:30:42.639   04 Jun 2027 11:30:58.091            15.452          6925.969
       124   04 Jun 2027 11:31:47.245   04 Jun 2027 11:31:58.099            10.854          1265.281
       125   04 Jun 2027 11:32:37.484   04 Jun 2027 11:32:42.922             5.438          1230.781
       126   04 Jun 2027 11:33:11.552   04 Jun 2027 11:33:17.716             6.164           894.688
       127   04 Jun 2027 11:34:18.993   04 Jun 2027 11:34:22.023             3.030          1515.000
       128   04 Jun 2027 11:34:29.778   04 Jun 2027 11:34:29.778             0.000             0.000
       129   04 Jun 2027 11:34:46.986   04 Jun 2027 11:34:50.357             3.371          1180.000
       130   04 Jun 2027 11:34:55.059   04 Jun 2027 11:35:02.803             7.744           146.937
       131   04 Jun 2027 11:35:13.030   04 Jun 2027 11:35:18.537             5.507           270.250
       132   04 Jun 2027 11:36:05.716   04 Jun 2027 11:36:06.956             1.240           620.000
       133   04 Jun 2027 11:36:13.805   04 Jun 2027 11:36:15.724             1.919           877.531
       134   04 Jun 2027 11:36:46.957   04 Jun 2027 11:36:51.970             5.013           775.562
       135   05 Jun 2027 03:53:01.521   05 Jun 2027 03:53:10.086             8.565          4282.500
       136   05 Jun 2027 03:54:02.896   05 Jun 2027 03:56:15.093           132.197         66098.500
       137   05 Jun 2027 03:56:18.570   05 Jun 2027 03:56:18.822             0.252           126.000
       138   05 Jun 2027 03:56:31.817   05 Jun 2027 03:56:37.128             5.311          2655.500
       139   05 Jun 2027 03:56:52.169   05 Jun 2027 03:57:32.392            40.223         20111.500
       140   05 Jun 2027 03:57:34.767   05 Jun 2027 03:57:43.212             8.445          4222.500
       141   05 Jun 2027 03:58:17.815   05 Jun 2027 03:58:36.887            19.072          9536.000
       142   05 Jun 2027 04:00:36.541   05 Jun 2027 04:00:39.401             2.860          1430.000
       143   05 Jun 2027 05:31:11.532   05 Jun 2027 05:31:50.516            38.984         19492.000
       144   05 Jun 2027 05:32:14.468   05 Jun 2027 05:32:29.822            15.354          7677.000
       145   05 Jun 2027 05:32:44.008   05 Jun 2027 05:32:54.165            10.157          5078.500
       146   05 Jun 2027 05:32:56.558   05 Jun 2027 05:33:19.565            23.007         11503.500
       147   05 Jun 2027 06:55:14.312   05 Jun 2027 06:55:24.665            10.353          5176.500
       148   05 Jun 2027 06:55:47.709   05 Jun 2027 06:55:51.909             4.200           764.343
       149   05 Jun 2027 06:56:35.993   05 Jun 2027 06:56:35.993             0.000             0.000
       150   05 Jun 2027 06:57:12.670   05 Jun 2027 06:57:15.602             2.932          1466.000
       151   05 Jun 2027 06:57:34.764   05 Jun 2027 06:57:38.873             4.109          1656.594
       152   05 Jun 2027 08:31:02.510   05 Jun 2027 08:31:09.231             6.721          3297.625
       153   05 Jun 2027 08:32:48.831   05 Jun 2027 08:32:48.831             0.000             0.000
       154   05 Jun 2027 08:33:20.048   05 Jun 2027 08:33:22.537             2.489          1244.500
       155   05 Jun 2027 08:33:44.267   05 Jun 2027 08:33:57.296            13.029          3362.656
       156   05 Jun 2027 08:34:33.682   05 Jun 2027 08:34:36.338             2.656          1075.437
       157   05 Jun 2027 10:05:59.741   05 Jun 2027 10:06:14.545            14.804          6169.656
       158   05 Jun 2027 10:07:33.173   05 Jun 2027 10:07:38.551             5.378          2146.719
       159   05 Jun 2027 10:11:24.911   05 Jun 2027 10:11:39.900            14.989          6248.406
       160   05 Jun 2027 10:12:08.363   05 Jun 2027 10:12:11.897             3.534           720.812
       161   05 Jun 2027 10:12:42.153   05 Jun 2027 10:12:47.775             5.622           791.000
       162   05 Jun 2027 11:42:14.968   05 Jun 2027 11:42:28.933            13.965          6037.875
       163   05 Jun 2027 11:43:22.113   05 Jun 2027 11:43:25.412             3.299          1139.344
       164   05 Jun 2027 11:44:54.179   05 Jun 2027 11:45:02.619             8.440          2773.969
       165   05 Jun 2027 11:46:01.226   05 Jun 2027 11:46:05.447             4.221          1311.000
       166   05 Jun 2027 11:46:11.240   05 Jun 2027 11:46:11.240             0.000             0.000
       167   05 Jun 2027 11:46:30.798   05 Jun 2027 11:46:32.447             1.649           792.219
       168   05 Jun 2027 11:47:10.727   05 Jun 2027 11:47:15.244             4.517          1196.250
       169   05 Jun 2027 11:48:06.871   05 Jun 2027 11:48:12.208             5.337          1613.344
       170   06 Jun 2027 04:06:06.711   06 Jun 2027 04:08:29.774           143.063         71531.500
       171   06 Jun 2027 04:09:30.008   06 Jun 2027 04:09:53.336            23.328         11664.000
       172   06 Jun 2027 04:10:26.895   06 Jun 2027 04:10:38.695            11.800          5900.000
       173   06 Jun 2027 04:10:55.006   06 Jun 2027 04:11:40.294            45.288         22644.000
       174   06 Jun 2027 04:12:57.649   06 Jun 2027 04:13:44.398            46.749         23374.500
       175   06 Jun 2027 05:32:00.677   06 Jun 2027 05:32:45.912            45.235         22617.500
       176   06 Jun 2027 05:43:08.039   06 Jun 2027 05:43:36.118            28.079         14039.500
       177   06 Jun 2027 05:44:01.378   06 Jun 2027 05:44:26.452            25.074         11148.688
       178   06 Jun 2027 05:44:44.746   06 Jun 2027 05:44:45.362             0.616           308.000
       179   06 Jun 2027 05:46:04.229   06 Jun 2027 05:46:08.077             3.848          1924.000
       180   06 Jun 2027 07:06:05.065   06 Jun 2027 07:06:21.560            16.495          8247.500
       181   06 Jun 2027 07:06:34.143   06 Jun 2027 07:06:40.139             5.996          1441.313
       182   06 Jun 2027 07:07:52.086   06 Jun 2027 07:08:01.579             9.493          1741.406
       183   06 Jun 2027 07:09:06.699   06 Jun 2027 07:09:11.270             4.571          2035.000
       184   06 Jun 2027 07:09:37.816   06 Jun 2027 07:09:37.816             0.000             0.000
       185   06 Jun 2027 07:10:14.805   06 Jun 2027 07:10:18.380             3.575          1787.500
       186   06 Jun 2027 08:41:21.746   06 Jun 2027 08:41:30.876             9.130          3653.469
       187   06 Jun 2027 08:43:04.276   06 Jun 2027 08:43:10.461             6.185          1936.250
       188   06 Jun 2027 08:44:20.712   06 Jun 2027 08:44:25.971             5.259          1706.156
       189   06 Jun 2027 08:45:38.251   06 Jun 2027 08:45:41.789             3.538          1509.750
       190   06 Jun 2027 08:45:57.215   06 Jun 2027 08:46:06.846             9.631           482.063
       191   06 Jun 2027 08:46:41.016   06 Jun 2027 08:46:42.634             1.618           616.281
       192   06 Jun 2027 10:17:32.805   06 Jun 2027 10:17:33.470             0.665           332.500
       193   06 Jun 2027 10:18:05.257   06 Jun 2027 10:18:14.689             9.432          4149.906
       194   06 Jun 2027 10:19:17.571   06 Jun 2027 10:19:20.738             3.167           212.031
       195   06 Jun 2027 10:20:31.764   06 Jun 2027 10:20:36.793             5.029          2114.094
       196   06 Jun 2027 10:23:24.105   06 Jun 2027 10:23:36.333            12.228          5228.500
       197   06 Jun 2027 10:23:58.236   06 Jun 2027 10:24:06.630             8.394           594.594
       198   06 Jun 2027 10:24:17.613   06 Jun 2027 10:24:18.436             0.823           226.656
       199   06 Jun 2027 10:24:25.074   06 Jun 2027 10:24:25.653             0.579           207.437
       200   06 Jun 2027 10:24:35.534   06 Jun 2027 10:24:40.169             4.635           308.781
       201   06 Jun 2027 10:24:49.035   06 Jun 2027 10:24:50.886             1.851           269.094
       202   06 Jun 2027 11:54:36.134   06 Jun 2027 11:54:51.868            15.734          7826.750
       203   06 Jun 2027 11:56:09.257   06 Jun 2027 11:56:14.291             5.034          2361.188
       204   06 Jun 2027 11:56:28.633   06 Jun 2027 11:56:32.149             3.516           448.188
       205   06 Jun 2027 11:58:19.117   06 Jun 2027 11:58:24.804             5.687          2839.219
       206   06 Jun 2027 11:58:29.919   06 Jun 2027 11:58:31.534             1.615           159.844
       207   06 Jun 2027 11:58:36.793   06 Jun 2027 11:58:36.793             0.000             0.000
       208   06 Jun 2027 11:58:45.528   06 Jun 2027 11:58:46.817             1.289           437.313
       209   06 Jun 2027 11:58:58.725   06 Jun 2027 11:59:04.015             5.290           359.000
       210   06 Jun 2027 11:59:14.856   06 Jun 2027 11:59:22.336             7.480           309.750
       211   06 Jun 2027 11:59:29.705   06 Jun 2027 11:59:33.463             3.758           230.281
       212   06 Jun 2027 11:59:58.930   06 Jun 2027 12:00:00.000             1.070           514.844
       213   07 Jun 2027 04:18:36.474   07 Jun 2027 04:21:25.154           168.680         84340.000
       214   07 Jun 2027 04:21:27.222   07 Jun 2027 04:22:02.464            35.242         17621.000
       215   07 Jun 2027 04:22:34.870   07 Jun 2027 04:22:40.619             5.749          2874.500
       216   07 Jun 2027 04:22:43.007   07 Jun 2027 04:23:20.152            37.145         18572.500
       217   07 Jun 2027 05:43:28.197   07 Jun 2027 05:44:01.586            33.389         16694.500
       218   07 Jun 2027 05:55:10.918   07 Jun 2027 05:56:08.065            57.147         28573.500
       219   07 Jun 2027 07:17:23.868   07 Jun 2027 07:17:42.177            18.309          8393.406
       220   07 Jun 2027 07:18:16.386   07 Jun 2027 07:18:19.041             2.655           844.344
       221   07 Jun 2027 07:19:24.994   07 Jun 2027 07:19:29.234             4.240           770.500
       222   07 Jun 2027 07:20:23.515   07 Jun 2027 07:20:27.217             3.702          1631.938
       223   07 Jun 2027 07:20:58.432   07 Jun 2027 07:21:02.526             4.094           605.281
       224   07 Jun 2027 07:21:55.452   07 Jun 2027 07:21:58.156             2.704          1272.406
       225   07 Jun 2027 08:52:28.963   07 Jun 2027 08:52:37.071             8.108          3895.094
       226   07 Jun 2027 08:52:52.782   07 Jun 2027 08:52:57.538             4.756           459.656
       227   07 Jun 2027 08:53:18.399   07 Jun 2027 08:53:20.038             1.639           583.156
       228   07 Jun 2027 08:54:49.759   07 Jun 2027 08:54:57.831             8.072          2803.781
       229   07 Jun 2027 08:56:05.994   07 Jun 2027 08:56:13.749             7.755          2116.625
       230   07 Jun 2027 08:57:38.883   07 Jun 2027 08:57:45.122             6.239          2514.406
       231   07 Jun 2027 10:29:47.316   07 Jun 2027 10:30:00.621            13.305          5943.719
       232   07 Jun 2027 10:30:43.970   07 Jun 2027 10:30:49.961             5.991           997.156
       233   07 Jun 2027 10:31:20.676   07 Jun 2027 10:31:26.768             6.092           832.938
       234   07 Jun 2027 10:33:13.751   07 Jun 2027 10:33:21.182             7.431          3110.562
       235   07 Jun 2027 10:33:29.333   07 Jun 2027 10:33:30.706             1.373           254.719
       236   07 Jun 2027 10:34:12.618   07 Jun 2027 10:34:18.003             5.385          1241.813
       237   07 Jun 2027 10:34:27.775   07 Jun 2027 10:34:28.279             0.504           195.406
       238   07 Jun 2027 10:34:53.025   07 Jun 2027 10:34:56.115             3.090           566.250
       239   07 Jun 2027 10:36:10.135   07 Jun 2027 10:36:16.133             5.998          2313.125
       240   07 Jun 2027 10:36:41.139   07 Jun 2027 10:36:42.932             1.793           702.906
       241   07 Jun 2027 10:36:56.058   07 Jun 2027 10:36:58.337             2.279           410.188
       242   08 Jun 2027 04:30:36.795   08 Jun 2027 04:31:28.871            52.076         26038.000
       243   08 Jun 2027 04:31:29.890   08 Jun 2027 04:31:59.663            29.773         14886.500
       244   08 Jun 2027 04:33:02.681   08 Jun 2027 04:35:18.110           135.429         67714.500
       245   08 Jun 2027 04:35:55.339   08 Jun 2027 04:36:23.557            28.218         14109.000
       246   08 Jun 2027 04:37:34.845   08 Jun 2027 04:37:40.921             6.076          3038.000
       247   08 Jun 2027 05:54:57.540   08 Jun 2027 05:55:30.189            32.649         16324.500
       248   08 Jun 2027 05:56:47.973   08 Jun 2027 05:57:11.450            23.477         11738.500
       249   08 Jun 2027 06:07:12.104   08 Jun 2027 06:07:34.382            22.278         11063.906
       250   08 Jun 2027 07:29:08.796   08 Jun 2027 07:29:22.199            13.403          6414.937
       251   08 Jun 2027 07:30:16.472   08 Jun 2027 07:30:18.105             1.633           816.500
       252   08 Jun 2027 07:30:25.793   08 Jun 2027 07:30:29.111             3.318          1006.812
       253   08 Jun 2027 07:33:13.272   08 Jun 2027 07:33:22.576             9.304          4553.812
       254   08 Jun 2027 07:33:43.545   08 Jun 2027 07:33:48.211             4.666           171.437
       255   08 Jun 2027 09:03:57.237   08 Jun 2027 09:04:06.201             8.964          4315.875
       256   08 Jun 2027 09:05:41.425   08 Jun 2027 09:05:46.138             4.713          1830.906
       257   08 Jun 2027 09:08:17.578   08 Jun 2027 09:08:31.112            13.534          4578.906
       258   08 Jun 2027 09:10:23.005   08 Jun 2027 09:10:29.924             6.919          1566.125
       259   08 Jun 2027 09:11:01.132   08 Jun 2027 09:11:04.520             3.388           913.125
       260   08 Jun 2027 09:12:16.730   08 Jun 2027 09:12:22.286             5.556          1765.531
       261   08 Jun 2027 09:12:34.522   08 Jun 2027 09:12:36.747             2.225           241.312
       262   08 Jun 2027 09:12:37.129   08 Jun 2027 09:12:37.793             0.664            11.938
       263   08 Jun 2027 09:12:48.891   08 Jun 2027 09:12:50.179             1.288           346.813
       264   08 Jun 2027 10:41:45.551   08 Jun 2027 10:41:59.952            14.401          5696.031
       265   08 Jun 2027 10:42:38.586   08 Jun 2027 10:42:39.281             0.695           312.094
       266   08 Jun 2027 10:42:45.178   08 Jun 2027 10:42:47.315             2.137           149.594
       267   08 Jun 2027 10:43:22.985   08 Jun 2027 10:43:24.683             1.698            27.281
       268   08 Jun 2027 10:44:48.737   08 Jun 2027 10:44:48.737             0.000             0.000
       269   08 Jun 2027 10:45:38.884   08 Jun 2027 10:45:47.616             8.732          3907.437
       270   08 Jun 2027 10:47:19.862   08 Jun 2027 10:47:19.862             0.000             0.000
       271   08 Jun 2027 10:47:47.156   08 Jun 2027 10:47:52.975             5.819          2909.500
       272   08 Jun 2027 10:48:25.240   08 Jun 2027 10:48:28.834             3.594          1543.500
       273   09 Jun 2027 03:04:33.356   09 Jun 2027 03:04:56.381            23.025         11512.500
       274   09 Jun 2027 03:04:59.918   09 Jun 2027 03:06:13.665            73.747         36873.500
       275   09 Jun 2027 03:06:34.876   09 Jun 2027 03:07:25.255            50.379         25189.500
       276   09 Jun 2027 03:08:59.436   09 Jun 2027 03:09:01.900             2.464          1232.000
       277   09 Jun 2027 03:09:40.381   09 Jun 2027 03:09:42.187             1.806           903.000
       278   09 Jun 2027 03:10:01.146   09 Jun 2027 03:10:07.400             6.254          3127.000
       279   09 Jun 2027 04:42:56.237   09 Jun 2027 04:44:35.461            99.224         49612.000
       280   09 Jun 2027 04:45:06.420   09 Jun 2027 04:45:08.481             2.061          1030.500
       281   09 Jun 2027 04:45:41.202   09 Jun 2027 04:46:20.531            39.329         19664.500
       282   09 Jun 2027 04:46:44.697   09 Jun 2027 04:46:52.954             8.257          4128.500
       283   09 Jun 2027 04:47:25.178   09 Jun 2027 04:47:30.692             5.514          1174.531
       284   09 Jun 2027 06:06:57.920   09 Jun 2027 06:07:18.354            20.434          9471.813
       285   09 Jun 2027 07:42:55.532   09 Jun 2027 07:43:11.739            16.207          7735.563
       286   09 Jun 2027 07:43:29.826   09 Jun 2027 07:43:32.822             2.996           513.219
       287   09 Jun 2027 07:44:07.383   09 Jun 2027 07:44:10.933             3.550           953.625
       288   09 Jun 2027 07:45:46.154   09 Jun 2027 07:45:54.279             8.125          2699.937
       289   09 Jun 2027 07:46:13.988   09 Jun 2027 07:46:23.886             9.898           507.969
       290   09 Jun 2027 09:16:45.461   09 Jun 2027 09:16:52.746             7.285          3363.469
       291   09 Jun 2027 09:18:08.623   09 Jun 2027 09:18:08.623             0.000             0.000
       292   09 Jun 2027 09:18:30.783   09 Jun 2027 09:18:31.447             0.664           332.000
       293   09 Jun 2027 09:18:39.229   09 Jun 2027 09:18:41.346             2.117          1038.500
       294   09 Jun 2027 09:20:30.597   09 Jun 2027 09:20:38.162             7.565          3250.188
       295   09 Jun 2027 09:21:22.449   09 Jun 2027 09:21:25.554             3.105           839.000
       296   09 Jun 2027 09:22:08.338   09 Jun 2027 09:22:10.904             2.566          1119.781
       297   09 Jun 2027 09:23:10.199   09 Jun 2027 09:23:12.929             2.730           893.000
       298   09 Jun 2027 09:24:15.723   09 Jun 2027 09:24:22.409             6.686          1630.687
       299   09 Jun 2027 10:53:52.079   09 Jun 2027 10:54:06.213            14.134          6977.625
       300   09 Jun 2027 10:58:06.094   09 Jun 2027 10:58:21.809            15.715          6329.094
       301   09 Jun 2027 10:58:38.438   09 Jun 2027 10:58:40.281             1.843            39.219
       302   09 Jun 2027 10:59:14.082   09 Jun 2027 10:59:16.036             1.954           960.219
       303   09 Jun 2027 10:59:25.390   09 Jun 2027 10:59:28.189             2.799           236.719
       304   09 Jun 2027 11:00:25.756   09 Jun 2027 11:00:27.440             1.684           842.000
       305   10 Jun 2027 03:17:10.884   10 Jun 2027 03:17:54.533            43.649         21824.500
       306   10 Jun 2027 03:18:00.543   10 Jun 2027 03:18:11.813            11.270          5635.000
       307   10 Jun 2027 03:18:33.969   10 Jun 2027 03:18:46.916            12.947          6473.500
       308   10 Jun 2027 03:18:48.826   10 Jun 2027 03:20:03.465            74.639         37319.500
       309   10 Jun 2027 03:21:20.431   10 Jun 2027 03:21:48.170            27.739         13869.500
       310   10 Jun 2027 03:22:15.013   10 Jun 2027 03:22:49.319            34.306         17153.000
       311   10 Jun 2027 04:55:30.675   10 Jun 2027 04:56:32.909            62.234         31117.000
       312   10 Jun 2027 04:57:20.522   10 Jun 2027 04:58:10.201            49.679         24839.500
       313   10 Jun 2027 04:58:43.305   10 Jun 2027 04:58:43.305             0.000             0.000
       314   10 Jun 2027 04:58:46.770   10 Jun 2027 04:58:53.046             6.276          2780.750
       315   10 Jun 2027 06:18:52.710   10 Jun 2027 06:19:12.159            19.449          8319.844
       316   10 Jun 2027 06:20:12.894   10 Jun 2027 06:20:17.347             4.453          1573.969
       317   10 Jun 2027 06:21:10.489   10 Jun 2027 06:21:14.273             3.784          1516.719
       318   10 Jun 2027 07:55:16.275   10 Jun 2027 07:55:27.963            11.688          5605.063
       319   10 Jun 2027 07:55:41.509   10 Jun 2027 07:55:43.196             1.687           121.781
       320   10 Jun 2027 07:56:16.347   10 Jun 2027 07:56:24.004             7.657          1035.969
       321   10 Jun 2027 07:57:07.548   10 Jun 2027 07:57:11.652             4.104          1138.406
       322   10 Jun 2027 07:57:48.560   10 Jun 2027 07:57:54.727             6.167           793.344
       323   10 Jun 2027 09:28:44.145   10 Jun 2027 09:28:52.536             8.391          3979.656
       324   10 Jun 2027 09:29:55.239   10 Jun 2027 09:29:58.828             3.589           527.688
       325   10 Jun 2027 09:31:46.442   10 Jun 2027 09:31:53.834             7.392          2074.094
       326   10 Jun 2027 09:35:20.316   10 Jun 2027 09:35:37.165            16.849          6389.000
       327   10 Jun 2027 09:35:47.443   10 Jun 2027 09:35:47.907             0.464           188.406
       328   10 Jun 2027 09:36:37.684   10 Jun 2027 09:36:40.382             2.698          1331.187
       329   10 Jun 2027 09:36:57.943   10 Jun 2027 09:36:58.837             0.894           435.438
       330   10 Jun 2027 09:37:07.278   10 Jun 2027 09:37:08.942             1.664           207.219
       331   10 Jun 2027 11:06:18.102   10 Jun 2027 11:06:32.137            14.035          5889.000
       332   10 Jun 2027 11:07:42.292   10 Jun 2027 11:07:49.530             7.238          1334.531
       333   10 Jun 2027 11:08:36.437   10 Jun 2027 11:08:45.487             9.050          1465.844
       334   10 Jun 2027 11:09:19.252   10 Jun 2027 11:09:25.738             6.486           560.219
       335   10 Jun 2027 11:09:53.376   10 Jun 2027 11:09:57.301             3.925           743.500
       336   10 Jun 2027 11:11:03.002   10 Jun 2027 11:11:10.691             7.689          1996.875
       337   10 Jun 2027 11:11:39.134   10 Jun 2027 11:11:51.728            12.594           853.313
       338   10 Jun 2027 11:12:16.503   10 Jun 2027 11:12:17.919             1.416            72.781
       339   10 Jun 2027 11:12:23.069   10 Jun 2027 11:12:25.493             2.424           160.938
       340   10 Jun 2027 11:12:45.587   10 Jun 2027 11:12:46.016             0.429           214.500
       341   11 Jun 2027 03:29:04.329   11 Jun 2027 03:29:09.578             5.249          2624.500
       342   11 Jun 2027 03:29:34.251   11 Jun 2027 03:30:50.478            76.227         38113.500
       343   11 Jun 2027 03:31:09.143   11 Jun 2027 03:31:58.841            49.698         24849.000
       344   11 Jun 2027 03:32:38.448   11 Jun 2027 03:33:56.011            77.563         38781.500
       345   11 Jun 2027 03:34:33.821   11 Jun 2027 03:34:59.338            25.517         12758.500
       346   11 Jun 2027 03:35:14.859   11 Jun 2027 03:35:20.000             5.141          2570.500
       347   11 Jun 2027 05:07:45.482   11 Jun 2027 05:08:43.391            57.909         28954.500
       348   11 Jun 2027 05:09:05.802   11 Jun 2027 05:09:27.394            21.592          9109.437
       349   11 Jun 2027 05:10:11.188   11 Jun 2027 05:10:14.724             3.536          1368.562
       350   11 Jun 2027 05:11:18.718   11 Jun 2027 05:11:24.859             6.141          1957.844
       351   11 Jun 2027 06:30:40.364   11 Jun 2027 06:30:53.651            13.287          5624.625
       352   11 Jun 2027 06:32:07.094   11 Jun 2027 06:32:11.833             4.739          2295.094
       353   11 Jun 2027 06:33:26.916   11 Jun 2027 06:33:27.114             0.198            99.000
       354   11 Jun 2027 08:07:17.777   11 Jun 2027 08:07:25.520             7.743          3788.875
       355   11 Jun 2027 08:07:56.819   11 Jun 2027 08:07:58.377             1.558           433.000
       356   11 Jun 2027 08:08:05.848   11 Jun 2027 08:08:06.665             0.817           233.469
       357   11 Jun 2027 08:08:48.144   11 Jun 2027 08:08:50.520             2.376          1158.719
       358   11 Jun 2027 08:09:50.727   11 Jun 2027 08:09:59.231             8.504          1640.281
       359   11 Jun 2027 09:42:13.072   11 Jun 2027 09:42:30.807            17.735          5428.031
       360   11 Jun 2027 09:43:32.889   11 Jun 2027 09:43:37.605             4.716           897.844
       361   11 Jun 2027 09:46:14.759   11 Jun 2027 09:46:14.759             0.000             0.000
       362   11 Jun 2027 09:47:42.322   11 Jun 2027 09:47:57.211            14.889          7310.625
       363   11 Jun 2027 09:48:29.136   11 Jun 2027 09:48:32.788             3.652           997.656
       364   11 Jun 2027 09:48:51.094   11 Jun 2027 09:48:52.656             1.562           572.063
       365   11 Jun 2027 09:49:08.696   11 Jun 2027 09:49:10.368             1.672           501.250
       366   11 Jun 2027 11:18:25.767   11 Jun 2027 11:18:42.702            16.935          8133.406
       367   11 Jun 2027 11:18:56.436   11 Jun 2027 11:18:59.309             2.873           429.188
       368   11 Jun 2027 11:20:58.439   11 Jun 2027 11:21:03.859             5.420          2710.000
       369   11 Jun 2027 11:21:11.581   11 Jun 2027 11:21:13.494             1.913           956.125
       370   11 Jun 2027 11:22:39.435   11 Jun 2027 11:22:43.202             3.767          1883.500
       371   11 Jun 2027 11:22:50.071   11 Jun 2027 11:22:53.109             3.038           516.969
       372   11 Jun 2027 11:23:08.792   11 Jun 2027 11:23:12.307             3.515           489.500
       373   11 Jun 2027 11:23:18.333   11 Jun 2027 11:23:19.386             1.053           168.594
       374   11 Jun 2027 11:24:25.584   11 Jun 2027 11:24:32.516             6.932          2018.969
       375   11 Jun 2027 11:24:56.080   11 Jun 2027 11:24:57.299             1.219           483.750
       376   12 Jun 2027 03:41:13.112   12 Jun 2027 03:42:15.258            62.146         31073.000
       377   12 Jun 2027 03:42:22.044   12 Jun 2027 03:43:30.366            68.322         34161.000
       378   12 Jun 2027 03:43:59.794   12 Jun 2027 03:44:46.261            46.467         23233.500
       379   12 Jun 2027 03:44:57.187   12 Jun 2027 03:45:10.952            13.765          6882.500
       380   12 Jun 2027 03:45:57.149   12 Jun 2027 03:46:02.137             4.988          2494.000
       381   12 Jun 2027 03:46:35.384   12 Jun 2027 03:46:52.407            17.023          8511.500
       382   12 Jun 2027 03:47:07.231   12 Jun 2027 03:47:28.350            21.119         10559.500
       383   12 Jun 2027 05:19:31.696   12 Jun 2027 05:20:03.040            31.344         15672.000
       384   12 Jun 2027 05:20:37.405   12 Jun 2027 05:21:18.596            41.191         20371.218
       385   12 Jun 2027 05:22:10.805   12 Jun 2027 05:22:15.817             5.012           917.250
       386   12 Jun 2027 05:22:22.926   12 Jun 2027 05:22:23.499             0.573           168.281
       387   12 Jun 2027 05:22:50.856   12 Jun 2027 05:22:55.041             4.185           458.844
       388   12 Jun 2027 05:23:21.673   12 Jun 2027 05:23:23.251             1.578           578.219
       389   12 Jun 2027 06:42:54.179   12 Jun 2027 06:43:08.469            14.290          6518.031
       390   12 Jun 2027 06:43:48.603   12 Jun 2027 06:43:52.095             3.492           555.625
       391   12 Jun 2027 06:44:54.802   12 Jun 2027 06:44:57.835             3.033          1464.063
       392   12 Jun 2027 06:45:20.880   12 Jun 2027 06:45:23.125             2.245           189.094
       393   12 Jun 2027 06:45:49.041   12 Jun 2027 06:45:52.286             3.245           566.219
       394   12 Jun 2027 08:19:26.089   12 Jun 2027 08:19:37.701            11.612          3825.562
       395   12 Jun 2027 08:20:35.153   12 Jun 2027 08:20:38.655             3.502          1751.000
       396   12 Jun 2027 08:20:49.266   12 Jun 2027 08:20:51.356             2.090           375.969
       397   12 Jun 2027 08:21:52.609   12 Jun 2027 08:22:01.784             9.175          1753.313
       398   12 Jun 2027 08:22:56.048   12 Jun 2027 08:22:59.224             3.176          1588.000
       399   12 Jun 2027 09:54:36.043   12 Jun 2027 09:54:45.660             9.617          3497.813
       400   12 Jun 2027 09:55:04.719   12 Jun 2027 09:55:12.113             7.394           579.500
       401   12 Jun 2027 09:59:42.726   12 Jun 2027 10:00:00.262            17.536          7273.437
       402   12 Jun 2027 10:00:17.058   12 Jun 2027 10:00:20.367             3.309           209.000
       403   12 Jun 2027 10:00:32.966   12 Jun 2027 10:00:33.843             0.877           354.156
       404   12 Jun 2027 10:00:41.123   12 Jun 2027 10:00:48.685             7.562           227.500
       405   12 Jun 2027 10:01:02.293   12 Jun 2027 10:01:04.775             2.482           372.062
       406   12 Jun 2027 11:31:01.478   12 Jun 2027 11:31:16.930            15.452          5714.844
       407   12 Jun 2027 11:32:02.190   12 Jun 2027 11:32:08.593             6.403          1218.500
       408   12 Jun 2027 11:32:26.326   12 Jun 2027 11:32:26.433             0.107            53.500
       409   12 Jun 2027 11:32:41.842   12 Jun 2027 11:32:44.640             2.798           715.594
       410   12 Jun 2027 11:32:55.544   12 Jun 2027 11:32:57.923             2.379           340.750
       411   12 Jun 2027 11:33:07.870   12 Jun 2027 11:33:13.032             5.162           265.281
       412   12 Jun 2027 11:34:38.799   12 Jun 2027 11:34:43.860             5.061          2218.437
       413   12 Jun 2027 11:35:02.017   12 Jun 2027 11:35:06.201             4.184           549.562
       414   12 Jun 2027 11:35:12.167   12 Jun 2027 11:35:19.515             7.348           186.438
       415   12 Jun 2027 11:35:22.635   12 Jun 2027 11:35:23.978             1.343            56.031
       416   13 Jun 2027 03:53:19.340   13 Jun 2027 03:53:21.606             2.266          1133.000
       417   13 Jun 2027 03:54:19.833   13 Jun 2027 03:56:06.641           106.808         53404.000
       418   13 Jun 2027 03:56:59.972   13 Jun 2027 03:58:53.898           113.926         56963.000
       419   13 Jun 2027 04:00:57.120   13 Jun 2027 04:01:11.220            14.100          7050.000
       420   13 Jun 2027 05:31:28.582   13 Jun 2027 05:32:07.603            39.021         19510.500
       421   13 Jun 2027 05:32:29.735   13 Jun 2027 05:32:44.390            14.655          7327.500
       422   13 Jun 2027 05:32:58.803   13 Jun 2027 05:33:01.113             2.310          1155.000
       423   13 Jun 2027 05:33:35.001   13 Jun 2027 05:33:43.401             8.400          4200.000
       424   13 Jun 2027 05:34:19.101   13 Jun 2027 05:34:24.602             5.501          2750.500
       425   13 Jun 2027 05:34:29.023   13 Jun 2027 05:34:37.656             8.633          1981.594
       426   13 Jun 2027 05:35:01.248   13 Jun 2027 05:35:01.481             0.233           116.500
       427   13 Jun 2027 06:55:29.592   13 Jun 2027 06:55:41.871            12.279          5899.937
       428   13 Jun 2027 06:55:51.105   13 Jun 2027 06:55:51.105             0.000             0.000
       429   13 Jun 2027 06:56:03.118   13 Jun 2027 06:56:05.532             2.414           631.625
       430   13 Jun 2027 06:57:28.138   13 Jun 2027 06:57:31.296             3.158          1579.000
       431   13 Jun 2027 06:57:52.177   13 Jun 2027 06:57:56.032             3.855          1562.500
       432   13 Jun 2027 08:31:19.264   13 Jun 2027 08:31:27.723             8.459          3872.625
       433   13 Jun 2027 08:33:08.175   13 Jun 2027 08:33:16.800             8.625          3056.781
       434   13 Jun 2027 08:33:23.766   13 Jun 2027 08:33:24.334             0.568           217.688
       435   13 Jun 2027 10:06:15.286   13 Jun 2027 10:06:30.514            15.228          4989.656
       436   13 Jun 2027 10:07:51.168   13 Jun 2027 10:07:59.083             7.915          2223.156
       437   13 Jun 2027 10:08:58.467   13 Jun 2027 10:09:01.865             3.398          1065.750
       438   13 Jun 2027 10:12:53.642   13 Jun 2027 10:13:07.403            13.761          6778.781
       439   13 Jun 2027 11:42:34.276   13 Jun 2027 11:42:52.192            17.916          7750.625
       440   13 Jun 2027 11:43:03.609   13 Jun 2027 11:43:05.672             2.063           240.844
       441   13 Jun 2027 11:45:21.752   13 Jun 2027 11:45:28.998             7.246          3623.000
       442   13 Jun 2027 11:46:37.266   13 Jun 2027 11:46:42.280             5.014          2300.875
       443   13 Jun 2027 11:46:46.114   13 Jun 2027 11:46:48.293             2.179           119.812
       444   13 Jun 2027 11:47:28.816   13 Jun 2027 11:47:31.149             2.333          1166.500
       445   13 Jun 2027 11:48:22.073   13 Jun 2027 11:48:28.904             6.831          1691.219
