uniorb/output/strategy_2/Camera/Camera_KinoSat_110909.txt

KinoSat_110909
-------------------------
    Access    *     Start Time (UTCG)     *     Stop Time (UTCG)  *   Duration (s) *   Data (Mbytes)
         1   01 Jun 2027 03:05:00.805   01 Jun 2027 03:05:54.974            54.169         27084.500
         2   01 Jun 2027 04:27:02.898   01 Jun 2027 04:28:21.071            78.173         39086.500
         3   01 Jun 2027 04:29:06.108   01 Jun 2027 04:29:35.410            29.302         14651.000
         4   01 Jun 2027 04:29:53.992   01 Jun 2027 04:30:02.398             8.406          4203.000
         5   01 Jun 2027 04:30:14.773   01 Jun 2027 04:30:43.239            28.466         14233.000
         6   01 Jun 2027 04:31:22.771   01 Jun 2027 04:31:22.771             0.000             0.000
         7   01 Jun 2027 04:31:33.704   01 Jun 2027 04:31:33.704             0.000             0.000
         8   01 Jun 2027 04:31:38.672   01 Jun 2027 04:31:42.230             3.558          1779.000
         9   01 Jun 2027 04:32:15.610   01 Jun 2027 04:32:38.210            22.600         11300.000
        10   01 Jun 2027 06:01:56.100   01 Jun 2027 06:03:34.963            98.863         49431.500
        11   01 Jun 2027 06:04:01.692   01 Jun 2027 06:04:03.283             1.591           795.500
        12   01 Jun 2027 06:04:27.521   01 Jun 2027 06:05:15.318            47.797         23898.500
        13   01 Jun 2027 06:05:40.373   01 Jun 2027 06:05:52.721            12.348          6174.000
        14   01 Jun 2027 06:07:18.820   01 Jun 2027 06:07:40.832            22.012         11006.000
        15   01 Jun 2027 06:08:51.840   01 Jun 2027 06:08:51.840             0.000             0.000
        16   01 Jun 2027 06:10:19.687   01 Jun 2027 06:10:34.205            14.518          7259.000
        17   01 Jun 2027 07:39:37.971   01 Jun 2027 07:41:15.511            97.540         48770.000
        18   01 Jun 2027 07:41:37.861   01 Jun 2027 07:41:59.187            21.326         10663.000
        19   01 Jun 2027 07:45:43.349   01 Jun 2027 07:45:43.548             0.199            99.500
        20   01 Jun 2027 07:46:40.625   01 Jun 2027 07:47:04.738            24.113         12056.500
        21   01 Jun 2027 09:16:25.889   01 Jun 2027 09:18:36.818           130.929         65464.500
        22   01 Jun 2027 09:19:23.494   01 Jun 2027 09:19:49.452            25.958         12979.000
        23   01 Jun 2027 10:54:27.492   01 Jun 2027 10:56:32.509           125.017         62508.500
        24   01 Jun 2027 10:57:26.849   01 Jun 2027 10:57:32.453             5.604          2802.000
        25   01 Jun 2027 10:58:19.457   01 Jun 2027 10:58:25.621             6.164          3082.000
        26   02 Jun 2027 03:04:51.997   02 Jun 2027 03:05:00.578             8.581          4290.500
        27   02 Jun 2027 03:05:16.081   02 Jun 2027 03:05:30.345            14.264          7132.000
        28   02 Jun 2027 03:05:38.710   02 Jun 2027 03:05:53.667            14.957          7478.500
        29   02 Jun 2027 03:06:17.498   02 Jun 2027 03:06:38.322            20.824         10412.000
        30   02 Jun 2027 04:38:38.963   02 Jun 2027 04:41:07.965           149.002         74501.000
        31   02 Jun 2027 04:42:13.701   02 Jun 2027 04:43:04.181            50.480         25240.000
        32   02 Jun 2027 04:43:51.365   02 Jun 2027 04:43:53.297             1.932           966.000
        33   02 Jun 2027 06:13:31.316   02 Jun 2027 06:15:27.436           116.120         58060.000
        34   02 Jun 2027 06:15:38.132   02 Jun 2027 06:16:28.071            49.939         24969.500
        35   02 Jun 2027 07:51:41.073   02 Jun 2027 07:53:56.043           134.970         67485.000
        36   02 Jun 2027 07:54:51.726   02 Jun 2027 07:54:54.183             2.457          1228.500
        37   02 Jun 2027 07:55:03.628   02 Jun 2027 07:55:20.895            17.267          8633.500
        38   02 Jun 2027 07:57:09.208   02 Jun 2027 07:57:22.242            13.034          6517.000
        39   02 Jun 2027 07:58:13.906   02 Jun 2027 07:58:21.316             7.410          3705.000
        40   02 Jun 2027 09:28:35.901   02 Jun 2027 09:29:23.515            47.614         23560.625
        41   02 Jun 2027 09:30:19.774   02 Jun 2027 09:30:22.895             3.121          1426.156
        42   02 Jun 2027 09:30:27.245   02 Jun 2027 09:30:31.297             4.052           135.937
        43   02 Jun 2027 09:30:56.438   02 Jun 2027 09:30:57.786             1.348           613.844
        44   02 Jun 2027 09:32:11.065   02 Jun 2027 09:32:14.048             2.983           337.000
        45   02 Jun 2027 09:32:50.975   02 Jun 2027 09:32:54.473             3.498           561.906
        46   02 Jun 2027 09:33:07.809   02 Jun 2027 09:33:09.566             1.757           381.906
        47   02 Jun 2027 09:33:17.391   02 Jun 2027 09:33:17.730             0.339           169.500
        48   02 Jun 2027 09:34:02.971   02 Jun 2027 09:34:05.979             3.008          1488.812
        49   02 Jun 2027 09:34:32.339   02 Jun 2027 09:34:36.565             4.226           823.750
        50   02 Jun 2027 11:05:42.448   02 Jun 2027 11:05:58.360            15.912          7631.969
        51   02 Jun 2027 11:06:46.616   02 Jun 2027 11:06:48.999             2.383           905.719
        52   02 Jun 2027 11:07:35.450   02 Jun 2027 11:07:39.898             4.448          1365.219
        53   02 Jun 2027 11:07:57.734   02 Jun 2027 11:07:58.934             1.200           353.125
        54   02 Jun 2027 11:08:41.429   02 Jun 2027 11:08:41.429             0.000             0.000
        55   02 Jun 2027 11:08:56.457   02 Jun 2027 11:09:00.904             4.447          1482.500
        56   02 Jun 2027 11:09:39.810   02 Jun 2027 11:09:42.607             2.797          1215.812
        57   02 Jun 2027 11:09:55.135   02 Jun 2027 11:09:57.777             2.642           149.438
        58   02 Jun 2027 11:10:05.551   02 Jun 2027 11:10:06.008             0.457           188.437
        59   02 Jun 2027 11:10:25.451   02 Jun 2027 11:10:27.141             1.690           573.344
        60   03 Jun 2027 03:16:46.740   03 Jun 2027 03:17:17.435            30.695         15347.500
        61   03 Jun 2027 03:17:39.541   03 Jun 2027 03:17:54.440            14.899          7449.500
        62   03 Jun 2027 03:18:38.719   03 Jun 2027 03:19:01.845            23.126         11563.000
        63   03 Jun 2027 04:53:05.688   03 Jun 2027 04:56:07.572           181.884         90942.000
        64   03 Jun 2027 06:26:35.030   03 Jun 2027 06:27:39.105            64.075         30510.938
        65   03 Jun 2027 06:29:26.891   03 Jun 2027 06:29:29.299             2.408          1204.000
        66   03 Jun 2027 06:30:25.819   03 Jun 2027 06:30:32.408             6.589          1904.188
        67   03 Jun 2027 06:30:58.451   03 Jun 2027 06:31:00.085             1.634           695.031
        68   03 Jun 2027 06:31:29.164   03 Jun 2027 06:31:32.118             2.954           365.781
        69   03 Jun 2027 06:31:38.491   03 Jun 2027 06:31:39.088             0.597            95.031
        70   03 Jun 2027 06:31:47.663   03 Jun 2027 06:31:48.244             0.581           267.969
        71   03 Jun 2027 06:32:40.431   03 Jun 2027 06:32:40.431             0.000             0.000
        72   03 Jun 2027 06:33:09.702   03 Jun 2027 06:33:14.367             4.665          2332.500
        73   03 Jun 2027 06:33:28.406   03 Jun 2027 06:33:30.280             1.874           582.313
        74   03 Jun 2027 06:34:02.255   03 Jun 2027 06:34:02.255             0.000             0.000
        75   03 Jun 2027 06:34:55.550   03 Jun 2027 06:35:02.546             6.996          2532.594
        76   03 Jun 2027 08:04:07.448   03 Jun 2027 08:04:23.591            16.143          7971.062
        77   03 Jun 2027 08:05:20.565   03 Jun 2027 08:05:23.816             3.251           264.562
        78   03 Jun 2027 08:07:03.311   03 Jun 2027 08:07:08.012             4.701          2314.125
        79   03 Jun 2027 08:07:17.562   03 Jun 2027 08:07:17.790             0.228            99.063
        80   03 Jun 2027 08:07:33.412   03 Jun 2027 08:07:35.397             1.985           259.094
        81   03 Jun 2027 08:07:36.542   03 Jun 2027 08:07:37.430             0.888            35.781
        82   03 Jun 2027 08:08:17.373   03 Jun 2027 08:08:20.624             3.251           592.688
        83   03 Jun 2027 08:09:10.065   03 Jun 2027 08:09:16.022             5.957          1524.969
        84   03 Jun 2027 08:09:38.086   03 Jun 2027 08:09:43.070             4.984           515.125
        85   03 Jun 2027 08:10:11.090   03 Jun 2027 08:10:13.711             2.621            94.375
        86   03 Jun 2027 08:10:38.726   03 Jun 2027 08:10:50.742            12.016           593.937
        87   03 Jun 2027 09:41:02.686   03 Jun 2027 09:41:21.991            19.305          9080.969
        88   03 Jun 2027 09:42:35.681   03 Jun 2027 09:42:36.838             1.157           517.750
        89   03 Jun 2027 09:42:52.713   03 Jun 2027 09:42:53.252             0.539            93.406
        90   03 Jun 2027 09:43:08.493   03 Jun 2027 09:43:09.816             1.323           327.406
        91   03 Jun 2027 09:44:04.326   03 Jun 2027 09:44:08.985             4.659           589.156
        92   03 Jun 2027 09:44:12.031   03 Jun 2027 09:44:14.192             2.161            39.594
        93   03 Jun 2027 09:44:44.095   03 Jun 2027 09:44:46.287             2.192           732.156
        94   03 Jun 2027 09:45:01.862   03 Jun 2027 09:45:05.939             4.077           165.094
        95   03 Jun 2027 09:45:15.145   03 Jun 2027 09:45:17.620             2.475           238.781
        96   03 Jun 2027 09:45:35.303   03 Jun 2027 09:45:35.598             0.295           147.500
        97   03 Jun 2027 09:45:52.275   03 Jun 2027 09:45:59.496             7.221           695.812
        98   03 Jun 2027 09:46:30.549   03 Jun 2027 09:46:34.149             3.600           953.938
        99   03 Jun 2027 09:46:51.063   03 Jun 2027 09:46:51.606             0.543           271.500
       100   03 Jun 2027 11:17:54.212   03 Jun 2027 11:18:15.167            20.955          9084.563
       101   03 Jun 2027 11:18:47.937   03 Jun 2027 11:18:49.992             2.055          1024.062
       102   03 Jun 2027 11:20:37.668   03 Jun 2027 11:20:39.485             1.817           908.500
       103   03 Jun 2027 11:20:56.131   03 Jun 2027 11:21:06.785            10.654          2380.531
       104   03 Jun 2027 11:22:23.752   03 Jun 2027 11:22:26.832             3.080          1540.000
       105   04 Jun 2027 03:28:38.421   04 Jun 2027 03:28:55.274            16.853          8426.500
       106   04 Jun 2027 03:29:13.140   04 Jun 2027 03:30:05.504            52.364         26182.000
       107   04 Jun 2027 05:05:06.833   04 Jun 2027 05:05:54.233            47.400         23700.000
       108   04 Jun 2027 05:06:21.643   04 Jun 2027 05:07:08.646            47.003         23501.500
       109   04 Jun 2027 05:07:40.815   04 Jun 2027 05:08:39.581            58.766         29383.000
       110   04 Jun 2027 06:39:14.529   04 Jun 2027 06:40:40.155            85.626         42255.344
       111   04 Jun 2027 06:41:12.667   04 Jun 2027 06:41:14.527             1.860           371.937
       112   04 Jun 2027 06:42:02.091   04 Jun 2027 06:42:02.959             0.868           434.000
       113   04 Jun 2027 06:42:31.034   04 Jun 2027 06:42:35.147             4.113          1489.187
       114   04 Jun 2027 06:42:40.746   04 Jun 2027 06:42:42.917             2.171           174.969
       115   04 Jun 2027 06:43:03.723   04 Jun 2027 06:43:05.394             1.671           650.188
       116   04 Jun 2027 06:43:31.860   04 Jun 2027 06:43:33.636             1.776           505.187
       117   04 Jun 2027 06:44:14.987   04 Jun 2027 06:44:17.723             2.736          1292.219
       118   04 Jun 2027 06:45:15.205   04 Jun 2027 06:45:18.103             2.898          1370.750
       119   04 Jun 2027 06:45:55.931   04 Jun 2027 06:45:57.428             1.497           748.500
       120   04 Jun 2027 06:46:29.620   04 Jun 2027 06:46:32.841             3.221          1424.656
       121   04 Jun 2027 08:16:13.119   04 Jun 2027 08:16:27.131            14.012          6968.719
       122   04 Jun 2027 08:17:36.387   04 Jun 2027 08:17:40.737             4.350          1560.375
       123   04 Jun 2027 08:18:32.491   04 Jun 2027 08:18:35.727             3.236          1572.281
       124   04 Jun 2027 08:18:45.634   04 Jun 2027 08:18:51.893             6.259            75.438
       125   04 Jun 2027 08:19:17.091   04 Jun 2027 08:19:21.540             4.449           610.469
       126   04 Jun 2027 08:19:53.824   04 Jun 2027 08:19:55.517             1.693           709.219
       127   04 Jun 2027 08:21:11.538   04 Jun 2027 08:21:17.936             6.398          1195.844
       128   04 Jun 2027 08:22:16.771   04 Jun 2027 08:22:21.622             4.851          1793.031
       129   04 Jun 2027 08:22:37.563   04 Jun 2027 08:22:38.511             0.948           450.500
       130   04 Jun 2027 09:53:49.359   04 Jun 2027 09:54:09.127            19.768          8726.812
       131   04 Jun 2027 09:54:57.643   04 Jun 2027 09:55:01.301             3.658          1211.719
       132   04 Jun 2027 09:55:59.784   04 Jun 2027 09:56:01.043             1.259           629.500
       133   04 Jun 2027 09:56:29.782   04 Jun 2027 09:56:34.312             4.530          2096.187
       134   04 Jun 2027 09:56:59.408   04 Jun 2027 09:57:02.266             2.858           748.063
       135   04 Jun 2027 09:57:30.313   04 Jun 2027 09:57:37.636             7.323           515.281
       136   04 Jun 2027 09:57:50.105   04 Jun 2027 09:57:53.666             3.561           246.031
       137   04 Jun 2027 09:58:08.027   04 Jun 2027 09:58:10.651             2.624           407.813
       138   04 Jun 2027 09:58:17.272   04 Jun 2027 09:58:20.554             3.282            46.000
       139   04 Jun 2027 11:29:58.063   04 Jun 2027 11:30:13.240            15.177          6286.281
       140   04 Jun 2027 11:30:49.390   04 Jun 2027 11:30:50.898             1.508           754.000
       141   04 Jun 2027 11:31:24.497   04 Jun 2027 11:31:28.792             4.295          1425.656
       142   04 Jun 2027 11:32:10.956   04 Jun 2027 11:32:17.103             6.147          1317.625
       143   04 Jun 2027 11:32:44.971   04 Jun 2027 11:32:47.987             3.016           628.875
       144   04 Jun 2027 11:33:57.436   04 Jun 2027 11:34:02.100             4.664          1036.000
       145   05 Jun 2027 03:40:46.999   05 Jun 2027 03:41:51.868            64.869         32434.500
       146   05 Jun 2027 03:41:56.650   05 Jun 2027 03:42:01.761             5.111          2555.500
       147   05 Jun 2027 03:42:25.740   05 Jun 2027 03:42:30.263             4.523          2261.500
       148   05 Jun 2027 05:17:17.242   05 Jun 2027 05:20:13.712           176.470         88235.000
       149   05 Jun 2027 06:52:27.439   05 Jun 2027 06:53:29.535            62.096         30838.125
       150   05 Jun 2027 06:53:42.849   05 Jun 2027 06:53:42.849             0.000             0.000
       151   05 Jun 2027 06:54:10.426   05 Jun 2027 06:54:13.329             2.903          1262.000
       152   05 Jun 2027 06:55:13.025   05 Jun 2027 06:55:17.612             4.587          1535.281
       153   05 Jun 2027 06:55:23.816   05 Jun 2027 06:55:24.376             0.560           181.344
       154   05 Jun 2027 06:55:33.834   05 Jun 2027 06:55:34.377             0.543           271.500
       155   05 Jun 2027 06:55:56.945   05 Jun 2027 06:55:59.709             2.764           729.312
       156   05 Jun 2027 06:57:15.602   05 Jun 2027 06:57:26.347            10.745          2322.625
       157   05 Jun 2027 06:58:30.222   05 Jun 2027 06:58:32.769             2.547          1273.500
       158   05 Jun 2027 08:28:48.996   05 Jun 2027 08:29:07.085            18.089          8721.782
       159   05 Jun 2027 08:29:36.268   05 Jun 2027 08:29:40.321             4.053           642.469
       160   05 Jun 2027 08:30:05.097   05 Jun 2027 08:30:07.298             2.201           336.625
       161   05 Jun 2027 08:30:27.810   05 Jun 2027 08:30:29.362             1.552            74.656
       162   05 Jun 2027 08:30:42.430   05 Jun 2027 08:30:43.413             0.983           266.469
       163   05 Jun 2027 08:32:00.807   05 Jun 2027 08:32:03.920             3.113          1499.094
       164   05 Jun 2027 08:32:07.224   05 Jun 2027 08:32:07.511             0.287            77.687
       165   05 Jun 2027 08:32:29.336   05 Jun 2027 08:32:30.385             1.049           365.813
       166   05 Jun 2027 08:33:26.463   05 Jun 2027 08:33:35.156             8.693          1009.531
       167   05 Jun 2027 08:33:48.564   05 Jun 2027 08:33:57.296             8.732           419.000
       168   05 Jun 2027 08:34:01.672   05 Jun 2027 08:34:02.875             1.203           136.750
       169   05 Jun 2027 08:34:25.596   05 Jun 2027 08:34:25.596             0.000             0.000
       170   05 Jun 2027 08:34:58.725   05 Jun 2027 08:35:02.860             4.135          1443.250
       171   05 Jun 2027 10:06:07.645   05 Jun 2027 10:06:24.471            16.826          8413.000
       172   05 Jun 2027 10:07:03.534   05 Jun 2027 10:07:12.677             9.143          1448.187
       173   05 Jun 2027 10:07:56.501   05 Jun 2027 10:08:01.531             5.030          1170.062
       174   05 Jun 2027 10:08:35.198   05 Jun 2027 10:08:39.179             3.981           706.594
       175   05 Jun 2027 10:09:08.756   05 Jun 2027 10:09:10.379             1.623           811.500
       176   05 Jun 2027 10:09:32.891   05 Jun 2027 10:09:34.908             2.017           816.281
       177   05 Jun 2027 10:09:56.068   05 Jun 2027 10:09:58.828             2.760           557.969
       178   05 Jun 2027 10:10:21.400   05 Jun 2027 10:10:23.535             2.135           627.812
       179   05 Jun 2027 10:10:29.053   05 Jun 2027 10:10:29.053             0.000             0.000
       180   05 Jun 2027 10:10:33.698   05 Jun 2027 10:10:36.585             2.887           317.594
       181   05 Jun 2027 10:10:39.205   05 Jun 2027 10:10:42.663             3.458            81.875
       182   05 Jun 2027 11:42:19.402   05 Jun 2027 11:42:36.583            17.181          7018.469
       183   05 Jun 2027 11:42:48.859   05 Jun 2027 11:42:50.935             2.076           383.625
       184   05 Jun 2027 11:43:07.364   05 Jun 2027 11:43:07.364             0.000             0.000
       185   05 Jun 2027 11:43:31.662   05 Jun 2027 11:43:33.595             1.933           966.500
       186   05 Jun 2027 11:43:59.194   05 Jun 2027 11:44:03.549             4.355          1106.187
       187   05 Jun 2027 11:44:08.753   05 Jun 2027 11:44:10.744             1.991           162.625
       188   05 Jun 2027 11:44:53.261   05 Jun 2027 11:44:56.454             3.193          1328.656
       189   05 Jun 2027 11:46:08.708   05 Jun 2027 11:46:17.444             8.736          2257.937
       190   05 Jun 2027 11:46:42.753   05 Jun 2027 11:46:45.670             2.917           659.187
       191   06 Jun 2027 03:53:26.944   06 Jun 2027 03:54:19.759            52.815         26407.500
       192   06 Jun 2027 03:55:54.614   06 Jun 2027 03:55:58.589             3.975          1987.500
       193   06 Jun 2027 05:29:12.668   06 Jun 2027 05:31:21.361           128.693         64346.500
       194   06 Jun 2027 05:32:29.118   06 Jun 2027 05:32:48.781            19.663          9831.500
       195   06 Jun 2027 07:04:10.440   06 Jun 2027 07:05:56.972           106.532         52259.813
       196   06 Jun 2027 07:06:15.933   06 Jun 2027 07:06:18.562             2.629            98.031
       197   06 Jun 2027 07:06:34.143   06 Jun 2027 07:06:34.961             0.818           393.219
       198   06 Jun 2027 07:06:40.139   06 Jun 2027 07:06:41.736             1.597           108.906
       199   06 Jun 2027 07:06:55.255   06 Jun 2027 07:06:56.296             1.041           422.469
       200   06 Jun 2027 07:07:20.565   06 Jun 2027 07:07:21.994             1.429           714.500
       201   06 Jun 2027 07:07:27.933   06 Jun 2027 07:07:28.638             0.705           208.468
       202   06 Jun 2027 07:07:48.146   06 Jun 2027 07:07:49.897             1.751           386.719
       203   06 Jun 2027 07:08:42.329   06 Jun 2027 07:08:46.601             4.272          1492.250
       204   06 Jun 2027 07:09:45.861   06 Jun 2027 07:09:52.600             6.739          1769.719
       205   06 Jun 2027 07:10:31.815   06 Jun 2027 07:10:32.947             1.132           566.000
       206   06 Jun 2027 08:40:22.464   06 Jun 2027 08:40:46.249            23.785         11812.625
       207   06 Jun 2027 08:41:01.806   06 Jun 2027 08:41:05.135             3.329           448.469
       208   06 Jun 2027 08:42:14.711   06 Jun 2027 08:42:22.002             7.291          1369.844
       209   06 Jun 2027 08:42:58.049   06 Jun 2027 08:43:00.845             2.796           612.531
       210   06 Jun 2027 08:43:34.953   06 Jun 2027 08:43:40.702             5.749           634.031
       211   06 Jun 2027 08:43:55.034   06 Jun 2027 08:43:56.733             1.699           199.406
       212   06 Jun 2027 08:44:30.502   06 Jun 2027 08:44:34.647             4.145          1055.281
       213   06 Jun 2027 08:45:09.606   06 Jun 2027 08:45:17.269             7.663           601.906
       214   06 Jun 2027 08:45:33.530   06 Jun 2027 08:45:36.995             3.465           502.469
       215   06 Jun 2027 08:45:56.717   06 Jun 2027 08:46:06.846            10.129           616.312
       216   06 Jun 2027 08:46:27.214   06 Jun 2027 08:46:27.214             0.000             0.000
       217   06 Jun 2027 10:18:22.722   06 Jun 2027 10:18:40.134            17.412          7118.437
       218   06 Jun 2027 10:18:57.868   06 Jun 2027 10:18:57.868             0.000             0.000
       219   06 Jun 2027 10:19:26.166   06 Jun 2027 10:19:29.695             3.529          1156.094
       220   06 Jun 2027 10:20:32.516   06 Jun 2027 10:20:36.793             4.277          1582.375
       221   06 Jun 2027 10:20:58.161   06 Jun 2027 10:21:01.278             3.117           617.250
       222   06 Jun 2027 10:21:39.641   06 Jun 2027 10:21:43.502             3.861           951.031
       223   06 Jun 2027 10:22:04.892   06 Jun 2027 10:22:07.830             2.938           539.000
       224   06 Jun 2027 11:54:03.897   06 Jun 2027 11:54:18.883            14.986          6332.813
       225   06 Jun 2027 11:54:52.556   06 Jun 2027 11:54:52.779             0.223           111.500
       226   06 Jun 2027 11:55:33.344   06 Jun 2027 11:55:43.086             9.742          1634.938
       227   06 Jun 2027 11:55:43.921   06 Jun 2027 11:55:44.669             0.748            26.094
       228   06 Jun 2027 11:55:59.250   06 Jun 2027 11:56:05.082             5.832           188.188
       229   06 Jun 2027 11:56:18.022   06 Jun 2027 11:56:18.893             0.871           304.750
       230   06 Jun 2027 11:57:16.187   06 Jun 2027 11:57:19.924             3.737          1790.437
       231   06 Jun 2027 11:57:56.940   06 Jun 2027 11:58:00.995             4.055           536.313
       232   06 Jun 2027 11:58:36.793   06 Jun 2027 11:58:40.071             3.278          1118.687
       233   06 Jun 2027 11:59:11.293   06 Jun 2027 11:59:11.558             0.265           132.500
       234   07 Jun 2027 04:04:16.733   07 Jun 2027 04:05:59.466           102.733         51366.500
       235   07 Jun 2027 05:39:48.734   07 Jun 2027 05:39:54.606             5.872          2936.000
       236   07 Jun 2027 05:40:58.244   07 Jun 2027 05:42:53.042           114.798         57399.000
       237   07 Jun 2027 05:44:06.475   07 Jun 2027 05:45:00.653            54.178         27089.000
       238   07 Jun 2027 07:15:44.210   07 Jun 2027 07:16:36.691            52.481         26016.844
       239   07 Jun 2027 07:17:49.367   07 Jun 2027 07:17:52.624             3.257           551.156
       240   07 Jun 2027 07:19:02.940   07 Jun 2027 07:19:07.472             4.532          1600.531
       241   07 Jun 2027 07:20:23.515   07 Jun 2027 07:20:27.217             3.702          1631.938
       242   07 Jun 2027 07:20:56.831   07 Jun 2027 07:20:58.432             1.601           155.188
       243   07 Jun 2027 07:21:58.156   07 Jun 2027 07:21:59.225             1.069           534.500
       244   07 Jun 2027 07:23:13.095   07 Jun 2027 07:23:17.142             4.047          2023.500
       245   07 Jun 2027 08:52:43.524   07 Jun 2027 08:53:07.219            23.695         10464.219
       246   07 Jun 2027 08:53:47.581   07 Jun 2027 08:53:50.566             2.985           676.250
       247   07 Jun 2027 08:54:10.347   07 Jun 2027 08:54:11.582             1.235           258.500
       248   07 Jun 2027 08:55:15.392   07 Jun 2027 08:55:17.150             1.758           810.438
       249   07 Jun 2027 08:56:16.894   07 Jun 2027 08:56:20.774             3.880          1866.844
       250   07 Jun 2027 08:57:03.351   07 Jun 2027 08:57:08.715             5.364          1330.531
       251   07 Jun 2027 08:57:39.865   07 Jun 2027 08:57:45.122             5.257           897.500
       252   07 Jun 2027 08:58:40.284   07 Jun 2027 08:58:42.867             2.583          1243.063
       253   07 Jun 2027 10:30:44.520   07 Jun 2027 10:31:00.279            15.759          7786.500
       254   07 Jun 2027 10:31:52.853   07 Jun 2027 10:31:56.315             3.462          1642.938
       255   07 Jun 2027 10:32:16.521   07 Jun 2027 10:32:17.365             0.844           372.156
       256   07 Jun 2027 10:32:24.443   07 Jun 2027 10:32:25.041             0.598           116.156
       257   07 Jun 2027 10:32:46.346   07 Jun 2027 10:32:50.756             4.410           665.781
       258   07 Jun 2027 10:32:57.743   07 Jun 2027 10:32:58.990             1.247           161.531
       259   07 Jun 2027 10:34:21.659   07 Jun 2027 10:34:25.592             3.933          1966.500
       260   07 Jun 2027 10:34:37.025   07 Jun 2027 10:34:39.791             2.766           930.594
       261   08 Jun 2027 04:15:32.903   08 Jun 2027 04:16:47.627            74.724         37362.000
       262   08 Jun 2027 04:17:32.540   08 Jun 2027 04:17:55.893            23.353         11676.500
       263   08 Jun 2027 04:18:07.463   08 Jun 2027 04:18:18.645            11.182          5591.000
       264   08 Jun 2027 04:20:07.164   08 Jun 2027 04:20:07.164             0.000             0.000
       265   08 Jun 2027 04:20:15.351   08 Jun 2027 04:20:15.676             0.325           162.500
       266   08 Jun 2027 05:50:41.580   08 Jun 2027 05:52:08.655            87.075         43537.500
       267   08 Jun 2027 05:52:41.779   08 Jun 2027 05:52:41.893             0.114            57.000
       268   08 Jun 2027 05:52:47.018   08 Jun 2027 05:53:21.702            34.684         17342.000
       269   08 Jun 2027 05:53:54.141   08 Jun 2027 05:54:08.179            14.038          7019.000
       270   08 Jun 2027 05:55:47.022   08 Jun 2027 05:56:28.904            41.882         20941.000
       271   08 Jun 2027 05:56:35.542   08 Jun 2027 05:56:44.973             9.431          4715.500
       272   08 Jun 2027 05:57:16.887   08 Jun 2027 05:57:16.887             0.000             0.000
       273   08 Jun 2027 07:27:51.704   08 Jun 2027 07:28:30.807            39.103         18687.125
       274   08 Jun 2027 07:28:57.682   08 Jun 2027 07:29:00.632             2.950           734.375
       275   08 Jun 2027 07:29:24.608   08 Jun 2027 07:29:25.814             1.206           568.656
       276   08 Jun 2027 07:30:18.394   08 Jun 2027 07:30:22.105             3.711           900.500
       277   08 Jun 2027 07:30:57.168   08 Jun 2027 07:30:58.411             1.243           371.156
       278   08 Jun 2027 07:32:14.680   08 Jun 2027 07:32:18.863             4.183          2073.625
       279   08 Jun 2027 07:32:35.157   08 Jun 2027 07:32:35.611             0.454           129.875
       280   08 Jun 2027 07:33:30.958   08 Jun 2027 07:33:38.059             7.101          1729.594
       281   08 Jun 2027 07:33:43.545   08 Jun 2027 07:33:48.211             4.666           171.437
       282   08 Jun 2027 07:35:16.326   08 Jun 2027 07:35:17.773             1.447           723.500
       283   08 Jun 2027 09:04:49.110   08 Jun 2027 09:05:12.953            23.843         11473.313
       284   08 Jun 2027 09:06:21.655   08 Jun 2027 09:06:25.701             4.046           730.563
       285   08 Jun 2027 09:07:15.187   08 Jun 2027 09:07:16.259             1.072           508.156
       286   08 Jun 2027 09:08:22.473   08 Jun 2027 09:08:26.644             4.171          2039.813
       287   08 Jun 2027 09:08:45.401   08 Jun 2027 09:08:47.584             2.183           586.156
       288   08 Jun 2027 09:09:06.797   08 Jun 2027 09:09:17.230            10.433           462.719
       289   08 Jun 2027 09:09:58.370   08 Jun 2027 09:10:01.647             3.277           742.844
       290   08 Jun 2027 09:10:29.924   08 Jun 2027 09:10:30.591             0.667           333.500
       291   08 Jun 2027 09:10:41.273   08 Jun 2027 09:10:44.768             3.495           685.313
       292   08 Jun 2027 09:10:51.738   08 Jun 2027 09:10:57.208             5.470           217.813
       293   08 Jun 2027 10:42:42.161   08 Jun 2027 10:42:58.622            16.461          8208.219
       294   08 Jun 2027 10:44:18.555   08 Jun 2027 10:44:24.335             5.780          2497.906
       295   08 Jun 2027 10:44:35.031   08 Jun 2027 10:44:36.450             1.419           334.250
       296   08 Jun 2027 10:45:00.459   08 Jun 2027 10:45:08.054             7.595           750.281
       297   08 Jun 2027 10:45:19.737   08 Jun 2027 10:45:21.008             1.271           324.469
       298   08 Jun 2027 10:46:18.870   08 Jun 2027 10:46:23.498             4.628          1692.875
       299   08 Jun 2027 10:46:28.621   08 Jun 2027 10:46:29.788             1.167           160.094
       300   08 Jun 2027 10:46:36.959   08 Jun 2027 10:46:38.677             1.718           224.094
       301   09 Jun 2027 03:05:15.841   09 Jun 2027 03:06:09.238            53.397         26698.500
       302   09 Jun 2027 04:27:17.916   09 Jun 2027 04:28:36.332            78.416         39208.000
       303   09 Jun 2027 04:29:20.851   09 Jun 2027 04:30:17.190            56.339         28169.500
       304   09 Jun 2027 04:30:59.010   09 Jun 2027 04:31:11.375            12.365          6182.500
       305   09 Jun 2027 04:31:51.913   09 Jun 2027 04:31:57.440             5.527          2763.500
       306   09 Jun 2027 04:32:38.972   09 Jun 2027 04:32:53.376            14.404          7202.000
       307   09 Jun 2027 06:02:10.409   09 Jun 2027 06:03:40.444            90.035         44710.844
       308   09 Jun 2027 06:05:24.457   09 Jun 2027 06:05:30.306             5.849          2924.500
       309   09 Jun 2027 06:05:55.020   09 Jun 2027 06:05:56.070             1.050           525.000
       310   09 Jun 2027 06:07:29.197   09 Jun 2027 06:07:30.686             1.489           744.500
       311   09 Jun 2027 06:08:22.429   09 Jun 2027 06:08:31.419             8.990          4355.906
       312   09 Jun 2027 06:09:05.867   09 Jun 2027 06:09:08.883             3.016           889.094
       313   09 Jun 2027 06:11:00.128   09 Jun 2027 06:11:08.838             8.710          3476.406
       314   09 Jun 2027 07:39:53.045   09 Jun 2027 07:40:12.757            19.712          9742.656
       315   09 Jun 2027 07:41:39.285   09 Jun 2027 07:41:47.489             8.204           896.000
       316   09 Jun 2027 07:42:15.256   09 Jun 2027 07:42:16.696             1.440           615.562
       317   09 Jun 2027 07:43:28.021   09 Jun 2027 07:43:29.670             1.649           508.813
       318   09 Jun 2027 07:43:42.082   09 Jun 2027 07:43:45.722             3.640           383.000
       319   09 Jun 2027 07:44:06.352   09 Jun 2027 07:44:07.383             1.031           101.312
       320   09 Jun 2027 07:44:24.417   09 Jun 2027 07:44:27.510             3.093           397.063
       321   09 Jun 2027 07:44:47.128   09 Jun 2027 07:44:50.192             3.064           366.562
       322   09 Jun 2027 07:45:01.785   09 Jun 2027 07:45:03.855             2.070           291.219
       323   09 Jun 2027 07:45:22.783   09 Jun 2027 07:45:26.728             3.945           519.969
       324   09 Jun 2027 07:45:46.036   09 Jun 2027 07:45:54.279             8.243           401.719
       325   09 Jun 2027 07:45:58.241   09 Jun 2027 07:46:03.767             5.526            89.656
       326   09 Jun 2027 07:46:39.456   09 Jun 2027 07:46:44.708             5.252          1087.156
       327   09 Jun 2027 07:46:48.239   09 Jun 2027 07:46:50.494             2.255            91.406
       328   09 Jun 2027 09:16:41.231   09 Jun 2027 09:17:00.704            19.473          9736.500
       329   09 Jun 2027 09:17:02.920   09 Jun 2027 09:17:10.076             7.156          1847.937
       330   09 Jun 2027 09:17:37.264   09 Jun 2027 09:17:45.319             8.055           603.313
       331   09 Jun 2027 09:17:54.473   09 Jun 2027 09:17:55.618             1.145           174.938
       332   09 Jun 2027 09:18:49.153   09 Jun 2027 09:18:55.933             6.780           611.969
       333   09 Jun 2027 09:19:36.799   09 Jun 2027 09:19:39.558             2.759           713.906
       334   09 Jun 2027 09:20:21.395   09 Jun 2027 09:20:23.604             2.209           470.406
       335   09 Jun 2027 09:20:35.987   09 Jun 2027 09:20:38.162             2.175           258.313
       336   09 Jun 2027 09:20:40.452   09 Jun 2027 09:20:40.706             0.254            71.562
       337   09 Jun 2027 09:20:48.741   09 Jun 2027 09:20:49.457             0.716           145.000
       338   09 Jun 2027 09:21:32.505   09 Jun 2027 09:21:37.750             5.245          1316.750
       339   09 Jun 2027 09:21:42.932   09 Jun 2027 09:21:44.234             1.302           161.938
       340   09 Jun 2027 09:22:17.349   09 Jun 2027 09:22:21.350             4.001          1034.844
       341   09 Jun 2027 09:22:46.697   09 Jun 2027 09:22:49.253             2.556           792.094
       342   09 Jun 2027 10:54:42.910   09 Jun 2027 10:54:57.449            14.539          6522.281
       343   09 Jun 2027 10:55:55.402   09 Jun 2027 10:55:58.142             2.740          1370.000
       344   09 Jun 2027 10:56:24.014   09 Jun 2027 10:56:24.296             0.282           141.000
       345   09 Jun 2027 10:57:03.032   09 Jun 2027 10:57:12.236             9.204          2233.719
       346   09 Jun 2027 10:57:51.479   09 Jun 2027 10:57:56.828             5.349          1143.969
       347   09 Jun 2027 10:58:37.183   09 Jun 2027 10:58:40.281             3.098          1261.094
       348   09 Jun 2027 10:58:43.355   09 Jun 2027 10:58:43.991             0.636            96.063
       349   10 Jun 2027 03:05:06.918   10 Jun 2027 03:05:44.844            37.926         18963.000
       350   10 Jun 2027 03:05:56.663   10 Jun 2027 03:06:09.694            13.031          6515.500
       351   10 Jun 2027 03:06:51.708   10 Jun 2027 03:06:52.907             1.199           599.500
       352   10 Jun 2027 04:38:53.360   10 Jun 2027 04:41:49.524           176.164         88082.000
       353   10 Jun 2027 04:41:51.537   10 Jun 2027 04:42:04.170            12.633          6316.500
       354   10 Jun 2027 04:44:30.864   10 Jun 2027 04:44:36.429             5.565          2782.500
       355   10 Jun 2027 06:14:53.843   10 Jun 2027 06:16:07.240            73.397         34841.313
       356   10 Jun 2027 06:17:01.029   10 Jun 2027 06:17:04.987             3.958           504.625
       357   10 Jun 2027 06:17:40.978   10 Jun 2027 06:17:42.370             1.392           696.000
       358   10 Jun 2027 06:19:33.636   10 Jun 2027 06:19:43.098             9.462          3713.968
       359   10 Jun 2027 06:21:23.208   10 Jun 2027 06:21:28.694             5.486          2743.000
       360   10 Jun 2027 06:21:42.601   10 Jun 2027 06:21:46.696             4.095           820.031
       361   10 Jun 2027 06:22:44.803   10 Jun 2027 06:22:49.087             4.284          1139.063
       362   10 Jun 2027 06:22:58.097   10 Jun 2027 06:22:58.097             0.000             0.000
       363   10 Jun 2027 06:23:18.240   10 Jun 2027 06:23:20.879             2.639           911.031
       364   10 Jun 2027 07:51:56.373   10 Jun 2027 07:52:10.031            13.658          6820.875
       365   10 Jun 2027 07:53:30.341   10 Jun 2027 07:53:36.857             6.516          1666.875
       366   10 Jun 2027 07:55:37.612   10 Jun 2027 07:55:41.509             3.897          1939.844
       367   10 Jun 2027 07:55:43.196   10 Jun 2027 07:55:46.695             3.499            52.719
       368   10 Jun 2027 07:56:10.147   10 Jun 2027 07:56:14.306             4.159            78.719
       369   10 Jun 2027 07:56:51.578   10 Jun 2027 07:56:52.680             1.102           551.000
       370   10 Jun 2027 07:57:00.425   10 Jun 2027 07:57:01.284             0.859           265.687
       371   10 Jun 2027 07:57:23.173   10 Jun 2027 07:57:28.422             5.249           488.281
       372   10 Jun 2027 07:57:47.562   10 Jun 2027 07:57:48.560             0.998           335.969
       373   10 Jun 2027 07:58:28.856   10 Jun 2027 07:58:28.856             0.000             0.000
       374   10 Jun 2027 07:58:36.188   10 Jun 2027 07:58:39.138             2.950          1282.250
       375   10 Jun 2027 09:28:51.138   10 Jun 2027 09:29:14.176            23.038          9273.969
       376   10 Jun 2027 09:29:48.687   10 Jun 2027 09:29:50.362             1.675           203.625
       377   10 Jun 2027 09:30:39.184   10 Jun 2027 09:30:42.282             3.098           540.687
       378   10 Jun 2027 09:31:14.304   10 Jun 2027 09:31:15.091             0.787            86.031
       379   10 Jun 2027 09:31:46.908   10 Jun 2027 09:31:53.834             6.926           470.594
       380   10 Jun 2027 09:32:06.153   10 Jun 2027 09:32:12.078             5.925           384.969
       381   10 Jun 2027 09:32:51.595   10 Jun 2027 09:32:54.051             2.456          1065.219
       382   10 Jun 2027 09:33:28.899   10 Jun 2027 09:33:31.792             2.893          1015.906
       383   10 Jun 2027 09:33:32.521   10 Jun 2027 09:33:33.246             0.725            22.781
       384   10 Jun 2027 09:34:32.937   10 Jun 2027 09:34:33.953             1.016           508.000
       385   10 Jun 2027 09:34:43.758   10 Jun 2027 09:34:47.201             3.443          1663.750
       386   10 Jun 2027 11:05:57.411   10 Jun 2027 11:06:14.192            16.781          7061.437
       387   10 Jun 2027 11:06:18.644   10 Jun 2027 11:06:20.280             1.636           139.125
       388   10 Jun 2027 11:06:32.137   10 Jun 2027 11:06:33.245             1.108           223.406
       389   10 Jun 2027 11:07:01.352   10 Jun 2027 11:07:05.443             4.091           878.344
       390   10 Jun 2027 11:07:23.582   10 Jun 2027 11:07:25.062             1.480           495.000
       391   10 Jun 2027 11:08:01.138   10 Jun 2027 11:08:03.655             2.517           576.844
       392   10 Jun 2027 11:08:14.209   10 Jun 2027 11:08:14.714             0.505            51.344
       393   10 Jun 2027 11:08:57.454   10 Jun 2027 11:09:01.325             3.871          1044.562
       394   10 Jun 2027 11:10:14.924   10 Jun 2027 11:10:20.889             5.965          1990.125
       395   11 Jun 2027 03:17:01.651   11 Jun 2027 03:17:18.937            17.286          8643.000
       396   11 Jun 2027 03:18:10.476   11 Jun 2027 03:18:47.944            37.468         18734.000
       397   11 Jun 2027 04:53:21.002   11 Jun 2027 04:56:49.562           208.560        104280.000
       398   11 Jun 2027 06:26:50.310   11 Jun 2027 06:27:41.682            51.372         25287.969
       399   11 Jun 2027 06:27:58.351   11 Jun 2027 06:27:59.567             1.216           468.094
       400   11 Jun 2027 06:29:11.634   11 Jun 2027 06:29:12.911             1.277           366.531
       401   11 Jun 2027 06:29:35.907   11 Jun 2027 06:29:41.637             5.730           576.594
       402   11 Jun 2027 06:31:32.613   11 Jun 2027 06:31:36.834             4.221          2110.500
       403   11 Jun 2027 06:31:45.920   11 Jun 2027 06:31:49.693             3.773          1600.156
       404   11 Jun 2027 06:32:58.832   11 Jun 2027 06:32:58.832             0.000             0.000
       405   11 Jun 2027 06:33:07.695   11 Jun 2027 06:33:12.662             4.967          1906.344
       406   11 Jun 2027 06:34:13.547   11 Jun 2027 06:34:18.051             4.504          1457.219
       407   11 Jun 2027 06:35:11.508   11 Jun 2027 06:35:15.020             3.512          1670.531
       408   11 Jun 2027 08:04:22.393   11 Jun 2027 08:04:47.655            25.262          8349.719
       409   11 Jun 2027 08:07:21.405   11 Jun 2027 08:07:25.520             4.115          1934.375
       410   11 Jun 2027 08:07:48.191   11 Jun 2027 08:07:50.883             2.692           266.063
       411   11 Jun 2027 08:08:06.665   11 Jun 2027 08:08:09.486             2.821           493.187
       412   11 Jun 2027 08:08:36.653   11 Jun 2027 08:08:39.937             3.284           429.656
       413   11 Jun 2027 08:09:09.227   11 Jun 2027 08:09:10.003             0.776           361.469
       414   11 Jun 2027 08:09:45.598   11 Jun 2027 08:09:50.727             5.129          1051.156
       415   11 Jun 2027 08:10:23.079   11 Jun 2027 08:10:28.105             5.026           948.187
       416   11 Jun 2027 09:41:18.601   11 Jun 2027 09:41:38.106            19.505          9131.656
       417   11 Jun 2027 09:42:10.340   11 Jun 2027 09:42:12.993             2.653           460.250
       418   11 Jun 2027 09:42:39.479   11 Jun 2027 09:42:41.930             2.451           827.687
       419   11 Jun 2027 09:43:18.424   11 Jun 2027 09:43:21.393             2.969          1140.438
       420   11 Jun 2027 09:44:47.329   11 Jun 2027 09:44:48.834             1.505           752.500
       421   11 Jun 2027 09:44:55.100   11 Jun 2027 09:44:58.396             3.296           905.406
       422   11 Jun 2027 09:45:12.387   11 Jun 2027 09:45:16.687             4.300           322.781
       423   11 Jun 2027 09:45:36.908   11 Jun 2027 09:45:41.091             4.183           624.937
       424   11 Jun 2027 09:46:22.912   11 Jun 2027 09:46:33.407            10.495          1208.187
       425   11 Jun 2027 09:46:54.397   11 Jun 2027 09:47:01.608             7.211           589.031
       426   11 Jun 2027 11:18:09.303   11 Jun 2027 11:18:30.798            21.495          9463.812
       427   11 Jun 2027 11:19:02.674   11 Jun 2027 11:19:05.603             2.929           996.125
       428   11 Jun 2027 11:19:30.080   11 Jun 2027 11:19:30.080             0.000             0.000
       429   11 Jun 2027 11:19:40.155   11 Jun 2027 11:19:43.938             3.783          1079.437
       430   11 Jun 2027 11:20:52.281   11 Jun 2027 11:20:56.294             4.013          1924.000
       431   11 Jun 2027 11:21:29.489   11 Jun 2027 11:21:30.754             1.265           632.500
       432   11 Jun 2027 11:21:51.758   11 Jun 2027 11:22:02.279            10.521          1061.219
       433   12 Jun 2027 03:28:52.627   12 Jun 2027 03:29:09.930            17.303          8651.500
       434   12 Jun 2027 03:29:28.903   12 Jun 2027 03:30:21.211            52.308         26154.000
       435   12 Jun 2027 03:30:34.024   12 Jun 2027 03:30:34.024             0.000             0.000
       436   12 Jun 2027 03:30:50.185   12 Jun 2027 03:31:09.461            19.276          9638.000
       437   12 Jun 2027 05:05:22.515   12 Jun 2027 05:08:36.870           194.355         97177.500
       438   12 Jun 2027 06:39:29.925   12 Jun 2027 06:40:06.075            36.150         17770.219
       439   12 Jun 2027 06:41:16.492   12 Jun 2027 06:41:18.165             1.673           829.562
       440   12 Jun 2027 06:41:44.676   12 Jun 2027 06:41:45.785             1.109           542.687
       441   12 Jun 2027 06:42:17.731   12 Jun 2027 06:42:23.846             6.115           871.125
       442   12 Jun 2027 06:42:52.049   12 Jun 2027 06:42:54.031             1.982           733.156
       443   12 Jun 2027 06:43:38.835   12 Jun 2027 06:43:44.334             5.499          1213.875
       444   12 Jun 2027 06:44:30.254   12 Jun 2027 06:44:36.665             6.411          1301.594
       445   12 Jun 2027 06:45:30.922   12 Jun 2027 06:45:32.644             1.722           861.000
       446   12 Jun 2027 06:46:08.814   12 Jun 2027 06:46:13.603             4.789          1684.531
       447   12 Jun 2027 06:46:36.423   12 Jun 2027 06:46:39.228             2.805           713.125
       448   12 Jun 2027 06:46:47.725   12 Jun 2027 06:46:49.316             1.591            89.000
       449   12 Jun 2027 08:16:28.416   12 Jun 2027 08:16:46.744            18.328          9156.844
       450   12 Jun 2027 08:17:58.901   12 Jun 2027 08:18:01.727             2.826           914.875
       451   12 Jun 2027 08:18:58.997   12 Jun 2027 08:19:01.797             2.800           659.344
       452   12 Jun 2027 08:20:03.414   12 Jun 2027 08:20:08.906             5.492          1206.469
       453   12 Jun 2027 08:20:25.385   12 Jun 2027 08:20:27.001             1.616           514.969
       454   12 Jun 2027 08:20:54.533   12 Jun 2027 08:20:56.503             1.970           375.156
       455   12 Jun 2027 08:21:47.813   12 Jun 2027 08:21:52.609             4.796          1359.500
       456   12 Jun 2027 08:22:24.901   12 Jun 2027 08:22:34.342             9.441           493.125
       457   12 Jun 2027 09:54:07.427   12 Jun 2027 09:54:25.550            18.123          8573.969
       458   12 Jun 2027 09:54:41.346   12 Jun 2027 09:54:42.167             0.821           241.719
       459   12 Jun 2027 09:55:02.405   12 Jun 2027 09:55:04.504             2.099           632.438
       460   12 Jun 2027 09:55:28.325   12 Jun 2027 09:55:30.462             2.137           744.406
       461   12 Jun 2027 09:56:30.196   12 Jun 2027 09:56:33.508             3.312          1003.344
       462   12 Jun 2027 11:30:12.429   12 Jun 2027 11:30:28.491            16.062          7109.281
       463   12 Jun 2027 11:31:39.090   12 Jun 2027 11:31:40.650             1.560           780.000
       464   12 Jun 2027 11:32:17.124   12 Jun 2027 11:32:24.936             7.812          2163.125
       465   12 Jun 2027 11:32:55.396   12 Jun 2027 11:32:55.396             0.000             0.000
       466   12 Jun 2027 11:34:12.864   12 Jun 2027 11:34:21.469             8.605          3372.750
       467   13 Jun 2027 03:41:01.911   13 Jun 2027 03:41:10.840             8.929          4464.500
       468   13 Jun 2027 03:41:37.673   13 Jun 2027 03:42:34.472            56.799         28399.500
       469   13 Jun 2027 03:42:45.821   13 Jun 2027 03:43:10.334            24.513         12256.500
       470   13 Jun 2027 03:43:42.534   13 Jun 2027 03:43:42.534             0.000             0.000
       471   13 Jun 2027 05:17:32.453   13 Jun 2027 05:20:10.313           157.860         78930.000
       472   13 Jun 2027 05:20:14.358   13 Jun 2027 05:20:27.552            13.194          6597.000
       473   13 Jun 2027 06:52:42.522   13 Jun 2027 06:53:37.930            55.408         27138.594
       474   13 Jun 2027 06:53:46.075   13 Jun 2027 06:53:46.935             0.860           254.531
       475   13 Jun 2027 06:54:17.167   13 Jun 2027 06:54:19.491             2.324           703.531
       476   13 Jun 2027 06:54:39.592   13 Jun 2027 06:54:40.914             1.322           409.000
       477   13 Jun 2027 06:55:02.345   13 Jun 2027 06:55:03.039             0.694           202.344
       478   13 Jun 2027 06:56:02.915   13 Jun 2027 06:56:05.532             2.617          1157.156
       479   13 Jun 2027 06:57:31.296   13 Jun 2027 06:57:38.450             7.154          2510.719
       480   13 Jun 2027 06:58:19.097   13 Jun 2027 06:58:28.090             8.993          1009.313
       481   13 Jun 2027 06:59:16.527   13 Jun 2027 06:59:16.527             0.000             0.000
       482   13 Jun 2027 08:29:04.540   13 Jun 2027 08:29:22.519            17.979          8760.375
       483   13 Jun 2027 08:30:41.829   13 Jun 2027 08:30:45.662             3.833          1648.938
       484   13 Jun 2027 08:32:15.029   13 Jun 2027 08:32:16.134             1.105           552.500
       485   13 Jun 2027 08:32:23.618   13 Jun 2027 08:32:31.964             8.346          1159.688
       486   13 Jun 2027 08:32:44.101   13 Jun 2027 08:32:45.262             1.161           344.250
       487   13 Jun 2027 08:33:22.762   13 Jun 2027 08:33:23.766             1.004           418.219
       488   13 Jun 2027 08:34:03.021   13 Jun 2027 08:34:05.359             2.338           686.437
       489   13 Jun 2027 08:34:17.715   13 Jun 2027 08:34:18.513             0.798           177.281
       490   13 Jun 2027 08:34:40.450   13 Jun 2027 08:34:45.450             5.000           326.687
       491   13 Jun 2027 10:06:22.270   13 Jun 2027 10:06:39.386            17.116          8557.906
       492   13 Jun 2027 10:06:48.120   13 Jun 2027 10:06:52.023             3.903           223.906
       493   13 Jun 2027 10:07:14.056   13 Jun 2027 10:07:18.177             4.121           688.531
       494   13 Jun 2027 10:07:53.242   13 Jun 2027 10:07:59.083             5.841          1095.781
       495   13 Jun 2027 10:09:06.379   13 Jun 2027 10:09:11.628             5.249          2103.000
       496   13 Jun 2027 10:09:19.722   13 Jun 2027 10:09:24.308             4.586           252.938
       497   13 Jun 2027 10:09:25.055   13 Jun 2027 10:09:26.643             1.588            23.344
       498   13 Jun 2027 10:09:55.714   13 Jun 2027 10:10:03.436             7.722           908.469
       499   13 Jun 2027 10:10:19.408   13 Jun 2027 10:10:20.647             1.239           254.687
       500   13 Jun 2027 10:10:52.422   13 Jun 2027 10:10:54.058             1.636           818.000
       501   13 Jun 2027 11:42:34.570   13 Jun 2027 11:42:48.628            14.058          6749.281
       502   13 Jun 2027 11:43:30.525   13 Jun 2027 11:43:32.782             2.257          1049.156
       503   13 Jun 2027 11:44:28.178   13 Jun 2027 11:44:33.402             5.224          1574.875
       504   13 Jun 2027 11:45:02.591   13 Jun 2027 11:45:04.722             2.131           780.969
       505   13 Jun 2027 11:45:51.613   13 Jun 2027 11:45:54.797             3.184          1357.500
       506   13 Jun 2027 11:46:11.092   13 Jun 2027 11:46:12.448             1.356           506.969
       507   13 Jun 2027 11:46:45.447   13 Jun 2027 11:46:48.293             2.846          1031.219
