uniorb/output/strategy_2/Camera/Camera_KinoSat_111901.txt

KinoSat_111901
-------------------------
    Access    *     Start Time (UTCG)     *     Stop Time (UTCG)  *   Duration (s) *   Data (Mbytes)
         1   01 Jun 2027 03:39:08.687   01 Jun 2027 03:42:45.906           217.219        108609.500
         2   01 Jun 2027 03:43:02.225   01 Jun 2027 03:43:34.376            32.151         16075.500
         3   01 Jun 2027 03:44:11.293   01 Jun 2027 03:44:14.172             2.879          1439.500
         4   01 Jun 2027 03:44:28.877   01 Jun 2027 03:44:38.784             9.907          4953.500
         5   01 Jun 2027 03:45:07.772   01 Jun 2027 03:45:08.379             0.607           303.500
         6   01 Jun 2027 03:45:36.492   01 Jun 2027 03:45:41.375             4.883          2441.500
         7   01 Jun 2027 03:46:06.668   01 Jun 2027 03:46:10.198             3.530          1765.000
         8   01 Jun 2027 05:18:25.780   01 Jun 2027 05:20:41.748           135.968         67984.000
         9   01 Jun 2027 05:21:33.872   01 Jun 2027 05:21:40.096             6.224          3112.000
        10   01 Jun 2027 05:23:18.417   01 Jun 2027 05:23:42.592            24.175         12087.500
        11   01 Jun 2027 05:24:37.148   01 Jun 2027 05:24:37.148             0.000             0.000
        12   01 Jun 2027 05:24:51.436   01 Jun 2027 05:24:54.166             2.730          1365.000
        13   01 Jun 2027 06:44:36.952   01 Jun 2027 06:45:00.559            23.607         11803.500
        14   01 Jun 2027 06:55:29.175   01 Jun 2027 06:56:33.827            64.652         32326.000
        15   01 Jun 2027 06:56:51.414   01 Jun 2027 06:57:01.579            10.165          5082.500
        16   01 Jun 2027 06:58:16.106   01 Jun 2027 06:58:16.106             0.000             0.000
        17   01 Jun 2027 08:19:27.574   01 Jun 2027 08:21:37.826           130.252         65126.000
        18   01 Jun 2027 09:55:12.228   01 Jun 2027 09:55:34.944            22.716         11358.000
        19   01 Jun 2027 09:58:33.787   01 Jun 2027 09:59:22.272            48.485         24242.500
        20   01 Jun 2027 11:29:55.926   01 Jun 2027 11:30:37.819            41.893         20946.500
        21   01 Jun 2027 11:36:51.858   01 Jun 2027 11:37:28.085            36.227         18113.500
        22   02 Jun 2027 03:51:48.543   02 Jun 2027 03:56:06.548           258.005        129002.500
        23   02 Jun 2027 03:56:09.469   02 Jun 2027 03:56:12.861             3.392          1696.000
        24   02 Jun 2027 03:56:38.761   02 Jun 2027 03:56:40.391             1.630           815.000
        25   02 Jun 2027 03:57:28.658   02 Jun 2027 03:57:40.125            11.467          5733.500
        26   02 Jun 2027 05:30:48.958   02 Jun 2027 05:33:00.637           131.679         65839.500
        27   02 Jun 2027 05:34:24.220   02 Jun 2027 05:34:27.833             3.613          1806.500
        28   02 Jun 2027 05:35:36.438   02 Jun 2027 05:35:45.490             9.052          4526.000
        29   02 Jun 2027 05:36:19.776   02 Jun 2027 05:36:25.062             5.286          2643.000
        30   02 Jun 2027 05:36:53.383   02 Jun 2027 05:37:30.655            37.272         18636.000
        31   02 Jun 2027 05:37:38.109   02 Jun 2027 05:38:06.176            28.067         14033.500
        32   02 Jun 2027 06:55:51.382   02 Jun 2027 06:56:29.984            38.602         19301.000
        33   02 Jun 2027 06:56:51.394   02 Jun 2027 06:57:05.985            14.591          7295.500
        34   02 Jun 2027 07:07:30.490   02 Jun 2027 07:08:12.059            41.569         20784.500
        35   02 Jun 2027 08:30:03.114   02 Jun 2027 08:31:03.769            60.655         30327.500
        36   02 Jun 2027 08:31:44.129   02 Jun 2027 08:32:17.914            33.785         15563.939
        37   02 Jun 2027 08:34:13.266   02 Jun 2027 08:34:13.266             0.000             0.000
        38   02 Jun 2027 10:05:05.982   02 Jun 2027 10:05:09.781             3.799          1899.500
        39   02 Jun 2027 10:05:23.476   02 Jun 2027 10:05:25.976             2.500          1250.000
        40   02 Jun 2027 10:05:42.116   02 Jun 2027 10:05:56.850            14.734          6817.844
        41   02 Jun 2027 11:42:04.446   02 Jun 2027 11:42:11.366             6.920          3460.000
        42   02 Jun 2027 11:48:37.889   02 Jun 2027 11:49:22.922            45.033         21845.844
        43   03 Jun 2027 04:04:29.918   03 Jun 2027 04:07:39.415           189.497         94748.500
        44   03 Jun 2027 04:08:12.828   03 Jun 2027 04:09:23.284            70.456         35228.000
        45   03 Jun 2027 05:43:07.649   03 Jun 2027 05:44:34.168            86.519         42577.125
        46   03 Jun 2027 05:45:20.212   03 Jun 2027 05:45:21.458             1.246           623.000
        47   03 Jun 2027 05:46:47.050   03 Jun 2027 05:46:48.225             1.175           587.500
        48   03 Jun 2027 05:47:28.314   03 Jun 2027 05:47:36.905             8.591          4155.906
        49   03 Jun 2027 05:48:17.938   03 Jun 2027 05:48:17.938             0.000             0.000
        50   03 Jun 2027 05:48:26.182   03 Jun 2027 05:48:26.182             0.000             0.000
        51   03 Jun 2027 05:48:44.936   03 Jun 2027 05:48:47.588             2.652          1326.000
        52   03 Jun 2027 07:07:12.635   03 Jun 2027 07:07:30.433            17.798          6759.562
        53   03 Jun 2027 07:07:51.733   03 Jun 2027 07:07:51.733             0.000             0.000
        54   03 Jun 2027 07:08:02.117   03 Jun 2027 07:08:05.058             2.941           990.125
        55   03 Jun 2027 07:08:41.651   03 Jun 2027 07:08:44.724             3.073           979.875
        56   03 Jun 2027 07:19:27.785   03 Jun 2027 07:19:34.500             6.715          2611.656
        57   03 Jun 2027 08:41:27.328   03 Jun 2027 08:41:48.361            21.033          8723.938
        58   03 Jun 2027 08:44:19.203   03 Jun 2027 08:44:29.850            10.647          3503.500
        59   03 Jun 2027 08:45:53.439   03 Jun 2027 08:46:04.200            10.761          2239.125
        60   03 Jun 2027 10:18:04.775   03 Jun 2027 10:18:23.127            18.352          8229.844
        61   03 Jun 2027 10:20:18.441   03 Jun 2027 10:20:24.941             6.500          2840.875
        62   03 Jun 2027 10:21:24.848   03 Jun 2027 10:21:28.490             3.642          1210.875
        63   03 Jun 2027 10:22:03.796   03 Jun 2027 10:22:09.838             6.042           883.031
        64   03 Jun 2027 10:24:39.734   03 Jun 2027 10:24:47.673             7.939          3544.125
        65   04 Jun 2027 04:16:30.705   04 Jun 2027 04:16:35.272             4.567          2283.500
        66   04 Jun 2027 04:16:51.875   04 Jun 2027 04:18:00.241            68.366         34183.000
        67   04 Jun 2027 04:19:45.542   04 Jun 2027 04:21:02.206            76.664         38332.000
        68   04 Jun 2027 04:21:23.885   04 Jun 2027 04:21:39.977            16.092          8046.000
        69   04 Jun 2027 05:55:12.844   04 Jun 2027 05:57:38.511           145.667         72833.500
        70   04 Jun 2027 05:58:21.864   04 Jun 2027 05:58:33.567            11.703          5448.469
        71   04 Jun 2027 06:00:24.844   04 Jun 2027 06:00:30.924             6.080          3040.000
        72   04 Jun 2027 07:19:20.268   04 Jun 2027 07:19:42.954            22.686          9651.250
        73   04 Jun 2027 07:20:04.559   04 Jun 2027 07:20:05.667             1.108           523.844
        74   04 Jun 2027 07:20:40.343   04 Jun 2027 07:20:43.524             3.181          1044.562
        75   04 Jun 2027 07:21:09.632   04 Jun 2027 07:21:09.632             0.000             0.000
        76   04 Jun 2027 07:21:11.046   04 Jun 2027 07:21:13.238             2.192           461.031
        77   04 Jun 2027 08:53:09.753   04 Jun 2027 08:53:33.265            23.512         11749.781
        78   04 Jun 2027 08:55:15.285   04 Jun 2027 08:55:23.106             7.821          2592.219
        79   04 Jun 2027 08:55:39.570   04 Jun 2027 08:55:39.570             0.000             0.000
        80   04 Jun 2027 08:56:09.576   04 Jun 2027 08:56:17.890             8.314          1410.719
        81   04 Jun 2027 10:28:01.795   04 Jun 2027 10:28:16.272            14.477          6768.969
        82   04 Jun 2027 10:30:31.295   04 Jun 2027 10:30:39.102             7.807          2742.250
        83   04 Jun 2027 10:37:03.772   04 Jun 2027 10:37:12.571             8.799          4399.500
        84   04 Jun 2027 10:37:13.651   04 Jun 2027 10:37:33.430            19.779          7356.406
        85   05 Jun 2027 04:29:24.345   05 Jun 2027 04:30:21.902            57.557         28778.500
        86   05 Jun 2027 04:30:28.074   05 Jun 2027 04:31:09.659            41.585         20792.500
        87   05 Jun 2027 04:31:09.808   05 Jun 2027 04:33:47.037           157.229         78614.500
        88   05 Jun 2027 06:08:11.043   05 Jun 2027 06:09:32.331            81.288         40096.531
        89   05 Jun 2027 06:10:36.297   05 Jun 2027 06:10:41.515             5.218          1775.344
        90   05 Jun 2027 06:11:47.008   05 Jun 2027 06:11:51.519             4.511          2000.406
        91   05 Jun 2027 06:12:13.368   05 Jun 2027 06:12:15.244             1.876           682.781
        92   05 Jun 2027 07:31:17.051   05 Jun 2027 07:31:38.964            21.913          8325.625
        93   05 Jun 2027 07:32:33.741   05 Jun 2027 07:32:38.950             5.209          1607.594
        94   05 Jun 2027 09:07:21.132   05 Jun 2027 09:07:45.039            23.907         11480.344
        95   05 Jun 2027 09:10:16.098   05 Jun 2027 09:10:30.145            14.047          4720.594
        96   05 Jun 2027 10:43:02.113   05 Jun 2027 10:43:25.306            23.193          9772.094
        97   05 Jun 2027 10:47:03.807   05 Jun 2027 10:47:03.807             0.000             0.000
        98   05 Jun 2027 10:48:00.012   05 Jun 2027 10:48:11.573            11.561          5780.500
        99   05 Jun 2027 10:48:40.399   05 Jun 2027 10:48:47.166             6.767          3207.687
       100   05 Jun 2027 10:48:51.027   05 Jun 2027 10:48:54.893             3.866            87.687
       101   05 Jun 2027 10:49:32.333   05 Jun 2027 10:49:34.782             2.449          1166.719
       102   06 Jun 2027 03:03:21.833   06 Jun 2027 03:03:40.605            18.772          9386.000
       103   06 Jun 2027 03:03:42.877   06 Jun 2027 03:03:59.065            16.188          8094.000
       104   06 Jun 2027 03:05:08.048   06 Jun 2027 03:05:53.848            45.800         22900.000
       105   06 Jun 2027 03:06:03.065   06 Jun 2027 03:06:27.617            24.552         12276.000
       106   06 Jun 2027 03:07:19.925   06 Jun 2027 03:07:37.536            17.611          8805.500
       107   06 Jun 2027 03:08:31.742   06 Jun 2027 03:08:56.656            24.914         12457.000
       108   06 Jun 2027 03:10:08.115   06 Jun 2027 03:10:20.329            12.214          6107.000
       109   06 Jun 2027 04:41:25.819   06 Jun 2027 04:41:53.946            28.127         14063.500
       110   06 Jun 2027 04:41:56.789   06 Jun 2027 04:44:01.927           125.138         62569.000
       111   06 Jun 2027 04:44:17.684   06 Jun 2027 04:44:22.814             5.130          2565.000
       112   06 Jun 2027 04:44:45.783   06 Jun 2027 04:44:49.125             3.342          1671.000
       113   06 Jun 2027 06:19:57.070   06 Jun 2027 06:20:38.282            41.212         20606.000
       114   06 Jun 2027 06:21:44.133   06 Jun 2027 06:21:47.330             3.197          1598.500
       115   06 Jun 2027 06:22:27.464   06 Jun 2027 06:22:32.102             4.638          1937.468
       116   06 Jun 2027 06:23:13.922   06 Jun 2027 06:23:16.939             3.017          1039.031
       117   06 Jun 2027 06:23:45.678   06 Jun 2027 06:23:47.383             1.705           782.094
       118   06 Jun 2027 06:23:52.225   06 Jun 2027 06:23:53.677             1.452           151.312
       119   06 Jun 2027 07:43:07.912   06 Jun 2027 07:43:20.951            13.039          6344.063
       120   06 Jun 2027 07:44:35.063   06 Jun 2027 07:44:42.033             6.970          1887.000
       121   06 Jun 2027 07:45:03.805   06 Jun 2027 07:45:05.951             2.146           278.625
       122   06 Jun 2027 09:19:34.786   06 Jun 2027 09:19:49.539            14.753          7376.500
       123   06 Jun 2027 09:21:07.582   06 Jun 2027 09:21:15.520             7.938          3633.375
       124   06 Jun 2027 09:21:17.550   06 Jun 2027 09:21:17.849             0.299            57.750
       125   06 Jun 2027 09:22:01.427   06 Jun 2027 09:22:04.679             3.252           862.156
       126   06 Jun 2027 10:51:42.842   06 Jun 2027 10:51:53.904            11.062          5531.000
       127   06 Jun 2027 10:53:41.712   06 Jun 2027 10:53:54.005            12.293          3268.469
       128   06 Jun 2027 10:57:16.926   06 Jun 2027 10:57:20.133             3.207          1603.500
       129   06 Jun 2027 10:59:54.097   06 Jun 2027 11:00:09.711            15.614          6445.375
       130   06 Jun 2027 11:01:22.155   06 Jun 2027 11:01:28.962             6.807          2061.219
       131   07 Jun 2027 03:15:24.692   07 Jun 2027 03:18:49.150           204.458        102229.000
       132   07 Jun 2027 03:19:58.432   07 Jun 2027 03:19:58.432             0.000             0.000
       133   07 Jun 2027 03:20:01.528   07 Jun 2027 03:20:12.888            11.360          5680.000
       134   07 Jun 2027 03:22:11.975   07 Jun 2027 03:22:15.600             3.625          1812.500
       135   07 Jun 2027 03:22:16.815   07 Jun 2027 03:22:38.205            21.390         10695.000
       136   07 Jun 2027 04:53:33.876   07 Jun 2027 04:54:34.422            60.546         30273.000
       137   07 Jun 2027 04:54:42.941   07 Jun 2027 04:55:14.003            31.062         15167.844
       138   07 Jun 2027 04:55:18.231   07 Jun 2027 04:55:20.270             2.039           131.531
       139   07 Jun 2027 04:56:29.129   07 Jun 2027 04:56:32.403             3.274          1270.875
       140   07 Jun 2027 04:58:51.939   07 Jun 2027 04:58:59.082             7.143          3281.281
       141   07 Jun 2027 04:59:25.214   07 Jun 2027 04:59:27.360             2.146           816.625
       142   07 Jun 2027 06:32:42.089   07 Jun 2027 06:32:54.095            12.006          5237.625
       143   07 Jun 2027 06:34:04.961   07 Jun 2027 06:34:10.154             5.193          2151.281
       144   07 Jun 2027 06:34:17.751   07 Jun 2027 06:34:20.896             3.145           187.031
       145   07 Jun 2027 06:34:47.173   07 Jun 2027 06:34:48.844             1.671           583.875
       146   07 Jun 2027 06:35:16.207   07 Jun 2027 06:35:20.996             4.789           855.094
       147   07 Jun 2027 07:55:16.434   07 Jun 2027 07:55:33.047            16.613          7025.750
       148   07 Jun 2027 07:56:10.780   07 Jun 2027 07:56:15.955             5.175           722.250
       149   07 Jun 2027 07:56:50.656   07 Jun 2027 07:56:53.571             2.915          1084.406
       150   07 Jun 2027 09:31:44.855   07 Jun 2027 09:31:59.128            14.273          6560.969
       151   07 Jun 2027 09:33:47.458   07 Jun 2027 09:33:59.320            11.862          3119.875
       152   07 Jun 2027 11:06:56.180   07 Jun 2027 11:07:08.925            12.745          6372.500
       153   07 Jun 2027 11:07:18.729   07 Jun 2027 11:07:21.146             2.417          1058.531
       154   07 Jun 2027 11:07:52.856   07 Jun 2027 11:07:55.195             2.339           990.938
       155   07 Jun 2027 11:08:19.566   07 Jun 2027 11:08:19.566             0.000             0.000
       156   07 Jun 2027 11:10:27.618   07 Jun 2027 11:10:27.618             0.000             0.000
       157   07 Jun 2027 11:13:00.286   07 Jun 2027 11:13:15.625            15.339          7669.500
       158   07 Jun 2027 11:13:26.577   07 Jun 2027 11:13:32.667             6.090          2206.844
       159   08 Jun 2027 03:27:22.097   08 Jun 2027 03:31:08.222           226.125        113062.500
       160   08 Jun 2027 03:32:26.854   08 Jun 2027 03:32:29.857             3.003          1501.500
       161   08 Jun 2027 03:32:38.574   08 Jun 2027 03:32:51.735            13.161          6580.500
       162   08 Jun 2027 05:05:38.743   08 Jun 2027 05:05:55.508            16.765          8382.500
       163   08 Jun 2027 05:06:41.467   08 Jun 2027 05:07:55.773            74.306         35826.468
       164   08 Jun 2027 05:08:27.985   08 Jun 2027 05:08:28.678             0.693            81.500
       165   08 Jun 2027 05:09:35.881   08 Jun 2027 05:09:35.881             0.000             0.000
       166   08 Jun 2027 05:10:35.597   08 Jun 2027 05:10:45.316             9.719          3692.219
       167   08 Jun 2027 05:11:04.836   08 Jun 2027 05:11:05.662             0.826           189.187
       168   08 Jun 2027 05:11:23.085   08 Jun 2027 05:11:25.319             2.234           364.000
       169   08 Jun 2027 05:13:56.948   08 Jun 2027 05:14:05.411             8.463          2592.750
       170   08 Jun 2027 06:43:50.394   08 Jun 2027 06:44:02.314            11.920          4928.719
       171   08 Jun 2027 06:44:18.270   08 Jun 2027 06:44:21.279             3.009           489.375
       172   08 Jun 2027 06:44:56.707   08 Jun 2027 06:44:58.876             2.169           971.375
       173   08 Jun 2027 06:46:05.517   08 Jun 2027 06:46:09.136             3.619          1499.469
       174   08 Jun 2027 06:46:40.317   08 Jun 2027 06:46:40.317             0.000             0.000
       175   08 Jun 2027 06:47:13.614   08 Jun 2027 06:47:17.293             3.679          1454.188
       176   08 Jun 2027 08:07:59.081   08 Jun 2027 08:08:15.927            16.846          7119.937
       177   08 Jun 2027 08:08:32.407   08 Jun 2027 08:08:32.407             0.000             0.000
       178   08 Jun 2027 08:08:49.356   08 Jun 2027 08:09:04.616            15.260           959.094
       179   08 Jun 2027 08:10:20.590   08 Jun 2027 08:10:22.258             1.668           657.594
       180   08 Jun 2027 09:46:13.945   08 Jun 2027 09:46:43.984            30.039         14927.312
       181   08 Jun 2027 11:18:57.391   08 Jun 2027 11:19:11.709            14.318          5970.344
       182   08 Jun 2027 11:21:43.899   08 Jun 2027 11:21:53.972            10.073          4755.938
       183   08 Jun 2027 11:25:00.322   08 Jun 2027 11:25:13.323            13.001          5823.250
       184   08 Jun 2027 11:25:24.652   08 Jun 2027 11:25:25.348             0.696           253.938
       185   09 Jun 2027 03:39:52.100   09 Jun 2027 03:41:40.453           108.353         54176.500
       186   09 Jun 2027 03:42:20.303   09 Jun 2027 03:44:04.897           104.594         52297.000
       187   09 Jun 2027 03:44:34.671   09 Jun 2027 03:44:35.574             0.903           451.500
       188   09 Jun 2027 03:45:00.113   09 Jun 2027 03:45:01.454             1.341           670.500
       189   09 Jun 2027 03:45:24.861   09 Jun 2027 03:45:26.444             1.583           791.500
       190   09 Jun 2027 05:18:44.234   09 Jun 2027 05:20:25.480           101.246         50067.094
       191   09 Jun 2027 05:20:56.726   09 Jun 2027 05:20:56.967             0.241           120.500
       192   09 Jun 2027 05:21:15.455   09 Jun 2027 05:21:17.187             1.732           597.875
       193   09 Jun 2027 05:22:39.221   09 Jun 2027 05:22:44.651             5.430          2422.281
       194   09 Jun 2027 05:23:57.185   09 Jun 2027 05:23:58.065             0.880           440.000
       195   09 Jun 2027 05:24:53.566   09 Jun 2027 05:25:01.484             7.918          3284.000
       196   09 Jun 2027 05:25:22.257   09 Jun 2027 05:25:23.737             1.480           649.156
       197   09 Jun 2027 06:44:51.063   09 Jun 2027 06:45:02.152            11.089          4393.844
       198   09 Jun 2027 06:55:46.578   09 Jun 2027 06:55:54.642             8.064          3476.062
       199   09 Jun 2027 06:56:36.337   09 Jun 2027 06:56:38.269             1.932           162.406
       200   09 Jun 2027 06:56:53.060   09 Jun 2027 06:56:53.325             0.265            57.938
       201   09 Jun 2027 06:57:27.556   09 Jun 2027 06:57:30.338             2.782           671.187
       202   09 Jun 2027 06:59:02.457   09 Jun 2027 06:59:06.403             3.946          1973.000
       203   09 Jun 2027 08:19:06.190   09 Jun 2027 08:19:20.929            14.739          5507.406
       204   09 Jun 2027 08:20:37.288   09 Jun 2027 08:20:45.109             7.821          2374.656
       205   09 Jun 2027 08:22:01.428   09 Jun 2027 08:22:08.837             7.409          2226.031
       206   09 Jun 2027 09:55:29.166   09 Jun 2027 09:55:44.128            14.962          6724.187
       207   09 Jun 2027 09:58:27.873   09 Jun 2027 09:58:38.422            10.549          4889.219
       208   09 Jun 2027 09:58:57.748   09 Jun 2027 09:59:02.309             4.561           417.437
       209   09 Jun 2027 11:34:08.995   09 Jun 2027 11:34:40.368            31.373         15486.594
       210   09 Jun 2027 11:34:59.397   09 Jun 2027 11:34:59.594             0.197            98.500
       211   09 Jun 2027 11:35:33.802   09 Jun 2027 11:35:38.105             4.303          1432.750
       212   09 Jun 2027 11:36:30.581   09 Jun 2027 11:36:33.026             2.445          1064.125
       213   09 Jun 2027 11:37:11.423   09 Jun 2027 11:37:17.637             6.214           977.125
       214   09 Jun 2027 11:37:36.970   09 Jun 2027 11:37:40.074             3.104           568.469
       215   10 Jun 2027 03:52:06.792   10 Jun 2027 03:55:13.108           186.316         93158.000
       216   10 Jun 2027 03:55:20.770   10 Jun 2027 03:55:40.146            19.376          9688.000
       217   10 Jun 2027 03:56:03.365   10 Jun 2027 03:56:32.566            29.201         14600.500
       218   10 Jun 2027 03:56:33.158   10 Jun 2027 03:56:35.625             2.467          1233.500
       219   10 Jun 2027 03:56:38.288   10 Jun 2027 03:56:53.068            14.780          7390.000
       220   10 Jun 2027 05:31:08.273   10 Jun 2027 05:32:41.191            92.918         44281.875
       221   10 Jun 2027 05:33:22.070   10 Jun 2027 05:33:22.070             0.000             0.000
       222   10 Jun 2027 05:34:09.854   10 Jun 2027 05:34:18.863             9.009          2281.125
       223   10 Jun 2027 05:34:21.920   10 Jun 2027 05:34:24.267             2.347            95.531
       224   10 Jun 2027 05:35:26.464   10 Jun 2027 05:35:29.971             3.507          1753.500
       225   10 Jun 2027 05:36:04.597   10 Jun 2027 05:36:10.404             5.807          1092.375
       226   10 Jun 2027 05:36:43.728   10 Jun 2027 05:36:45.944             2.216           220.625
       227   10 Jun 2027 05:36:52.073   10 Jun 2027 05:37:00.098             8.025           187.344
       228   10 Jun 2027 06:56:08.657   10 Jun 2027 06:56:18.144             9.487          4743.500
       229   10 Jun 2027 06:56:46.085   10 Jun 2027 06:56:46.374             0.289           144.500
       230   10 Jun 2027 07:07:48.574   10 Jun 2027 07:07:59.688            11.114          4542.781
       231   10 Jun 2027 07:08:56.080   10 Jun 2027 07:09:03.799             7.719          1277.875
       232   10 Jun 2027 08:30:04.679   10 Jun 2027 08:30:27.536            22.857         10209.750
       233   10 Jun 2027 08:32:01.582   10 Jun 2027 08:32:06.577             4.995          1977.500
       234   10 Jun 2027 08:32:53.549   10 Jun 2027 08:32:58.033             4.484           940.719
       235   10 Jun 2027 08:33:31.743   10 Jun 2027 08:33:33.713             1.970           381.344
       236   10 Jun 2027 08:34:31.294   10 Jun 2027 08:34:31.294             0.000             0.000
       237   10 Jun 2027 10:05:42.259   10 Jun 2027 10:05:42.259             0.000             0.000
       238   10 Jun 2027 10:05:47.540   10 Jun 2027 10:06:01.280            13.740          6413.469
       239   10 Jun 2027 10:08:09.760   10 Jun 2027 10:08:18.025             8.265          4015.000
       240   10 Jun 2027 10:09:11.333   10 Jun 2027 10:09:17.420             6.087          1628.844
       241   10 Jun 2027 10:09:59.850   10 Jun 2027 10:10:04.252             4.402           350.625
       242   10 Jun 2027 11:48:54.057   10 Jun 2027 11:49:37.777            43.720         21736.312
       243   11 Jun 2027 04:04:24.719   11 Jun 2027 04:05:55.995            91.276         45638.000
       244   11 Jun 2027 04:07:54.973   11 Jun 2027 04:09:49.180           114.207         57103.500
       245   11 Jun 2027 05:43:46.380   11 Jun 2027 05:45:46.860           120.480         59491.281
       246   11 Jun 2027 05:46:24.400   11 Jun 2027 05:46:27.829             3.429          1173.125
       247   11 Jun 2027 05:46:41.486   11 Jun 2027 05:46:42.839             1.353           426.781
       248   11 Jun 2027 05:47:07.980   11 Jun 2027 05:47:11.385             3.405           657.281
       249   11 Jun 2027 05:47:47.233   11 Jun 2027 05:47:50.327             3.094           199.813
       250   11 Jun 2027 05:48:41.219   11 Jun 2027 05:48:43.756             2.537          1268.500
       251   11 Jun 2027 05:50:10.793   11 Jun 2027 05:50:18.374             7.581          2966.750
       252   11 Jun 2027 07:07:30.209   11 Jun 2027 07:07:47.904            17.695          6509.313
       253   11 Jun 2027 07:08:07.532   11 Jun 2027 07:08:14.821             7.289           613.375
       254   11 Jun 2027 07:08:35.697   11 Jun 2027 07:08:39.824             4.127           572.469
       255   11 Jun 2027 07:09:33.174   11 Jun 2027 07:09:36.598             3.424          1407.469
       256   11 Jun 2027 07:09:41.365   11 Jun 2027 07:09:44.261             2.896           148.969
       257   11 Jun 2027 07:19:45.655   11 Jun 2027 07:19:52.704             7.049          2036.750
       258   11 Jun 2027 08:41:45.892   11 Jun 2027 08:42:13.904            28.012         11608.781
       259   11 Jun 2027 08:43:05.270   11 Jun 2027 08:43:05.270             0.000             0.000
       260   11 Jun 2027 08:44:24.493   11 Jun 2027 08:44:36.502            12.009          3226.187
       261   11 Jun 2027 08:45:35.237   11 Jun 2027 08:45:35.237             0.000             0.000
       262   11 Jun 2027 08:46:32.520   11 Jun 2027 08:46:41.516             8.996          3624.437
       263   11 Jun 2027 08:46:54.504   11 Jun 2027 08:46:54.519             0.015             7.500
       264   11 Jun 2027 10:16:44.560   11 Jun 2027 10:16:59.258            14.698          6505.500
       265   11 Jun 2027 10:18:24.242   11 Jun 2027 10:18:29.184             4.942          1615.000
       266   11 Jun 2027 10:19:06.461   11 Jun 2027 10:19:10.175             3.714          1162.063
       267   11 Jun 2027 10:23:46.427   11 Jun 2027 10:23:46.427             0.000             0.000
       268   12 Jun 2027 04:17:10.776   12 Jun 2027 04:17:35.839            25.063         12531.500
       269   12 Jun 2027 04:17:38.266   12 Jun 2027 04:18:15.585            37.319         18659.500
       270   12 Jun 2027 04:19:59.850   12 Jun 2027 04:21:45.918           106.068         53034.000
       271   12 Jun 2027 04:21:58.208   12 Jun 2027 04:22:11.571            13.363          6681.500
       272   12 Jun 2027 04:22:30.974   12 Jun 2027 04:22:39.695             8.721          4360.500
       273   12 Jun 2027 05:55:33.000   12 Jun 2027 05:57:18.288           105.288         52644.000
       274   12 Jun 2027 05:57:37.543   12 Jun 2027 05:57:53.799            16.256          8128.000
       275   12 Jun 2027 05:58:42.487   12 Jun 2027 05:58:59.550            17.063          8531.500
       276   12 Jun 2027 05:59:05.390   12 Jun 2027 05:59:19.155            13.765          6435.564
       277   12 Jun 2027 07:19:38.011   12 Jun 2027 07:19:58.561            20.550          8972.406
       278   12 Jun 2027 07:20:22.221   12 Jun 2027 07:20:22.221             0.000             0.000
       279   12 Jun 2027 07:20:49.781   12 Jun 2027 07:20:56.413             6.632          1445.438
       280   12 Jun 2027 07:21:12.625   12 Jun 2027 07:21:15.407             2.782           506.625
       281   12 Jun 2027 08:53:26.207   12 Jun 2027 08:53:50.537            24.330         12094.344
       282   12 Jun 2027 08:55:35.040   12 Jun 2027 08:55:41.606             6.566          2700.844
       283   12 Jun 2027 08:55:57.486   12 Jun 2027 08:55:58.571             1.085           476.250
       284   12 Jun 2027 08:57:19.279   12 Jun 2027 08:57:25.786             6.507          2513.625
       285   12 Jun 2027 08:58:14.482   12 Jun 2027 08:58:15.841             1.359           527.438
       286   12 Jun 2027 08:58:44.022   12 Jun 2027 08:58:51.494             7.472           596.969
       287   12 Jun 2027 08:59:24.617   12 Jun 2027 08:59:26.945             2.328          1003.000
       288   12 Jun 2027 10:28:18.500   12 Jun 2027 10:28:23.830             5.330          2665.000
       289   12 Jun 2027 10:29:19.332   12 Jun 2027 10:29:25.461             6.129          2529.844
       290   12 Jun 2027 10:30:06.547   12 Jun 2027 10:30:09.514             2.967          1282.437
       291   12 Jun 2027 10:30:40.082   12 Jun 2027 10:30:41.360             1.278           490.281
       292   12 Jun 2027 10:31:18.630   12 Jun 2027 10:31:23.874             5.244           860.437
       293   12 Jun 2027 10:31:47.819   12 Jun 2027 10:31:49.665             1.846           624.906
       294   12 Jun 2027 10:33:01.173   12 Jun 2027 10:33:07.768             6.595          2234.625
       295   12 Jun 2027 10:33:25.769   12 Jun 2027 10:33:26.810             1.041           486.062
       296   12 Jun 2027 10:33:53.380   12 Jun 2027 10:33:55.240             1.860           672.625
       297   12 Jun 2027 10:34:23.508   12 Jun 2027 10:34:26.569             3.061           883.375
       298   12 Jun 2027 10:36:08.062   12 Jun 2027 10:36:08.062             0.000             0.000
       299   12 Jun 2027 10:37:19.749   12 Jun 2027 10:37:30.983            11.234          5178.344
       300   13 Jun 2027 04:29:43.802   13 Jun 2027 04:30:35.319            51.517         25758.500
       301   13 Jun 2027 04:30:45.360   13 Jun 2027 04:31:27.357            41.997         20998.500
       302   13 Jun 2027 04:31:27.913   13 Jun 2027 04:34:12.837           164.924         82462.000
       303   13 Jun 2027 04:34:32.994   13 Jun 2027 04:34:33.048             0.054            27.000
       304   13 Jun 2027 06:08:07.625   13 Jun 2027 06:09:13.569            65.944         32960.563
       305   13 Jun 2027 06:09:32.980   13 Jun 2027 06:09:35.230             2.250            97.438
       306   13 Jun 2027 06:10:37.091   13 Jun 2027 06:10:37.091             0.000             0.000
       307   13 Jun 2027 06:10:57.789   13 Jun 2027 06:11:01.596             3.807          1408.000
       308   13 Jun 2027 06:12:01.745   13 Jun 2027 06:12:01.745             0.000             0.000
       309   13 Jun 2027 06:12:43.957   13 Jun 2027 06:12:48.511             4.554          2277.000
       310   13 Jun 2027 07:31:33.824   13 Jun 2027 07:31:48.857            15.033          7494.656
       311   13 Jun 2027 07:32:51.284   13 Jun 2027 07:32:56.911             5.627          1666.969
       312   13 Jun 2027 09:07:48.397   13 Jun 2027 09:08:16.280            27.883         12046.406
       313   13 Jun 2027 09:10:34.025   13 Jun 2027 09:10:48.323            14.298          4304.531
       314   13 Jun 2027 10:41:20.908   13 Jun 2027 10:41:39.478            18.570          5772.344
       315   13 Jun 2027 10:44:21.775   13 Jun 2027 10:44:38.980            17.205          4996.656
       316   13 Jun 2027 10:45:29.855   13 Jun 2027 10:45:32.207             2.352           847.312
       317   13 Jun 2027 10:46:29.092   13 Jun 2027 10:46:32.275             3.183          1591.500
       318   13 Jun 2027 10:48:55.248   13 Jun 2027 10:49:05.990            10.742          4632.375
       319   13 Jun 2027 10:49:26.052   13 Jun 2027 10:49:29.474             3.422           445.438
