uniorb/output/strategy_2/Camera/Camera_KinoSat_111401.txt

KinoSat_111401
-------------------------
    Access    *     Start Time (UTCG)     *     Stop Time (UTCG)  *   Duration (s) *   Data (Mbytes)
         1   01 Jun 2027 04:02:39.466   01 Jun 2027 04:04:58.196           138.730         69365.000
         2   01 Jun 2027 04:05:48.713   01 Jun 2027 04:06:01.583            12.870          6435.000
         3   01 Jun 2027 04:06:15.914   01 Jun 2027 04:07:19.795            63.881         31940.500
         4   01 Jun 2027 05:26:10.210   01 Jun 2027 05:27:03.920            53.710         26855.000
         5   01 Jun 2027 07:02:21.325   01 Jun 2027 07:05:26.340           185.015         92507.500
         6   01 Jun 2027 08:35:54.739   01 Jun 2027 08:38:28.021           153.282         76641.000
         7   01 Jun 2027 08:41:47.053   01 Jun 2027 08:41:50.861             3.808          1904.000
         8   01 Jun 2027 08:42:50.857   01 Jun 2027 08:43:03.548            12.691          6345.500
         9   01 Jun 2027 08:43:51.324   01 Jun 2027 08:44:28.939            37.615         18807.500
        10   01 Jun 2027 10:13:22.481   01 Jun 2027 10:15:06.322           103.841         51920.500
        11   01 Jun 2027 10:16:59.064   01 Jun 2027 10:16:59.064             0.000             0.000
        12   01 Jun 2027 10:17:37.753   01 Jun 2027 10:18:21.160            43.407         21703.500
        13   01 Jun 2027 10:18:33.207   01 Jun 2027 10:18:52.428            19.221          9610.500
        14   01 Jun 2027 11:50:21.954   01 Jun 2027 11:51:30.938            68.984         34492.000
        15   01 Jun 2027 11:53:36.328   01 Jun 2027 11:54:23.617            47.289         23644.500
        16   01 Jun 2027 11:55:11.721   01 Jun 2027 11:55:23.657            11.936          5968.000
        17   02 Jun 2027 04:14:20.761   02 Jun 2027 04:16:51.712           150.951         75475.500
        18   02 Jun 2027 04:17:15.074   02 Jun 2027 04:17:16.561             1.487           743.500
        19   02 Jun 2027 04:18:01.515   02 Jun 2027 04:18:17.307            15.792          7896.000
        20   02 Jun 2027 04:18:46.624   02 Jun 2027 04:19:13.612            26.988         13494.000
        21   02 Jun 2027 05:38:00.164   02 Jun 2027 05:38:56.051            55.887         27943.500
        22   02 Jun 2027 07:14:27.051   02 Jun 2027 07:17:42.549           195.498         97749.000
        23   02 Jun 2027 07:17:58.636   02 Jun 2027 07:18:01.568             2.932          1466.000
        24   02 Jun 2027 08:46:36.711   02 Jun 2027 08:46:46.216             9.505          4752.500
        25   02 Jun 2027 08:48:33.854   02 Jun 2027 08:50:17.534           103.680         51840.000
        26   02 Jun 2027 08:51:17.415   02 Jun 2027 08:51:33.237            15.822          7036.062
        27   02 Jun 2027 08:52:00.492   02 Jun 2027 08:52:02.547             2.055           851.719
        28   02 Jun 2027 08:53:03.545   02 Jun 2027 08:53:10.914             7.369          1905.156
        29   02 Jun 2027 08:54:17.932   02 Jun 2027 08:54:22.074             4.142          1836.375
        30   02 Jun 2027 08:56:14.934   02 Jun 2027 08:56:22.973             8.039          3492.500
        31   02 Jun 2027 10:25:32.063   02 Jun 2027 10:25:47.609            15.546          7526.000
        32   02 Jun 2027 10:26:05.861   02 Jun 2027 10:26:08.652             2.791           508.969
        33   02 Jun 2027 10:27:52.978   02 Jun 2027 10:27:58.406             5.428          1764.844
        34   02 Jun 2027 10:28:17.228   02 Jun 2027 10:28:18.343             1.115           430.000
        35   02 Jun 2027 10:28:33.505   02 Jun 2027 10:28:37.626             4.121           473.812
        36   02 Jun 2027 10:29:37.337   02 Jun 2027 10:29:42.820             5.483          1602.437
        37   02 Jun 2027 10:30:14.880   02 Jun 2027 10:30:17.169             2.289           803.750
        38   02 Jun 2027 10:31:36.704   02 Jun 2027 10:31:38.630             1.926           963.000
        39   02 Jun 2027 10:32:09.024   02 Jun 2027 10:32:11.872             2.848          1424.000
        40   03 Jun 2027 04:27:34.323   03 Jun 2027 04:30:40.602           186.279         93139.500
        41   03 Jun 2027 05:50:08.198   03 Jun 2027 05:51:18.431            70.233         35116.500
        42   03 Jun 2027 05:53:00.635   03 Jun 2027 05:53:01.785             1.150           575.000
        43   03 Jun 2027 07:26:36.346   03 Jun 2027 07:27:35.323            58.977         27727.062
        44   03 Jun 2027 07:27:41.640   03 Jun 2027 07:27:45.968             4.328           190.938
        45   03 Jun 2027 07:29:17.219   03 Jun 2027 07:29:24.965             7.746          2851.594
        46   03 Jun 2027 09:01:47.223   03 Jun 2027 09:01:58.102            10.879          5218.688
        47   03 Jun 2027 09:03:01.794   03 Jun 2027 09:03:09.327             7.533          1971.344
        48   03 Jun 2027 09:04:48.232   03 Jun 2027 09:04:55.174             6.942          2790.781
        49   03 Jun 2027 09:05:43.667   03 Jun 2027 09:05:46.601             2.934          1167.719
        50   03 Jun 2027 09:06:22.384   03 Jun 2027 09:06:24.084             1.700            60.500
        51   03 Jun 2027 09:06:25.163   03 Jun 2027 09:06:25.276             0.113            33.719
        52   03 Jun 2027 09:07:06.654   03 Jun 2027 09:07:09.197             2.543          1061.969
        53   03 Jun 2027 09:07:57.336   03 Jun 2027 09:07:58.658             1.322           661.000
        54   03 Jun 2027 09:08:22.995   03 Jun 2027 09:08:27.563             4.568          1261.343
        55   03 Jun 2027 10:38:06.206   03 Jun 2027 10:38:18.879            12.673          6184.469
        56   03 Jun 2027 10:39:31.078   03 Jun 2027 10:39:34.508             3.430          1407.656
        57   03 Jun 2027 10:40:08.128   03 Jun 2027 10:40:10.251             2.123           675.437
        58   03 Jun 2027 10:40:14.049   03 Jun 2027 10:40:14.868             0.819            32.656
        59   03 Jun 2027 10:40:24.370   03 Jun 2027 10:40:26.177             1.807           116.875
        60   03 Jun 2027 10:40:48.563   03 Jun 2027 10:40:55.294             6.731           343.781
        61   03 Jun 2027 10:41:19.147   03 Jun 2027 10:41:21.706             2.559           628.844
        62   03 Jun 2027 10:41:44.850   03 Jun 2027 10:41:48.400             3.550           651.531
        63   03 Jun 2027 10:42:03.439   03 Jun 2027 10:42:05.126             1.687           374.656
        64   03 Jun 2027 10:42:08.419   03 Jun 2027 10:42:09.066             0.647            14.719
        65   03 Jun 2027 10:42:45.430   03 Jun 2027 10:42:48.011             2.581           989.813
        66   03 Jun 2027 10:43:46.162   03 Jun 2027 10:43:50.896             4.734          1817.219
        67   03 Jun 2027 10:43:53.528   03 Jun 2027 10:43:56.172             2.644            82.250
        68   03 Jun 2027 10:44:03.125   03 Jun 2027 10:44:03.569             0.444           217.281
        69   04 Jun 2027 03:00:29.989   04 Jun 2027 03:01:11.396            41.407         20703.500
        70   04 Jun 2027 03:01:34.045   04 Jun 2027 03:02:11.750            37.705         18852.500
        71   04 Jun 2027 03:02:38.315   04 Jun 2027 03:02:47.265             8.950          4475.000
        72   04 Jun 2027 03:03:12.566   04 Jun 2027 03:03:38.637            26.071         13035.500
        73   04 Jun 2027 03:03:42.742   04 Jun 2027 03:03:42.742             0.000             0.000
        74   04 Jun 2027 03:04:52.777   04 Jun 2027 03:04:52.777             0.000             0.000
        75   04 Jun 2027 03:05:36.391   04 Jun 2027 03:05:55.364            18.973          9486.500
        76   04 Jun 2027 03:06:31.600   04 Jun 2027 03:06:36.099             4.499          2249.500
        77   04 Jun 2027 04:38:43.354   04 Jun 2027 04:39:19.736            36.382         18191.000
        78   04 Jun 2027 04:39:48.338   04 Jun 2027 04:41:04.678            76.340         38170.000
        79   04 Jun 2027 04:41:10.992   04 Jun 2027 04:41:30.350            19.358          9679.000
        80   04 Jun 2027 06:02:09.574   04 Jun 2027 06:03:04.636            55.062         27531.000
        81   04 Jun 2027 06:04:56.631   04 Jun 2027 06:04:56.631             0.000             0.000
        82   04 Jun 2027 06:05:00.906   04 Jun 2027 06:05:05.501             4.595          2297.500
        83   04 Jun 2027 07:38:37.320   04 Jun 2027 07:38:48.050            10.730          5019.157
        84   04 Jun 2027 07:39:45.568   04 Jun 2027 07:39:48.286             2.718           788.375
        85   04 Jun 2027 07:40:17.064   04 Jun 2027 07:40:21.619             4.555           352.781
        86   04 Jun 2027 07:40:47.636   04 Jun 2027 07:40:52.393             4.757           392.219
        87   04 Jun 2027 09:13:49.897   04 Jun 2027 09:13:54.518             4.621          2310.500
        88   04 Jun 2027 09:13:59.223   04 Jun 2027 09:14:06.913             7.690          2553.125
        89   04 Jun 2027 09:15:17.557   04 Jun 2027 09:15:20.040             2.483          1241.500
        90   04 Jun 2027 09:15:27.901   04 Jun 2027 09:15:32.022             4.121           985.531
        91   04 Jun 2027 09:17:08.848   04 Jun 2027 09:17:14.986             6.138          2615.813
        92   04 Jun 2027 09:18:05.658   04 Jun 2027 09:18:10.799             5.141          1583.500
        93   04 Jun 2027 09:18:35.520   04 Jun 2027 09:18:38.855             3.335           479.812
        94   04 Jun 2027 09:19:47.649   04 Jun 2027 09:19:53.278             5.629          1775.937
        95   04 Jun 2027 09:20:09.403   04 Jun 2027 09:20:13.392             3.989           329.969
        96   04 Jun 2027 09:20:16.280   04 Jun 2027 09:20:16.760             0.480            90.250
        97   04 Jun 2027 10:49:45.163   04 Jun 2027 10:50:00.451            15.288          7305.719
        98   04 Jun 2027 10:51:24.217   04 Jun 2027 10:51:34.398            10.181          2027.594
        99   04 Jun 2027 10:52:02.434   04 Jun 2027 10:52:03.593             1.159           556.250
       100   04 Jun 2027 10:52:23.078   04 Jun 2027 10:52:25.154             2.076           506.812
       101   04 Jun 2027 10:52:31.362   04 Jun 2027 10:52:33.557             2.195           194.000
       102   04 Jun 2027 10:52:47.864   04 Jun 2027 10:52:50.255             2.391            64.375
       103   04 Jun 2027 10:53:36.050   04 Jun 2027 10:53:42.566             6.516          1431.094
       104   04 Jun 2027 10:54:03.061   04 Jun 2027 10:54:04.291             1.230           505.469
       105   04 Jun 2027 10:54:12.953   04 Jun 2027 10:54:13.628             0.675           193.344
       106   04 Jun 2027 10:54:52.244   04 Jun 2027 10:54:54.973             2.729           813.750
       107   04 Jun 2027 10:55:25.561   04 Jun 2027 10:55:27.196             1.635           593.469
       108   04 Jun 2027 10:55:33.226   04 Jun 2027 10:55:35.624             2.398           183.250
       109   05 Jun 2027 03:13:34.617   05 Jun 2027 03:16:32.156           177.539         88769.500
       110   05 Jun 2027 03:17:39.207   05 Jun 2027 03:17:39.207             0.000             0.000
       111   05 Jun 2027 03:17:46.387   05 Jun 2027 03:17:54.739             8.352          4176.000
       112   05 Jun 2027 03:18:01.272   05 Jun 2027 03:18:08.397             7.125          3562.500
       113   05 Jun 2027 03:18:47.655   05 Jun 2027 03:18:57.147             9.492          4746.000
       114   05 Jun 2027 03:19:48.588   05 Jun 2027 03:20:13.214            24.626         12313.000
       115   05 Jun 2027 03:20:30.971   05 Jun 2027 03:20:40.350             9.379          4689.500
       116   05 Jun 2027 04:39:43.144   05 Jun 2027 04:40:10.965            27.821         13910.500
       117   05 Jun 2027 04:50:38.985   05 Jun 2027 04:51:35.711            56.726         28078.125
       118   05 Jun 2027 04:52:21.028   05 Jun 2027 04:52:25.168             4.140           941.063
       119   05 Jun 2027 04:52:57.109   05 Jun 2027 04:53:05.249             8.140           998.156
       120   05 Jun 2027 04:54:01.823   05 Jun 2027 04:54:02.697             0.874           437.000
       121   05 Jun 2027 06:14:36.045   05 Jun 2027 06:14:47.361            11.316          5488.406
       122   05 Jun 2027 06:16:16.247   05 Jun 2027 06:16:21.317             5.070          2413.625
       123   05 Jun 2027 07:50:21.251   05 Jun 2027 07:50:32.736            11.485          4634.875
       124   05 Jun 2027 07:51:26.570   05 Jun 2027 07:51:30.096             3.526           921.625
       125   05 Jun 2027 07:52:41.399   05 Jun 2027 07:52:45.172             3.773          1786.250
       126   05 Jun 2027 07:54:00.056   05 Jun 2027 07:54:05.798             5.742          2034.187
       127   05 Jun 2027 07:54:34.693   05 Jun 2027 07:54:35.002             0.309           154.500
       128   05 Jun 2027 09:25:05.127   05 Jun 2027 09:25:16.166            11.039          4312.219
       129   05 Jun 2027 09:25:41.779   05 Jun 2027 09:25:44.643             2.864           798.250
       130   05 Jun 2027 09:27:20.698   05 Jun 2027 09:27:26.876             6.178          2750.219
       131   05 Jun 2027 09:28:34.028   05 Jun 2027 09:28:34.028             0.000             0.000
       132   05 Jun 2027 09:28:39.276   05 Jun 2027 09:28:39.276             0.000             0.000
       133   05 Jun 2027 09:29:11.151   05 Jun 2027 09:29:18.774             7.623          2777.844
       134   05 Jun 2027 09:29:52.038   05 Jun 2027 09:29:55.447             3.409           654.125
       135   05 Jun 2027 09:30:37.578   05 Jun 2027 09:30:39.368             1.790           742.812
       136   05 Jun 2027 09:32:21.548   05 Jun 2027 09:32:28.654             7.106          3193.125
       137   05 Jun 2027 11:01:54.857   05 Jun 2027 11:02:17.890            23.033          7782.719
       138   05 Jun 2027 11:03:41.323   05 Jun 2027 11:03:49.682             8.359          2381.313
       139   05 Jun 2027 11:03:55.224   05 Jun 2027 11:03:57.935             2.711           173.187
       140   05 Jun 2027 11:04:18.412   05 Jun 2027 11:04:21.316             2.904           390.687
       141   05 Jun 2027 11:04:51.067   05 Jun 2027 11:04:53.110             2.043           901.125
       142   05 Jun 2027 11:05:27.404   05 Jun 2027 11:05:32.823             5.419           876.375
       143   05 Jun 2027 11:05:42.301   05 Jun 2027 11:05:43.156             0.855           177.406
       144   05 Jun 2027 11:06:24.901   05 Jun 2027 11:06:28.063             3.162          1059.687
       145   05 Jun 2027 11:07:41.590   05 Jun 2027 11:07:45.526             3.936          1956.031
       146   05 Jun 2027 11:08:01.627   05 Jun 2027 11:08:05.475             3.848           503.156
       147   06 Jun 2027 03:25:56.191   06 Jun 2027 03:29:05.024           188.833         94416.500
       148   06 Jun 2027 03:30:10.173   06 Jun 2027 03:30:39.264            29.091         14545.500
       149   06 Jun 2027 03:32:16.384   06 Jun 2027 03:32:27.603            11.219          5609.500
       150   06 Jun 2027 04:50:59.981   06 Jun 2027 04:51:37.575            37.594         18797.000
       151   06 Jun 2027 05:02:39.925   06 Jun 2027 05:03:39.076            59.151         29561.500
       152   06 Jun 2027 06:25:11.121   06 Jun 2027 06:25:23.474            12.353          5578.250
       153   06 Jun 2027 06:26:53.206   06 Jun 2027 06:26:59.590             6.384          1825.312
       154   06 Jun 2027 06:27:18.673   06 Jun 2027 06:27:22.326             3.653           441.844
       155   06 Jun 2027 06:28:42.482   06 Jun 2027 06:28:42.482             0.000             0.000
       156   06 Jun 2027 06:29:32.912   06 Jun 2027 06:29:39.222             6.310          3155.000
       157   06 Jun 2027 08:00:14.352   06 Jun 2027 08:00:22.284             7.932          3966.000
       158   06 Jun 2027 08:01:07.957   06 Jun 2027 08:01:13.781             5.824          1572.625
       159   06 Jun 2027 08:02:05.324   06 Jun 2027 08:02:07.803             2.479          1049.969
       160   06 Jun 2027 08:02:19.264   06 Jun 2027 08:02:21.418             2.154             5.281
       161   06 Jun 2027 08:03:45.142   06 Jun 2027 08:03:50.611             5.469          2520.500
       162   06 Jun 2027 08:05:09.248   06 Jun 2027 08:05:14.460             5.212          2217.406
       163   06 Jun 2027 08:05:35.877   06 Jun 2027 08:05:35.877             0.000             0.000
       164   06 Jun 2027 08:05:36.865   06 Jun 2027 08:05:38.786             1.921           700.156
       165   06 Jun 2027 08:06:08.083   06 Jun 2027 08:06:09.649             1.566           332.688
       166   06 Jun 2027 08:06:17.984   06 Jun 2027 08:06:22.614             4.630           260.469
       167   06 Jun 2027 09:37:13.272   06 Jun 2027 09:37:16.128             2.856          1428.000
       168   06 Jun 2027 09:37:53.294   06 Jun 2027 09:37:53.294             0.000             0.000
       169   06 Jun 2027 09:39:20.823   06 Jun 2027 09:39:40.732            19.909          6099.906
       170   06 Jun 2027 09:43:02.189   06 Jun 2027 09:43:11.757             9.568          4686.156
       171   06 Jun 2027 09:44:03.066   06 Jun 2027 09:44:12.111             9.045          1603.406
       172   06 Jun 2027 09:44:17.656   06 Jun 2027 09:44:22.399             4.743           173.281
       173   06 Jun 2027 11:14:11.328   06 Jun 2027 11:14:26.536            15.208          7527.875
       174   06 Jun 2027 11:15:44.610   06 Jun 2027 11:15:49.822             5.212          1258.688
       175   06 Jun 2027 11:16:02.338   06 Jun 2027 11:16:06.928             4.590           219.312
       176   06 Jun 2027 11:16:21.788   06 Jun 2027 11:16:29.555             7.767           384.031
       177   06 Jun 2027 11:16:50.921   06 Jun 2027 11:16:53.842             2.921           596.313
       178   06 Jun 2027 11:17:09.049   06 Jun 2027 11:17:14.006             4.957           328.781
       179   06 Jun 2027 11:17:44.993   06 Jun 2027 11:17:47.558             2.565           953.188
       180   06 Jun 2027 11:17:56.073   06 Jun 2027 11:17:58.379             2.306           256.406
       181   06 Jun 2027 11:18:42.436   06 Jun 2027 11:18:47.338             4.902          1322.750
       182   06 Jun 2027 11:19:19.264   06 Jun 2027 11:19:27.087             7.823           767.969
       183   07 Jun 2027 03:38:13.164   07 Jun 2027 03:40:34.676           141.512         70756.000
       184   07 Jun 2027 03:41:26.642   07 Jun 2027 03:42:12.042            45.400         22700.000
       185   07 Jun 2027 03:43:26.343   07 Jun 2027 03:43:26.343             0.000             0.000
       186   07 Jun 2027 03:44:01.793   07 Jun 2027 03:44:29.050            27.257         13628.500
       187   07 Jun 2027 03:45:00.858   07 Jun 2027 03:45:13.522            12.664          6332.000
       188   07 Jun 2027 05:02:21.012   07 Jun 2027 05:03:07.177            46.165         23082.500
       189   07 Jun 2027 05:14:37.152   07 Jun 2027 05:15:26.287            49.135         24083.500
       190   07 Jun 2027 06:36:35.883   07 Jun 2027 06:36:46.590            10.707          4984.000
       191   07 Jun 2027 06:37:49.017   07 Jun 2027 06:37:50.497             1.480           740.000
       192   07 Jun 2027 06:37:52.421   07 Jun 2027 06:38:00.259             7.838           717.500
       193   07 Jun 2027 06:38:56.438   07 Jun 2027 06:39:00.308             3.870           597.375
       194   07 Jun 2027 06:39:13.897   07 Jun 2027 06:39:15.841             1.944            99.219
       195   07 Jun 2027 06:40:30.487   07 Jun 2027 06:40:35.964             5.477          2155.750
       196   07 Jun 2027 06:41:45.960   07 Jun 2027 06:41:49.212             3.252          1493.437
       197   07 Jun 2027 08:11:37.577   07 Jun 2027 08:11:51.488            13.911          5101.531
       198   07 Jun 2027 08:13:04.809   07 Jun 2027 08:13:05.082             0.273           136.500
       199   07 Jun 2027 08:13:24.843   07 Jun 2027 08:13:30.519             5.676          1928.156
       200   07 Jun 2027 08:14:04.778   07 Jun 2027 08:14:08.142             3.364           972.219
       201   07 Jun 2027 08:14:52.707   07 Jun 2027 08:14:55.405             2.698          1338.688
       202   07 Jun 2027 08:15:58.113   07 Jun 2027 08:15:58.113             0.000             0.000
       203   07 Jun 2027 08:17:10.141   07 Jun 2027 08:17:16.841             6.700          3230.375
       204   07 Jun 2027 08:18:01.296   07 Jun 2027 08:18:05.194             3.898           816.813
       205   07 Jun 2027 08:18:24.684   07 Jun 2027 08:18:26.724             2.040           249.000
       206   07 Jun 2027 08:19:16.155   07 Jun 2027 08:19:17.878             1.723           861.500
       207   07 Jun 2027 08:20:00.506   07 Jun 2027 08:20:03.772             3.266          1528.438
       208   07 Jun 2027 08:20:08.087   07 Jun 2027 08:20:08.923             0.836           128.000
       209   07 Jun 2027 09:49:15.282   07 Jun 2027 09:49:28.506            13.224          5268.781
       210   07 Jun 2027 09:53:14.578   07 Jun 2027 09:53:27.273            12.695          6192.687
       211   07 Jun 2027 09:53:41.143   07 Jun 2027 09:53:42.433             1.290           221.563
       212   07 Jun 2027 09:53:59.926   07 Jun 2027 09:54:01.305             1.379           229.875
       213   07 Jun 2027 09:54:15.039   07 Jun 2027 09:54:15.875             0.836           375.781
       214   07 Jun 2027 09:54:39.892   07 Jun 2027 09:54:41.575             1.683           674.469
       215   07 Jun 2027 09:55:07.919   07 Jun 2027 09:55:12.061             4.142           823.250
       216   07 Jun 2027 09:55:18.510   07 Jun 2027 09:55:20.797             2.287           201.531
       217   07 Jun 2027 09:55:33.889   07 Jun 2027 09:55:34.636             0.747           230.844
       218   07 Jun 2027 09:55:44.772   07 Jun 2027 09:55:48.110             3.338           123.187
       219   07 Jun 2027 09:56:01.811   07 Jun 2027 09:56:03.838             2.027           365.562
       220   07 Jun 2027 09:56:13.636   07 Jun 2027 09:56:14.652             1.016           306.187
       221   07 Jun 2027 09:56:19.061   07 Jun 2027 09:56:22.475             3.414           105.687
       222   07 Jun 2027 09:56:32.353   07 Jun 2027 09:56:35.262             2.909           233.219
       223   07 Jun 2027 11:26:01.358   07 Jun 2027 11:26:15.057            13.699          6665.813
       224   07 Jun 2027 11:26:19.115   07 Jun 2027 11:26:20.642             1.527            99.281
       225   07 Jun 2027 11:27:37.127   07 Jun 2027 11:27:42.686             5.559          1606.375
       226   07 Jun 2027 11:28:40.206   07 Jun 2027 11:28:44.873             4.667          1797.500
       227   07 Jun 2027 11:28:59.591   07 Jun 2027 11:29:01.618             2.027           421.844
       228   07 Jun 2027 11:29:51.786   07 Jun 2027 11:29:52.780             0.994           497.000
       229   07 Jun 2027 11:30:07.299   07 Jun 2027 11:30:10.308             3.009           827.937
       230   07 Jun 2027 11:31:39.739   07 Jun 2027 11:31:46.630             6.891          2782.469
       231   07 Jun 2027 11:32:27.980   07 Jun 2027 11:32:30.272             2.292          1146.000
       232   08 Jun 2027 03:50:19.973   08 Jun 2027 03:53:09.036           169.063         84531.500
       233   08 Jun 2027 03:53:32.914   08 Jun 2027 03:53:38.754             5.840          2920.000
       234   08 Jun 2027 03:54:35.392   08 Jun 2027 03:54:35.392             0.000             0.000
       235   08 Jun 2027 03:55:18.421   08 Jun 2027 03:55:32.345            13.924          6962.000
       236   08 Jun 2027 03:56:03.262   08 Jun 2027 03:56:19.350            16.088          8044.000
       237   08 Jun 2027 05:14:28.952   08 Jun 2027 05:15:37.735            68.783         34391.500
       238   08 Jun 2027 06:48:18.419   08 Jun 2027 06:49:09.682            51.263         23016.719
       239   08 Jun 2027 06:49:29.478   08 Jun 2027 06:49:33.179             3.701           618.625
       240   08 Jun 2027 06:50:14.755   08 Jun 2027 06:50:20.158             5.403           717.437
       241   08 Jun 2027 06:51:02.933   08 Jun 2027 06:51:05.342             2.409           890.250
       242   08 Jun 2027 06:51:25.282   08 Jun 2027 06:51:25.282             0.000             0.000
       243   08 Jun 2027 06:51:50.966   08 Jun 2027 06:51:54.132             3.166          1211.375
       244   08 Jun 2027 06:52:12.956   08 Jun 2027 06:52:12.956             0.000             0.000
       245   08 Jun 2027 06:53:34.462   08 Jun 2027 06:53:42.581             8.119          3135.312
       246   08 Jun 2027 08:23:10.393   08 Jun 2027 08:23:23.795            13.402          6535.813
       247   08 Jun 2027 08:24:08.751   08 Jun 2027 08:24:15.025             6.274           969.812
       248   08 Jun 2027 08:25:28.828   08 Jun 2027 08:25:34.673             5.845          2306.344
       249   08 Jun 2027 08:27:45.814   08 Jun 2027 08:27:54.295             8.481          3382.563
       250   08 Jun 2027 08:30:09.413   08 Jun 2027 08:30:17.911             8.498          4031.156
       251   08 Jun 2027 08:31:56.481   08 Jun 2027 08:32:02.290             5.809          2347.781
       252   08 Jun 2027 08:32:20.740   08 Jun 2027 08:32:22.066             1.326           422.437
       253   08 Jun 2027 10:01:16.198   08 Jun 2027 10:01:31.851            15.653          6740.406
       254   08 Jun 2027 10:02:02.120   08 Jun 2027 10:02:03.292             1.172           485.500
       255   08 Jun 2027 10:02:36.237   08 Jun 2027 10:02:38.282             2.045          1014.000
       256   08 Jun 2027 10:03:25.154   08 Jun 2027 10:03:28.283             3.129           894.625
       257   08 Jun 2027 10:04:23.727   08 Jun 2027 10:04:27.945             4.218          1525.625
       258   08 Jun 2027 10:04:48.787   08 Jun 2027 10:04:55.565             6.778           565.406
       259   08 Jun 2027 10:05:08.566   08 Jun 2027 10:05:16.163             7.597           406.281
       260   08 Jun 2027 10:05:42.876   08 Jun 2027 10:05:45.584             2.708           834.781
       261   08 Jun 2027 10:06:53.214   08 Jun 2027 10:06:55.364             2.150          1075.000
       262   08 Jun 2027 10:07:17.034   08 Jun 2027 10:07:20.878             3.844          1169.000
       263   08 Jun 2027 10:07:42.178   08 Jun 2027 10:07:44.842             2.664             0.094
       264   08 Jun 2027 10:07:58.720   08 Jun 2027 10:08:01.818             3.098           372.656
       265   08 Jun 2027 10:08:16.124   08 Jun 2027 10:08:18.235             2.111           447.063
       266   08 Jun 2027 10:08:20.812   08 Jun 2027 10:08:22.584             1.772            80.531
       267   08 Jun 2027 10:08:33.454   08 Jun 2027 10:08:37.459             4.005           326.437
       268   08 Jun 2027 11:38:10.744   08 Jun 2027 11:38:33.706            22.962          6872.375
       269   08 Jun 2027 11:39:06.762   08 Jun 2027 11:39:09.427             2.665           857.719
       270   08 Jun 2027 11:39:57.163   08 Jun 2027 11:40:01.111             3.948          1396.750
       271   08 Jun 2027 11:40:10.884   08 Jun 2027 11:40:18.084             7.200           240.969
       272   08 Jun 2027 11:40:27.613   08 Jun 2027 11:40:32.514             4.901           166.969
       273   08 Jun 2027 11:40:33.965   08 Jun 2027 11:40:35.765             1.800            45.344
       274   08 Jun 2027 11:41:14.126   08 Jun 2027 11:41:15.836             1.710           855.000
       275   08 Jun 2027 11:41:52.574   08 Jun 2027 11:41:54.560             1.986           993.000
       276   08 Jun 2027 11:42:09.095   08 Jun 2027 11:42:10.771             1.676           693.657
       277   08 Jun 2027 11:42:38.019   08 Jun 2027 11:42:41.325             3.306           851.500
       278   08 Jun 2027 11:43:01.937   08 Jun 2027 11:43:05.863             3.926           640.250
       279   08 Jun 2027 11:43:43.924   08 Jun 2027 11:43:48.055             4.131           912.375
       280   09 Jun 2027 04:02:56.423   09 Jun 2027 04:05:15.417           138.994         69497.000
       281   09 Jun 2027 04:05:43.600   09 Jun 2027 04:07:05.551            81.951         40975.500
       282   09 Jun 2027 04:07:09.772   09 Jun 2027 04:07:35.590            25.818         12909.000
       283   09 Jun 2027 05:26:25.105   09 Jun 2027 05:27:12.937            47.832         23916.000
       284   09 Jun 2027 05:28:02.806   09 Jun 2027 05:28:02.806             0.000             0.000
       285   09 Jun 2027 07:02:37.881   09 Jun 2027 07:03:28.571            50.690         24708.343
       286   09 Jun 2027 07:04:01.569   09 Jun 2027 07:04:01.569             0.000             0.000
       287   09 Jun 2027 07:04:44.644   09 Jun 2027 07:04:50.162             5.518          2377.281
       288   09 Jun 2027 08:36:11.165   09 Jun 2027 08:36:24.527            13.362          5553.406
       289   09 Jun 2027 08:38:30.950   09 Jun 2027 08:38:35.263             4.313          1924.531
       290   09 Jun 2027 08:39:02.432   09 Jun 2027 08:39:04.065             1.633           585.281
       291   09 Jun 2027 08:39:13.576   09 Jun 2027 08:39:14.754             1.178           271.187
       292   09 Jun 2027 08:41:08.979   09 Jun 2027 08:41:15.843             6.864          2994.250
       293   09 Jun 2027 08:42:04.388   09 Jun 2027 08:42:04.388             0.000             0.000
       294   09 Jun 2027 08:43:08.492   09 Jun 2027 08:43:17.451             8.959          3427.625
       295   09 Jun 2027 08:44:09.058   09 Jun 2027 08:44:15.156             6.098          1612.719
       296   09 Jun 2027 08:44:43.492   09 Jun 2027 08:44:45.047             1.555           652.875
       297   09 Jun 2027 10:13:42.675   09 Jun 2027 10:13:55.370            12.695          6241.531
       298   09 Jun 2027 10:14:07.538   09 Jun 2027 10:14:10.532             2.994           380.250
       299   09 Jun 2027 10:14:57.666   09 Jun 2027 10:15:04.096             6.430           404.531
       300   09 Jun 2027 10:15:38.157   09 Jun 2027 10:15:41.111             2.954           912.313
       301   09 Jun 2027 10:15:47.033   09 Jun 2027 10:15:48.708             1.675           156.750
       302   09 Jun 2027 10:17:47.801   09 Jun 2027 10:17:56.329             8.528          3625.437
       303   09 Jun 2027 10:18:08.424   09 Jun 2027 10:18:11.716             3.292           108.812
       304   09 Jun 2027 10:18:24.342   09 Jun 2027 10:18:27.017             2.675           345.437
       305   09 Jun 2027 10:18:50.919   09 Jun 2027 10:18:56.863             5.944           442.563
       306   09 Jun 2027 10:19:16.325   09 Jun 2027 10:19:21.488             5.163           251.063
       307   09 Jun 2027 10:19:28.718   09 Jun 2027 10:19:30.569             1.851            73.125
       308   09 Jun 2027 10:19:53.314   09 Jun 2027 10:19:59.862             6.548           710.781
       309   09 Jun 2027 10:20:15.708   09 Jun 2027 10:20:16.534             0.826           396.781
       310   09 Jun 2027 11:50:38.790   09 Jun 2027 11:50:59.695            20.905          7886.125
       311   09 Jun 2027 11:52:22.186   09 Jun 2027 11:52:30.997             8.811          2134.188
       312   09 Jun 2027 11:52:43.444   09 Jun 2027 11:52:43.444             0.000             0.000
       313   09 Jun 2027 11:53:08.537   09 Jun 2027 11:53:14.506             5.969          1075.437
       314   09 Jun 2027 11:53:22.535   09 Jun 2027 11:53:23.867             1.332           247.844
       315   09 Jun 2027 11:53:59.772   09 Jun 2027 11:54:02.888             3.116           815.031
       316   09 Jun 2027 11:54:36.969   09 Jun 2027 11:54:43.509             6.540           878.406
       317   09 Jun 2027 11:55:26.536   09 Jun 2027 11:55:39.102            12.566          1344.594
       318   09 Jun 2027 11:55:43.933   09 Jun 2027 11:55:45.722             1.789           150.969
       319   09 Jun 2027 11:56:12.188   09 Jun 2027 11:56:13.273             1.085           542.500
       320   09 Jun 2027 11:56:19.633   09 Jun 2027 11:56:21.766             2.133           480.438
       321   10 Jun 2027 04:14:37.095   10 Jun 2027 04:17:28.034           170.939         85469.500
       322   10 Jun 2027 04:18:35.067   10 Jun 2027 04:18:40.782             5.715          2857.500
       323   10 Jun 2027 05:38:16.148   10 Jun 2027 05:39:37.033            80.885         40442.500
       324   10 Jun 2027 07:14:43.076   10 Jun 2027 07:15:51.538            68.462         33158.031
       325   10 Jun 2027 07:16:15.095   10 Jun 2027 07:16:15.095             0.000             0.000
       326   10 Jun 2027 07:16:38.749   10 Jun 2027 07:16:42.920             4.171          1442.281
       327   10 Jun 2027 07:17:13.918   10 Jun 2027 07:17:17.571             3.653           907.031
       328   10 Jun 2027 08:46:51.188   10 Jun 2027 08:47:02.235            11.047          4102.969
       329   10 Jun 2027 08:48:50.012   10 Jun 2027 08:48:56.964             6.952          1456.594
       330   10 Jun 2027 08:50:22.411   10 Jun 2027 08:50:26.741             4.330          1657.656
       331   10 Jun 2027 08:50:36.677   10 Jun 2027 08:50:38.893             2.216            45.031
       332   10 Jun 2027 08:52:12.785   10 Jun 2027 08:52:18.497             5.712          2357.625
       333   10 Jun 2027 08:53:51.504   10 Jun 2027 08:53:57.256             5.752          2822.437
       334   10 Jun 2027 08:54:01.042   10 Jun 2027 08:54:01.709             0.667            98.594
       335   10 Jun 2027 08:55:21.646   10 Jun 2027 08:55:27.962             6.316          2498.031
       336   10 Jun 2027 08:56:21.967   10 Jun 2027 08:56:21.967             0.000             0.000
       337   10 Jun 2027 08:56:27.152   10 Jun 2027 08:56:31.628             4.476          1819.344
       338   10 Jun 2027 10:25:48.759   10 Jun 2027 10:26:02.009            13.250          5890.563
       339   10 Jun 2027 10:26:06.826   10 Jun 2027 10:26:12.870             6.044           150.531
       340   10 Jun 2027 10:28:01.676   10 Jun 2027 10:28:07.330             5.654          2045.969
       341   10 Jun 2027 10:28:18.496   10 Jun 2027 10:28:20.343             1.847           286.406
       342   10 Jun 2027 10:28:48.821   10 Jun 2027 10:28:50.652             1.831           722.375
       343   10 Jun 2027 10:29:30.475   10 Jun 2027 10:29:35.823             5.348           864.406
       344   10 Jun 2027 10:29:58.315   10 Jun 2027 10:30:00.905             2.590           575.844
       345   10 Jun 2027 10:30:07.225   10 Jun 2027 10:30:08.893             1.668            40.594
       346   10 Jun 2027 10:30:24.356   10 Jun 2027 10:30:24.713             0.357           156.000
       347   10 Jun 2027 10:31:52.996   10 Jun 2027 10:32:01.952             8.956          2476.656
       348   10 Jun 2027 10:32:12.411   10 Jun 2027 10:32:13.674             1.263           297.219
       349   11 Jun 2027 04:27:50.415   11 Jun 2027 04:31:22.210           211.795        105897.500
       350   11 Jun 2027 05:50:24.554   11 Jun 2027 05:50:54.788            30.234         15117.000
       351   11 Jun 2027 05:52:34.446   11 Jun 2027 05:53:07.748            33.302         16651.000
       352   11 Jun 2027 07:26:53.020   11 Jun 2027 07:27:31.075            38.055         18812.313
       353   11 Jun 2027 07:28:22.328   11 Jun 2027 07:28:25.580             3.252          1479.812
       354   11 Jun 2027 07:28:29.507   11 Jun 2027 07:28:31.708             2.201           122.719
       355   11 Jun 2027 07:28:40.704   11 Jun 2027 07:28:41.918             1.214           281.125
       356   11 Jun 2027 07:29:33.708   11 Jun 2027 07:29:33.708             0.000             0.000
       357   11 Jun 2027 07:29:48.299   11 Jun 2027 07:29:52.472             4.173          1467.250
       358   11 Jun 2027 09:02:04.269   11 Jun 2027 09:02:12.919             8.650          4172.438
       359   11 Jun 2027 09:02:27.247   11 Jun 2027 09:02:31.098             3.851           347.594
       360   11 Jun 2027 09:03:41.057   11 Jun 2027 09:03:47.180             6.123          1202.969
       361   11 Jun 2027 09:05:04.596   11 Jun 2027 09:05:07.330             2.734          1297.875
       362   11 Jun 2027 09:05:23.894   11 Jun 2027 09:05:24.463             0.569            19.875
       363   11 Jun 2027 09:05:30.940   11 Jun 2027 09:05:30.940             0.000             0.000
       364   11 Jun 2027 09:07:22.006   11 Jun 2027 09:07:37.235            15.229          3673.219
       365   11 Jun 2027 09:07:52.445   11 Jun 2027 09:07:59.707             7.262           472.188
       366   11 Jun 2027 10:38:23.008   11 Jun 2027 10:38:35.958            12.950          6192.906
       367   11 Jun 2027 10:39:45.747   11 Jun 2027 10:39:49.583             3.836          1301.531
       368   11 Jun 2027 10:40:26.195   11 Jun 2027 10:40:29.135             2.940           665.094
       369   11 Jun 2027 10:40:29.529   11 Jun 2027 10:40:30.257             0.728            12.313
       370   11 Jun 2027 10:41:01.149   11 Jun 2027 10:41:03.513             2.364           916.094
       371   11 Jun 2027 10:41:13.563   11 Jun 2027 10:41:14.818             1.255           259.250
       372   11 Jun 2027 10:42:10.572   11 Jun 2027 10:42:19.059             8.487          1086.906
       373   11 Jun 2027 10:42:43.267   11 Jun 2027 10:42:49.688             6.421           756.500
       374   11 Jun 2027 10:43:01.740   11 Jun 2027 10:43:02.742             1.002           270.469
       375   11 Jun 2027 10:44:01.531   11 Jun 2027 10:44:06.370             4.839          1837.156
       376   11 Jun 2027 10:44:11.167   11 Jun 2027 10:44:14.114             2.947           149.906
       377   12 Jun 2027 03:00:46.633   12 Jun 2027 03:01:11.635            25.002         12501.000
       378   12 Jun 2027 03:01:50.204   12 Jun 2027 03:02:26.281            36.077         18038.500
       379   12 Jun 2027 03:02:31.420   12 Jun 2027 03:02:31.774             0.354           177.000
       380   12 Jun 2027 03:02:41.714   12 Jun 2027 03:02:51.979            10.265          5132.500
       381   12 Jun 2027 03:03:47.885   12 Jun 2027 03:04:23.010            35.125         17562.500
       382   12 Jun 2027 03:04:28.626   12 Jun 2027 03:04:43.200            14.574          7287.000
       383   12 Jun 2027 03:09:07.683   12 Jun 2027 03:09:26.554            18.871          9435.500
       384   12 Jun 2027 04:38:59.386   12 Jun 2027 04:39:35.776            36.390         18195.000
       385   12 Jun 2027 04:40:04.383   12 Jun 2027 04:41:47.401           103.018         51509.000
       386   12 Jun 2027 06:03:07.025   12 Jun 2027 06:03:47.613            40.588         20294.000
       387   12 Jun 2027 06:05:14.779   12 Jun 2027 06:05:22.276             7.497          3748.500
       388   12 Jun 2027 07:38:52.174   12 Jun 2027 07:39:10.707            18.533          7780.844
       389   12 Jun 2027 07:40:01.603   12 Jun 2027 07:40:04.830             3.227          1488.937
       390   12 Jun 2027 07:40:31.970   12 Jun 2027 07:40:35.014             3.044           296.281
       391   12 Jun 2027 07:41:16.845   12 Jun 2027 07:41:20.732             3.887          1307.219
       392   12 Jun 2027 07:41:24.473   12 Jun 2027 07:41:24.473             0.000             0.000
       393   12 Jun 2027 07:42:00.534   12 Jun 2027 07:42:03.328             2.794          1243.813
       394   12 Jun 2027 09:14:05.280   12 Jun 2027 09:14:14.484             9.204          4602.000
       395   12 Jun 2027 09:15:37.543   12 Jun 2027 09:15:46.195             8.652          3285.438
       396   12 Jun 2027 09:16:03.525   12 Jun 2027 09:16:06.655             3.130           541.562
       397   12 Jun 2027 09:16:56.725   12 Jun 2027 09:16:59.237             2.512          1084.094
       398   12 Jun 2027 09:17:26.988   12 Jun 2027 09:17:33.537             6.549           867.219
       399   12 Jun 2027 09:17:44.034   12 Jun 2027 09:17:47.371             3.337           328.031
       400   12 Jun 2027 09:18:37.511   12 Jun 2027 09:18:40.206             2.695          1068.625
       401   12 Jun 2027 09:19:25.778   12 Jun 2027 09:19:28.701             2.923          1076.969
       402   12 Jun 2027 09:20:16.403   12 Jun 2027 09:20:20.800             4.397          1490.687
       403   12 Jun 2027 09:20:39.280   12 Jun 2027 09:20:41.291             2.011           475.719
       404   12 Jun 2027 09:20:44.625   12 Jun 2027 09:20:45.429             0.804            60.094
       405   12 Jun 2027 10:50:01.804   12 Jun 2027 10:50:16.272            14.468          6435.437
       406   12 Jun 2027 10:51:39.826   12 Jun 2027 10:51:44.679             4.853          1974.437
       407   12 Jun 2027 10:52:32.072   12 Jun 2027 10:52:35.201             3.129           998.156
       408   12 Jun 2027 10:52:48.123   12 Jun 2027 10:52:50.867             2.744           251.250
       409   12 Jun 2027 10:53:08.378   12 Jun 2027 10:53:09.570             1.192           212.687
       410   12 Jun 2027 10:54:21.902   12 Jun 2027 10:54:28.549             6.647          2246.844
       411   12 Jun 2027 10:55:25.278   12 Jun 2027 10:55:28.034             2.756          1378.000
       412   12 Jun 2027 10:55:59.199   12 Jun 2027 10:56:06.591             7.392          1328.625
       413   13 Jun 2027 03:13:51.165   13 Jun 2027 03:16:24.591           153.426         76713.000
       414   13 Jun 2027 03:16:31.225   13 Jun 2027 03:16:54.282            23.057         11528.500
       415   13 Jun 2027 03:18:24.779   13 Jun 2027 03:18:24.779             0.000             0.000
       416   13 Jun 2027 03:19:00.656   13 Jun 2027 03:19:15.910            15.254          7627.000
       417   13 Jun 2027 03:20:48.112   13 Jun 2027 03:20:56.466             8.354          4177.000
       418   13 Jun 2027 03:21:13.753   13 Jun 2027 03:21:38.192            24.439         12219.500
       419   13 Jun 2027 04:39:57.188   13 Jun 2027 04:40:14.136            16.948          8474.000
       420   13 Jun 2027 04:50:55.049   13 Jun 2027 04:52:22.741            87.692         43797.562
       421   13 Jun 2027 06:14:13.918   13 Jun 2027 06:14:23.240             9.322          4661.000
       422   13 Jun 2027 06:14:55.946   13 Jun 2027 06:15:05.339             9.393          3473.281
       423   13 Jun 2027 06:16:06.177   13 Jun 2027 06:16:09.823             3.646          1568.563
       424   13 Jun 2027 06:17:48.382   13 Jun 2027 06:17:49.275             0.893           446.500
       425   13 Jun 2027 07:50:36.737   13 Jun 2027 07:50:50.917            14.180          4520.719
       426   13 Jun 2027 07:52:01.748   13 Jun 2027 07:52:08.392             6.644          2146.344
       427   13 Jun 2027 07:52:20.251   13 Jun 2027 07:52:26.356             6.105            78.094
       428   13 Jun 2027 07:52:50.174   13 Jun 2027 07:52:55.753             5.579           711.781
       429   13 Jun 2027 07:53:22.811   13 Jun 2027 07:53:24.128             1.317           658.500
       430   13 Jun 2027 07:53:48.989   13 Jun 2027 07:53:50.820             1.831           834.938
       431   13 Jun 2027 07:54:40.446   13 Jun 2027 07:54:45.105             4.659          1535.313
       432   13 Jun 2027 09:25:21.797   13 Jun 2027 09:25:30.780             8.983          4377.156
       433   13 Jun 2027 09:25:56.752   13 Jun 2027 09:25:59.399             2.647           580.094
       434   13 Jun 2027 09:28:16.830   13 Jun 2027 09:28:26.119             9.289          3946.250
       435   13 Jun 2027 09:29:29.261   13 Jun 2027 09:29:34.066             4.805          1147.969
       436   13 Jun 2027 09:31:11.661   13 Jun 2027 09:31:16.974             5.313          2656.500
       437   13 Jun 2027 09:32:14.331   13 Jun 2027 09:32:20.232             5.901          1835.313
       438   13 Jun 2027 09:32:43.898   13 Jun 2027 09:32:49.837             5.939           579.719
       439   13 Jun 2027 11:02:11.144   13 Jun 2027 11:02:32.804            21.660          8022.875
       440   13 Jun 2027 11:02:42.388   13 Jun 2027 11:02:44.250             1.862           275.406
       441   13 Jun 2027 11:04:10.507   13 Jun 2027 11:04:16.043             5.536          2515.781
       442   13 Jun 2027 11:04:34.492   13 Jun 2027 11:04:36.967             2.475           325.563
       443   13 Jun 2027 11:04:40.909   13 Jun 2027 11:04:41.126             0.217            65.844
       444   13 Jun 2027 11:05:26.950   13 Jun 2027 11:05:27.915             0.965           482.500
       445   13 Jun 2027 11:05:34.382   13 Jun 2027 11:05:38.501             4.119           926.594
       446   13 Jun 2027 11:05:58.753   13 Jun 2027 11:06:00.642             1.889           228.156
       447   13 Jun 2027 11:06:40.917   13 Jun 2027 11:06:43.656             2.739          1091.187
       448   13 Jun 2027 11:07:02.241   13 Jun 2027 11:07:11.811             9.570           580.781
       449   13 Jun 2027 11:07:14.702   13 Jun 2027 11:07:17.569             2.867            89.375
       450   13 Jun 2027 11:07:19.668   13 Jun 2027 11:07:23.629             3.961            65.594
       451   13 Jun 2027 11:08:00.433   13 Jun 2027 11:08:06.160             5.727           888.281
