uniorb/output/strategy_2/Camera/Camera_KinoSat_111908.txt

KinoSat_111908
-------------------------
    Access    *     Start Time (UTCG)     *     Stop Time (UTCG)  *   Duration (s) *   Data (Mbytes)
         1   01 Jun 2027 04:08:54.222   01 Jun 2027 04:10:02.285            68.063         34031.500
         2   01 Jun 2027 04:10:05.237   01 Jun 2027 04:10:16.118            10.881          5440.500
         3   01 Jun 2027 04:10:21.616   01 Jun 2027 04:11:03.912            42.296         21148.000
         4   01 Jun 2027 04:11:05.081   01 Jun 2027 04:12:37.150            92.069         46034.500
         5   01 Jun 2027 04:13:06.668   01 Jun 2027 04:13:22.949            16.281          8140.500
         6   01 Jun 2027 04:13:39.152   01 Jun 2027 04:13:48.281             9.129          4564.500
         7   01 Jun 2027 05:47:41.463   01 Jun 2027 05:48:45.013            63.550         31775.000
         8   01 Jun 2027 05:49:22.554   01 Jun 2027 05:49:56.336            33.782         16891.000
         9   01 Jun 2027 05:52:28.463   01 Jun 2027 05:53:11.016            42.553         21276.500
        10   01 Jun 2027 05:53:38.835   01 Jun 2027 05:53:54.527            15.692          7846.000
        11   01 Jun 2027 07:12:01.796   01 Jun 2027 07:13:13.970            72.174         36087.000
        12   01 Jun 2027 07:14:02.138   01 Jun 2027 07:14:15.233            13.095          6547.500
        13   01 Jun 2027 07:24:16.118   01 Jun 2027 07:24:47.459            31.341         15670.500
        14   01 Jun 2027 08:46:12.137   01 Jun 2027 08:47:32.695            80.558         40279.000
        15   01 Jun 2027 08:48:14.972   01 Jun 2027 08:48:51.312            36.340         18170.000
        16   01 Jun 2027 08:50:25.590   01 Jun 2027 08:50:25.590             0.000             0.000
        17   01 Jun 2027 08:51:14.257   01 Jun 2027 08:51:18.801             4.544          2272.000
        18   01 Jun 2027 10:21:00.162   01 Jun 2027 10:22:56.399           116.237         58118.500
        19   02 Jun 2027 04:21:37.982   02 Jun 2027 04:23:15.992            98.010         49005.000
        20   02 Jun 2027 04:23:42.139   02 Jun 2027 04:25:12.063            89.924         44962.000
        21   02 Jun 2027 04:25:26.035   02 Jun 2027 04:25:30.403             4.368          2184.000
        22   02 Jun 2027 04:25:34.744   02 Jun 2027 04:25:35.681             0.937           468.500
        23   02 Jun 2027 06:00:04.187   02 Jun 2027 06:02:39.826           155.639         77819.500
        24   02 Jun 2027 06:03:35.948   02 Jun 2027 06:03:48.367            12.419          6209.500
        25   02 Jun 2027 07:24:01.607   02 Jun 2027 07:26:01.677           120.070         60035.000
        26   02 Jun 2027 08:59:58.570   02 Jun 2027 09:01:39.086           100.516         50258.000
        27   02 Jun 2027 10:33:49.048   02 Jun 2027 10:34:51.207            62.159         30654.938
        28   02 Jun 2027 10:36:02.049   02 Jun 2027 10:36:06.074             4.025          1154.750
        29   02 Jun 2027 10:39:53.782   02 Jun 2027 10:40:01.938             8.156          4078.000
        30   02 Jun 2027 10:41:39.088   02 Jun 2027 10:41:51.113            12.025          5900.844
        31   03 Jun 2027 03:00:00.000   03 Jun 2027 03:00:36.664            36.664         18332.000
        32   03 Jun 2027 03:00:53.862   03 Jun 2027 03:01:02.149             8.287          4143.500
        33   03 Jun 2027 03:01:14.419   03 Jun 2027 03:01:39.400            24.981         12490.500
        34   03 Jun 2027 03:01:44.962   03 Jun 2027 03:01:44.963             0.001             0.500
        35   03 Jun 2027 03:03:09.491   03 Jun 2027 03:03:16.898             7.407          3703.500
        36   03 Jun 2027 04:34:23.609   03 Jun 2027 04:34:52.111            28.502         14251.000
        37   03 Jun 2027 04:35:00.886   03 Jun 2027 04:35:50.778            49.892         24946.000
        38   03 Jun 2027 04:35:52.951   03 Jun 2027 04:37:33.220           100.269         50134.500
        39   03 Jun 2027 04:37:34.935   03 Jun 2027 04:37:57.016            22.081         11040.500
        40   03 Jun 2027 06:12:32.603   03 Jun 2027 06:14:06.813            94.210         45434.968
        41   03 Jun 2027 06:15:18.002   03 Jun 2027 06:15:22.826             4.824          1709.500
        42   03 Jun 2027 06:16:07.270   03 Jun 2027 06:16:07.270             0.000             0.000
        43   03 Jun 2027 06:17:09.991   03 Jun 2027 06:17:14.663             4.672          2336.000
        44   03 Jun 2027 07:35:56.243   03 Jun 2027 07:36:15.267            19.024          9304.687
        45   03 Jun 2027 07:37:17.033   03 Jun 2027 07:37:20.616             3.583          1692.719
        46   03 Jun 2027 07:37:41.365   03 Jun 2027 07:37:42.462             1.097           542.688
        47   03 Jun 2027 07:38:05.205   03 Jun 2027 07:38:06.663             1.458           365.469
        48   03 Jun 2027 09:12:20.408   03 Jun 2027 09:12:46.312            25.904         10361.969
        49   03 Jun 2027 09:14:53.865   03 Jun 2027 09:14:58.848             4.983          2491.500
        50   03 Jun 2027 10:47:57.685   03 Jun 2027 10:48:18.068            20.383          9886.187
        51   03 Jun 2027 10:49:07.270   03 Jun 2027 10:49:11.791             4.521          1426.750
        52   03 Jun 2027 10:49:41.046   03 Jun 2027 10:49:42.737             1.691           340.656
        53   03 Jun 2027 10:50:00.352   03 Jun 2027 10:50:04.509             4.157           550.469
        54   03 Jun 2027 10:52:51.282   03 Jun 2027 10:52:52.632             1.350           675.000
        55   03 Jun 2027 10:53:23.784   03 Jun 2027 10:53:37.653            13.869          5484.344
        56   03 Jun 2027 10:53:48.657   03 Jun 2027 10:53:49.734             1.077           227.250
        57   04 Jun 2027 03:08:07.767   04 Jun 2027 03:08:46.864            39.097         19548.500
        58   04 Jun 2027 03:08:59.765   04 Jun 2027 03:11:06.344           126.579         63289.500
        59   04 Jun 2027 03:12:40.543   04 Jun 2027 03:12:53.863            13.320          6660.000
        60   04 Jun 2027 03:13:26.521   04 Jun 2027 03:13:36.603            10.082          5041.000
        61   04 Jun 2027 03:13:50.614   04 Jun 2027 03:13:57.750             7.136          3568.000
        62   04 Jun 2027 03:14:14.684   04 Jun 2027 03:14:44.131            29.447         14723.500
        63   04 Jun 2027 04:46:09.675   04 Jun 2027 04:46:12.007             2.332          1166.000
        64   04 Jun 2027 04:46:37.480   04 Jun 2027 04:47:24.605            47.125         23562.500
        65   04 Jun 2027 04:47:27.621   04 Jun 2027 04:48:11.353            43.732         21866.000
        66   04 Jun 2027 04:49:20.609   04 Jun 2027 04:49:27.890             7.281          3640.500
        67   04 Jun 2027 04:49:56.419   04 Jun 2027 04:50:09.422            13.003          6180.062
        68   04 Jun 2027 04:50:25.844   04 Jun 2027 04:50:27.289             1.445            40.844
        69   04 Jun 2027 06:24:49.416   04 Jun 2027 06:25:19.528            30.112         13697.031
        70   04 Jun 2027 06:25:46.198   04 Jun 2027 06:25:49.459             3.261           789.719
        71   04 Jun 2027 06:26:52.406   04 Jun 2027 06:26:53.588             1.182           591.000
        72   04 Jun 2027 06:27:24.845   04 Jun 2027 06:27:33.104             8.259          2090.000
        73   04 Jun 2027 07:47:43.765   04 Jun 2027 07:48:05.758            21.993          8248.625
        74   04 Jun 2027 07:49:18.270   04 Jun 2027 07:49:26.144             7.874          2001.937
        75   04 Jun 2027 07:49:42.572   04 Jun 2027 07:49:46.744             4.172           206.094
        76   04 Jun 2027 09:24:22.379   04 Jun 2027 09:24:37.144            14.765          6327.437
        77   04 Jun 2027 09:26:58.835   04 Jun 2027 09:26:58.835             0.000             0.000
        78   04 Jun 2027 09:27:05.656   04 Jun 2027 09:27:16.109            10.453          4127.719
        79   04 Jun 2027 10:59:22.516   04 Jun 2027 10:59:30.943             8.427          4158.438
        80   04 Jun 2027 11:00:35.532   04 Jun 2027 11:00:35.532             0.000             0.000
        81   04 Jun 2027 11:02:54.097   04 Jun 2027 11:03:04.963            10.866          5010.563
        82   04 Jun 2027 11:03:35.472   04 Jun 2027 11:03:38.303             2.831           748.625
        83   04 Jun 2027 11:04:23.311   04 Jun 2027 11:04:27.311             4.000           695.375
        84   04 Jun 2027 11:04:58.933   04 Jun 2027 11:05:01.332             2.399           969.969
        85   04 Jun 2027 11:05:10.072   04 Jun 2027 11:05:13.540             3.468           273.125
        86   04 Jun 2027 11:05:18.352   04 Jun 2027 11:05:22.129             3.777            68.406
        87   04 Jun 2027 11:05:33.029   04 Jun 2027 11:05:33.029             0.000             0.000
        88   04 Jun 2027 11:06:13.009   04 Jun 2027 11:06:14.236             1.227           613.500
        89   05 Jun 2027 03:20:09.114   05 Jun 2027 03:20:44.092            34.978         17489.000
        90   05 Jun 2027 03:20:58.405   05 Jun 2027 03:23:28.656           150.251         75125.500
        91   05 Jun 2027 03:23:53.404   05 Jun 2027 03:24:16.814            23.410         11705.000
        92   05 Jun 2027 03:24:38.939   05 Jun 2027 03:24:39.669             0.730           365.000
        93   05 Jun 2027 03:25:17.882   05 Jun 2027 03:25:21.388             3.506          1753.000
        94   05 Jun 2027 03:25:44.339   05 Jun 2027 03:25:56.586            12.247          6123.500
        95   05 Jun 2027 03:26:06.456   05 Jun 2027 03:26:11.888             5.432          2716.000
        96   05 Jun 2027 03:26:39.411   05 Jun 2027 03:27:05.604            26.193         13096.500
        97   05 Jun 2027 03:27:12.877   05 Jun 2027 03:27:18.430             5.553          2776.500
        98   05 Jun 2027 04:58:17.294   05 Jun 2027 04:59:18.938            61.644         30822.000
        99   05 Jun 2027 04:59:25.736   05 Jun 2027 04:59:28.805             3.069           927.844
       100   05 Jun 2027 05:00:04.442   05 Jun 2027 05:00:09.658             5.216           992.406
       101   05 Jun 2027 05:00:55.082   05 Jun 2027 05:00:57.683             2.601           550.844
       102   05 Jun 2027 05:01:12.055   05 Jun 2027 05:01:13.598             1.543           248.063
       103   05 Jun 2027 05:01:40.124   05 Jun 2027 05:01:41.737             1.613            55.531
       104   05 Jun 2027 05:01:52.160   05 Jun 2027 05:01:54.125             1.965            44.156
       105   05 Jun 2027 05:03:16.312   05 Jun 2027 05:03:19.969             3.657          1828.500
       106   05 Jun 2027 05:03:30.926   05 Jun 2027 05:03:33.496             2.570           864.156
       107   05 Jun 2027 05:04:04.402   05 Jun 2027 05:04:08.949             4.547           924.469
       108   05 Jun 2027 06:36:35.168   05 Jun 2027 06:36:46.655            11.487          4976.594
       109   05 Jun 2027 06:37:14.102   05 Jun 2027 06:37:16.425             2.323           834.656
       110   05 Jun 2027 06:38:52.536   05 Jun 2027 06:38:59.895             7.359          2926.688
       111   05 Jun 2027 06:39:24.120   05 Jun 2027 06:39:27.442             3.322           626.812
       112   05 Jun 2027 06:39:58.234   05 Jun 2027 06:39:58.851             0.617           308.500
       113   05 Jun 2027 07:59:58.399   05 Jun 2027 08:00:11.790            13.391          6044.188
       114   05 Jun 2027 08:01:27.695   05 Jun 2027 08:01:31.416             3.721          1797.156
       115   05 Jun 2027 08:02:42.757   05 Jun 2027 08:02:49.532             6.775          2182.625
       116   05 Jun 2027 09:36:30.184   05 Jun 2027 09:36:45.242            15.058          5880.156
       117   05 Jun 2027 09:39:47.223   05 Jun 2027 09:40:03.345            16.122          5596.344
       118   05 Jun 2027 11:11:40.470   05 Jun 2027 11:11:54.207            13.737          6054.031
       119   05 Jun 2027 11:13:19.803   05 Jun 2027 11:13:19.803             0.000             0.000
       120   05 Jun 2027 11:14:59.808   05 Jun 2027 11:14:59.808             0.000             0.000
       121   05 Jun 2027 11:17:52.515   05 Jun 2027 11:18:13.310            20.795         10397.500
       122   06 Jun 2027 03:32:06.420   06 Jun 2027 03:35:20.852           194.432         97216.000
       123   06 Jun 2027 03:35:48.689   06 Jun 2027 03:36:26.018            37.329         18664.500
       124   06 Jun 2027 03:36:55.180   06 Jun 2027 03:36:57.579             2.399          1199.500
       125   06 Jun 2027 03:37:05.644   06 Jun 2027 03:37:07.243             1.599           799.500
       126   06 Jun 2027 03:37:29.463   06 Jun 2027 03:37:36.188             6.725          3362.500
       127   06 Jun 2027 03:37:44.674   06 Jun 2027 03:37:51.097             6.423          3211.500
       128   06 Jun 2027 05:11:24.033   06 Jun 2027 05:12:41.602            77.569         38408.844
       129   06 Jun 2027 05:13:10.384   06 Jun 2027 05:13:12.738             2.354           183.250
       130   06 Jun 2027 05:14:02.339   06 Jun 2027 05:14:03.232             0.893           446.500
       131   06 Jun 2027 05:14:15.577   06 Jun 2027 05:14:15.577             0.000             0.000
       132   06 Jun 2027 05:15:14.067   06 Jun 2027 05:15:20.470             6.403          2731.156
       133   06 Jun 2027 05:15:57.780   06 Jun 2027 05:15:57.780             0.000             0.000
       134   06 Jun 2027 05:17:53.951   06 Jun 2027 05:18:00.029             6.078          2637.531
       135   06 Jun 2027 05:18:15.330   06 Jun 2027 05:18:17.584             2.254           242.219
       136   06 Jun 2027 05:19:20.655   06 Jun 2027 05:19:21.164             0.509           254.500
       137   06 Jun 2027 06:48:32.066   06 Jun 2027 06:48:42.933            10.867          5095.969
       138   06 Jun 2027 06:49:55.116   06 Jun 2027 06:50:00.859             5.743          2237.094
       139   06 Jun 2027 06:51:33.859   06 Jun 2027 06:51:39.623             5.764          2671.688
       140   06 Jun 2027 06:52:07.160   06 Jun 2027 06:52:07.185             0.025            12.500
       141   06 Jun 2027 08:12:28.520   06 Jun 2027 08:12:52.508            23.988          9188.375
       142   06 Jun 2027 08:13:32.232   06 Jun 2027 08:13:39.414             7.182           932.375
       143   06 Jun 2027 09:48:23.223   06 Jun 2027 09:48:34.412            11.189          5559.688
       144   06 Jun 2027 09:49:57.900   06 Jun 2027 09:49:57.900             0.000             0.000
       145   06 Jun 2027 09:51:48.815   06 Jun 2027 09:51:48.815             0.000             0.000
       146   06 Jun 2027 11:23:18.799   06 Jun 2027 11:23:46.953            28.154         12153.500
       147   06 Jun 2027 11:26:12.609   06 Jun 2027 11:26:17.481             4.872          2436.000
       148   06 Jun 2027 11:29:58.072   06 Jun 2027 11:30:18.992            20.920          8964.344
       149   07 Jun 2027 03:44:47.568   07 Jun 2027 03:48:53.841           246.273        123136.500
       150   07 Jun 2027 05:23:28.129   07 Jun 2027 05:24:57.767            89.638         43186.313
       151   07 Jun 2027 05:25:51.668   07 Jun 2027 05:25:51.761             0.093            46.500
       152   07 Jun 2027 05:28:14.817   07 Jun 2027 05:28:33.001            18.184          5827.313
       153   07 Jun 2027 05:29:30.694   07 Jun 2027 05:29:35.461             4.767          1618.594
       154   07 Jun 2027 06:49:17.674   07 Jun 2027 06:49:28.007            10.333          5166.500
       155   07 Jun 2027 06:49:51.612   07 Jun 2027 06:49:56.996             5.384          1614.032
       156   07 Jun 2027 07:00:28.504   07 Jun 2027 07:00:28.750             0.246           123.000
       157   07 Jun 2027 07:00:36.884   07 Jun 2027 07:00:43.349             6.465          2930.500
       158   07 Jun 2027 07:01:34.556   07 Jun 2027 07:01:35.753             1.197           569.375
       159   07 Jun 2027 07:03:08.515   07 Jun 2027 07:03:13.128             4.613          1923.594
       160   07 Jun 2027 08:23:05.815   07 Jun 2027 08:23:23.611            17.796          8339.938
       161   07 Jun 2027 08:23:54.063   07 Jun 2027 08:23:57.412             3.349           834.313
       162   07 Jun 2027 08:25:20.087   07 Jun 2027 08:25:28.998             8.911          2270.188
       163   07 Jun 2027 08:26:44.340   07 Jun 2027 08:26:49.284             4.944          2197.750
       164   07 Jun 2027 10:04:07.541   07 Jun 2027 10:04:35.459            27.918         13959.000
       165   07 Jun 2027 11:37:45.570   07 Jun 2027 11:38:19.726            34.156         17047.781
       166   07 Jun 2027 11:41:46.331   07 Jun 2027 11:41:59.945            13.614          6456.406
       167   07 Jun 2027 11:42:17.534   07 Jun 2027 11:42:21.784             4.250           549.656
       168   08 Jun 2027 03:56:53.491   08 Jun 2027 03:58:36.139           102.648         51324.000
       169   08 Jun 2027 03:58:45.643   08 Jun 2027 03:59:04.592            18.949          9474.500
       170   08 Jun 2027 03:59:42.649   08 Jun 2027 04:00:42.550            59.901         29950.500
       171   08 Jun 2027 04:01:02.666   08 Jun 2027 04:01:20.895            18.229          9114.500
       172   08 Jun 2027 04:01:46.137   08 Jun 2027 04:02:21.861            35.724         17862.000
       173   08 Jun 2027 04:02:50.082   08 Jun 2027 04:02:59.519             9.437          4718.500
       174   08 Jun 2027 05:35:57.820   08 Jun 2027 05:37:16.290            78.470         37905.000
       175   08 Jun 2027 05:38:09.921   08 Jun 2027 05:38:12.009             2.088          1044.000
       176   08 Jun 2027 05:39:24.115   08 Jun 2027 05:39:29.100             4.985          2466.188
       177   08 Jun 2027 05:40:07.772   08 Jun 2027 05:40:11.509             3.737          1148.625
       178   08 Jun 2027 05:40:40.657   08 Jun 2027 05:40:42.834             2.177           276.031
       179   08 Jun 2027 05:41:22.705   08 Jun 2027 05:41:24.312             1.607           301.656
       180   08 Jun 2027 05:41:54.835   08 Jun 2027 05:41:56.635             1.800           774.250
       181   08 Jun 2027 07:00:49.224   08 Jun 2027 07:01:03.694            14.470          7169.969
       182   08 Jun 2027 07:12:32.164   08 Jun 2027 07:12:43.332            11.168          3212.281
       183   08 Jun 2027 08:34:46.140   08 Jun 2027 08:35:09.513            23.373         11015.438
       184   08 Jun 2027 08:37:19.800   08 Jun 2027 08:37:28.317             8.517          3286.156
       185   08 Jun 2027 08:38:52.384   08 Jun 2027 08:38:57.104             4.720          2314.188
       186   08 Jun 2027 10:10:45.550   08 Jun 2027 10:11:07.956            22.406          8718.094
       187   08 Jun 2027 10:12:36.651   08 Jun 2027 10:12:42.391             5.740          1684.375
       188   08 Jun 2027 10:14:51.096   08 Jun 2027 10:14:51.206             0.110            55.000
       189   08 Jun 2027 11:53:29.985   08 Jun 2027 11:54:25.664            55.679         24432.750
       190   09 Jun 2027 04:09:13.675   09 Jun 2027 04:09:40.292            26.617         13308.500
       191   09 Jun 2027 04:09:45.331   09 Jun 2027 04:10:19.782            34.451         17225.500
       192   09 Jun 2027 04:10:23.553   09 Jun 2027 04:12:51.614           148.061         74030.500
       193   09 Jun 2027 04:13:24.011   09 Jun 2027 04:13:33.628             9.617          4808.500
       194   09 Jun 2027 04:15:08.648   09 Jun 2027 04:15:13.474             4.826          2413.000
       195   09 Jun 2027 05:48:00.202   09 Jun 2027 05:48:37.121            36.919         18459.500
       196   09 Jun 2027 05:49:03.615   09 Jun 2027 05:49:54.789            51.174         25587.000
       197   09 Jun 2027 05:50:49.592   09 Jun 2027 05:50:58.771             9.179          4589.500
       198   09 Jun 2027 05:51:08.822   09 Jun 2027 05:51:23.708            14.886          7443.000
       199   09 Jun 2027 05:52:04.039   09 Jun 2027 05:52:04.039             0.000             0.000
       200   09 Jun 2027 05:52:33.649   09 Jun 2027 05:52:33.649             0.000             0.000
       201   09 Jun 2027 05:53:24.012   09 Jun 2027 05:53:28.548             4.536          2268.000
       202   09 Jun 2027 05:54:58.119   09 Jun 2027 05:55:01.196             3.077          1538.500
       203   09 Jun 2027 07:12:20.771   09 Jun 2027 07:12:33.219            12.448          6224.000
       204   09 Jun 2027 07:13:10.795   09 Jun 2027 07:13:20.220             9.425          1782.000
       205   09 Jun 2027 07:13:46.520   09 Jun 2027 07:13:53.675             7.155           798.250
       206   09 Jun 2027 07:14:22.846   09 Jun 2027 07:14:23.548             0.702           238.156
       207   09 Jun 2027 07:24:37.507   09 Jun 2027 07:24:42.794             5.287          2412.906
       208   09 Jun 2027 08:46:28.128   09 Jun 2027 08:46:49.131            21.003         10402.969
       209   09 Jun 2027 08:48:31.654   09 Jun 2027 08:48:37.312             5.658          2020.156
       210   09 Jun 2027 08:49:36.961   09 Jun 2027 08:49:39.440             2.479           877.094
       211   09 Jun 2027 08:51:29.300   09 Jun 2027 08:51:36.304             7.004          3250.406
       212   09 Jun 2027 10:22:10.977   09 Jun 2027 10:22:32.627            21.650          8114.125
       213   09 Jun 2027 10:24:48.688   09 Jun 2027 10:24:48.688             0.000             0.000
       214   09 Jun 2027 10:25:05.859   09 Jun 2027 10:25:13.527             7.668          3413.938
       215   09 Jun 2027 10:25:39.469   09 Jun 2027 10:25:40.150             0.681           175.125
       216   09 Jun 2027 10:27:19.044   09 Jun 2027 10:27:25.083             6.039          1896.937
       217   09 Jun 2027 10:28:38.786   09 Jun 2027 10:28:38.786             0.000             0.000
       218   10 Jun 2027 04:21:56.523   10 Jun 2027 04:22:12.194            15.671          7835.500
       219   10 Jun 2027 04:22:20.595   10 Jun 2027 04:23:33.027            72.432         36216.000
       220   10 Jun 2027 04:24:00.876   10 Jun 2027 04:25:33.090            92.214         46107.000
       221   10 Jun 2027 04:25:46.181   10 Jun 2027 04:25:51.434             5.253          2626.500
       222   10 Jun 2027 06:00:24.808   10 Jun 2027 06:01:18.778            53.970         26985.000
       223   10 Jun 2027 06:01:21.268   10 Jun 2027 06:02:37.508            76.240         38120.000
       224   10 Jun 2027 06:03:29.303   10 Jun 2027 06:03:39.973            10.670          5335.000
       225   10 Jun 2027 06:03:45.515   10 Jun 2027 06:03:46.830             1.315           562.375
       226   10 Jun 2027 07:24:19.163   10 Jun 2027 07:24:37.013            17.850          7553.000
       227   10 Jun 2027 07:25:33.137   10 Jun 2027 07:25:38.034             4.897          1510.375
       228   10 Jun 2027 07:26:01.112   10 Jun 2027 07:26:02.486             1.374           254.437
       229   10 Jun 2027 07:26:05.527   10 Jun 2027 07:26:10.851             5.324            95.031
       230   10 Jun 2027 09:00:16.278   10 Jun 2027 09:00:41.100            24.822         11909.656
       231   10 Jun 2027 09:00:49.247   10 Jun 2027 09:00:50.653             1.406           247.313
       232   10 Jun 2027 09:01:54.193   10 Jun 2027 09:01:59.199             5.006          1985.625
       233   10 Jun 2027 09:02:58.115   10 Jun 2027 09:02:58.115             0.000             0.000
       234   10 Jun 2027 09:03:10.230   10 Jun 2027 09:03:12.483             2.253           957.844
       235   10 Jun 2027 10:34:04.983   10 Jun 2027 10:34:23.522            18.539          7209.000
       236   10 Jun 2027 10:36:28.727   10 Jun 2027 10:36:33.411             4.684          2072.812
       237   10 Jun 2027 10:37:23.983   10 Jun 2027 10:37:30.153             6.170          1474.656
       238   10 Jun 2027 10:40:59.315   10 Jun 2027 10:40:59.315             0.000             0.000
       239   10 Jun 2027 10:41:54.758   10 Jun 2027 10:42:12.933            18.175          8015.375
       240   11 Jun 2027 03:00:00.000   11 Jun 2027 03:00:29.545            29.545         14772.500
       241   11 Jun 2027 03:00:57.973   11 Jun 2027 03:01:39.380            41.407         20703.500
       242   11 Jun 2027 03:01:43.339   11 Jun 2027 03:01:57.279            13.940          6970.000
       243   11 Jun 2027 03:02:11.398   11 Jun 2027 03:02:23.793            12.395          6197.500
       244   11 Jun 2027 03:03:03.523   11 Jun 2027 03:03:21.929            18.406          9203.000
       245   11 Jun 2027 04:34:40.900   11 Jun 2027 04:35:00.109            19.209          9604.500
       246   11 Jun 2027 04:35:14.263   11 Jun 2027 04:36:08.973            54.710         27355.000
       247   11 Jun 2027 04:36:10.453   11 Jun 2027 04:37:27.204            76.751         38375.500
       248   11 Jun 2027 04:37:52.740   11 Jun 2027 04:38:14.345            21.605         10802.500
       249   11 Jun 2027 04:38:55.594   11 Jun 2027 04:38:55.594             0.000             0.000
       250   11 Jun 2027 04:39:20.079   11 Jun 2027 04:39:21.950             1.871           935.500
       251   11 Jun 2027 04:39:35.137   11 Jun 2027 04:39:42.407             7.270          3635.000
       252   11 Jun 2027 04:39:53.142   11 Jun 2027 04:39:55.701             2.559          1279.500
       253   11 Jun 2027 06:13:03.247   11 Jun 2027 06:14:19.154            75.907         37293.750
       254   11 Jun 2027 06:15:11.725   11 Jun 2027 06:15:14.686             2.961          1206.469
       255   11 Jun 2027 06:16:21.844   11 Jun 2027 06:16:26.687             4.843          1971.219
       256   11 Jun 2027 06:17:03.969   11 Jun 2027 06:17:06.559             2.590           430.781
       257   11 Jun 2027 07:36:12.284   11 Jun 2027 07:36:25.727            13.443          6207.344
       258   11 Jun 2027 07:37:34.572   11 Jun 2027 07:37:39.405             4.833          1753.312
       259   11 Jun 2027 07:37:58.043   11 Jun 2027 07:37:58.958             0.915           457.500
       260   11 Jun 2027 07:38:00.438   11 Jun 2027 07:38:01.236             0.798           152.688
       261   11 Jun 2027 07:38:21.713   11 Jun 2027 07:38:22.904             1.191           414.969
       262   11 Jun 2027 09:12:34.708   11 Jun 2027 09:13:00.074            25.366         10445.750
       263   11 Jun 2027 09:15:10.548   11 Jun 2027 09:15:16.760             6.212          3106.000
       264   11 Jun 2027 10:46:26.504   11 Jun 2027 10:46:39.906            13.402          5984.906
       265   11 Jun 2027 10:47:22.734   11 Jun 2027 10:47:24.654             1.920           872.906
       266   11 Jun 2027 10:47:44.781   11 Jun 2027 10:47:45.537             0.756            75.438
       267   11 Jun 2027 10:51:57.669   11 Jun 2027 10:51:57.669             0.000             0.000
       268   11 Jun 2027 10:53:12.750   11 Jun 2027 10:53:17.144             4.394          2197.000
       269   11 Jun 2027 10:53:24.333   11 Jun 2027 10:53:35.012            10.679          5339.500
       270   11 Jun 2027 10:53:35.376   11 Jun 2027 10:53:42.782             7.406          1898.313
       271   11 Jun 2027 10:54:16.184   11 Jun 2027 10:54:18.646             2.462          1043.813
       272   12 Jun 2027 03:08:26.245   12 Jun 2027 03:09:14.391            48.146         24073.000
       273   12 Jun 2027 03:09:53.657   12 Jun 2027 03:11:53.304           119.647         59823.500
       274   12 Jun 2027 03:12:14.563   12 Jun 2027 03:12:14.563             0.000             0.000
       275   12 Jun 2027 03:13:10.207   12 Jun 2027 03:13:22.098            11.891          5945.500
       276   12 Jun 2027 03:13:50.798   12 Jun 2027 03:13:57.314             6.516          3258.000
       277   12 Jun 2027 03:15:18.722   12 Jun 2027 03:15:25.193             6.471          3235.500
       278   12 Jun 2027 03:15:45.187   12 Jun 2027 03:15:49.806             4.619          2309.500
       279   12 Jun 2027 04:46:45.804   12 Jun 2027 04:47:40.807            55.003         27501.500
       280   12 Jun 2027 04:47:46.601   12 Jun 2027 04:48:55.520            68.919         34459.500
       281   12 Jun 2027 04:48:59.297   12 Jun 2027 04:49:09.850            10.553          5019.344
       282   12 Jun 2027 04:49:51.580   12 Jun 2027 04:49:53.856             2.276           817.500
       283   12 Jun 2027 04:50:16.356   12 Jun 2027 04:50:18.494             2.138           165.344
       284   12 Jun 2027 04:52:12.187   12 Jun 2027 04:52:18.250             6.063          2624.438
       285   12 Jun 2027 06:25:07.927   12 Jun 2027 06:25:35.389            27.462         11855.094
       286   12 Jun 2027 06:25:47.323   12 Jun 2027 06:25:48.430             1.107           336.969
       287   12 Jun 2027 06:26:38.553   12 Jun 2027 06:26:42.053             3.500          1566.344
       288   12 Jun 2027 06:27:28.394   12 Jun 2027 06:27:32.161             3.767          1252.000
       289   12 Jun 2027 06:27:54.222   12 Jun 2027 06:27:55.759             1.537           455.406
       290   12 Jun 2027 06:28:41.634   12 Jun 2027 06:28:44.628             2.994          1172.000
       291   12 Jun 2027 07:48:01.072   12 Jun 2027 07:48:23.930            22.858          8531.406
       292   12 Jun 2027 07:49:35.786   12 Jun 2027 07:49:45.524             9.738          2066.188
       293   12 Jun 2027 07:49:57.403   12 Jun 2027 07:49:57.808             0.405           143.063
       294   12 Jun 2027 07:50:46.845   12 Jun 2027 07:50:48.242             1.397           594.000
       295   12 Jun 2027 09:24:38.289   12 Jun 2027 09:24:48.956            10.667          4325.344
       296   12 Jun 2027 09:25:27.216   12 Jun 2027 09:25:27.216             0.000             0.000
       297   12 Jun 2027 09:27:16.693   12 Jun 2027 09:27:20.480             3.787          1893.500
       298   12 Jun 2027 10:59:44.542   12 Jun 2027 10:59:56.776            12.234          5619.875
       299   12 Jun 2027 11:05:42.643   12 Jun 2027 11:06:03.476            20.833          9757.469
       300   12 Jun 2027 11:06:26.477   12 Jun 2027 11:06:27.312             0.835           178.563
       301   13 Jun 2027 03:20:26.763   13 Jun 2027 03:23:32.387           185.624         92812.000
       302   13 Jun 2027 03:23:43.170   13 Jun 2027 03:24:08.642            25.472         12736.000
       303   13 Jun 2027 03:25:40.366   13 Jun 2027 03:25:40.366             0.000             0.000
       304   13 Jun 2027 03:25:58.807   13 Jun 2027 03:26:01.561             2.754          1377.000
       305   13 Jun 2027 03:26:54.662   13 Jun 2027 03:27:22.532            27.870         13935.000
       306   13 Jun 2027 04:58:35.263   13 Jun 2027 04:59:35.017            59.754         29877.000
       307   13 Jun 2027 04:59:42.700   13 Jun 2027 05:00:17.666            34.966         17483.000
       308   13 Jun 2027 05:00:33.318   13 Jun 2027 05:00:34.585             1.267           544.063
       309   13 Jun 2027 05:01:54.751   13 Jun 2027 05:02:01.223             6.472          1824.219
       310   13 Jun 2027 06:36:52.272   13 Jun 2027 06:37:06.627            14.355          6987.500
       311   13 Jun 2027 06:37:44.855   13 Jun 2027 06:37:46.192             1.337           475.562
       312   13 Jun 2027 06:39:08.749   13 Jun 2027 06:39:13.892             5.143          2456.125
       313   13 Jun 2027 06:39:42.957   13 Jun 2027 06:39:44.959             2.002           628.500
       314   13 Jun 2027 06:40:16.566   13 Jun 2027 06:40:20.351             3.785           834.969
       315   13 Jun 2027 08:00:15.216   13 Jun 2027 08:00:28.646            13.430          5440.250
       316   13 Jun 2027 08:01:03.530   13 Jun 2027 08:01:08.762             5.232           546.031
       317   13 Jun 2027 08:01:49.941   13 Jun 2027 08:01:59.392             9.451          1016.063
       318   13 Jun 2027 09:37:51.292   13 Jun 2027 09:38:18.967            27.675         13725.250
       319   13 Jun 2027 09:38:42.032   13 Jun 2027 09:38:43.627             1.595           720.781
       320   13 Jun 2027 11:11:58.640   13 Jun 2027 11:12:13.600            14.960          7420.156
       321   13 Jun 2027 11:14:46.320   13 Jun 2027 11:14:56.806            10.486          4589.625
       322   13 Jun 2027 11:15:40.426   13 Jun 2027 11:15:43.299             2.873          1363.125
       323   13 Jun 2027 11:16:21.704   13 Jun 2027 11:16:26.124             4.420          1178.125
       324   13 Jun 2027 11:17:36.487   13 Jun 2027 11:17:41.147             4.660          2033.656
       325   13 Jun 2027 11:18:01.119   13 Jun 2027 11:18:04.825             3.706           294.688
       326   13 Jun 2027 11:18:23.679   13 Jun 2027 11:18:28.300             4.621           516.719
