uniorb/output/strategy_2/Camera/Camera_KinoSat_111002.txt

KinoSat_111002
-------------------------
    Access    *     Start Time (UTCG)     *     Stop Time (UTCG)  *   Duration (s) *   Data (Mbytes)
         1   01 Jun 2027 03:55:44.924   01 Jun 2027 03:57:19.541            94.617         47308.500
         2   01 Jun 2027 03:57:31.173   01 Jun 2027 03:57:50.818            19.645          9822.500
         3   01 Jun 2027 05:32:11.980   01 Jun 2027 05:33:10.358            58.378         29189.000
         4   01 Jun 2027 05:33:12.766   01 Jun 2027 05:35:07.403           114.637         57318.500
         5   01 Jun 2027 07:04:19.879   01 Jun 2027 07:04:30.955            11.076          5538.000
         6   01 Jun 2027 07:06:18.810   01 Jun 2027 07:08:47.744           148.934         74467.000
         7   01 Jun 2027 07:09:20.270   01 Jun 2027 07:09:41.351            21.081         10540.500
         8   01 Jun 2027 07:10:11.416   01 Jun 2027 07:10:26.195            14.779          7389.500
         9   01 Jun 2027 07:14:07.802   01 Jun 2027 07:14:07.993             0.191            95.500
        10   01 Jun 2027 08:43:17.446   01 Jun 2027 08:45:58.052           160.606         80303.000
        11   01 Jun 2027 08:46:17.370   01 Jun 2027 08:46:57.374            40.004         20002.000
        12   01 Jun 2027 08:47:05.811   01 Jun 2027 08:47:21.176            15.365          7682.500
        13   01 Jun 2027 10:20:43.933   01 Jun 2027 10:22:29.395           105.462         52731.000
        14   01 Jun 2027 10:23:06.153   01 Jun 2027 10:23:50.913            44.760         22380.000
        15   01 Jun 2027 11:57:04.719   01 Jun 2027 11:59:15.618           130.899         65449.500
        16   02 Jun 2027 04:07:53.145   02 Jun 2027 04:09:08.282            75.137         37568.500
        17   02 Jun 2027 04:09:46.700   02 Jun 2027 04:09:48.855             2.155          1077.500
        18   02 Jun 2027 05:44:21.788   02 Jun 2027 05:47:05.065           163.277         81638.500
        19   02 Jun 2027 05:47:06.107   02 Jun 2027 05:47:21.116            15.009          7504.500
        20   02 Jun 2027 07:19:32.841   02 Jun 2027 07:22:54.213           201.372        100686.000
        21   02 Jun 2027 07:26:01.677   02 Jun 2027 07:26:07.772             6.095          3047.500
        22   02 Jun 2027 08:55:51.724   02 Jun 2027 08:57:47.640           115.916         57666.936
        23   02 Jun 2027 08:58:40.867   02 Jun 2027 08:58:43.601             2.734           936.969
        24   02 Jun 2027 09:01:36.792   02 Jun 2027 09:01:46.488             9.696          4848.000
        25   02 Jun 2027 10:33:14.819   02 Jun 2027 10:33:37.685            22.866          9330.406
        26   02 Jun 2027 10:34:24.716   02 Jun 2027 10:34:33.805             9.089          1469.719
        27   02 Jun 2027 10:35:33.652   02 Jun 2027 10:35:39.571             5.919          1482.250
        28   02 Jun 2027 10:35:52.194   02 Jun 2027 10:35:53.145             0.951           198.250
        29   02 Jun 2027 10:36:07.746   02 Jun 2027 10:36:08.780             1.034           456.281
        30   02 Jun 2027 10:37:09.281   02 Jun 2027 10:37:15.159             5.878          1580.437
        31   02 Jun 2027 10:37:25.374   02 Jun 2027 10:37:28.517             3.143           218.062
        32   02 Jun 2027 10:37:39.388   02 Jun 2027 10:37:41.040             1.652           339.719
        33   03 Jun 2027 04:20:35.518   03 Jun 2027 04:22:40.660           125.142         62571.000
        34   03 Jun 2027 04:23:02.973   03 Jun 2027 04:23:04.108             1.135           567.500
        35   03 Jun 2027 05:56:20.321   03 Jun 2027 05:58:01.749           101.428         50714.000
        36   03 Jun 2027 05:58:24.873   03 Jun 2027 05:59:08.262            43.389         21694.500
        37   03 Jun 2027 07:31:25.976   03 Jun 2027 07:32:03.005            37.029         18096.250
        38   03 Jun 2027 07:33:15.137   03 Jun 2027 07:33:20.343             5.206          2127.031
        39   03 Jun 2027 07:33:39.710   03 Jun 2027 07:33:40.768             1.058           155.969
        40   03 Jun 2027 07:34:03.930   03 Jun 2027 07:34:05.639             1.709           723.812
        41   03 Jun 2027 07:35:01.871   03 Jun 2027 07:35:10.281             8.410          1757.250
        42   03 Jun 2027 07:36:32.530   03 Jun 2027 07:36:40.891             8.361          2196.406
        43   03 Jun 2027 07:36:51.710   03 Jun 2027 07:36:51.710             0.000             0.000
        44   03 Jun 2027 07:36:54.292   03 Jun 2027 07:36:55.690             1.398           418.781
        45   03 Jun 2027 07:38:13.465   03 Jun 2027 07:38:16.272             2.807          1403.500
        46   03 Jun 2027 09:07:30.204   03 Jun 2027 09:07:47.364            17.160          8257.718
        47   03 Jun 2027 09:08:45.936   03 Jun 2027 09:08:50.379             4.443           840.531
        48   03 Jun 2027 09:09:29.851   03 Jun 2027 09:09:33.024             3.173          1233.500
        49   03 Jun 2027 09:09:50.873   03 Jun 2027 09:09:54.262             3.389           309.938
        50   03 Jun 2027 09:10:10.106   03 Jun 2027 09:10:14.561             4.455           307.906
        51   03 Jun 2027 09:10:36.316   03 Jun 2027 09:10:40.015             3.699           658.844
        52   03 Jun 2027 09:10:51.428   03 Jun 2027 09:10:53.959             2.531            65.156
        53   03 Jun 2027 09:11:11.203   03 Jun 2027 09:11:12.976             1.773           477.062
        54   03 Jun 2027 09:11:32.468   03 Jun 2027 09:11:36.533             4.065            20.344
        55   03 Jun 2027 09:12:53.843   03 Jun 2027 09:12:58.350             4.507          2067.469
        56   03 Jun 2027 09:13:06.695   03 Jun 2027 09:13:08.631             1.936           260.781
        57   03 Jun 2027 10:45:27.994   03 Jun 2027 10:45:40.889            12.895          6447.500
        58   03 Jun 2027 10:46:23.925   03 Jun 2027 10:46:28.309             4.384          1917.719
        59   03 Jun 2027 10:47:29.021   03 Jun 2027 10:47:31.551             2.530          1265.000
        60   03 Jun 2027 10:48:39.448   03 Jun 2027 10:48:44.748             5.300          2650.000
        61   03 Jun 2027 10:49:08.605   03 Jun 2027 10:49:11.791             3.186           849.562
        62   03 Jun 2027 10:49:29.094   03 Jun 2027 10:49:30.384             1.290           540.719
        63   04 Jun 2027 03:09:10.356   04 Jun 2027 03:11:38.780           148.424         74212.000
        64   04 Jun 2027 04:31:42.235   04 Jun 2027 04:32:36.641            54.406         27203.000
        65   04 Jun 2027 04:33:43.807   04 Jun 2027 04:33:45.079             1.272           636.000
        66   04 Jun 2027 04:35:06.312   04 Jun 2027 04:35:16.143             9.831          4915.500
        67   04 Jun 2027 04:35:17.856   04 Jun 2027 04:35:18.363             0.507           253.500
        68   04 Jun 2027 06:08:04.887   04 Jun 2027 06:09:43.634            98.747         49373.500
        69   04 Jun 2027 06:11:04.757   04 Jun 2027 06:11:16.041            11.284          5642.000
        70   04 Jun 2027 07:42:50.149   04 Jun 2027 07:43:08.495            18.346          6381.437
        71   04 Jun 2027 07:44:50.765   04 Jun 2027 07:44:58.220             7.455          2518.031
        72   04 Jun 2027 07:45:35.661   04 Jun 2027 07:45:47.920            12.259           800.219
        73   04 Jun 2027 07:45:52.479   04 Jun 2027 07:45:53.106             0.627            66.875
        74   04 Jun 2027 07:46:08.557   04 Jun 2027 07:46:10.158             1.601           410.781
        75   04 Jun 2027 07:47:29.038   04 Jun 2027 07:47:35.564             6.526          2411.688
        76   04 Jun 2027 07:47:37.964   04 Jun 2027 07:47:43.765             5.801            55.562
        77   04 Jun 2027 07:47:54.164   04 Jun 2027 07:47:54.968             0.804           107.719
        78   04 Jun 2027 07:48:06.559   04 Jun 2027 07:48:11.610             5.051           245.000
        79   04 Jun 2027 07:48:22.542   04 Jun 2027 07:48:26.210             3.668            82.156
        80   04 Jun 2027 07:48:32.135   04 Jun 2027 07:48:37.952             5.817           185.156
        81   04 Jun 2027 07:49:16.124   04 Jun 2027 07:49:18.270             2.146           898.750
        82   04 Jun 2027 07:49:31.836   04 Jun 2027 07:49:32.572             0.736           368.000
        83   04 Jun 2027 07:50:17.782   04 Jun 2027 07:50:19.020             1.238           619.000
        84   04 Jun 2027 09:19:39.499   04 Jun 2027 09:20:00.783            21.284         10027.625
        85   04 Jun 2027 09:20:27.830   04 Jun 2027 09:20:30.694             2.864           845.219
        86   04 Jun 2027 09:22:03.962   04 Jun 2027 09:22:10.697             6.735          2266.969
        87   04 Jun 2027 09:23:00.780   04 Jun 2027 09:23:03.351             2.571          1114.500
        88   04 Jun 2027 09:23:20.014   04 Jun 2027 09:23:21.277             1.263           356.125
        89   04 Jun 2027 09:23:25.186   04 Jun 2027 09:23:26.436             1.250           122.156
        90   04 Jun 2027 09:24:10.092   04 Jun 2027 09:24:17.529             7.437           899.562
        91   04 Jun 2027 09:24:26.018   04 Jun 2027 09:24:27.452             1.434           156.063
        92   04 Jun 2027 09:24:53.089   04 Jun 2027 09:24:54.060             0.971           375.125
        93   04 Jun 2027 10:57:50.312   04 Jun 2027 10:58:03.564            13.252          6533.313
        94   04 Jun 2027 10:58:17.439   04 Jun 2027 10:58:21.022             3.583           433.594
        95   04 Jun 2027 10:58:37.199   04 Jun 2027 10:58:39.581             2.382           505.531
        96   04 Jun 2027 10:58:56.419   04 Jun 2027 10:58:58.202             1.783           442.781
        97   04 Jun 2027 10:59:31.061   04 Jun 2027 10:59:32.020             0.959           448.813
        98   04 Jun 2027 10:59:48.105   04 Jun 2027 10:59:52.743             4.638           488.500
        99   04 Jun 2027 10:59:58.277   04 Jun 2027 11:00:00.223             1.946           172.937
       100   04 Jun 2027 11:00:34.118   04 Jun 2027 11:00:34.722             0.604           302.000
       101   04 Jun 2027 11:00:45.913   04 Jun 2027 11:00:52.023             6.110          1106.938
       102   05 Jun 2027 03:08:43.892   05 Jun 2027 03:09:27.784            43.892         21946.000
       103   05 Jun 2027 03:20:24.488   05 Jun 2027 03:21:49.667            85.179         42589.500
       104   05 Jun 2027 04:42:40.489   05 Jun 2027 04:43:56.107            75.618         37809.000
       105   05 Jun 2027 04:44:37.241   05 Jun 2027 04:45:19.521            42.280         21140.000
       106   05 Jun 2027 04:47:07.308   05 Jun 2027 04:47:11.816             4.508          2254.000
       107   05 Jun 2027 04:47:25.751   05 Jun 2027 04:47:26.805             1.054           527.000
       108   05 Jun 2027 06:17:53.199   05 Jun 2027 06:18:48.539            55.340         27670.000
       109   05 Jun 2027 06:18:53.055   05 Jun 2027 06:18:55.159             2.104          1052.000
       110   05 Jun 2027 06:19:01.809   05 Jun 2027 06:19:04.445             2.636           843.250
       111   05 Jun 2027 06:20:06.666   05 Jun 2027 06:20:06.666             0.000             0.000
       112   05 Jun 2027 06:20:14.455   05 Jun 2027 06:20:18.915             4.460          2182.250
       113   05 Jun 2027 06:21:26.761   05 Jun 2027 06:21:30.938             4.177          1086.094
       114   05 Jun 2027 06:22:09.074   05 Jun 2027 06:22:12.789             3.715          1191.750
       115   05 Jun 2027 06:22:56.431   05 Jun 2027 06:22:57.143             0.712           356.000
       116   05 Jun 2027 06:23:53.238   05 Jun 2027 06:23:58.881             5.643          1823.437
       117   05 Jun 2027 06:24:40.423   05 Jun 2027 06:24:42.944             2.521          1106.844
       118   05 Jun 2027 07:54:57.337   05 Jun 2027 07:55:08.301            10.964          5019.687
       119   05 Jun 2027 07:55:40.572   05 Jun 2027 07:55:44.357             3.785           839.969
       120   05 Jun 2027 07:56:49.598   05 Jun 2027 07:56:55.146             5.548           859.750
       121   05 Jun 2027 07:57:57.469   05 Jun 2027 07:58:00.042             2.573          1286.500
       122   05 Jun 2027 07:59:00.425   05 Jun 2027 07:59:09.479             9.054          2357.812
       123   05 Jun 2027 08:00:14.274   05 Jun 2027 08:00:20.271             5.997          1538.875
       124   05 Jun 2027 08:00:54.281   05 Jun 2027 08:00:56.695             2.414          1017.594
       125   05 Jun 2027 08:02:19.994   05 Jun 2027 08:02:21.473             1.479           739.500
       126   05 Jun 2027 09:31:55.343   05 Jun 2027 09:32:14.764            19.421          9319.062
       127   05 Jun 2027 09:33:13.965   05 Jun 2027 09:33:14.423             0.458            43.813
       128   05 Jun 2027 09:34:20.199   05 Jun 2027 09:34:25.749             5.550          2055.500
       129   05 Jun 2027 09:35:39.782   05 Jun 2027 09:35:47.078             7.296          2313.531
       130   05 Jun 2027 09:36:07.630   05 Jun 2027 09:36:15.193             7.563           527.375
       131   05 Jun 2027 09:36:27.765   05 Jun 2027 09:36:30.184             2.419           392.875
       132   05 Jun 2027 09:36:46.022   05 Jun 2027 09:36:48.140             2.118           160.563
       133   05 Jun 2027 09:36:55.283   05 Jun 2027 09:37:12.311            17.028           163.813
       134   05 Jun 2027 09:37:43.738   05 Jun 2027 09:37:46.777             3.039           895.500
       135   05 Jun 2027 11:09:51.768   05 Jun 2027 11:10:06.866            15.098          7547.406
       136   05 Jun 2027 11:10:15.146   05 Jun 2027 11:10:20.511             5.365           247.906
       137   05 Jun 2027 11:11:05.633   05 Jun 2027 11:11:08.687             3.054           931.750
       138   05 Jun 2027 11:11:33.145   05 Jun 2027 11:11:35.204             2.059           764.313
       139   05 Jun 2027 11:11:42.345   05 Jun 2027 11:11:44.803             2.458           223.156
       140   05 Jun 2027 11:12:21.599   05 Jun 2027 11:12:25.164             3.565          1018.219
       141   05 Jun 2027 11:12:30.806   05 Jun 2027 11:12:30.806             0.000             0.000
       142   05 Jun 2027 11:12:46.841   05 Jun 2027 11:12:48.120             1.279           612.031
       143   05 Jun 2027 11:13:33.837   05 Jun 2027 11:13:38.054             4.217          1111.750
       144   06 Jun 2027 03:20:06.113   06 Jun 2027 03:20:56.935            50.822         25411.000
       145   06 Jun 2027 03:20:59.567   06 Jun 2027 03:20:59.567             0.000             0.000
       146   06 Jun 2027 03:21:06.583   06 Jun 2027 03:21:28.090            21.507         10753.500
       147   06 Jun 2027 03:32:21.786   06 Jun 2027 03:33:17.054            55.268         27634.000
       148   06 Jun 2027 04:54:21.064   06 Jun 2027 04:55:43.359            82.295         41147.500
       149   06 Jun 2027 04:56:27.518   06 Jun 2027 04:57:04.641            37.123         18561.500
       150   06 Jun 2027 04:57:09.129   06 Jun 2027 04:57:15.121             5.992          2996.000
       151   06 Jun 2027 04:58:52.685   06 Jun 2027 04:58:58.802             6.117          3058.500
       152   06 Jun 2027 04:59:30.235   06 Jun 2027 04:59:50.051            19.816          9908.000
       153   06 Jun 2027 06:29:20.615   06 Jun 2027 06:30:00.636            40.021         19692.687
       154   06 Jun 2027 06:30:38.550   06 Jun 2027 06:30:38.550             0.000             0.000
       155   06 Jun 2027 06:30:50.112   06 Jun 2027 06:30:51.938             1.826           577.375
       156   06 Jun 2027 06:31:38.825   06 Jun 2027 06:31:38.825             0.000             0.000
       157   06 Jun 2027 06:31:50.392   06 Jun 2027 06:31:58.505             8.113          1826.687
       158   06 Jun 2027 06:32:18.284   06 Jun 2027 06:32:20.126             1.842           618.094
       159   06 Jun 2027 06:33:25.782   06 Jun 2027 06:33:30.203             4.421          1724.219
       160   06 Jun 2027 06:34:39.942   06 Jun 2027 06:34:44.627             4.685          2044.875
       161   06 Jun 2027 06:35:00.213   06 Jun 2027 06:35:00.213             0.000             0.000
       162   06 Jun 2027 06:35:54.984   06 Jun 2027 06:35:59.441             4.457          2198.656
       163   06 Jun 2027 06:36:09.904   06 Jun 2027 06:36:10.583             0.679           326.969
       164   06 Jun 2027 06:36:56.128   06 Jun 2027 06:36:56.128             0.000             0.000
       165   06 Jun 2027 06:37:31.144   06 Jun 2027 06:37:37.060             5.916          2137.469
       166   06 Jun 2027 08:06:59.351   06 Jun 2027 08:07:12.867            13.516          5737.125
       167   06 Jun 2027 08:07:51.198   06 Jun 2027 08:07:57.584             6.386           951.875
       168   06 Jun 2027 08:08:17.665   06 Jun 2027 08:08:20.623             2.958           318.031
       169   06 Jun 2027 08:08:50.460   06 Jun 2027 08:08:54.084             3.624           831.375
       170   06 Jun 2027 08:09:14.215   06 Jun 2027 08:09:15.706             1.491           306.719
       171   06 Jun 2027 08:09:50.758   06 Jun 2027 08:09:53.774             3.016           491.719
       172   06 Jun 2027 08:10:34.425   06 Jun 2027 08:10:36.956             2.531          1118.813
       173   06 Jun 2027 08:11:01.892   06 Jun 2027 08:11:08.461             6.569           661.094
       174   06 Jun 2027 08:11:18.237   06 Jun 2027 08:11:18.886             0.649           144.406
       175   06 Jun 2027 08:11:59.764   06 Jun 2027 08:12:10.545            10.781          1277.438
       176   06 Jun 2027 08:12:28.507   06 Jun 2027 08:12:28.507             0.000             0.000
       177   06 Jun 2027 08:12:55.450   06 Jun 2027 08:12:56.556             1.106           553.000
       178   06 Jun 2027 08:13:05.231   06 Jun 2027 08:13:08.348             3.117          1103.594
       179   06 Jun 2027 08:13:51.479   06 Jun 2027 08:13:55.017             3.538          1251.094
       180   06 Jun 2027 08:14:03.518   06 Jun 2027 08:14:06.189             2.671           265.656
       181   06 Jun 2027 08:14:07.826   06 Jun 2027 08:14:09.076             1.250            51.156
       182   06 Jun 2027 09:43:45.770   06 Jun 2027 09:44:02.322            16.552          8194.844
       183   06 Jun 2027 09:44:45.330   06 Jun 2027 09:44:51.759             6.429          1320.750
       184   06 Jun 2027 09:45:10.662   06 Jun 2027 09:45:12.804             2.142           590.719
       185   06 Jun 2027 09:45:58.850   06 Jun 2027 09:46:01.628             2.778           396.094
       186   06 Jun 2027 09:46:33.228   06 Jun 2027 09:46:35.849             2.621           494.563
       187   06 Jun 2027 09:46:51.730   06 Jun 2027 09:46:54.564             2.834           109.719
       188   06 Jun 2027 09:47:21.866   06 Jun 2027 09:47:23.655             1.789           811.688
       189   06 Jun 2027 09:48:00.486   06 Jun 2027 09:48:06.740             6.254          1150.969
       190   06 Jun 2027 09:48:13.297   06 Jun 2027 09:48:15.948             2.651           204.906
       191   06 Jun 2027 09:48:36.652   06 Jun 2027 09:48:38.527             1.875           403.219
       192   06 Jun 2027 09:48:53.590   06 Jun 2027 09:48:53.590             0.000             0.000
       193   06 Jun 2027 09:49:31.141   06 Jun 2027 09:49:34.065             2.924          1231.875
       194   06 Jun 2027 09:50:04.777   06 Jun 2027 09:50:09.851             5.074           776.469
       195   06 Jun 2027 09:50:20.724   06 Jun 2027 09:50:24.037             3.313           204.906
       196   06 Jun 2027 11:21:49.877   06 Jun 2027 11:22:08.566            18.689          8286.969
       197   06 Jun 2027 11:22:21.074   06 Jun 2027 11:22:22.042             0.968           390.875
       198   06 Jun 2027 11:22:41.604   06 Jun 2027 11:22:43.937             2.333           611.313
       199   06 Jun 2027 11:23:35.230   06 Jun 2027 11:23:38.398             3.168          1192.969
       200   06 Jun 2027 11:24:16.473   06 Jun 2027 11:24:19.843             3.370          1189.844
       201   06 Jun 2027 11:25:06.081   06 Jun 2027 11:25:09.024             2.943          1444.938
       202   06 Jun 2027 11:25:53.934   06 Jun 2027 11:25:56.047             2.113          1056.500
       203   07 Jun 2027 03:32:13.185   07 Jun 2027 03:33:09.273            56.088         28044.000
       204   07 Jun 2027 03:33:19.266   07 Jun 2027 03:33:28.718             9.452          4726.000
       205   07 Jun 2027 03:44:45.898   07 Jun 2027 03:44:48.629             2.731          1365.500
       206   07 Jun 2027 05:06:01.985   07 Jun 2027 05:09:10.298           188.313         94156.500
       207   07 Jun 2027 05:10:36.968   07 Jun 2027 05:10:44.095             7.127          3563.500
       208   07 Jun 2027 05:10:50.929   07 Jun 2027 05:11:03.961            13.032          6516.000
       209   07 Jun 2027 06:40:54.343   07 Jun 2027 06:41:40.835            46.492         22155.907
       210   07 Jun 2027 06:42:02.714   07 Jun 2027 06:42:09.033             6.319           523.562
       211   07 Jun 2027 06:43:38.682   07 Jun 2027 06:43:42.416             3.734          1291.312
       212   07 Jun 2027 06:44:22.894   07 Jun 2027 06:44:27.184             4.290          1192.875
       213   07 Jun 2027 06:44:44.308   07 Jun 2027 06:44:45.720             1.412           514.562
       214   07 Jun 2027 06:45:00.409   07 Jun 2027 06:45:02.197             1.788           445.844
       215   07 Jun 2027 06:45:26.663   07 Jun 2027 06:45:29.391             2.728           725.281
       216   07 Jun 2027 06:46:33.314   07 Jun 2027 06:46:42.551             9.237          1779.750
       217   07 Jun 2027 06:47:38.761   07 Jun 2027 06:47:43.632             4.871          1702.313
       218   07 Jun 2027 06:47:59.906   07 Jun 2027 06:47:59.906             0.000             0.000
       219   07 Jun 2027 06:48:11.345   07 Jun 2027 06:48:14.706             3.361           866.031
       220   07 Jun 2027 06:48:35.233   07 Jun 2027 06:48:37.014             1.781           417.719
       221   07 Jun 2027 06:48:58.847   07 Jun 2027 06:49:00.189             1.342           391.188
       222   07 Jun 2027 08:19:00.803   07 Jun 2027 08:19:25.616            24.813          9177.063
       223   07 Jun 2027 08:20:49.130   07 Jun 2027 08:20:56.519             7.389          1865.563
       224   07 Jun 2027 08:22:11.710   07 Jun 2027 08:22:17.098             5.388          2061.375
       225   07 Jun 2027 08:23:14.627   07 Jun 2027 08:23:20.435             5.808          1797.781
       226   07 Jun 2027 08:24:18.419   07 Jun 2027 08:24:24.202             5.783           761.125
       227   07 Jun 2027 08:25:07.152   07 Jun 2027 08:25:20.087            12.935           482.750
       228   07 Jun 2027 08:26:20.980   07 Jun 2027 08:26:25.600             4.620          1624.437
       229   07 Jun 2027 09:55:55.773   07 Jun 2027 09:56:13.636            17.863          8532.750
       230   07 Jun 2027 09:56:41.467   07 Jun 2027 09:56:42.383             0.916           284.813
       231   07 Jun 2027 09:58:22.180   07 Jun 2027 09:58:27.651             5.471          2239.594
       232   07 Jun 2027 09:59:04.302   07 Jun 2027 09:59:16.274            11.972           908.156
       233   07 Jun 2027 09:59:45.514   07 Jun 2027 09:59:47.912             2.398           913.750
       234   07 Jun 2027 10:00:20.916   07 Jun 2027 10:00:23.219             2.303          1031.375
       235   07 Jun 2027 10:00:39.003   07 Jun 2027 10:00:42.041             3.038           461.563
       236   07 Jun 2027 10:01:13.012   07 Jun 2027 10:01:17.288             4.276           790.000
       237   07 Jun 2027 10:01:28.502   07 Jun 2027 10:01:28.502             0.000             0.000
       238   07 Jun 2027 10:01:35.605   07 Jun 2027 10:01:37.439             1.834           572.406
       239   07 Jun 2027 10:02:05.136   07 Jun 2027 10:02:09.529             4.393           749.594
       240   07 Jun 2027 11:33:03.632   07 Jun 2027 11:33:24.299            20.667          8205.500
       241   07 Jun 2027 11:34:34.816   07 Jun 2027 11:34:37.714             2.898          1406.219
       242   07 Jun 2027 11:35:49.758   07 Jun 2027 11:35:56.440             6.682          2251.375
       243   07 Jun 2027 11:36:12.566   07 Jun 2027 11:36:12.566             0.000             0.000
       244   07 Jun 2027 11:36:15.797   07 Jun 2027 11:36:16.233             0.436           218.000
       245   07 Jun 2027 11:36:47.686   07 Jun 2027 11:36:50.808             3.122          1001.438
       246   07 Jun 2027 11:37:12.087   07 Jun 2027 11:37:14.333             2.246           664.969
       247   07 Jun 2027 11:37:29.021   07 Jun 2027 11:37:29.021             0.000             0.000
       248   08 Jun 2027 03:44:08.637   08 Jun 2027 03:45:29.612            80.975         40487.500
       249   08 Jun 2027 03:45:51.993   08 Jun 2027 03:45:51.993             0.000             0.000
       250   08 Jun 2027 05:20:23.063   08 Jun 2027 05:23:55.250           212.187        106093.500
       251   08 Jun 2027 06:54:36.042   08 Jun 2027 06:55:14.387            38.345         17291.094
       252   08 Jun 2027 06:56:10.104   08 Jun 2027 06:56:12.940             2.836            26.188
       253   08 Jun 2027 06:56:22.793   08 Jun 2027 06:56:23.232             0.439           176.406
       254   08 Jun 2027 06:58:43.303   08 Jun 2027 06:58:54.680            11.377          3906.563
       255   08 Jun 2027 06:59:24.318   08 Jun 2027 06:59:26.981             2.663           571.219
       256   08 Jun 2027 07:00:06.610   08 Jun 2027 07:00:06.610             0.000             0.000
       257   08 Jun 2027 07:00:51.052   08 Jun 2027 07:00:58.720             7.668          2627.219
       258   08 Jun 2027 07:01:03.694   08 Jun 2027 07:01:10.740             7.046           155.438
       259   08 Jun 2027 07:01:37.976   08 Jun 2027 07:01:39.886             1.910           588.125
       260   08 Jun 2027 07:01:56.596   08 Jun 2027 07:02:00.591             3.995           361.312
       261   08 Jun 2027 07:02:17.899   08 Jun 2027 07:02:19.257             1.358           499.438
       262   08 Jun 2027 07:02:27.433   08 Jun 2027 07:02:28.703             1.270            10.937
       263   08 Jun 2027 08:31:28.014   08 Jun 2027 08:31:44.850            16.836          7373.562
       264   08 Jun 2027 08:32:49.529   08 Jun 2027 08:32:52.913             3.384           896.344
       265   08 Jun 2027 08:33:07.484   08 Jun 2027 08:33:10.586             3.102             9.187
       266   08 Jun 2027 08:33:29.941   08 Jun 2027 08:33:31.601             1.660           305.375
       267   08 Jun 2027 08:34:13.533   08 Jun 2027 08:34:21.118             7.585          1310.375
       268   08 Jun 2027 08:34:21.206   08 Jun 2027 08:34:21.904             0.698             2.750
       269   08 Jun 2027 08:34:29.449   08 Jun 2027 08:34:31.883             2.434           186.438
       270   08 Jun 2027 08:34:33.463   08 Jun 2027 08:34:33.609             0.146            49.375
       271   08 Jun 2027 08:34:49.177   08 Jun 2027 08:34:50.046             0.869            90.563
       272   08 Jun 2027 08:35:19.042   08 Jun 2027 08:35:23.416             4.374           905.344
       273   08 Jun 2027 08:36:15.963   08 Jun 2027 08:36:16.264             0.301           150.500
       274   08 Jun 2027 08:36:27.921   08 Jun 2027 08:36:33.259             5.338          1293.500
       275   08 Jun 2027 08:36:50.090   08 Jun 2027 08:36:53.042             2.952           525.969
       276   08 Jun 2027 08:37:28.317   08 Jun 2027 08:37:34.987             6.670          1102.344
       277   08 Jun 2027 08:37:50.729   08 Jun 2027 08:37:58.338             7.609           455.875
       278   08 Jun 2027 10:08:22.957   08 Jun 2027 10:08:37.459            14.502          7251.000
       279   08 Jun 2027 10:08:44.400   08 Jun 2027 10:08:48.792             4.392           867.000
       280   08 Jun 2027 10:09:50.065   08 Jun 2027 10:09:52.610             2.545           640.594
       281   08 Jun 2027 10:09:57.111   08 Jun 2027 10:09:59.369             2.258           140.656
       282   08 Jun 2027 10:10:07.556   08 Jun 2027 10:10:09.295             1.739            42.000
       283   08 Jun 2027 10:10:39.622   08 Jun 2027 10:10:43.731             4.109           947.719
       284   08 Jun 2027 10:12:02.959   08 Jun 2027 10:12:06.287             3.328          1167.625
       285   08 Jun 2027 10:12:12.278   08 Jun 2027 10:12:12.641             0.363           148.781
       286   08 Jun 2027 10:12:29.731   08 Jun 2027 10:12:31.989             2.258           324.094
       287   08 Jun 2027 10:13:05.647   08 Jun 2027 10:13:08.850             3.203           697.594
       288   08 Jun 2027 10:13:55.278   08 Jun 2027 10:14:00.497             5.219          1450.875
       289   08 Jun 2027 11:45:17.428   08 Jun 2027 11:45:33.750            16.322          6537.375
       290   08 Jun 2027 11:46:46.877   08 Jun 2027 11:46:49.524             2.647          1323.500
       291   08 Jun 2027 11:46:51.748   08 Jun 2027 11:46:53.602             1.854           927.000
       292   08 Jun 2027 11:47:19.195   08 Jun 2027 11:47:27.262             8.067           896.719
       293   08 Jun 2027 11:48:02.689   08 Jun 2027 11:48:07.549             4.860          1013.875
       294   08 Jun 2027 11:48:47.419   08 Jun 2027 11:48:50.813             3.394          1170.813
       295   09 Jun 2027 03:56:00.143   09 Jun 2027 03:57:26.281            86.138         43069.000
       296   09 Jun 2027 03:57:47.180   09 Jun 2027 03:58:06.573            19.393          9696.500
       297   09 Jun 2027 05:32:27.382   09 Jun 2027 05:34:33.866           126.484         63242.000
       298   09 Jun 2027 05:34:40.038   09 Jun 2027 05:35:22.055            42.017         21008.500
       299   09 Jun 2027 07:04:35.077   09 Jun 2027 07:04:45.903            10.826          5413.000
       300   09 Jun 2027 07:06:34.222   09 Jun 2027 07:07:17.123            42.901         18639.500
       301   09 Jun 2027 07:08:01.245   09 Jun 2027 07:08:04.395             3.150          1283.406
       302   09 Jun 2027 07:08:46.624   09 Jun 2027 07:08:49.215             2.591          1187.031
       303   09 Jun 2027 07:09:55.764   09 Jun 2027 07:09:56.554             0.790           395.000
       304   09 Jun 2027 07:10:49.829   09 Jun 2027 07:11:00.379            10.550          3349.500
       305   09 Jun 2027 07:11:53.746   09 Jun 2027 07:11:58.236             4.490          1667.719
       306   09 Jun 2027 07:13:10.716   09 Jun 2027 07:13:12.138             1.422           711.000
       307   09 Jun 2027 07:13:57.570   09 Jun 2027 07:13:59.885             2.315          1157.500
       308   09 Jun 2027 07:14:17.412   09 Jun 2027 07:14:22.846             5.434          2203.437
       309   09 Jun 2027 08:43:32.691   09 Jun 2027 08:43:50.266            17.575          6635.594
       310   09 Jun 2027 08:44:52.179   09 Jun 2027 08:44:56.654             4.475           891.563
       311   09 Jun 2027 08:45:53.404   09 Jun 2027 08:45:55.048             1.644           414.563
       312   09 Jun 2027 08:46:20.930   09 Jun 2027 08:46:23.465             2.535           331.438
       313   09 Jun 2027 08:46:32.583   09 Jun 2027 08:46:34.024             1.441           237.219
       314   09 Jun 2027 08:47:15.886   09 Jun 2027 08:47:19.453             3.567          1308.188
       315   09 Jun 2027 08:48:22.522   09 Jun 2027 08:48:26.846             4.324          1467.656
       316   09 Jun 2027 08:48:28.227   09 Jun 2027 08:48:29.751             1.524            43.156
       317   09 Jun 2027 08:49:19.368   09 Jun 2027 08:49:24.894             5.526          1550.531
       318   09 Jun 2027 08:49:55.733   09 Jun 2027 08:49:57.758             2.025           962.812
       319   09 Jun 2027 10:21:02.265   09 Jun 2027 10:21:20.055            17.790          7962.156
       320   09 Jun 2027 10:21:58.053   09 Jun 2027 10:21:59.614             1.561           538.281
       321   09 Jun 2027 10:22:46.616   09 Jun 2027 10:22:51.040             4.424          1047.781
       322   09 Jun 2027 10:23:32.896   09 Jun 2027 10:23:35.895             2.999           509.531
       323   09 Jun 2027 10:23:56.037   09 Jun 2027 10:23:59.718             3.681           369.656
       324   09 Jun 2027 10:24:26.532   09 Jun 2027 10:24:28.675             2.143           628.969
       325   09 Jun 2027 10:25:32.169   09 Jun 2027 10:25:36.574             4.405          1950.875
       326   09 Jun 2027 11:57:21.235   09 Jun 2027 11:57:38.153            16.918          8285.094
       327   09 Jun 2027 11:57:58.223   09 Jun 2027 11:57:58.223             0.000             0.000
       328   09 Jun 2027 11:58:07.930   09 Jun 2027 11:58:10.412             2.482           693.531
       329   09 Jun 2027 11:58:14.700   09 Jun 2027 11:58:16.403             1.703           134.000
       330   09 Jun 2027 11:59:00.026   09 Jun 2027 11:59:05.140             5.114          1317.844
       331   09 Jun 2027 11:59:30.845   09 Jun 2027 11:59:32.531             1.686           768.531
       332   10 Jun 2027 04:08:08.267   10 Jun 2027 04:09:24.289            76.022         38011.000
       333   10 Jun 2027 05:44:37.218   10 Jun 2027 05:46:29.855           112.637         56318.500
       334   10 Jun 2027 05:47:22.174   10 Jun 2027 05:47:56.586            34.412         17206.000
       335   10 Jun 2027 07:19:48.228   10 Jun 2027 07:21:21.260            93.032         46297.375
       336   10 Jun 2027 07:21:45.559   10 Jun 2027 07:21:47.996             2.437           506.969
       337   10 Jun 2027 07:22:12.970   10 Jun 2027 07:22:14.893             1.923           697.031
       338   10 Jun 2027 07:22:48.416   10 Jun 2027 07:22:52.202             3.786           297.875
       339   10 Jun 2027 07:23:19.418   10 Jun 2027 07:23:21.013             1.595           689.844
       340   10 Jun 2027 07:24:48.673   10 Jun 2027 07:24:56.074             7.401          2739.375
       341   10 Jun 2027 07:25:47.742   10 Jun 2027 07:25:51.454             3.712          1355.594
       342   10 Jun 2027 07:26:01.576   10 Jun 2027 07:26:02.486             0.910           310.094
       343   10 Jun 2027 07:26:05.527   10 Jun 2027 07:26:10.851             5.324            95.031
       344   10 Jun 2027 07:26:16.505   10 Jun 2027 07:26:20.003             3.498           176.687
       345   10 Jun 2027 07:26:22.718   10 Jun 2027 07:26:23.037             0.319            84.219
       346   10 Jun 2027 08:56:07.206   10 Jun 2027 08:56:24.438            17.232          8171.375
       347   10 Jun 2027 08:56:52.490   10 Jun 2027 08:56:53.034             0.544            66.750
       348   10 Jun 2027 08:57:52.077   10 Jun 2027 08:57:57.743             5.666          1375.813
       349   10 Jun 2027 08:58:05.490   10 Jun 2027 08:58:07.595             2.105           242.094
       350   10 Jun 2027 08:58:25.735   10 Jun 2027 08:58:27.721             1.986           566.875
       351   10 Jun 2027 08:58:35.741   10 Jun 2027 08:58:39.027             3.286            80.719
       352   10 Jun 2027 08:59:19.779   10 Jun 2027 08:59:23.526             3.747          1273.500
       353   10 Jun 2027 08:59:36.223   10 Jun 2027 08:59:40.007             3.784           316.719
       354   10 Jun 2027 08:59:52.410   10 Jun 2027 08:59:57.354             4.944           387.594
       355   10 Jun 2027 09:01:16.758   10 Jun 2027 09:01:25.505             8.747          2446.937
       356   10 Jun 2027 09:01:52.611   10 Jun 2027 09:01:54.193             1.582           784.031
       357   10 Jun 2027 10:33:30.495   10 Jun 2027 10:33:47.396            16.901          7482.844
       358   10 Jun 2027 10:34:03.678   10 Jun 2027 10:34:03.678             0.000             0.000
       359   10 Jun 2027 10:34:06.931   10 Jun 2027 10:34:09.627             2.696           610.469
       360   10 Jun 2027 10:35:03.911   10 Jun 2027 10:35:05.640             1.729           864.500
       361   10 Jun 2027 10:35:28.498   10 Jun 2027 10:35:32.749             4.251          1471.312
       362   10 Jun 2027 10:35:50.180   10 Jun 2027 10:35:50.676             0.496           248.000
       363   10 Jun 2027 10:36:10.326   10 Jun 2027 10:36:14.482             4.156           670.906
       364   10 Jun 2027 10:36:33.411   10 Jun 2027 10:36:34.290             0.879           328.313
       365   10 Jun 2027 10:36:37.943   10 Jun 2027 10:36:38.421             0.478            88.750
       366   10 Jun 2027 10:36:53.754   10 Jun 2027 10:36:55.647             1.893           412.500
       367   10 Jun 2027 10:36:58.389   10 Jun 2027 10:37:00.471             2.082             8.219
       368   10 Jun 2027 10:37:11.663   10 Jun 2027 10:37:12.222             0.559           170.062
       369   10 Jun 2027 10:37:50.807   10 Jun 2027 10:37:53.764             2.957          1203.156
       370   11 Jun 2027 03:00:00.000   11 Jun 2027 03:00:05.047             5.047          2523.500
       371   11 Jun 2027 04:20:50.762   11 Jun 2027 04:22:56.202           125.440         62720.000
       372   11 Jun 2027 05:56:34.946   11 Jun 2027 05:59:07.947           153.001         76500.500
       373   11 Jun 2027 05:59:23.530   11 Jun 2027 05:59:36.679            13.149          6574.500
       374   11 Jun 2027 06:00:06.632   11 Jun 2027 06:00:06.966             0.334           167.000
       375   11 Jun 2027 07:31:39.400   11 Jun 2027 07:31:58.393            18.993          9443.937
       376   11 Jun 2027 07:33:06.485   11 Jun 2027 07:33:14.150             7.665          1919.781
       377   11 Jun 2027 07:33:16.838   11 Jun 2027 07:33:17.754             0.916            83.875
       378   11 Jun 2027 07:34:21.349   11 Jun 2027 07:34:26.996             5.647           853.250
       379   11 Jun 2027 07:34:35.098   11 Jun 2027 07:34:35.098             0.000             0.000
       380   11 Jun 2027 07:35:13.571   11 Jun 2027 07:35:16.741             3.170          1420.969
       381   11 Jun 2027 07:36:48.478   11 Jun 2027 07:36:55.839             7.361          2171.594
       382   11 Jun 2027 07:37:06.725   11 Jun 2027 07:37:08.998             2.273           340.188
       383   11 Jun 2027 07:38:28.821   11 Jun 2027 07:38:31.727             2.906          1453.000
       384   11 Jun 2027 09:07:44.771   11 Jun 2027 09:08:03.361            18.590          8981.906
       385   11 Jun 2027 09:08:47.266   11 Jun 2027 09:08:47.959             0.693           271.438
       386   11 Jun 2027 09:09:56.197   11 Jun 2027 09:09:59.749             3.552          1662.094
       387   11 Jun 2027 09:11:15.075   11 Jun 2027 09:11:22.294             7.219          1569.906
       388   11 Jun 2027 09:12:05.964   11 Jun 2027 09:12:05.964             0.000             0.000
       389   11 Jun 2027 09:12:31.016   11 Jun 2027 09:12:34.708             3.692          1555.906
       390   11 Jun 2027 10:45:43.058   11 Jun 2027 10:45:55.941            12.883          6441.500
       391   11 Jun 2027 10:46:39.906   11 Jun 2027 10:46:41.109             1.203           601.500
       392   11 Jun 2027 10:46:43.080   11 Jun 2027 10:46:52.023             8.943           894.969
       393   11 Jun 2027 10:47:47.247   11 Jun 2027 10:47:53.110             5.863          1725.750
       394   11 Jun 2027 10:49:11.268   11 Jun 2027 10:49:23.241            11.973          1924.187
       395   11 Jun 2027 10:49:54.319   11 Jun 2027 10:50:01.163             6.844           971.187
       396   12 Jun 2027 03:08:39.028   12 Jun 2027 03:10:33.069           114.041         57020.500
       397   12 Jun 2027 03:10:47.641   12 Jun 2027 03:11:24.742            37.101         18550.500
       398   12 Jun 2027 04:31:57.108   12 Jun 2027 04:32:52.792            55.684         27842.000
       399   12 Jun 2027 04:35:21.776   12 Jun 2027 04:35:21.776             0.000             0.000
       400   12 Jun 2027 06:08:19.607   12 Jun 2027 06:08:55.811            36.204         18102.000
       401   12 Jun 2027 06:09:58.114   12 Jun 2027 06:11:11.114            73.000         36500.000
       402   12 Jun 2027 06:11:49.863   12 Jun 2027 06:11:52.220             2.357          1178.500
       403   12 Jun 2027 06:12:11.982   12 Jun 2027 06:12:21.945             9.963          3925.437
       404   12 Jun 2027 07:43:05.337   12 Jun 2027 07:43:23.837            18.500          5940.563
       405   12 Jun 2027 07:44:22.102   12 Jun 2027 07:44:28.240             6.138          1645.938
       406   12 Jun 2027 07:46:25.662   12 Jun 2027 07:46:28.546             2.884          1097.469
       407   12 Jun 2027 07:47:43.603   12 Jun 2027 07:47:48.432             4.829          2342.687
       408   12 Jun 2027 07:47:54.565   12 Jun 2027 07:48:01.072             6.507           109.344
       409   12 Jun 2027 07:48:24.339   12 Jun 2027 07:48:26.335             1.996           345.437
       410   12 Jun 2027 07:48:40.948   12 Jun 2027 07:48:41.895             0.947           372.313
       411   12 Jun 2027 07:49:08.407   12 Jun 2027 07:49:09.110             0.703           351.500
       412   12 Jun 2027 07:49:47.500   12 Jun 2027 07:49:52.825             5.325          1676.688
       413   12 Jun 2027 07:49:57.403   12 Jun 2027 07:49:57.808             0.405           143.063
       414   12 Jun 2027 07:50:02.782   12 Jun 2027 07:50:04.820             2.038            32.000
       415   12 Jun 2027 07:50:32.589   12 Jun 2027 07:50:35.079             2.490           604.031
       416   12 Jun 2027 09:19:54.852   12 Jun 2027 09:20:13.894            19.042          8812.281
       417   12 Jun 2027 09:20:42.702   12 Jun 2027 09:20:44.625             1.923           821.844
       418   12 Jun 2027 09:21:57.821   12 Jun 2027 09:22:02.984             5.163          1849.812
       419   12 Jun 2027 09:22:21.395   12 Jun 2027 09:22:21.930             0.535           158.781
       420   12 Jun 2027 09:23:18.908   12 Jun 2027 09:23:23.579             4.671          1240.469
       421   12 Jun 2027 09:23:47.105   12 Jun 2027 09:23:49.115             2.010           672.500
       422   12 Jun 2027 09:24:17.225   12 Jun 2027 09:24:19.632             2.407           878.438
       423   12 Jun 2027 09:24:37.181   12 Jun 2027 09:24:38.289             1.108           548.406
       424   12 Jun 2027 09:25:56.043   12 Jun 2027 09:26:07.359            11.316          2352.406
       425   12 Jun 2027 10:58:05.308   12 Jun 2027 10:58:20.036            14.728          7342.719
       426   12 Jun 2027 10:58:32.987   12 Jun 2027 10:58:36.782             3.795           404.719
       427   12 Jun 2027 10:58:53.053   12 Jun 2027 10:58:54.541             1.488           508.469
       428   12 Jun 2027 10:59:11.416   12 Jun 2027 10:59:14.295             2.879           451.844
       429   12 Jun 2027 11:00:23.020   12 Jun 2027 11:00:26.958             3.938          1771.281
       430   12 Jun 2027 11:01:09.647   12 Jun 2027 11:01:24.898            15.251          1307.562
       431   13 Jun 2027 03:08:58.702   13 Jun 2027 03:09:44.087            45.385         22692.500
       432   13 Jun 2027 03:20:39.760   13 Jun 2027 03:22:03.820            84.060         42030.000
       433   13 Jun 2027 04:42:55.205   13 Jun 2027 04:44:10.855            75.650         37825.000
       434   13 Jun 2027 04:44:52.469   13 Jun 2027 04:45:22.672            30.203         15101.500
       435   13 Jun 2027 04:46:32.987   13 Jun 2027 04:46:32.987             0.000             0.000
       436   13 Jun 2027 04:47:01.577   13 Jun 2027 04:47:22.763            21.186         10593.000
       437   13 Jun 2027 06:18:07.580   13 Jun 2027 06:19:04.003            56.423         27918.062
       438   13 Jun 2027 06:19:07.570   13 Jun 2027 06:19:10.911             3.341           111.469
       439   13 Jun 2027 06:19:24.921   13 Jun 2027 06:19:29.129             4.208           437.812
       440   13 Jun 2027 06:20:17.556   13 Jun 2027 06:20:19.508             1.952           891.813
       441   13 Jun 2027 06:21:31.068   13 Jun 2027 06:21:31.068             0.000             0.000
       442   13 Jun 2027 06:21:50.585   13 Jun 2027 06:21:58.226             7.641          2707.313
       443   13 Jun 2027 06:22:24.555   13 Jun 2027 06:22:26.975             2.420           822.781
       444   13 Jun 2027 06:23:13.361   13 Jun 2027 06:23:14.246             0.885           438.219
       445   13 Jun 2027 06:24:08.843   13 Jun 2027 06:24:13.367             4.524          1706.156
       446   13 Jun 2027 06:24:55.125   13 Jun 2027 06:24:58.256             3.131          1082.250
       447   13 Jun 2027 06:26:00.529   13 Jun 2027 06:26:00.861             0.332           166.000
       448   13 Jun 2027 07:55:12.270   13 Jun 2027 07:55:22.590            10.320          5128.781
       449   13 Jun 2027 07:55:57.578   13 Jun 2027 07:56:01.855             4.277           829.406
       450   13 Jun 2027 07:57:04.649   13 Jun 2027 07:57:07.107             2.458           898.469
       451   13 Jun 2027 07:58:16.686   13 Jun 2027 07:58:21.024             4.338          1896.625
       452   13 Jun 2027 07:58:30.093   13 Jun 2027 07:58:32.972             2.879           222.656
       453   13 Jun 2027 08:00:28.646   13 Jun 2027 08:00:35.059             6.413          1495.656
       454   13 Jun 2027 08:00:46.035   13 Jun 2027 08:00:46.035             0.000             0.000
       455   13 Jun 2027 08:01:36.635   13 Jun 2027 08:01:42.390             5.755          1875.281
       456   13 Jun 2027 09:32:10.399   13 Jun 2027 09:32:36.374            25.975         10453.844
       457   13 Jun 2027 09:33:28.558   13 Jun 2027 09:33:33.248             4.690          1210.031
       458   13 Jun 2027 09:34:15.677   13 Jun 2027 09:34:17.974             2.297           503.312
       459   13 Jun 2027 09:34:41.156   13 Jun 2027 09:34:42.929             1.773           108.812
       460   13 Jun 2027 09:35:20.713   13 Jun 2027 09:35:27.481             6.768          1115.219
       461   13 Jun 2027 09:36:04.170   13 Jun 2027 09:36:09.763             5.593           998.875
       462   13 Jun 2027 09:36:33.194   13 Jun 2027 09:36:35.923             2.729           679.125
       463   13 Jun 2027 09:36:41.850   13 Jun 2027 09:36:42.496             0.646            41.719
       464   13 Jun 2027 09:37:33.340   13 Jun 2027 09:37:42.111             8.771          1588.875
       465   13 Jun 2027 11:10:06.702   13 Jun 2027 11:10:21.572            14.870          6994.969
       466   13 Jun 2027 11:10:51.800   13 Jun 2027 11:10:57.086             5.286           890.406
       467   13 Jun 2027 11:11:33.029   13 Jun 2027 11:11:33.029             0.000             0.000
       468   13 Jun 2027 11:11:40.912   13 Jun 2027 11:11:45.432             4.520          1369.563
       469   13 Jun 2027 11:12:05.589   13 Jun 2027 11:12:05.589             0.000             0.000
       470   13 Jun 2027 11:12:36.472   13 Jun 2027 11:12:39.835             3.363          1595.000
       471   13 Jun 2027 11:13:01.565   13 Jun 2027 11:13:03.103             1.538           565.500
       472   13 Jun 2027 11:13:50.216   13 Jun 2027 11:13:53.285             3.069          1125.125
