uniorb/output/strategy_2/Camera/Camera_KinoSat_112005.txt

KinoSat_112005
-------------------------
    Access    *     Start Time (UTCG)     *     Stop Time (UTCG)  *   Duration (s) *   Data (Mbytes)
         1   01 Jun 2027 03:00:00.000   01 Jun 2027 03:00:39.709            39.709         19854.500
         2   01 Jun 2027 03:00:45.713   01 Jun 2027 03:01:24.544            38.831         19415.500
         3   01 Jun 2027 03:02:13.812   01 Jun 2027 03:02:21.974             8.162          4081.000
         4   01 Jun 2027 03:03:26.731   01 Jun 2027 03:03:57.061            30.330         15165.000
         5   01 Jun 2027 04:33:43.470   01 Jun 2027 04:36:04.842           141.372         70686.000
         6   01 Jun 2027 04:36:07.151   01 Jun 2027 04:36:34.856            27.705         13852.500
         7   01 Jun 2027 04:36:51.718   01 Jun 2027 04:37:10.805            19.087          9543.500
         8   01 Jun 2027 04:38:33.429   01 Jun 2027 04:38:40.415             6.986          3493.000
         9   01 Jun 2027 06:12:40.501   01 Jun 2027 06:15:33.884           173.383         86691.500
        10   01 Jun 2027 06:15:52.386   01 Jun 2027 06:15:57.137             4.751          2375.500
        11   01 Jun 2027 06:16:33.877   01 Jun 2027 06:16:43.010             9.133          4566.500
        12   01 Jun 2027 06:17:07.646   01 Jun 2027 06:17:12.582             4.936          2468.000
        13   01 Jun 2027 06:17:30.283   01 Jun 2027 06:18:04.335            34.052         17026.000
        14   01 Jun 2027 07:36:49.311   01 Jun 2027 07:37:28.246            38.935         19467.500
        15   01 Jun 2027 07:49:07.092   01 Jun 2027 07:49:39.371            32.279         16139.500
        16   01 Jun 2027 09:11:05.021   01 Jun 2027 09:11:40.644            35.623         17811.500
        17   01 Jun 2027 09:13:08.365   01 Jun 2027 09:13:57.384            49.019         24509.500
        18   01 Jun 2027 09:14:58.932   01 Jun 2027 09:16:14.105            75.173         37586.500
        19   01 Jun 2027 10:45:57.120   01 Jun 2027 10:46:55.714            58.594         29297.000
        20   01 Jun 2027 10:48:11.727   01 Jun 2027 10:48:32.920            21.193         10596.500
        21   01 Jun 2027 10:54:18.086   01 Jun 2027 10:54:44.113            26.027         13013.500
        22   02 Jun 2027 03:08:50.618   02 Jun 2027 03:10:08.825            78.207         39103.500
        23   02 Jun 2027 03:10:19.939   02 Jun 2027 03:11:04.252            44.313         22156.500
        24   02 Jun 2027 03:11:07.239   02 Jun 2027 03:11:21.174            13.935          6967.500
        25   02 Jun 2027 03:11:28.981   02 Jun 2027 03:11:29.667             0.686           343.000
        26   02 Jun 2027 03:11:50.156   02 Jun 2027 03:11:50.156             0.000             0.000
        27   02 Jun 2027 03:12:15.888   02 Jun 2027 03:12:41.181            25.293         12646.500
        28   02 Jun 2027 03:12:52.482   02 Jun 2027 03:13:04.376            11.894          5947.000
        29   02 Jun 2027 03:13:20.193   02 Jun 2027 03:13:40.263            20.070         10035.000
        30   02 Jun 2027 03:15:46.641   02 Jun 2027 03:16:11.260            24.619         12309.500
        31   02 Jun 2027 04:49:05.351   02 Jun 2027 04:50:56.012           110.661         55330.500
        32   02 Jun 2027 06:24:51.019   02 Jun 2027 06:28:06.073           195.054         97527.000
        33   02 Jun 2027 06:29:31.064   02 Jun 2027 06:30:03.486            32.422         16211.000
        34   02 Jun 2027 07:48:54.517   02 Jun 2027 07:49:30.442            35.925         17962.500
        35   02 Jun 2027 07:50:04.399   02 Jun 2027 07:50:23.151            18.752          9376.000
        36   02 Jun 2027 07:50:45.107   02 Jun 2027 07:50:55.227            10.120          5060.000
        37   02 Jun 2027 09:22:40.575   02 Jun 2027 09:23:32.977            52.402         26201.000
        38   02 Jun 2027 09:25:55.901   02 Jun 2027 09:26:40.416            44.515         22257.500
        39   02 Jun 2027 10:58:41.240   02 Jun 2027 10:59:17.882            36.642         17359.969
        40   02 Jun 2027 10:59:41.038   02 Jun 2027 10:59:46.889             5.851           195.313
        41   02 Jun 2027 11:01:13.398   02 Jun 2027 11:01:18.545             5.147          2050.000
        42   02 Jun 2027 11:04:52.915   02 Jun 2027 11:04:52.915             0.000             0.000
        43   02 Jun 2027 11:05:14.495   02 Jun 2027 11:05:29.896            15.401          7216.063
        44   03 Jun 2027 03:20:50.632   03 Jun 2027 03:21:58.126            67.494         33747.000
        45   03 Jun 2027 03:23:08.419   03 Jun 2027 03:25:41.814           153.395         76697.500
        46   03 Jun 2027 03:26:25.342   03 Jun 2027 03:26:36.681            11.339          5669.500
        47   03 Jun 2027 03:27:14.368   03 Jun 2027 03:28:08.149            53.781         26890.500
        48   03 Jun 2027 03:28:13.232   03 Jun 2027 03:28:19.436             6.204          3102.000
        49   03 Jun 2027 05:00:39.804   03 Jun 2027 05:00:43.447             3.643          1821.500
        50   03 Jun 2027 05:00:44.529   03 Jun 2027 05:01:36.579            52.050         26025.000
        51   03 Jun 2027 05:01:40.094   03 Jun 2027 05:01:51.696            11.602          5801.000
        52   03 Jun 2027 05:01:58.212   03 Jun 2027 05:02:06.929             8.717          4358.500
        53   03 Jun 2027 05:03:06.790   03 Jun 2027 05:03:20.071            13.281          6433.593
        54   03 Jun 2027 06:37:25.761   03 Jun 2027 06:37:55.999            30.238         15119.000
        55   03 Jun 2027 06:38:37.283   03 Jun 2027 06:38:40.397             3.114          1557.000
        56   03 Jun 2027 06:39:19.463   03 Jun 2027 06:39:22.601             3.138          1569.000
        57   03 Jun 2027 06:39:48.590   03 Jun 2027 06:39:52.147             3.557          1079.562
        58   03 Jun 2027 06:40:29.642   03 Jun 2027 06:40:33.173             3.531           796.875
        59   03 Jun 2027 06:40:41.797   03 Jun 2027 06:40:44.407             2.610           206.750
        60   03 Jun 2027 06:41:18.353   03 Jun 2027 06:41:22.448             4.095            43.750
        61   03 Jun 2027 08:00:49.573   03 Jun 2027 08:01:00.741            11.168          5490.500
        62   03 Jun 2027 08:02:44.184   03 Jun 2027 08:02:53.112             8.928          2499.031
        63   03 Jun 2027 08:03:04.197   03 Jun 2027 08:03:04.939             0.742           155.531
        64   03 Jun 2027 09:37:08.683   03 Jun 2027 09:37:32.293            23.610         11805.000
        65   03 Jun 2027 09:37:53.483   03 Jun 2027 09:37:53.483             0.000             0.000
        66   03 Jun 2027 09:39:28.669   03 Jun 2027 09:39:42.513            13.844          6289.000
        67   03 Jun 2027 11:13:08.337   03 Jun 2027 11:13:35.078            26.741         11148.281
        68   03 Jun 2027 11:18:09.577   03 Jun 2027 11:18:21.222            11.645          5822.500
        69   03 Jun 2027 11:19:10.126   03 Jun 2027 11:19:11.185             1.059           529.500
        70   04 Jun 2027 03:32:58.475   04 Jun 2027 03:33:51.682            53.207         26603.500
        71   04 Jun 2027 03:34:12.826   04 Jun 2027 03:37:22.491           189.665         94832.500
        72   04 Jun 2027 03:37:28.126   04 Jun 2027 03:37:35.306             7.180          3590.000
        73   04 Jun 2027 03:38:09.509   04 Jun 2027 03:38:16.804             7.295          3647.500
        74   04 Jun 2027 03:38:24.701   04 Jun 2027 03:39:06.200            41.499         20310.469
        75   04 Jun 2027 03:39:50.714   04 Jun 2027 03:39:54.089             3.375          1391.063
        76   04 Jun 2027 05:10:59.817   04 Jun 2027 05:11:05.476             5.659          2829.500
        77   04 Jun 2027 05:11:17.639   04 Jun 2027 05:12:22.087            64.448         32224.000
        78   04 Jun 2027 05:12:24.737   04 Jun 2027 05:12:31.088             6.351           178.000
        79   04 Jun 2027 05:12:51.285   04 Jun 2027 05:12:56.126             4.841           631.156
        80   04 Jun 2027 05:13:22.607   04 Jun 2027 05:13:26.147             3.540           827.531
        81   04 Jun 2027 05:13:26.888   04 Jun 2027 05:13:28.261             1.373            23.156
        82   04 Jun 2027 05:14:16.974   04 Jun 2027 05:14:20.788             3.814          1225.094
        83   04 Jun 2027 05:15:16.982   04 Jun 2027 05:15:22.253             5.271          1465.938
        84   04 Jun 2027 05:16:12.965   04 Jun 2027 05:16:15.138             2.173          1086.500
        85   04 Jun 2027 05:16:23.382   04 Jun 2027 05:16:24.740             1.358           604.094
        86   04 Jun 2027 05:16:43.404   04 Jun 2027 05:16:45.613             2.209           581.625
        87   04 Jun 2027 05:16:58.597   04 Jun 2027 05:17:01.537             2.940           405.750
        88   04 Jun 2027 06:49:04.040   04 Jun 2027 06:49:19.906            15.866          7933.000
        89   04 Jun 2027 06:49:27.347   04 Jun 2027 06:49:34.949             7.602          1751.031
        90   04 Jun 2027 06:49:39.990   04 Jun 2027 06:49:40.260             0.270            14.094
        91   04 Jun 2027 06:50:20.424   04 Jun 2027 06:50:20.424             0.000             0.000
        92   04 Jun 2027 06:50:24.825   04 Jun 2027 06:50:27.296             2.471          1209.250
        93   04 Jun 2027 06:50:56.552   04 Jun 2027 06:50:56.552             0.000             0.000
        94   04 Jun 2027 06:51:29.953   04 Jun 2027 06:51:29.953             0.000             0.000
        95   04 Jun 2027 06:51:59.760   04 Jun 2027 06:52:05.669             5.909          2839.875
        96   04 Jun 2027 06:53:10.805   04 Jun 2027 06:53:15.509             4.704          1460.906
        97   04 Jun 2027 06:53:24.061   04 Jun 2027 06:53:26.166             2.105           267.250
        98   04 Jun 2027 08:12:41.192   04 Jun 2027 08:13:00.550            19.358          8906.031
        99   04 Jun 2027 08:15:13.095   04 Jun 2027 08:15:22.413             9.318          3673.406
       100   04 Jun 2027 09:49:10.698   04 Jun 2027 09:49:34.123            23.425          9192.094
       101   04 Jun 2027 11:30:07.852   04 Jun 2027 11:30:58.091            50.239         25119.500
       102   05 Jun 2027 03:45:00.303   05 Jun 2027 03:49:01.264           240.961        120480.500
       103   05 Jun 2027 03:49:48.287   05 Jun 2027 03:49:53.776             5.489          2744.500
       104   05 Jun 2027 03:50:48.509   05 Jun 2027 03:51:12.580            24.071         12035.500
       105   05 Jun 2027 03:51:36.428   05 Jun 2027 03:52:13.671            37.243         18621.500
       106   05 Jun 2027 05:23:08.780   05 Jun 2027 05:24:10.041            61.261         30630.500
       107   05 Jun 2027 05:24:17.920   05 Jun 2027 05:24:26.067             8.147          2872.375
       108   05 Jun 2027 05:24:33.761   05 Jun 2027 05:24:35.369             1.608           240.437
       109   05 Jun 2027 05:25:14.659   05 Jun 2027 05:25:16.275             1.616           637.188
       110   05 Jun 2027 05:26:15.237   05 Jun 2027 05:26:20.531             5.294          1753.844
       111   05 Jun 2027 05:27:33.409   05 Jun 2027 05:27:36.657             3.248          1624.000
       112   05 Jun 2027 05:28:09.026   05 Jun 2027 05:28:10.685             1.659           829.500
       113   05 Jun 2027 05:28:45.158   05 Jun 2027 05:28:47.238             2.080          1040.000
       114   05 Jun 2027 07:01:27.210   05 Jun 2027 07:01:39.518            12.308          6154.000
       115   05 Jun 2027 07:02:16.387   05 Jun 2027 07:02:22.487             6.100          2608.312
       116   05 Jun 2027 07:02:37.255   05 Jun 2027 07:02:38.975             1.720           283.469
       117   05 Jun 2027 07:03:54.455   05 Jun 2027 07:03:57.022             2.567          1283.500
       118   05 Jun 2027 07:05:01.828   05 Jun 2027 07:05:09.324             7.496          2830.781
       119   05 Jun 2027 08:24:50.484   05 Jun 2027 08:25:06.140            15.656          7283.500
       120   05 Jun 2027 08:27:38.951   05 Jun 2027 08:27:45.626             6.675          3337.500
       121   05 Jun 2027 10:01:43.414   05 Jun 2027 10:01:44.668             1.254           627.000
       122   05 Jun 2027 10:03:06.840   05 Jun 2027 10:03:46.238            39.398         16281.625
       123   05 Jun 2027 10:03:57.622   05 Jun 2027 10:04:03.817             6.195           162.750
       124   05 Jun 2027 10:04:48.210   05 Jun 2027 10:04:50.280             2.070           898.594
       125   05 Jun 2027 11:36:41.716   05 Jun 2027 11:37:00.157            18.441          9220.500
       126   05 Jun 2027 11:42:59.940   05 Jun 2027 11:43:08.178             8.238          4119.000
       127   06 Jun 2027 03:56:58.268   06 Jun 2027 04:00:17.083           198.815         99407.500
       128   06 Jun 2027 04:00:19.307   06 Jun 2027 04:00:39.315            20.008         10004.000
       129   06 Jun 2027 04:00:52.787   06 Jun 2027 04:01:02.938            10.151          5075.500
       130   06 Jun 2027 04:03:37.361   06 Jun 2027 04:03:43.877             6.516          3258.000
       131   06 Jun 2027 05:35:14.561   06 Jun 2027 05:35:21.833             7.272          3636.000
       132   06 Jun 2027 05:36:15.589   06 Jun 2027 05:37:41.088            85.499         42749.500
       133   06 Jun 2027 05:37:45.866   06 Jun 2027 05:37:47.596             1.730           865.000
       134   06 Jun 2027 05:38:11.616   06 Jun 2027 05:38:28.466            16.850          8092.937
       135   06 Jun 2027 05:39:16.064   06 Jun 2027 05:39:19.256             3.192           807.000
       136   06 Jun 2027 05:39:25.812   06 Jun 2027 05:39:28.111             2.299           204.875
       137   06 Jun 2027 05:40:49.071   06 Jun 2027 05:40:49.162             0.091            45.500
       138   06 Jun 2027 05:41:16.438   06 Jun 2027 05:41:23.151             6.713          3111.125
       139   06 Jun 2027 05:43:18.365   06 Jun 2027 05:43:25.075             6.710          2512.063
       140   06 Jun 2027 07:13:24.243   06 Jun 2027 07:13:36.198            11.955          5977.500
       141   06 Jun 2027 07:13:52.775   06 Jun 2027 07:13:58.982             6.207          1476.062
       142   06 Jun 2027 07:16:06.874   06 Jun 2027 07:16:14.404             7.530          3394.281
       143   06 Jun 2027 07:16:15.309   06 Jun 2027 07:16:16.114             0.805            11.219
       144   06 Jun 2027 07:16:33.935   06 Jun 2027 07:16:34.659             0.724           185.937
       145   06 Jun 2027 07:16:48.435   06 Jun 2027 07:16:52.717             4.282           430.500
       146   06 Jun 2027 08:37:30.694   06 Jun 2027 08:37:51.180            20.486          9951.750
       147   06 Jun 2027 08:38:31.002   06 Jun 2027 08:38:35.853             4.851          1037.375
       148   06 Jun 2027 11:51:02.774   06 Jun 2027 11:51:18.096            15.322          7661.000
       149   06 Jun 2027 11:54:51.868   06 Jun 2027 11:55:14.237            22.369         11184.500
       150   07 Jun 2027 04:09:36.028   07 Jun 2027 04:13:22.832           226.804        113402.000
       151   07 Jun 2027 04:13:32.500   07 Jun 2027 04:13:46.740            14.240          7120.000
       152   07 Jun 2027 04:15:16.915   07 Jun 2027 04:15:20.570             3.655          1827.500
       153   07 Jun 2027 05:48:19.485   07 Jun 2027 05:49:59.615           100.130         48611.063
       154   07 Jun 2027 05:50:59.908   07 Jun 2027 05:50:59.908             0.000             0.000
       155   07 Jun 2027 05:51:44.915   07 Jun 2027 05:51:44.915             0.000             0.000
       156   07 Jun 2027 05:52:25.308   07 Jun 2027 05:52:35.715            10.407          4497.281
       157   07 Jun 2027 05:53:08.162   07 Jun 2027 05:53:10.851             2.689           708.469
       158   07 Jun 2027 05:53:38.359   07 Jun 2027 05:53:38.359             0.000             0.000
       159   07 Jun 2027 05:55:14.610   07 Jun 2027 05:55:14.610             0.000             0.000
       160   07 Jun 2027 05:55:19.037   07 Jun 2027 05:55:27.157             8.120          3600.062
       161   07 Jun 2027 07:14:18.169   07 Jun 2027 07:14:34.761            16.592          7578.562
       162   07 Jun 2027 07:25:20.832   07 Jun 2027 07:25:26.621             5.789          2846.719
       163   07 Jun 2027 07:25:30.080   07 Jun 2027 07:25:31.698             1.618            45.375
       164   07 Jun 2027 07:26:30.308   07 Jun 2027 07:26:31.145             0.837           418.500
       165   07 Jun 2027 07:27:27.738   07 Jun 2027 07:27:29.302             1.564           782.000
       166   07 Jun 2027 07:28:03.152   07 Jun 2027 07:28:08.697             5.545          2637.688
       167   07 Jun 2027 07:28:26.469   07 Jun 2027 07:28:29.685             3.216           471.813
       168   07 Jun 2027 08:48:19.491   07 Jun 2027 08:48:36.349            16.858          8175.750
       169   07 Jun 2027 08:49:34.299   07 Jun 2027 08:49:34.299             0.000             0.000
       170   07 Jun 2027 08:50:00.304   07 Jun 2027 08:50:05.311             5.007          1977.562
       171   07 Jun 2027 08:51:36.401   07 Jun 2027 08:51:41.832             5.431          2514.625
       172   07 Jun 2027 10:28:21.413   07 Jun 2027 10:28:53.204            31.791         15488.750
       173   08 Jun 2027 04:21:43.043   08 Jun 2027 04:23:28.139           105.096         52548.000
       174   08 Jun 2027 04:23:30.138   08 Jun 2027 04:25:06.111            95.973         47986.500
       175   08 Jun 2027 04:25:50.439   08 Jun 2027 04:26:21.264            30.825         15412.500
       176   08 Jun 2027 04:26:23.775   08 Jun 2027 04:26:45.888            22.113         11056.500
       177   08 Jun 2027 04:27:42.005   08 Jun 2027 04:27:50.254             8.249          4124.500
       178   08 Jun 2027 06:00:49.320   08 Jun 2027 06:02:37.103           107.783         53790.313
       179   08 Jun 2027 06:03:06.239   08 Jun 2027 06:03:07.884             1.645           822.500
       180   08 Jun 2027 06:03:20.096   08 Jun 2027 06:03:21.131             1.035           387.750
       181   08 Jun 2027 06:04:15.873   08 Jun 2027 06:04:15.873             0.000             0.000
       182   08 Jun 2027 06:04:26.302   08 Jun 2027 06:04:31.389             5.087          1694.719
       183   08 Jun 2027 06:06:12.348   08 Jun 2027 06:06:19.235             6.887          3019.219
       184   08 Jun 2027 06:07:34.382   08 Jun 2027 06:07:40.491             6.109          2272.219
       185   08 Jun 2027 07:25:41.021   08 Jun 2027 07:25:54.149            13.128          6564.000
       186   08 Jun 2027 07:26:25.053   08 Jun 2027 07:26:27.834             2.781          1366.094
       187   08 Jun 2027 07:37:23.639   08 Jun 2027 07:37:30.207             6.568          2756.969
       188   08 Jun 2027 08:59:36.276   08 Jun 2027 09:00:02.885            26.609         13304.500
       189   08 Jun 2027 09:02:15.748   08 Jun 2027 09:02:28.525            12.777          4913.375
       190   08 Jun 2027 09:04:32.161   08 Jun 2027 09:04:42.836            10.675          3596.344
       191   08 Jun 2027 10:34:43.281   08 Jun 2027 10:35:01.533            18.252          7796.750
       192   09 Jun 2027 03:00:00.000   09 Jun 2027 03:00:49.330            49.330         24665.000
       193   09 Jun 2027 03:01:38.525   09 Jun 2027 03:02:27.958            49.433         24716.500
       194   09 Jun 2027 03:03:11.438   09 Jun 2027 03:03:12.720             1.282           641.000
       195   09 Jun 2027 03:03:42.635   09 Jun 2027 03:04:06.894            24.259         12129.500
       196   09 Jun 2027 03:04:24.285   09 Jun 2027 03:04:33.528             9.243          4621.500
       197   09 Jun 2027 04:34:02.403   09 Jun 2027 04:35:12.409            70.006         35003.000
       198   09 Jun 2027 04:35:13.510   09 Jun 2027 04:36:14.583            61.073         30536.500
       199   09 Jun 2027 04:36:15.127   09 Jun 2027 04:36:53.092            37.965         18982.500
       200   09 Jun 2027 04:36:59.830   09 Jun 2027 04:37:04.603             4.773          2386.500
       201   09 Jun 2027 04:37:34.025   09 Jun 2027 04:37:41.782             7.757          3878.500
       202   09 Jun 2027 04:40:00.535   09 Jun 2027 04:40:02.007             1.472           736.000
       203   09 Jun 2027 06:12:50.019   09 Jun 2027 06:13:50.820            60.801         30356.906
       204   09 Jun 2027 06:14:23.293   09 Jun 2027 06:14:28.542             5.249           767.250
       205   09 Jun 2027 06:15:29.329   09 Jun 2027 06:15:33.808             4.479          1879.688
       206   09 Jun 2027 06:15:51.505   09 Jun 2027 06:15:57.383             5.878           553.031
       207   09 Jun 2027 06:16:29.181   09 Jun 2027 06:16:31.523             2.342           693.469
       208   09 Jun 2027 06:17:41.436   09 Jun 2027 06:17:46.491             5.055          1971.656
       209   09 Jun 2027 06:17:50.961   09 Jun 2027 06:17:50.961             0.000             0.000
       210   09 Jun 2027 06:18:20.844   09 Jun 2027 06:18:22.019             1.175           587.500
       211   09 Jun 2027 06:19:32.839   09 Jun 2027 06:19:39.136             6.297          2610.781
       212   09 Jun 2027 07:37:08.972   09 Jun 2027 07:37:20.810            11.838          4780.969
       213   09 Jun 2027 07:37:46.579   09 Jun 2027 07:37:49.878             3.299           163.063
       214   09 Jun 2027 07:38:00.762   09 Jun 2027 07:38:02.112             1.350           340.125
       215   09 Jun 2027 07:38:19.025   09 Jun 2027 07:38:19.833             0.808           329.375
       216   09 Jun 2027 07:38:33.060   09 Jun 2027 07:38:37.790             4.730           183.125
       217   09 Jun 2027 07:39:14.304   09 Jun 2027 07:39:16.636             2.332           887.437
       218   09 Jun 2027 07:49:25.272   09 Jun 2027 07:49:33.211             7.939          3833.688
       219   09 Jun 2027 09:11:22.199   09 Jun 2027 09:11:57.208            35.009         16696.156
       220   09 Jun 2027 09:15:14.722   09 Jun 2027 09:15:27.183            12.461          6170.094
       221   09 Jun 2027 10:47:11.894   09 Jun 2027 10:47:25.958            14.064          7017.219
       222   09 Jun 2027 10:48:19.251   09 Jun 2027 10:48:19.251             0.000             0.000
       223   10 Jun 2027 03:09:09.146   10 Jun 2027 03:10:23.578            74.432         37216.000
       224   10 Jun 2027 03:11:37.434   10 Jun 2027 03:12:51.521            74.087         37043.500
       225   10 Jun 2027 03:13:03.363   10 Jun 2027 03:13:09.104             5.741          2870.500
       226   10 Jun 2027 03:13:31.811   10 Jun 2027 03:13:35.093             3.282          1641.000
       227   10 Jun 2027 03:13:50.931   10 Jun 2027 03:14:51.238            60.307         30153.500
       228   10 Jun 2027 03:15:16.556   10 Jun 2027 03:16:04.033            47.477         23738.500
       229   10 Jun 2027 03:16:25.599   10 Jun 2027 03:16:28.782             3.183          1591.500
       230   10 Jun 2027 04:49:19.645   10 Jun 2027 04:51:00.133           100.488         50244.000
       231   10 Jun 2027 04:51:45.387   10 Jun 2027 04:51:47.612             2.225          1112.500
       232   10 Jun 2027 06:25:10.010   10 Jun 2027 06:26:07.674            57.664         25319.688
       233   10 Jun 2027 06:26:57.592   10 Jun 2027 06:27:01.114             3.522          1301.750
       234   10 Jun 2027 06:27:07.416   10 Jun 2027 06:27:07.676             0.260            92.781
       235   10 Jun 2027 06:27:33.990   10 Jun 2027 06:27:36.055             2.065           737.375
       236   10 Jun 2027 06:28:22.223   10 Jun 2027 06:28:23.968             1.745           872.500
       237   10 Jun 2027 06:28:50.493   10 Jun 2027 06:28:54.221             3.728          1144.625
       238   10 Jun 2027 06:29:14.253   10 Jun 2027 06:29:19.691             5.438           518.500
       239   10 Jun 2027 06:29:44.701   10 Jun 2027 06:29:44.701             0.000             0.000
       240   10 Jun 2027 06:30:19.093   10 Jun 2027 06:30:22.698             3.605          1173.219
       241   10 Jun 2027 07:49:12.140   10 Jun 2027 07:49:24.640            12.500          5815.437
       242   10 Jun 2027 07:50:22.724   10 Jun 2027 07:50:28.860             6.136          1135.000
       243   10 Jun 2027 09:25:09.412   10 Jun 2027 09:25:48.842            39.430         18866.531
       244   10 Jun 2027 09:26:06.161   10 Jun 2027 09:26:07.178             1.017           412.188
       245   10 Jun 2027 09:26:55.612   10 Jun 2027 09:26:55.612             0.000             0.000
       246   10 Jun 2027 09:28:01.836   10 Jun 2027 09:28:08.725             6.889          3388.969
       247   10 Jun 2027 09:28:27.357   10 Jun 2027 09:28:27.357             0.000             0.000
       248   10 Jun 2027 11:00:38.081   10 Jun 2027 11:00:55.768            17.687          8843.500
       249   10 Jun 2027 11:06:51.068   10 Jun 2027 11:07:23.309            32.241         13324.781
       250   11 Jun 2027 03:21:08.600   11 Jun 2027 03:21:31.690            23.090         11545.000
       251   11 Jun 2027 03:21:36.672   11 Jun 2027 03:21:43.042             6.370          3185.000
       252   11 Jun 2027 03:22:12.718   11 Jun 2027 03:23:30.420            77.702         38851.000
       253   11 Jun 2027 03:24:18.972   11 Jun 2027 03:25:37.470            78.498         39249.000
       254   11 Jun 2027 03:25:40.366   11 Jun 2027 03:27:04.670            84.304         42152.000
       255   11 Jun 2027 03:28:36.262   11 Jun 2027 03:28:47.962            11.700          5850.000
       256   11 Jun 2027 05:00:54.140   11 Jun 2027 05:01:00.071             5.931          2965.500
       257   11 Jun 2027 05:01:02.183   11 Jun 2027 05:02:21.543            79.360         39624.719
       258   11 Jun 2027 05:02:50.624   11 Jun 2027 05:02:52.360             1.736           852.625
       259   11 Jun 2027 05:03:49.500   11 Jun 2027 05:03:49.500             0.000             0.000
       260   11 Jun 2027 05:03:55.673   11 Jun 2027 05:04:00.074             4.401          1978.531
       261   11 Jun 2027 05:04:31.715   11 Jun 2027 05:04:34.160             2.445           493.469
       262   11 Jun 2027 06:37:43.783   11 Jun 2027 06:38:13.770            29.987         14993.500
       263   11 Jun 2027 06:38:37.819   11 Jun 2027 06:38:37.819             0.000             0.000
       264   11 Jun 2027 06:38:38.034   11 Jun 2027 06:38:40.848             2.814          1349.000
       265   11 Jun 2027 06:38:54.175   11 Jun 2027 06:38:55.044             0.869           416.469
       266   11 Jun 2027 06:39:34.454   11 Jun 2027 06:39:37.264             2.810          1231.562
       267   11 Jun 2027 06:40:08.309   11 Jun 2027 06:40:16.493             8.184           967.719
       268   11 Jun 2027 06:40:51.769   11 Jun 2027 06:40:51.769             0.000             0.000
       269   11 Jun 2027 06:40:59.927   11 Jun 2027 06:41:03.027             3.100          1223.750
       270   11 Jun 2027 06:41:31.834   11 Jun 2027 06:41:33.045             1.211           605.500
       271   11 Jun 2027 06:42:16.824   11 Jun 2027 06:42:21.426             4.602          1619.812
       272   11 Jun 2027 08:01:06.478   11 Jun 2027 08:01:19.090            12.612          5253.656
       273   11 Jun 2027 08:02:30.360   11 Jun 2027 08:02:34.195             3.835          1572.000
       274   11 Jun 2027 08:03:03.036   11 Jun 2027 08:03:03.591             0.555           185.563
       275   11 Jun 2027 09:37:28.469   11 Jun 2027 09:37:52.889            24.420         12210.000
       276   11 Jun 2027 09:39:43.209   11 Jun 2027 09:39:54.857            11.648          5820.688
       277   11 Jun 2027 11:13:10.676   11 Jun 2027 11:13:22.915            12.239          6119.500
       278   11 Jun 2027 11:14:32.975   11 Jun 2027 11:14:43.777            10.802          5401.000
       279   11 Jun 2027 11:15:04.203   11 Jun 2027 11:15:06.982             2.779          1027.625
       280   11 Jun 2027 11:15:24.538   11 Jun 2027 11:15:26.038             1.500           542.812
       281   11 Jun 2027 11:18:24.057   11 Jun 2027 11:18:34.101            10.044          5022.000
       282   11 Jun 2027 11:18:42.702   11 Jun 2027 11:18:42.929             0.227           113.500
       283   11 Jun 2027 11:19:27.674   11 Jun 2027 11:19:29.012             1.338           669.000
       284   12 Jun 2027 03:33:16.918   12 Jun 2027 03:34:08.265            51.347         25673.500
       285   12 Jun 2027 03:34:27.575   12 Jun 2027 03:37:31.201           183.626         91813.000
       286   12 Jun 2027 03:37:51.170   12 Jun 2027 03:38:10.263            19.093          9546.500
       287   12 Jun 2027 03:38:31.896   12 Jun 2027 03:38:32.309             0.413           206.500
       288   12 Jun 2027 03:38:41.213   12 Jun 2027 03:39:21.300            40.087         20043.500
       289   12 Jun 2027 03:40:25.119   12 Jun 2027 03:40:27.650             2.531          1265.500
       290   12 Jun 2027 05:11:17.986   12 Jun 2027 05:11:22.672             4.686          2343.000
       291   12 Jun 2027 05:11:47.564   12 Jun 2027 05:12:45.912            58.348         28563.250
       292   12 Jun 2027 05:12:57.903   12 Jun 2027 05:13:04.664             6.761           374.719
       293   12 Jun 2027 05:13:14.948   12 Jun 2027 05:13:18.201             3.253           126.688
       294   12 Jun 2027 05:14:13.767   12 Jun 2027 05:14:16.963             3.196          1518.469
       295   12 Jun 2027 05:14:47.556   12 Jun 2027 05:14:49.671             2.115           633.156
       296   12 Jun 2027 05:15:15.210   12 Jun 2027 05:15:17.477             2.267           788.469
       297   12 Jun 2027 05:15:59.319   12 Jun 2027 05:16:01.281             1.962           850.687
       298   12 Jun 2027 05:16:38.010   12 Jun 2027 05:16:38.010             0.000             0.000
       299   12 Jun 2027 05:17:00.090   12 Jun 2027 05:17:02.119             2.029           948.094
       300   12 Jun 2027 06:49:58.960   12 Jun 2027 06:50:23.376            24.416         10865.875
       301   12 Jun 2027 06:51:14.130   12 Jun 2027 06:51:20.219             6.089          1181.938
       302   12 Jun 2027 06:51:42.487   12 Jun 2027 06:51:44.638             2.151           662.437
       303   12 Jun 2027 06:52:03.273   12 Jun 2027 06:52:04.550             1.277           530.625
       304   12 Jun 2027 06:53:02.183   12 Jun 2027 06:53:02.183             0.000             0.000
       305   12 Jun 2027 06:53:18.951   12 Jun 2027 06:53:24.556             5.605          1957.781
       306   12 Jun 2027 08:12:57.475   12 Jun 2027 08:13:13.378            15.903          7068.281
       307   12 Jun 2027 08:15:32.069   12 Jun 2027 08:15:40.345             8.276          3776.469
       308   12 Jun 2027 09:50:26.057   12 Jun 2027 09:50:26.057             0.000             0.000
       309   12 Jun 2027 09:50:27.884   12 Jun 2027 09:50:54.450            26.566         12138.625
       310   12 Jun 2027 09:51:27.000   12 Jun 2027 09:51:27.000             0.000             0.000
       311   12 Jun 2027 09:51:33.212   12 Jun 2027 09:51:37.438             4.226           353.313
       312   12 Jun 2027 11:24:43.427   12 Jun 2027 11:25:02.394            18.967          9148.000
       313   12 Jun 2027 11:28:14.916   12 Jun 2027 11:28:26.734            11.818          5851.500
       314   12 Jun 2027 11:28:50.667   12 Jun 2027 11:28:56.452             5.785           586.281
       315   12 Jun 2027 11:29:11.254   12 Jun 2027 11:29:13.197             1.943           462.563
       316   12 Jun 2027 11:29:18.242   12 Jun 2027 11:29:18.314             0.072            12.187
       317   12 Jun 2027 11:30:16.076   12 Jun 2027 11:30:21.280             5.204          1747.969
       318   12 Jun 2027 11:30:36.152   12 Jun 2027 11:30:41.287             5.135           461.281
       319   12 Jun 2027 11:31:23.262   12 Jun 2027 11:31:23.638             0.376           188.000
       320   13 Jun 2027 03:45:18.773   13 Jun 2027 03:49:01.234           222.461        111230.500
       321   13 Jun 2027 03:49:18.267   13 Jun 2027 03:49:52.457            34.190         17095.000
       322   13 Jun 2027 03:51:28.679   13 Jun 2027 03:51:51.914            23.235         11617.500
       323   13 Jun 2027 03:52:13.393   13 Jun 2027 03:52:32.139            18.746          9373.000
       324   13 Jun 2027 05:23:26.885   13 Jun 2027 05:24:28.973            62.088         31044.000
       325   13 Jun 2027 05:24:35.482   13 Jun 2027 05:24:43.355             7.873          3936.500
       326   13 Jun 2027 05:24:53.983   13 Jun 2027 05:24:57.897             3.914           971.313
       327   13 Jun 2027 05:25:16.958   13 Jun 2027 05:25:19.155             2.197           552.313
       328   13 Jun 2027 05:25:50.955   13 Jun 2027 05:25:50.955             0.000             0.000
       329   13 Jun 2027 05:26:04.287   13 Jun 2027 05:26:06.682             2.395          1179.719
       330   13 Jun 2027 05:26:45.809   13 Jun 2027 05:26:46.882             1.073           508.406
       331   13 Jun 2027 05:27:07.584   13 Jun 2027 05:27:12.833             5.249           555.188
       332   13 Jun 2027 05:27:16.151   13 Jun 2027 05:27:16.451             0.300            30.687
       333   13 Jun 2027 05:27:51.601   13 Jun 2027 05:27:56.815             5.214          1070.594
       334   13 Jun 2027 05:28:50.044   13 Jun 2027 05:28:50.213             0.169            84.500
       335   13 Jun 2027 05:29:34.256   13 Jun 2027 05:29:41.143             6.887          2954.531
       336   13 Jun 2027 07:01:45.255   13 Jun 2027 07:01:57.237            11.982          5991.000
       337   13 Jun 2027 07:03:01.429   13 Jun 2027 07:03:06.837             5.408          2076.344
       338   13 Jun 2027 07:03:46.018   13 Jun 2027 07:03:50.813             4.795          1157.406
       339   13 Jun 2027 07:04:04.686   13 Jun 2027 07:04:05.821             1.135           242.250
       340   13 Jun 2027 07:04:38.233   13 Jun 2027 07:04:40.775             2.542           996.312
       341   13 Jun 2027 07:04:51.752   13 Jun 2027 07:04:51.752             0.000             0.000
       342   13 Jun 2027 07:05:04.399   13 Jun 2027 07:05:05.948             1.549           682.656
       343   13 Jun 2027 07:05:33.277   13 Jun 2027 07:05:36.873             3.596           510.844
       344   13 Jun 2027 08:25:08.282   13 Jun 2027 08:25:24.750            16.468          7993.313
       345   13 Jun 2027 08:26:38.486   13 Jun 2027 08:26:47.699             9.213          1586.375
       346   13 Jun 2027 08:28:03.121   13 Jun 2027 08:28:03.907             0.786           393.000
       347   13 Jun 2027 10:01:58.987   13 Jun 2027 10:02:01.761             2.774          1387.000
       348   13 Jun 2027 10:04:08.972   13 Jun 2027 10:04:38.759            29.787         14893.500
       349   13 Jun 2027 11:36:56.478   13 Jun 2027 11:37:16.731            20.253          9034.125
       350   13 Jun 2027 11:40:14.450   13 Jun 2027 11:40:14.450             0.000             0.000
       351   13 Jun 2027 11:43:17.163   13 Jun 2027 11:43:26.214             9.051          4525.500
