uniorb/output/strategy_2/Camera/Camera_KinoSat_110405.txt

KinoSat_110405
-------------------------
    Access    *     Start Time (UTCG)     *     Stop Time (UTCG)  *   Duration (s) *   Data (Mbytes)
         1   01 Jun 2027 03:49:11.773   01 Jun 2027 03:49:22.107            10.334          5167.000
         2   01 Jun 2027 03:51:09.795   01 Jun 2027 03:51:22.759            12.964          6482.000
         3   01 Jun 2027 03:52:19.985   01 Jun 2027 03:52:22.944             2.959          1479.500
         4   01 Jun 2027 03:52:52.524   01 Jun 2027 03:52:56.562             4.038          2019.000
         5   01 Jun 2027 03:53:12.813   01 Jun 2027 03:53:35.042            22.229         11114.500
         6   01 Jun 2027 03:55:05.690   01 Jun 2027 03:55:06.656             0.966           483.000
         7   01 Jun 2027 03:55:38.383   01 Jun 2027 03:55:41.456             3.073          1536.500
         8   01 Jun 2027 03:57:12.724   01 Jun 2027 03:57:22.045             9.321          4660.500
         9   01 Jun 2027 03:57:52.722   01 Jun 2027 03:57:52.722             0.000             0.000
        10   01 Jun 2027 03:57:54.720   01 Jun 2027 03:57:57.799             3.079          1539.500
        11   01 Jun 2027 03:58:00.787   01 Jun 2027 03:58:07.571             6.784          3392.000
        12   01 Jun 2027 03:58:58.603   01 Jun 2027 03:58:58.834             0.231           115.500
        13   01 Jun 2027 05:28:08.679   01 Jun 2027 05:28:20.914            12.235          6117.500
        14   01 Jun 2027 05:29:15.250   01 Jun 2027 05:29:42.425            27.175         13587.500
        15   01 Jun 2027 05:31:36.093   01 Jun 2027 05:31:38.758             2.665          1332.500
        16   01 Jun 2027 05:31:59.774   01 Jun 2027 05:32:12.359            12.585          6292.500
        17   01 Jun 2027 05:33:11.846   01 Jun 2027 05:33:12.766             0.920           460.000
        18   01 Jun 2027 05:34:19.890   01 Jun 2027 05:34:25.355             5.465          2732.500
        19   01 Jun 2027 07:05:30.582   01 Jun 2027 07:05:34.167             3.585          1792.500
        20   01 Jun 2027 07:06:12.544   01 Jun 2027 07:06:13.428             0.884           442.000
        21   01 Jun 2027 07:06:44.926   01 Jun 2027 07:07:02.863            17.937          8968.500
        22   01 Jun 2027 07:08:17.815   01 Jun 2027 07:08:18.787             0.972           486.000
        23   01 Jun 2027 07:08:27.017   01 Jun 2027 07:08:33.550             6.533          3266.500
        24   01 Jun 2027 07:09:29.268   01 Jun 2027 07:09:33.872             4.604          2302.000
        25   01 Jun 2027 07:09:36.317   01 Jun 2027 07:09:39.530             3.213          1606.500
        26   01 Jun 2027 07:10:13.551   01 Jun 2027 07:10:15.237             1.686           843.000
        27   01 Jun 2027 08:41:54.046   01 Jun 2027 08:42:03.155             9.109          4554.500
        28   01 Jun 2027 08:43:15.997   01 Jun 2027 08:43:25.088             9.091          4545.500
        29   01 Jun 2027 08:44:07.733   01 Jun 2027 08:44:12.365             4.632          2316.000
        30   01 Jun 2027 08:44:47.271   01 Jun 2027 08:44:53.295             6.024          3012.000
        31   01 Jun 2027 08:46:09.581   01 Jun 2027 08:46:12.759             3.178          1589.000
        32   01 Jun 2027 10:20:10.510   01 Jun 2027 10:20:40.846            30.336         15168.000
        33   02 Jun 2027 04:04:23.657   02 Jun 2027 04:04:25.328             1.671           835.500
        34   02 Jun 2027 04:04:40.333   02 Jun 2027 04:04:45.048             4.715          2357.500
        35   02 Jun 2027 04:05:41.562   02 Jun 2027 04:05:48.878             7.316          3658.000
        36   02 Jun 2027 04:06:20.832   02 Jun 2027 04:06:22.672             1.840           920.000
        37   02 Jun 2027 04:06:28.621   02 Jun 2027 04:06:38.230             9.609          4804.500
        38   02 Jun 2027 04:07:25.471   02 Jun 2027 04:07:43.003            17.532          8766.000
        39   02 Jun 2027 04:08:58.011   02 Jun 2027 04:09:01.684             3.673          1836.500
        40   02 Jun 2027 04:09:34.756   02 Jun 2027 04:09:37.812             3.056          1528.000
        41   02 Jun 2027 04:10:46.777   02 Jun 2027 04:10:47.764             0.987           493.500
        42   02 Jun 2027 05:40:42.204   02 Jun 2027 05:40:53.543            11.339          5669.500
        43   02 Jun 2027 05:41:28.244   02 Jun 2027 05:41:38.105             9.861          4930.500
        44   02 Jun 2027 05:42:36.390   02 Jun 2027 05:42:43.432             7.042          3521.000
        45   02 Jun 2027 05:43:36.641   02 Jun 2027 05:43:37.855             1.214           607.000
        46   02 Jun 2027 05:43:42.207   02 Jun 2027 05:43:43.725             1.518           759.000
        47   02 Jun 2027 05:43:53.403   02 Jun 2027 05:43:53.981             0.578           289.000
        48   02 Jun 2027 05:44:09.427   02 Jun 2027 05:44:11.646             2.219          1109.500
        49   02 Jun 2027 05:45:15.075   02 Jun 2027 05:45:29.566            14.491          7245.500
        50   02 Jun 2027 05:46:29.018   02 Jun 2027 05:46:29.169             0.151            75.500
        51   02 Jun 2027 05:46:56.062   02 Jun 2027 05:46:56.375             0.313           156.500
        52   02 Jun 2027 07:18:05.118   02 Jun 2027 07:18:05.904             0.786           393.000
        53   02 Jun 2027 07:18:53.711   02 Jun 2027 07:19:00.916             7.205          3602.500
        54   02 Jun 2027 07:19:21.834   02 Jun 2027 07:19:21.834             0.000             0.000
        55   02 Jun 2027 07:19:55.072   02 Jun 2027 07:19:58.506             3.434          1717.000
        56   02 Jun 2027 07:20:36.461   02 Jun 2027 07:20:39.119             2.658          1329.000
        57   02 Jun 2027 07:21:12.972   02 Jun 2027 07:21:20.868             7.896          3948.000
        58   02 Jun 2027 07:22:12.211   02 Jun 2027 07:22:17.934             5.723          2861.500
        59   02 Jun 2027 08:54:15.655   02 Jun 2027 08:54:17.270             1.615           807.500
        60   02 Jun 2027 08:54:31.953   02 Jun 2027 08:54:47.320            15.367          7683.500
        61   02 Jun 2027 08:56:20.073   02 Jun 2027 08:56:20.174             0.101            50.500
        62   02 Jun 2027 08:57:04.915   02 Jun 2027 08:57:15.164            10.249          5124.500
        63   02 Jun 2027 08:58:05.307   02 Jun 2027 08:58:09.334             4.027          2013.500
        64   03 Jun 2027 04:16:25.023   03 Jun 2027 04:16:28.300             3.277          1638.500
        65   03 Jun 2027 04:16:51.795   03 Jun 2027 04:16:56.011             4.216          2108.000
        66   03 Jun 2027 04:17:29.007   03 Jun 2027 04:17:40.089            11.082          5541.000
        67   03 Jun 2027 04:18:29.819   03 Jun 2027 04:18:33.389             3.570          1785.000
        68   03 Jun 2027 04:19:08.700   03 Jun 2027 04:19:08.749             0.049            24.500
        69   03 Jun 2027 04:19:18.381   03 Jun 2027 04:19:30.147            11.766          5883.000
        70   03 Jun 2027 04:20:45.025   03 Jun 2027 04:21:03.877            18.852          9426.000
        71   03 Jun 2027 04:22:40.660   03 Jun 2027 04:23:00.610            19.950          9975.000
        72   03 Jun 2027 05:52:20.705   03 Jun 2027 05:52:28.662             7.957          3978.500
        73   03 Jun 2027 05:53:20.763   03 Jun 2027 05:53:38.804            18.041          9020.500
        74   03 Jun 2027 05:54:00.544   03 Jun 2027 05:54:05.840             5.296          2648.000
        75   03 Jun 2027 05:54:43.515   03 Jun 2027 05:54:51.316             7.801          3900.500
        76   03 Jun 2027 05:55:58.537   03 Jun 2027 05:56:00.658             2.121          1060.500
        77   03 Jun 2027 05:56:16.988   03 Jun 2027 05:56:19.707             2.719          1359.500
        78   03 Jun 2027 05:56:38.607   03 Jun 2027 05:56:48.708            10.101          5050.500
        79   03 Jun 2027 05:57:19.223   03 Jun 2027 05:57:23.008             3.785          1892.500
        80   03 Jun 2027 05:57:32.094   03 Jun 2027 05:57:36.966             4.872          2436.000
        81   03 Jun 2027 05:58:12.652   03 Jun 2027 05:58:24.217            11.565          5782.500
        82   03 Jun 2027 07:30:19.220   03 Jun 2027 07:30:31.208            11.988          5994.000
        83   03 Jun 2027 07:31:19.806   03 Jun 2027 07:31:26.475             6.669          3334.500
        84   03 Jun 2027 07:32:43.369   03 Jun 2027 07:32:48.083             4.714          2357.000
        85   03 Jun 2027 07:33:34.719   03 Jun 2027 07:33:35.231             0.512           256.000
        86   03 Jun 2027 07:33:57.529   03 Jun 2027 07:34:02.086             4.557          2278.500
        87   03 Jun 2027 07:34:37.333   03 Jun 2027 07:34:43.960             6.627          3313.500
        88   03 Jun 2027 09:06:10.821   03 Jun 2027 09:06:11.488             0.667           333.500
        89   03 Jun 2027 09:06:36.324   03 Jun 2027 09:06:50.818            14.494          7247.000
        90   03 Jun 2027 09:08:52.870   03 Jun 2027 09:08:53.546             0.676           338.000
        91   03 Jun 2027 09:09:26.820   03 Jun 2027 09:09:33.024             6.204          3102.000
        92   03 Jun 2027 09:09:59.312   03 Jun 2027 09:10:00.864             1.552           776.000
        93   03 Jun 2027 09:10:30.358   03 Jun 2027 09:10:36.316             5.958          2979.000
        94   03 Jun 2027 09:10:59.139   03 Jun 2027 09:11:02.348             3.209          1604.500
        95   03 Jun 2027 09:11:09.226   03 Jun 2027 09:11:11.203             1.977           988.500
        96   04 Jun 2027 04:27:40.512   04 Jun 2027 04:27:41.958             1.446           723.000
        97   04 Jun 2027 04:28:18.941   04 Jun 2027 04:28:27.717             8.776          4388.000
        98   04 Jun 2027 04:29:21.338   04 Jun 2027 04:29:21.351             0.013             6.500
        99   04 Jun 2027 04:29:51.678   04 Jun 2027 04:29:52.474             0.796           398.000
       100   04 Jun 2027 04:30:07.208   04 Jun 2027 04:30:12.323             5.115          2557.500
       101   04 Jun 2027 04:30:18.005   04 Jun 2027 04:30:21.533             3.528          1764.000
       102   04 Jun 2027 04:31:24.449   04 Jun 2027 04:31:34.078             9.629          4814.500
       103   04 Jun 2027 04:33:09.546   04 Jun 2027 04:33:11.799             2.253          1126.500
       104   04 Jun 2027 04:33:37.722   04 Jun 2027 04:33:45.931             8.209          4104.500
       105   04 Jun 2027 04:34:24.246   04 Jun 2027 04:34:34.117             9.871          4935.500
       106   04 Jun 2027 06:04:30.329   04 Jun 2027 06:04:34.925             4.596          2298.000
       107   04 Jun 2027 06:04:59.436   04 Jun 2027 06:05:01.010             1.574           787.000
       108   04 Jun 2027 06:05:51.117   04 Jun 2027 06:06:02.722            11.605          5802.500
       109   04 Jun 2027 06:07:00.175   04 Jun 2027 06:07:13.932            13.757          6878.500
       110   04 Jun 2027 06:08:15.844   04 Jun 2027 06:08:16.075             0.231           115.500
       111   04 Jun 2027 06:08:20.560   04 Jun 2027 06:08:23.949             3.389          1694.500
       112   04 Jun 2027 06:08:40.839   04 Jun 2027 06:08:41.245             0.406           203.000
       113   04 Jun 2027 06:09:43.634   04 Jun 2027 06:09:45.711             2.077          1038.500
       114   04 Jun 2027 06:10:20.039   04 Jun 2027 06:10:21.392             1.353           676.500
       115   04 Jun 2027 07:42:41.795   04 Jun 2027 07:42:51.008             9.213          4606.500
       116   04 Jun 2027 07:44:12.377   04 Jun 2027 07:44:15.101             2.724          1362.000
       117   04 Jun 2027 07:44:46.402   04 Jun 2027 07:44:46.865             0.463           231.500
       118   04 Jun 2027 07:45:10.054   04 Jun 2027 07:45:10.507             0.453           226.500
       119   04 Jun 2027 07:45:24.255   04 Jun 2027 07:45:28.090             3.835          1917.500
       120   04 Jun 2027 07:45:51.078   04 Jun 2027 07:45:52.479             1.401           700.500
       121   04 Jun 2027 07:46:05.499   04 Jun 2027 07:46:11.933             6.434          3217.000
       122   04 Jun 2027 09:15:59.654   04 Jun 2027 09:16:23.556            23.902         11951.000
       123   04 Jun 2027 09:18:00.958   04 Jun 2027 09:18:03.889             2.931          1465.500
       124   04 Jun 2027 09:18:59.715   04 Jun 2027 09:19:07.769             8.054          4027.000
       125   04 Jun 2027 09:19:55.793   04 Jun 2027 09:19:58.844             3.051          1525.500
       126   04 Jun 2027 09:20:21.743   04 Jun 2027 09:20:35.661            13.918          6959.000
       127   04 Jun 2027 09:22:01.602   04 Jun 2027 09:22:03.962             2.360          1180.000
       128   04 Jun 2027 09:22:17.283   04 Jun 2027 09:22:22.560             5.277          2638.500
       129   04 Jun 2027 09:23:00.659   04 Jun 2027 09:23:02.715             2.056          1028.000
       130   04 Jun 2027 09:23:16.212   04 Jun 2027 09:23:32.488            16.276          8138.000
       131   05 Jun 2027 03:02:49.277   05 Jun 2027 03:02:55.417             6.140          3070.000
       132   05 Jun 2027 03:03:35.951   05 Jun 2027 03:03:42.046             6.095          3047.500
       133   05 Jun 2027 03:04:40.097   05 Jun 2027 03:04:43.811             3.714          1857.000
       134   05 Jun 2027 03:05:22.603   05 Jun 2027 03:05:26.821             4.218          2109.000
       135   05 Jun 2027 03:05:47.536   05 Jun 2027 03:05:55.117             7.581          3790.500
       136   05 Jun 2027 03:06:38.609   05 Jun 2027 03:06:46.349             7.740          3870.000
       137   05 Jun 2027 03:07:24.443   05 Jun 2027 03:07:26.799             2.356          1178.000
       138   05 Jun 2027 03:07:42.371   05 Jun 2027 03:07:50.284             7.913          3956.500
       139   05 Jun 2027 03:08:06.141   05 Jun 2027 03:08:06.302             0.161            80.500
       140   05 Jun 2027 03:09:27.784   05 Jun 2027 03:09:29.617             1.833           916.500
       141   05 Jun 2027 04:39:48.327   05 Jun 2027 04:39:51.761             3.434          1717.000
       142   05 Jun 2027 04:40:34.885   05 Jun 2027 04:40:39.364             4.479          2239.500
       143   05 Jun 2027 04:41:28.559   05 Jun 2027 04:41:36.691             8.132          4066.000
       144   05 Jun 2027 04:42:28.284   05 Jun 2027 04:42:28.571             0.287           143.500
       145   05 Jun 2027 04:42:31.163   05 Jun 2027 04:42:32.310             1.147           573.500
       146   05 Jun 2027 04:42:53.831   05 Jun 2027 04:42:58.960             5.129          2564.500
       147   05 Jun 2027 04:43:22.593   05 Jun 2027 04:43:23.738             1.145           572.500
       148   05 Jun 2027 04:43:34.215   05 Jun 2027 04:43:36.791             2.576          1288.000
       149   05 Jun 2027 04:43:53.799   05 Jun 2027 04:43:57.615             3.816          1908.000
       150   05 Jun 2027 04:44:14.464   05 Jun 2027 04:44:16.761             2.297          1148.500
       151   05 Jun 2027 04:46:52.583   05 Jun 2027 04:46:59.915             7.332          3666.000
       152   05 Jun 2027 06:16:46.334   05 Jun 2027 06:16:47.098             0.764           382.000
       153   05 Jun 2027 06:17:28.543   05 Jun 2027 06:17:34.207             5.664          2832.000
       154   05 Jun 2027 06:17:59.199   05 Jun 2027 06:18:04.167             4.968          2484.000
       155   05 Jun 2027 06:18:26.489   05 Jun 2027 06:18:33.524             7.035          3517.500
       156   05 Jun 2027 06:19:10.270   05 Jun 2027 06:19:14.477             4.207          2103.500
       157   05 Jun 2027 06:20:04.952   05 Jun 2027 06:20:07.284             2.332          1166.000
       158   05 Jun 2027 06:20:30.197   05 Jun 2027 06:20:30.995             0.798           399.000
       159   05 Jun 2027 06:20:36.840   05 Jun 2027 06:20:37.814             0.974           487.000
       160   05 Jun 2027 06:21:10.942   05 Jun 2027 06:21:11.216             0.274           137.000
       161   05 Jun 2027 06:21:58.466   05 Jun 2027 06:22:05.798             7.332          3666.000
       162   05 Jun 2027 06:22:40.123   05 Jun 2027 06:22:40.469             0.346           173.000
       163   05 Jun 2027 07:54:42.492   05 Jun 2027 07:54:43.369             0.877           438.500
       164   05 Jun 2027 07:55:24.110   05 Jun 2027 07:55:35.934            11.824          5912.000
       165   05 Jun 2027 07:56:22.086   05 Jun 2027 07:56:24.924             2.838          1419.000
       166   05 Jun 2027 07:57:10.142   05 Jun 2027 07:57:15.120             4.978          2489.000
       167   05 Jun 2027 07:58:03.257   05 Jun 2027 07:58:07.583             4.326          2163.000
       168   05 Jun 2027 07:58:35.900   05 Jun 2027 07:58:40.049             4.149          2074.500
       169   05 Jun 2027 09:28:02.415   05 Jun 2027 09:28:21.516            19.101          9550.500
       170   05 Jun 2027 09:29:43.541   05 Jun 2027 09:29:53.156             9.615          4807.500
       171   05 Jun 2027 09:31:02.492   05 Jun 2027 09:31:02.565             0.073            36.500
       172   05 Jun 2027 09:31:58.426   05 Jun 2027 09:32:00.710             2.284          1142.000
       173   05 Jun 2027 09:32:10.690   05 Jun 2027 09:32:13.730             3.040          1520.000
       174   05 Jun 2027 09:32:48.969   05 Jun 2027 09:32:49.895             0.926           463.000
       175   05 Jun 2027 09:33:19.274   05 Jun 2027 09:33:24.125             4.851          2425.500
       176   05 Jun 2027 09:33:44.327   05 Jun 2027 09:33:57.709            13.382          6691.000
       177   05 Jun 2027 09:34:54.096   05 Jun 2027 09:35:00.217             6.121          3060.500
       178   05 Jun 2027 09:35:33.700   05 Jun 2027 09:35:34.520             0.820           410.000
       179   06 Jun 2027 03:14:12.507   06 Jun 2027 03:14:16.956             4.449          2224.500
       180   06 Jun 2027 03:14:35.583   06 Jun 2027 03:14:43.343             7.760          3880.000
       181   06 Jun 2027 03:16:20.728   06 Jun 2027 03:16:24.381             3.653          1826.500
       182   06 Jun 2027 03:16:40.585   06 Jun 2027 03:16:44.827             4.242          2121.000
       183   06 Jun 2027 03:17:03.369   06 Jun 2027 03:17:03.467             0.098            49.000
       184   06 Jun 2027 03:17:10.024   06 Jun 2027 03:17:13.130             3.106          1553.000
       185   06 Jun 2027 03:18:13.501   06 Jun 2027 03:18:14.737             1.236           618.000
       186   06 Jun 2027 03:18:52.907   06 Jun 2027 03:18:58.252             5.345          2672.500
       187   06 Jun 2027 03:19:23.175   06 Jun 2027 03:19:23.759             0.584           292.000
       188   06 Jun 2027 03:19:39.420   06 Jun 2027 03:19:45.575             6.155          3077.500
       189   06 Jun 2027 03:20:49.935   06 Jun 2027 03:20:51.384             1.449           724.500
       190   06 Jun 2027 03:20:59.567   06 Jun 2027 03:20:59.866             0.299           149.500
       191   06 Jun 2027 03:21:36.155   06 Jun 2027 03:21:51.236            15.081          7540.500
       192   06 Jun 2027 04:51:50.186   06 Jun 2027 04:51:56.729             6.543          3271.500
       193   06 Jun 2027 04:52:18.595   06 Jun 2027 04:52:21.129             2.534          1267.000
       194   06 Jun 2027 04:52:37.362   06 Jun 2027 04:52:43.139             5.777          2888.500
       195   06 Jun 2027 04:53:40.441   06 Jun 2027 04:53:48.999             8.558          4279.000
       196   06 Jun 2027 04:54:21.200   06 Jun 2027 04:54:28.290             7.090          3545.000
       197   06 Jun 2027 04:55:11.063   06 Jun 2027 04:55:12.132             1.069           534.500
       198   06 Jun 2027 04:55:32.165   06 Jun 2027 04:55:40.926             8.761          4380.500
       199   06 Jun 2027 04:56:24.254   06 Jun 2027 04:56:25.795             1.541           770.500
       200   06 Jun 2027 04:56:50.703   06 Jun 2027 04:56:51.918             1.215           607.500
       201   06 Jun 2027 04:57:04.641   06 Jun 2027 04:57:09.129             4.488          2244.000
       202   06 Jun 2027 04:57:57.739   06 Jun 2027 04:58:02.944             5.205          2602.500
       203   06 Jun 2027 04:58:33.530   06 Jun 2027 04:58:38.258             4.728          2364.000
       204   06 Jun 2027 06:28:36.298   06 Jun 2027 06:28:36.345             0.047            23.500
       205   06 Jun 2027 06:29:04.616   06 Jun 2027 06:29:13.380             8.764          4382.000
       206   06 Jun 2027 06:30:40.103   06 Jun 2027 06:30:43.279             3.176          1588.000
       207   06 Jun 2027 06:30:59.034   06 Jun 2027 06:31:00.288             1.254           627.000
       208   06 Jun 2027 06:31:15.278   06 Jun 2027 06:31:22.076             6.798          3399.000
       209   06 Jun 2027 06:32:03.472   06 Jun 2027 06:32:05.445             1.973           986.500
       210   06 Jun 2027 06:32:20.126   06 Jun 2027 06:32:21.377             1.251           625.500
       211   06 Jun 2027 06:32:28.023   06 Jun 2027 06:32:28.887             0.864           432.000
       212   06 Jun 2027 06:32:35.542   06 Jun 2027 06:32:37.715             2.173          1086.500
       213   06 Jun 2027 06:33:07.851   06 Jun 2027 06:33:16.394             8.543          4271.500
       214   06 Jun 2027 06:34:09.254   06 Jun 2027 06:34:10.142             0.888           444.000
       215   06 Jun 2027 06:34:16.329   06 Jun 2027 06:34:20.180             3.851          1925.500
       216   06 Jun 2027 06:34:52.358   06 Jun 2027 06:34:58.631             6.273          3136.500
       217   06 Jun 2027 08:06:41.380   06 Jun 2027 08:06:43.752             2.372          1186.000
       218   06 Jun 2027 08:07:05.626   06 Jun 2027 08:07:12.867             7.241          3620.500
       219   06 Jun 2027 08:08:07.488   06 Jun 2027 08:08:08.019             0.531           265.500
       220   06 Jun 2027 08:08:11.047   06 Jun 2027 08:08:11.800             0.753           376.500
       221   06 Jun 2027 08:08:57.862   06 Jun 2027 08:09:03.749             5.887          2943.500
       222   06 Jun 2027 08:09:49.382   06 Jun 2027 08:09:50.758             1.376           688.000
       223   06 Jun 2027 08:10:28.796   06 Jun 2027 08:10:30.312             1.516           758.000
       224   06 Jun 2027 08:10:45.446   06 Jun 2027 08:10:45.840             0.394           197.000
       225   06 Jun 2027 09:40:29.550   06 Jun 2027 09:40:43.129            13.579          6789.500
       226   06 Jun 2027 09:41:52.398   06 Jun 2027 09:42:00.839             8.441          4220.500
       227   06 Jun 2027 09:42:45.603   06 Jun 2027 09:42:52.387             6.784          3392.000
       228   06 Jun 2027 09:43:20.646   06 Jun 2027 09:43:36.665            16.019          8009.500
       229   06 Jun 2027 09:44:53.283   06 Jun 2027 09:45:03.581            10.298          5149.000
       230   06 Jun 2027 09:46:20.233   06 Jun 2027 09:46:22.445             2.212          1106.000
       231   06 Jun 2027 09:46:31.477   06 Jun 2027 09:46:33.228             1.751           875.500
       232   06 Jun 2027 09:46:55.892   06 Jun 2027 09:46:59.883             3.991          1995.500
       233   07 Jun 2027 03:25:45.203   07 Jun 2027 03:25:46.104             0.901           450.500
       234   07 Jun 2027 03:26:14.113   07 Jun 2027 03:26:19.973             5.860          2930.000
       235   07 Jun 2027 03:27:09.785   07 Jun 2027 03:27:22.532            12.747          6373.500
       236   07 Jun 2027 03:28:29.220   07 Jun 2027 03:28:32.697             3.477          1738.500
       237   07 Jun 2027 03:29:33.782   07 Jun 2027 03:29:34.088             0.306           153.000
       238   07 Jun 2027 03:30:07.672   07 Jun 2027 03:30:11.206             3.534          1767.000
       239   07 Jun 2027 03:30:27.810   07 Jun 2027 03:30:31.164             3.354          1677.000
       240   07 Jun 2027 03:30:51.069   07 Jun 2027 03:30:51.762             0.693           346.500
       241   07 Jun 2027 03:30:58.887   07 Jun 2027 03:31:01.112             2.225          1112.500
       242   07 Jun 2027 03:31:21.835   07 Jun 2027 03:31:24.497             2.662          1331.000
       243   07 Jun 2027 03:31:36.900   07 Jun 2027 03:31:44.152             7.252          3626.000
       244   07 Jun 2027 03:32:31.335   07 Jun 2027 03:32:40.204             8.869          4434.500
       245   07 Jun 2027 03:33:48.756   07 Jun 2027 03:33:50.379             1.623           811.500
       246   07 Jun 2027 03:34:19.003   07 Jun 2027 03:34:19.653             0.650           325.000
       247   07 Jun 2027 03:34:25.046   07 Jun 2027 03:34:26.076             1.030           515.000
       248   07 Jun 2027 03:34:42.335   07 Jun 2027 03:34:44.845             2.510          1255.000
       249   07 Jun 2027 03:34:57.367   07 Jun 2027 03:35:04.150             6.783          3391.500
       250   07 Jun 2027 05:03:50.920   07 Jun 2027 05:04:06.080            15.160          7580.000
       251   07 Jun 2027 05:05:15.483   07 Jun 2027 05:05:17.494             2.011          1005.500
       252   07 Jun 2027 05:05:51.751   07 Jun 2027 05:06:11.466            19.715          9857.500
       253   07 Jun 2027 05:07:36.954   07 Jun 2027 05:07:39.904             2.950          1475.000
       254   07 Jun 2027 05:07:55.199   07 Jun 2027 05:07:55.238             0.039            19.500
       255   07 Jun 2027 05:08:33.801   07 Jun 2027 05:08:34.772             0.971           485.500
       256   07 Jun 2027 05:09:22.526   07 Jun 2027 05:09:22.551             0.025            12.500
       257   07 Jun 2027 05:09:24.080   07 Jun 2027 05:09:39.000            14.920          7460.000
       258   07 Jun 2027 05:10:17.975   07 Jun 2027 05:10:17.975             0.000             0.000
       259   07 Jun 2027 05:10:40.288   07 Jun 2027 05:10:40.329             0.041            20.500
       260   07 Jun 2027 05:10:53.892   07 Jun 2027 05:10:58.001             4.109          2054.500
       261   07 Jun 2027 06:40:45.407   07 Jun 2027 06:40:49.000             3.593          1796.500
       262   07 Jun 2027 06:41:17.579   07 Jun 2027 06:41:24.917             7.338          3669.000
       263   07 Jun 2027 06:41:56.464   07 Jun 2027 06:42:01.337             4.873          2436.500
       264   07 Jun 2027 06:43:03.094   07 Jun 2027 06:43:04.186             1.092           546.000
       265   07 Jun 2027 06:43:23.980   07 Jun 2027 06:43:35.362            11.382          5691.000
       266   07 Jun 2027 06:44:36.639   07 Jun 2027 06:44:37.431             0.792           396.000
       267   07 Jun 2027 06:45:08.461   07 Jun 2027 06:45:15.592             7.131          3565.500
       268   07 Jun 2027 06:46:16.636   07 Jun 2027 06:46:29.330            12.694          6347.000
       269   07 Jun 2027 08:17:54.157   07 Jun 2027 08:17:59.501             5.344          2672.000
       270   07 Jun 2027 08:18:36.741   07 Jun 2027 08:18:36.925             0.184            92.000
       271   07 Jun 2027 08:19:06.959   07 Jun 2027 08:19:14.763             7.804          3902.000
       272   07 Jun 2027 08:20:05.801   07 Jun 2027 08:20:08.087             2.286          1143.000
       273   07 Jun 2027 08:20:43.251   07 Jun 2027 08:20:43.550             0.299           149.500
       274   07 Jun 2027 08:21:05.746   07 Jun 2027 08:21:13.999             8.253          4126.500
       275   07 Jun 2027 08:21:50.883   07 Jun 2027 08:21:51.394             0.511           255.500
       276   07 Jun 2027 08:22:26.597   07 Jun 2027 08:22:48.224            21.627         10813.500
       277   07 Jun 2027 09:52:44.522   07 Jun 2027 09:52:54.618            10.096          5048.000
       278   07 Jun 2027 09:53:39.806   07 Jun 2027 09:53:41.227             1.421           710.500
       279   07 Jun 2027 09:54:36.090   07 Jun 2027 09:54:38.529             2.439          1219.500
       280   07 Jun 2027 09:56:22.475   07 Jun 2027 09:56:53.067            30.592         15296.000
       281   07 Jun 2027 09:57:28.838   07 Jun 2027 09:57:30.794             1.956           978.000
       282   08 Jun 2027 03:38:45.667   08 Jun 2027 03:39:03.520            17.853          8926.500
       283   08 Jun 2027 03:40:09.780   08 Jun 2027 03:40:09.780             0.000             0.000
       284   08 Jun 2027 03:40:37.710   08 Jun 2027 03:41:08.426            30.716         15358.000
       285   08 Jun 2027 03:43:27.861   08 Jun 2027 03:43:34.495             6.634          3317.000
       286   08 Jun 2027 03:44:45.645   08 Jun 2027 03:44:52.493             6.848          3424.000
       287   08 Jun 2027 03:45:35.743   08 Jun 2027 03:45:41.421             5.678          2839.000
       288   08 Jun 2027 03:46:13.282   08 Jun 2027 03:46:27.292            14.010          7005.000
       289   08 Jun 2027 03:46:58.969   08 Jun 2027 03:47:01.923             2.954          1477.000
       290   08 Jun 2027 03:47:17.790   08 Jun 2027 03:47:19.181             1.391           695.500
       291   08 Jun 2027 05:16:16.955   08 Jun 2027 05:16:20.705             3.750          1875.000
       292   08 Jun 2027 05:16:43.184   08 Jun 2027 05:17:00.702            17.518          8759.000
       293   08 Jun 2027 05:17:24.044   08 Jun 2027 05:17:26.487             2.443          1221.500
       294   08 Jun 2027 05:18:42.391   08 Jun 2027 05:18:44.385             1.994           997.000
       295   08 Jun 2027 05:19:08.577   08 Jun 2027 05:19:09.479             0.902           451.000
       296   08 Jun 2027 05:19:17.889   08 Jun 2027 05:19:23.461             5.572          2786.000
       297   08 Jun 2027 05:19:54.198   08 Jun 2027 05:19:54.891             0.693           346.500
       298   08 Jun 2027 05:19:59.948   08 Jun 2027 05:20:00.010             0.062            31.000
       299   08 Jun 2027 05:20:41.610   08 Jun 2027 05:20:43.336             1.726           863.000
       300   08 Jun 2027 05:21:33.715   08 Jun 2027 05:21:44.338            10.623          5311.500
       301   08 Jun 2027 05:22:26.833   08 Jun 2027 05:22:28.794             1.961           980.500
       302   08 Jun 2027 05:22:42.350   08 Jun 2027 05:22:47.683             5.333          2666.500
       303   08 Jun 2027 06:53:13.100   08 Jun 2027 06:53:17.593             4.493          2246.500
       304   08 Jun 2027 06:53:51.642   08 Jun 2027 06:54:24.243            32.601         16300.500
       305   08 Jun 2027 06:56:44.931   08 Jun 2027 06:56:49.464             4.533          2266.500
       306   08 Jun 2027 06:57:47.744   08 Jun 2027 06:57:47.866             0.122            61.000
       307   08 Jun 2027 06:58:24.560   08 Jun 2027 06:58:25.655             1.095           547.500
       308   08 Jun 2027 06:58:41.737   08 Jun 2027 06:58:50.266             8.529          4264.500
       309   08 Jun 2027 08:30:07.042   08 Jun 2027 08:30:12.183             5.141          2570.500
       310   08 Jun 2027 08:30:34.273   08 Jun 2027 08:30:35.516             1.243           621.500
       311   08 Jun 2027 08:30:52.234   08 Jun 2027 08:30:59.509             7.275          3637.500
       312   08 Jun 2027 08:31:41.935   08 Jun 2027 08:31:42.455             0.520           260.000
       313   08 Jun 2027 08:32:00.821   08 Jun 2027 08:32:04.583             3.762          1881.000
       314   08 Jun 2027 08:32:20.846   08 Jun 2027 08:32:23.920             3.074          1537.000
       315   08 Jun 2027 08:32:38.088   08 Jun 2027 08:32:41.773             3.685          1842.500
       316   08 Jun 2027 08:33:03.931   08 Jun 2027 08:33:04.424             0.493           246.500
       317   08 Jun 2027 08:33:07.190   08 Jun 2027 08:33:07.484             0.294           147.000
       318   08 Jun 2027 08:34:21.118   08 Jun 2027 08:34:21.206             0.088            44.000
       319   08 Jun 2027 10:07:17.213   08 Jun 2027 10:08:03.495            46.282         23141.000
       320   09 Jun 2027 03:49:25.966   09 Jun 2027 03:49:27.372             1.406           703.000
       321   09 Jun 2027 03:51:24.373   09 Jun 2027 03:51:36.675            12.302          6151.000
       322   09 Jun 2027 03:52:33.969   09 Jun 2027 03:52:37.679             3.710          1855.000
       323   09 Jun 2027 03:53:09.244   09 Jun 2027 03:53:11.792             2.548          1274.000
       324   09 Jun 2027 03:54:07.807   09 Jun 2027 03:54:08.186             0.379           189.500
       325   09 Jun 2027 03:54:22.164   09 Jun 2027 03:54:27.219             5.055          2527.500
       326   09 Jun 2027 03:54:51.487   09 Jun 2027 03:54:56.538             5.051          2525.500
       327   09 Jun 2027 03:55:21.912   09 Jun 2027 03:55:22.121             0.209           104.500
       328   09 Jun 2027 03:55:28.718   09 Jun 2027 03:55:31.909             3.191          1595.500
       329   09 Jun 2027 03:55:59.115   09 Jun 2027 03:56:02.346             3.231          1615.500
       330   09 Jun 2027 03:56:22.961   09 Jun 2027 03:56:26.662             3.701          1850.500
       331   09 Jun 2027 03:56:48.575   09 Jun 2027 03:56:50.668             2.093          1046.500
       332   09 Jun 2027 03:56:54.560   09 Jun 2027 03:56:54.560             0.000             0.000
       333   09 Jun 2027 03:57:07.223   09 Jun 2027 03:57:14.377             7.154          3577.000
       334   09 Jun 2027 03:58:08.209   09 Jun 2027 03:58:08.782             0.573           286.500
       335   09 Jun 2027 03:58:22.250   09 Jun 2027 03:58:25.657             3.407          1703.500
       336   09 Jun 2027 03:58:38.156   09 Jun 2027 03:58:41.194             3.038          1519.000
       337   09 Jun 2027 03:58:58.014   09 Jun 2027 03:59:01.264             3.250          1625.000
       338   09 Jun 2027 03:59:13.176   09 Jun 2027 03:59:13.476             0.300           150.000
       339   09 Jun 2027 05:28:23.196   09 Jun 2027 05:28:35.460            12.264          6132.000
       340   09 Jun 2027 05:29:32.516   09 Jun 2027 05:29:56.222            23.706         11853.000
       341   09 Jun 2027 05:31:26.712   09 Jun 2027 05:31:28.711             1.999           999.500
       342   09 Jun 2027 05:31:49.605   09 Jun 2027 05:31:53.714             4.109          2054.500
       343   09 Jun 2027 05:31:55.885   09 Jun 2027 05:32:02.405             6.520          3260.000
       344   09 Jun 2027 05:33:25.100   09 Jun 2027 05:33:26.449             1.349           674.500
       345   09 Jun 2027 05:33:27.222   09 Jun 2027 05:33:27.284             0.062            31.000
       346   09 Jun 2027 05:33:36.129   09 Jun 2027 05:33:54.749            18.620          9310.000
       347   09 Jun 2027 07:05:46.766   09 Jun 2027 07:05:57.075            10.309          5154.500
       348   09 Jun 2027 07:06:29.280   09 Jun 2027 07:06:31.707             2.427          1213.500
       349   09 Jun 2027 07:06:53.969   09 Jun 2027 07:06:59.385             5.416          2708.000
       350   09 Jun 2027 07:07:44.348   09 Jun 2027 07:07:49.718             5.370          2685.000
       351   09 Jun 2027 07:08:13.627   09 Jun 2027 07:08:14.818             1.191           595.500
       352   09 Jun 2027 07:08:21.358   09 Jun 2027 07:08:22.045             0.687           343.500
       353   09 Jun 2027 07:08:41.627   09 Jun 2027 07:08:43.963             2.336          1168.000
       354   09 Jun 2027 07:09:08.188   09 Jun 2027 07:09:16.640             8.452          4226.000
       355   09 Jun 2027 07:10:07.530   09 Jun 2027 07:10:09.152             1.622           811.000
       356   09 Jun 2027 08:42:09.139   09 Jun 2027 08:42:18.158             9.019          4509.500
       357   09 Jun 2027 08:43:14.463   09 Jun 2027 08:43:18.497             4.034          2017.000
       358   09 Jun 2027 08:44:03.472   09 Jun 2027 08:44:03.791             0.319           159.500
       359   09 Jun 2027 08:44:22.600   09 Jun 2027 08:44:30.927             8.327          4163.500
       360   09 Jun 2027 08:45:02.793   09 Jun 2027 08:45:08.020             5.227          2613.500
       361   09 Jun 2027 08:46:12.179   09 Jun 2027 08:46:20.930             8.751          4375.500
       362   09 Jun 2027 08:46:58.043   09 Jun 2027 08:46:59.509             1.466           733.000
       363   09 Jun 2027 10:20:27.184   09 Jun 2027 10:20:55.503            28.319         14159.500
       364   10 Jun 2027 04:04:38.393   10 Jun 2027 04:04:40.099             1.706           853.000
       365   10 Jun 2027 04:04:43.013   10 Jun 2027 04:04:43.013             0.000             0.000
       366   10 Jun 2027 04:04:54.950   10 Jun 2027 04:04:59.812             4.862          2431.000
       367   10 Jun 2027 04:05:58.521   10 Jun 2027 04:06:03.459             4.938          2469.000
       368   10 Jun 2027 04:06:39.025   10 Jun 2027 04:06:46.425             7.400          3700.000
       369   10 Jun 2027 04:06:56.984   10 Jun 2027 04:06:59.410             2.426          1213.000
       370   10 Jun 2027 04:07:40.944   10 Jun 2027 04:07:57.860            16.916          8458.000
       371   10 Jun 2027 04:09:12.421   10 Jun 2027 04:09:16.740             4.319          2159.500
       372   10 Jun 2027 04:09:51.244   10 Jun 2027 04:09:52.010             0.766           383.000
       373   10 Jun 2027 04:11:01.642   10 Jun 2027 04:11:01.730             0.088            44.000
       374   10 Jun 2027 04:11:06.994   10 Jun 2027 04:11:15.635             8.641          4320.500
       375   10 Jun 2027 05:40:56.965   10 Jun 2027 05:41:06.855             9.890          4945.000
       376   10 Jun 2027 05:41:46.706   10 Jun 2027 05:41:52.504             5.798          2899.000
       377   10 Jun 2027 05:42:16.212   10 Jun 2027 05:42:26.577            10.365          5182.500
       378   10 Jun 2027 05:42:27.770   10 Jun 2027 05:42:28.831             1.061           530.500
       379   10 Jun 2027 05:43:28.337   10 Jun 2027 05:43:44.356            16.019          8009.500
       380   10 Jun 2027 05:44:48.736   10 Jun 2027 05:44:53.168             4.432          2216.000
       381   10 Jun 2027 05:45:21.255   10 Jun 2027 05:45:21.710             0.455           227.500
       382   10 Jun 2027 05:45:45.150   10 Jun 2027 05:45:50.614             5.464          2732.000
       383   10 Jun 2027 05:46:29.855   10 Jun 2027 05:46:36.049             6.194          3097.000
       384   10 Jun 2027 05:47:10.571   10 Jun 2027 05:47:13.570             2.999          1499.500
       385   10 Jun 2027 07:18:19.833   10 Jun 2027 07:18:20.407             0.574           287.000
       386   10 Jun 2027 07:18:23.831   10 Jun 2027 07:18:24.087             0.256           128.000
       387   10 Jun 2027 07:18:26.402   10 Jun 2027 07:18:33.649             7.247          3623.500
       388   10 Jun 2027 07:18:41.289   10 Jun 2027 07:18:44.017             2.728          1364.000
       389   10 Jun 2027 07:19:20.433   10 Jun 2027 07:19:20.495             0.062            31.000
       390   10 Jun 2027 07:19:44.017   10 Jun 2027 07:19:53.052             9.035          4517.500
       391   10 Jun 2027 07:20:51.267   10 Jun 2027 07:20:54.227             2.960          1480.000
       392   10 Jun 2027 07:21:27.543   10 Jun 2027 07:21:35.861             8.318          4159.000
       393   10 Jun 2027 07:22:28.831   10 Jun 2027 07:22:33.636             4.805          2402.500
       394   10 Jun 2027 08:54:30.159   10 Jun 2027 08:54:31.100             0.941           470.500
       395   10 Jun 2027 08:54:46.848   10 Jun 2027 08:55:02.713            15.865          7932.500
       396   10 Jun 2027 08:56:35.431   10 Jun 2027 08:56:38.494             3.063          1531.500
       397   10 Jun 2027 08:57:08.051   10 Jun 2027 08:57:08.176             0.125            62.500
       398   10 Jun 2027 08:57:21.942   10 Jun 2027 08:57:30.924             8.982          4491.000
       399   10 Jun 2027 08:59:02.898   10 Jun 2027 08:59:06.402             3.504          1752.000
       400   11 Jun 2027 04:16:39.455   11 Jun 2027 04:16:45.044             5.589          2794.500
       401   11 Jun 2027 04:17:04.651   11 Jun 2027 04:17:04.651             0.000             0.000
       402   11 Jun 2027 04:17:12.776   11 Jun 2027 04:17:16.184             3.408          1704.000
       403   11 Jun 2027 04:17:43.917   11 Jun 2027 04:18:01.577            17.660          8830.000
       404   11 Jun 2027 04:19:08.784   11 Jun 2027 04:19:18.890            10.106          5053.000
       405   11 Jun 2027 04:20:39.178   11 Jun 2027 04:20:41.791             2.613          1306.500
       406   11 Jun 2027 04:20:59.610   11 Jun 2027 04:21:04.047             4.437          2218.500
       407   11 Jun 2027 04:21:39.867   11 Jun 2027 04:21:42.354             2.487          1243.500
       408   11 Jun 2027 04:22:09.767   11 Jun 2027 04:22:29.812            20.045         10022.500
       409   11 Jun 2027 04:22:54.128   11 Jun 2027 04:22:56.202             2.074          1037.000
       410   11 Jun 2027 04:22:58.785   11 Jun 2027 04:23:16.054            17.269          8634.500
       411   11 Jun 2027 04:23:18.886   11 Jun 2027 04:23:21.749             2.863          1431.500
       412   11 Jun 2027 05:52:35.471   11 Jun 2027 05:52:43.348             7.877          3938.500
       413   11 Jun 2027 05:53:36.174   11 Jun 2027 05:53:55.133            18.959          9479.500
       414   11 Jun 2027 05:55:28.303   11 Jun 2027 05:55:31.798             3.495          1747.500
       415   11 Jun 2027 05:56:12.503   11 Jun 2027 05:56:13.215             0.712           356.000
       416   11 Jun 2027 05:56:32.425   11 Jun 2027 05:56:34.488             2.063          1031.500
       417   11 Jun 2027 05:56:56.505   11 Jun 2027 05:57:03.236             6.731          3365.500
       418   11 Jun 2027 05:57:37.258   11 Jun 2027 05:57:37.994             0.736           368.000
       419   11 Jun 2027 05:57:46.306   11 Jun 2027 05:57:51.704             5.398          2699.000
       420   11 Jun 2027 05:58:14.413   11 Jun 2027 05:58:16.323             1.910           955.000
       421   11 Jun 2027 05:58:40.450   11 Jun 2027 05:58:47.900             7.450          3725.000
       422   11 Jun 2027 07:30:33.627   11 Jun 2027 07:30:40.389             6.762          3381.000
       423   11 Jun 2027 07:31:50.651   11 Jun 2027 07:31:58.899             8.248          4124.000
       424   11 Jun 2027 07:32:37.748   11 Jun 2027 07:32:49.921            12.173          6086.500
       425   11 Jun 2027 07:33:47.738   11 Jun 2027 07:33:49.542             1.804           902.000
       426   11 Jun 2027 07:33:54.045   11 Jun 2027 07:33:57.134             3.089          1544.500
       427   11 Jun 2027 07:34:18.744   11 Jun 2027 07:34:22.157             3.413          1706.500
       428   11 Jun 2027 07:34:36.988   11 Jun 2027 07:34:39.477             2.489          1244.500
       429   11 Jun 2027 09:06:25.190   11 Jun 2027 09:06:26.794             1.604           802.000
       430   11 Jun 2027 09:06:49.827   11 Jun 2027 09:06:51.139             1.312           656.000
       431   11 Jun 2027 09:07:05.851   11 Jun 2027 09:07:08.602             2.751          1375.500
       432   11 Jun 2027 09:07:21.963   11 Jun 2027 09:07:24.677             2.714          1357.000
       433   11 Jun 2027 09:07:37.235   11 Jun 2027 09:07:37.335             0.100            50.000
       434   11 Jun 2027 09:07:52.445   11 Jun 2027 09:08:03.361            10.916          5458.000
       435   11 Jun 2027 09:09:03.010   11 Jun 2027 09:09:07.569             4.559          2279.500
       436   11 Jun 2027 09:09:42.455   11 Jun 2027 09:09:47.697             5.242          2621.000
       437   11 Jun 2027 09:10:14.168   11 Jun 2027 09:10:17.378             3.210          1605.000
       438   11 Jun 2027 09:10:35.466   11 Jun 2027 09:10:38.991             3.525          1762.500
       439   11 Jun 2027 09:11:04.749   11 Jun 2027 09:11:05.221             0.472           236.000
       440   11 Jun 2027 09:11:25.138   11 Jun 2027 09:11:27.236             2.098          1049.000
       441   12 Jun 2027 04:27:55.194   12 Jun 2027 04:27:56.517             1.323           661.500
       442   12 Jun 2027 04:28:34.884   12 Jun 2027 04:28:44.808             9.924          4962.000
       443   12 Jun 2027 04:29:35.840   12 Jun 2027 04:29:36.469             0.629           314.500
       444   12 Jun 2027 04:30:06.600   12 Jun 2027 04:30:08.831             2.231          1115.500
       445   12 Jun 2027 04:30:22.022   12 Jun 2027 04:30:28.813             6.791          3395.500
       446   12 Jun 2027 04:30:41.754   12 Jun 2027 04:30:46.265             4.511          2255.500
       447   12 Jun 2027 04:31:36.255   12 Jun 2027 04:31:38.561             2.306          1153.000
       448   12 Jun 2027 04:31:50.491   12 Jun 2027 04:31:59.684             9.193          4596.500
       449   12 Jun 2027 04:32:59.995   12 Jun 2027 04:33:02.432             2.437          1218.500
       450   12 Jun 2027 04:33:20.921   12 Jun 2027 04:33:22.025             1.104           552.000
       451   12 Jun 2027 04:34:32.169   12 Jun 2027 04:34:32.345             0.176            88.000
       452   12 Jun 2027 04:34:38.744   12 Jun 2027 04:34:44.335             5.591          2795.500
       453   12 Jun 2027 04:35:04.547   12 Jun 2027 04:35:08.273             3.726          1863.000
       454   12 Jun 2027 04:35:25.517   12 Jun 2027 04:35:28.197             2.680          1340.000
       455   12 Jun 2027 06:04:44.889   12 Jun 2027 06:04:56.683            11.794          5897.000
       456   12 Jun 2027 06:06:05.730   12 Jun 2027 06:06:06.556             0.826           413.000
       457   12 Jun 2027 06:06:24.541   12 Jun 2027 06:06:27.805             3.264          1632.000
       458   12 Jun 2027 06:06:52.012   12 Jun 2027 06:06:54.599             2.587          1293.500
       459   12 Jun 2027 06:07:37.575   12 Jun 2027 06:07:43.666             6.091          3045.500
       460   12 Jun 2027 06:08:02.047   12 Jun 2027 06:08:04.612             2.565          1282.500
       461   12 Jun 2027 06:08:23.793   12 Jun 2027 06:08:24.785             0.992           496.000
       462   12 Jun 2027 06:08:30.024   12 Jun 2027 06:08:30.689             0.665           332.500
       463   12 Jun 2027 06:08:35.450   12 Jun 2027 06:08:38.539             3.089          1544.500
       464   12 Jun 2027 06:08:55.811   12 Jun 2027 06:08:58.728             2.917          1458.500
       465   12 Jun 2027 06:09:15.992   12 Jun 2027 06:09:27.710            11.718          5859.000
       466   12 Jun 2027 06:10:35.154   12 Jun 2027 06:10:43.883             8.729          4364.500
       467   12 Jun 2027 07:42:56.169   12 Jun 2027 07:43:06.037             9.868          4934.000
       468   12 Jun 2027 07:44:28.240   12 Jun 2027 07:44:29.958             1.718           859.000
       469   12 Jun 2027 07:45:01.165   12 Jun 2027 07:45:01.936             0.771           385.500
       470   12 Jun 2027 07:45:24.242   12 Jun 2027 07:45:25.282             1.040           520.000
       471   12 Jun 2027 07:45:39.270   12 Jun 2027 07:45:44.690             5.420          2710.000
       472   12 Jun 2027 07:46:10.172   12 Jun 2027 07:46:16.732             6.560          3280.000
       473   12 Jun 2027 09:16:14.156   12 Jun 2027 09:16:38.359            24.203         12101.500
       474   12 Jun 2027 09:18:15.717   12 Jun 2027 09:18:18.813             3.096          1548.000
       475   12 Jun 2027 09:19:14.687   12 Jun 2027 09:19:22.219             7.532          3766.000
       476   12 Jun 2027 09:20:16.085   12 Jun 2027 09:20:24.057             7.972          3986.000
       477   12 Jun 2027 09:21:07.772   12 Jun 2027 09:21:09.578             1.806           903.000
       478   12 Jun 2027 09:21:33.596   12 Jun 2027 09:21:35.748             2.152          1076.000
       479   12 Jun 2027 09:21:51.434   12 Jun 2027 09:21:51.922             0.488           244.000
       480   12 Jun 2027 09:22:21.132   12 Jun 2027 09:22:21.395             0.263           131.500
       481   12 Jun 2027 09:22:54.318   12 Jun 2027 09:22:56.734             2.416          1208.000
       482   12 Jun 2027 09:23:14.450   12 Jun 2027 09:23:14.472             0.022            11.000
       483   12 Jun 2027 09:23:17.933   12 Jun 2027 09:23:17.947             0.014             7.000
       484   12 Jun 2027 09:23:25.585   12 Jun 2027 09:23:30.638             5.053          2526.500
       485   12 Jun 2027 09:23:55.877   12 Jun 2027 09:23:59.902             4.025          2012.500
       486   13 Jun 2027 03:03:02.249   13 Jun 2027 03:03:03.954             1.705           852.500
       487   13 Jun 2027 03:03:14.405   13 Jun 2027 03:03:23.398             8.993          4496.500
       488   13 Jun 2027 03:04:15.897   13 Jun 2027 03:04:23.137             7.240          3620.000
       489   13 Jun 2027 03:05:36.917   13 Jun 2027 03:05:41.747             4.830          2415.000
       490   13 Jun 2027 03:06:04.083   13 Jun 2027 03:06:10.386             6.303          3151.500
       491   13 Jun 2027 03:06:39.342   13 Jun 2027 03:06:43.148             3.806          1903.000
       492   13 Jun 2027 03:07:16.535   13 Jun 2027 03:07:20.072             3.537          1768.500
       493   13 Jun 2027 03:07:37.736   13 Jun 2027 03:07:39.040             1.304           652.000
       494   13 Jun 2027 03:08:05.037   13 Jun 2027 03:08:12.518             7.481          3740.500
       495   13 Jun 2027 03:09:44.087   13 Jun 2027 03:09:44.544             0.457           228.500
       496   13 Jun 2027 04:40:02.864   13 Jun 2027 04:40:05.673             2.809          1404.500
       497   13 Jun 2027 04:40:49.886   13 Jun 2027 04:41:02.957            13.071          6535.500
       498   13 Jun 2027 04:41:59.630   13 Jun 2027 04:42:04.270             4.640          2320.000
       499   13 Jun 2027 04:42:42.820   13 Jun 2027 04:42:43.270             0.450           225.000
       500   13 Jun 2027 04:42:46.143   13 Jun 2027 04:42:50.634             4.491          2245.500
       501   13 Jun 2027 04:43:46.811   13 Jun 2027 04:43:54.355             7.544          3772.000
       502   13 Jun 2027 04:44:42.885   13 Jun 2027 04:45:05.373            22.488         11244.000
       503   13 Jun 2027 04:46:32.987   13 Jun 2027 04:46:53.208            20.221         10110.500
       504   13 Jun 2027 06:17:00.835   13 Jun 2027 06:17:01.632             0.797           398.500
       505   13 Jun 2027 06:17:42.686   13 Jun 2027 06:17:53.801            11.115          5557.500
       506   13 Jun 2027 06:18:54.397   13 Jun 2027 06:18:55.124             0.727           363.500
       507   13 Jun 2027 06:19:42.528   13 Jun 2027 06:19:57.282            14.754          7377.000
       508   13 Jun 2027 06:21:00.955   13 Jun 2027 06:21:10.741             9.786          4893.000
       509   13 Jun 2027 06:22:13.328   13 Jun 2027 06:22:23.261             9.933          4966.500
       510   13 Jun 2027 07:54:57.338   13 Jun 2027 07:54:58.602             1.264           632.000
       511   13 Jun 2027 07:55:38.929   13 Jun 2027 07:55:52.575            13.646          6823.000
       512   13 Jun 2027 07:56:35.898   13 Jun 2027 07:56:40.754             4.856          2428.000
       513   13 Jun 2027 07:57:24.871   13 Jun 2027 07:57:29.889             5.018          2509.000
       514   13 Jun 2027 07:58:17.476   13 Jun 2027 07:58:22.711             5.235          2617.500
       515   13 Jun 2027 07:58:50.157   13 Jun 2027 07:58:50.967             0.810           405.000
       516   13 Jun 2027 09:28:17.431   13 Jun 2027 09:28:36.302            18.871          9435.500
       517   13 Jun 2027 09:29:58.572   13 Jun 2027 09:30:07.714             9.142          4571.000
       518   13 Jun 2027 09:31:19.499   13 Jun 2027 09:31:27.523             8.024          4012.000
       519   13 Jun 2027 09:32:03.187   13 Jun 2027 09:32:09.383             6.196          3098.000
       520   13 Jun 2027 09:32:43.898   13 Jun 2027 09:32:53.790             9.892          4946.000
       521   13 Jun 2027 09:33:33.985   13 Jun 2027 09:33:52.224            18.239          9119.500
       522   13 Jun 2027 09:35:15.919   13 Jun 2027 09:35:20.713             4.794          2397.000
       523   13 Jun 2027 09:35:46.605   13 Jun 2027 09:35:47.328             0.723           361.500
       524   13 Jun 2027 09:35:50.267   13 Jun 2027 09:36:00.490            10.223          5111.500
