uniorb/output/strategy_2/Camera/Camera_KinoSat_110604.txt

KinoSat_110604
-------------------------
    Access    *     Start Time (UTCG)     *     Stop Time (UTCG)  *   Duration (s) *   Data (Mbytes)
         1   01 Jun 2027 03:53:42.974   01 Jun 2027 03:55:05.690            82.716         41358.000
         2   01 Jun 2027 03:55:06.656   01 Jun 2027 03:55:11.665             5.009          2504.500
         3   01 Jun 2027 03:55:41.456   01 Jun 2027 03:55:42.772             1.316           658.000
         4   01 Jun 2027 03:56:38.112   01 Jun 2027 03:56:52.465            14.353          7176.500
         5   01 Jun 2027 03:56:59.315   01 Jun 2027 03:57:12.724            13.409          6704.500
         6   01 Jun 2027 05:28:47.635   01 Jun 2027 05:31:22.350           154.715         77357.500
         7   01 Jun 2027 05:32:44.561   01 Jun 2027 05:32:56.463            11.902          5951.000
         8   01 Jun 2027 05:34:39.562   01 Jun 2027 05:34:44.484             4.922          2461.000
         9   01 Jun 2027 05:35:16.175   01 Jun 2027 05:35:40.218            24.043         12021.500
        10   01 Jun 2027 07:04:52.981   01 Jun 2027 07:07:25.186           152.205         76102.500
        11   01 Jun 2027 07:07:41.325   01 Jun 2027 07:08:34.086            52.761         26380.500
        12   01 Jun 2027 07:09:41.309   01 Jun 2027 07:10:33.658            52.349         26174.500
        13   01 Jun 2027 08:42:51.116   01 Jun 2027 08:45:31.711           160.595         80297.500
        14   01 Jun 2027 08:45:58.052   01 Jun 2027 08:46:41.751            43.699         21849.500
        15   01 Jun 2027 08:46:57.374   01 Jun 2027 08:47:05.811             8.437          4218.500
        16   01 Jun 2027 10:18:42.374   01 Jun 2027 10:21:20.604           158.230         79115.000
        17   01 Jun 2027 10:22:50.172   01 Jun 2027 10:22:56.692             6.520          3260.000
        18   01 Jun 2027 10:23:29.932   01 Jun 2027 10:23:35.729             5.797          2898.500
        19   02 Jun 2027 04:05:27.627   02 Jun 2027 04:06:38.208            70.581         35290.500
        20   02 Jun 2027 04:09:08.282   02 Jun 2027 04:09:12.510             4.228          2114.000
        21   02 Jun 2027 04:09:15.668   02 Jun 2027 04:09:20.101             4.433          2216.500
        22   02 Jun 2027 04:09:48.855   02 Jun 2027 04:09:50.622             1.767           883.500
        23   02 Jun 2027 05:40:13.340   02 Jun 2027 05:43:10.301           176.961         88480.500
        24   02 Jun 2027 05:43:37.855   02 Jun 2027 05:43:54.739            16.884          8442.000
        25   02 Jun 2027 05:43:54.934   02 Jun 2027 05:44:37.656            42.722         21361.000
        26   02 Jun 2027 05:47:05.065   02 Jun 2027 05:47:07.538             2.473          1236.500
        27   02 Jun 2027 05:47:41.882   02 Jun 2027 05:47:46.103             4.221          2110.500
        28   02 Jun 2027 07:17:02.798   02 Jun 2027 07:19:26.213           143.415         71707.500
        29   02 Jun 2027 07:20:06.009   02 Jun 2027 07:20:50.753            44.744         22372.000
        30   02 Jun 2027 07:21:33.220   02 Jun 2027 07:21:33.356             0.136            68.000
        31   02 Jun 2027 07:21:57.218   02 Jun 2027 07:22:50.560            53.342         26671.000
        32   02 Jun 2027 08:55:13.297   02 Jun 2027 08:57:15.164           121.867         58914.407
        33   02 Jun 2027 08:58:02.421   02 Jun 2027 08:58:05.307             2.886           789.000
        34   02 Jun 2027 08:58:12.655   02 Jun 2027 08:58:18.252             5.597           229.625
        35   02 Jun 2027 08:58:55.104   02 Jun 2027 08:58:57.716             2.612          1151.625
        36   02 Jun 2027 10:28:30.915   02 Jun 2027 10:28:53.663            22.748          9444.687
        37   02 Jun 2027 10:29:49.160   02 Jun 2027 10:29:52.232             3.072           874.313
        38   02 Jun 2027 10:30:14.880   02 Jun 2027 10:30:14.880             0.000             0.000
        39   02 Jun 2027 10:30:44.402   02 Jun 2027 10:30:53.222             8.820          1630.313
        40   02 Jun 2027 10:31:49.073   02 Jun 2027 10:31:52.524             3.451          1712.406
        41   02 Jun 2027 10:33:07.858   02 Jun 2027 10:33:12.633             4.775          2354.188
        42   02 Jun 2027 10:33:31.191   02 Jun 2027 10:33:31.191             0.000             0.000
        43   02 Jun 2027 10:34:10.651   02 Jun 2027 10:34:17.250             6.599          1748.656
        44   02 Jun 2027 10:34:46.220   02 Jun 2027 10:34:48.308             2.088           825.406
        45   02 Jun 2027 10:35:35.588   02 Jun 2027 10:35:39.571             3.983          1386.906
        46   03 Jun 2027 04:15:15.656   03 Jun 2027 04:16:40.444            84.788         42394.000
        47   03 Jun 2027 04:17:11.648   03 Jun 2027 04:17:23.409            11.761          5880.500
        48   03 Jun 2027 04:17:48.408   03 Jun 2027 04:17:56.366             7.958          3979.000
        49   03 Jun 2027 04:19:44.643   03 Jun 2027 04:19:44.643             0.000             0.000
        50   03 Jun 2027 04:20:24.376   03 Jun 2027 04:20:24.376             0.000             0.000
        51   03 Jun 2027 04:20:26.114   03 Jun 2027 04:20:41.201            15.087          7543.500
        52   03 Jun 2027 04:20:55.117   03 Jun 2027 04:20:56.218             1.101           550.500
        53   03 Jun 2027 04:21:44.345   03 Jun 2027 04:21:46.623             2.278          1139.000
        54   03 Jun 2027 04:23:07.056   03 Jun 2027 04:23:09.581             2.525          1262.500
        55   03 Jun 2027 05:52:20.266   03 Jun 2027 05:55:01.031           160.765         80382.500
        56   03 Jun 2027 05:56:05.082   03 Jun 2027 05:56:50.387            45.305         22652.500
        57   03 Jun 2027 05:58:49.977   03 Jun 2027 05:59:06.697            16.720          8114.687
        58   03 Jun 2027 05:59:15.986   03 Jun 2027 05:59:17.659             1.673           142.281
        59   03 Jun 2027 07:29:18.368   03 Jun 2027 07:30:31.208            72.840         33002.750
        60   03 Jun 2027 07:31:26.475   03 Jun 2027 07:31:32.378             5.903          1139.781
        61   03 Jun 2027 07:33:10.493   03 Jun 2027 07:33:15.137             4.644          2322.000
        62   03 Jun 2027 07:33:45.785   03 Jun 2027 07:33:50.631             4.846          1058.406
        63   03 Jun 2027 07:35:04.522   03 Jun 2027 07:35:10.281             5.759          2145.312
        64   03 Jun 2027 09:07:14.648   03 Jun 2027 09:07:37.418            22.770         10780.281
        65   03 Jun 2027 09:09:00.610   03 Jun 2027 09:09:10.017             9.407          2201.000
        66   03 Jun 2027 09:09:33.024   03 Jun 2027 09:09:35.431             2.407           474.875
        67   03 Jun 2027 09:10:15.233   03 Jun 2027 09:10:15.979             0.746           373.000
        68   03 Jun 2027 09:10:36.936   03 Jun 2027 09:10:40.015             3.079          1525.719
        69   03 Jun 2027 09:10:49.343   03 Jun 2027 09:10:50.152             0.809           189.813
        70   03 Jun 2027 09:11:07.913   03 Jun 2027 09:11:09.226             1.313           515.156
        71   03 Jun 2027 10:40:36.083   03 Jun 2027 10:40:46.463            10.380          5012.063
        72   03 Jun 2027 10:42:09.066   03 Jun 2027 10:42:13.756             4.690          1726.094
        73   03 Jun 2027 10:43:17.113   03 Jun 2027 10:43:26.061             8.948          1680.312
        74   03 Jun 2027 10:43:37.290   03 Jun 2027 10:43:39.118             1.828           150.406
        75   03 Jun 2027 10:44:05.552   03 Jun 2027 10:44:09.193             3.641           605.937
        76   03 Jun 2027 10:45:38.240   03 Jun 2027 10:45:43.524             5.284          2353.656
        77   03 Jun 2027 10:46:08.418   03 Jun 2027 10:46:10.826             2.408           711.406
        78   03 Jun 2027 10:46:28.309   03 Jun 2027 10:46:37.056             8.747            52.875
        79   03 Jun 2027 10:47:32.068   03 Jun 2027 10:47:37.283             5.215          1719.125
        80   03 Jun 2027 10:48:11.945   03 Jun 2027 10:48:18.068             6.123          1083.188
        81   04 Jun 2027 04:26:43.509   04 Jun 2027 04:29:24.190           160.681         80340.500
        82   04 Jun 2027 04:29:30.783   04 Jun 2027 04:29:34.216             3.433          1716.500
        83   04 Jun 2027 04:29:59.269   04 Jun 2027 04:30:07.208             7.939          3969.500
        84   04 Jun 2027 04:31:01.829   04 Jun 2027 04:31:07.802             5.973          2986.500
        85   04 Jun 2027 04:31:34.078   04 Jun 2027 04:31:41.358             7.280          3640.000
        86   04 Jun 2027 04:31:58.173   04 Jun 2027 04:32:05.790             7.617          3808.500
        87   04 Jun 2027 04:35:01.337   04 Jun 2027 04:35:25.561            24.224         12112.000
        88   04 Jun 2027 06:04:22.301   04 Jun 2027 06:06:28.978           126.677         63338.500
        89   04 Jun 2027 06:06:53.544   04 Jun 2027 06:07:00.175             6.631          3288.250
        90   04 Jun 2027 06:07:47.321   04 Jun 2027 06:07:52.496             5.175          1473.313
        91   04 Jun 2027 06:09:34.168   04 Jun 2027 06:09:37.121             2.953          1476.500
        92   04 Jun 2027 06:09:45.711   04 Jun 2027 06:09:51.728             6.017          1636.062
        93   04 Jun 2027 06:10:34.841   04 Jun 2027 06:10:34.841             0.000             0.000
        94   04 Jun 2027 06:11:26.352   04 Jun 2027 06:11:34.522             8.170          2541.344
        95   04 Jun 2027 07:41:08.997   04 Jun 2027 07:41:59.150            50.153         24794.406
        96   04 Jun 2027 07:42:07.868   04 Jun 2027 07:42:10.256             2.388            47.344
        97   04 Jun 2027 07:42:33.001   04 Jun 2027 07:42:33.284             0.283            99.813
        98   04 Jun 2027 07:43:14.825   04 Jun 2027 07:43:16.613             1.788           589.094
        99   04 Jun 2027 07:43:25.706   04 Jun 2027 07:43:29.355             3.649           284.156
       100   04 Jun 2027 07:43:59.307   04 Jun 2027 07:43:59.307             0.000             0.000
       101   04 Jun 2027 07:44:01.950   04 Jun 2027 07:44:04.551             2.601           681.094
       102   04 Jun 2027 07:45:03.196   04 Jun 2027 07:45:03.795             0.599           299.500
       103   04 Jun 2027 07:45:10.507   04 Jun 2027 07:45:15.247             4.740          1742.906
       104   04 Jun 2027 07:45:50.339   04 Jun 2027 07:45:51.078             0.739           369.500
       105   04 Jun 2027 07:46:11.933   04 Jun 2027 07:46:14.699             2.766          1153.750
       106   04 Jun 2027 07:46:59.003   04 Jun 2027 07:47:01.763             2.760           605.344
       107   04 Jun 2027 07:47:24.553   04 Jun 2027 07:47:26.168             1.615           359.500
       108   04 Jun 2027 09:19:11.815   04 Jun 2027 09:19:35.497            23.682         11076.188
       109   04 Jun 2027 09:19:53.278   04 Jun 2027 09:19:55.793             2.515           309.719
       110   04 Jun 2027 09:20:38.504   04 Jun 2027 09:20:41.502             2.998          1334.719
       111   04 Jun 2027 09:21:35.242   04 Jun 2027 09:21:37.255             2.013          1006.500
       112   04 Jun 2027 09:23:02.715   04 Jun 2027 09:23:10.621             7.906          3343.500
       113   04 Jun 2027 10:53:02.392   04 Jun 2027 10:53:06.786             4.394          2097.344
       114   04 Jun 2027 10:53:27.754   04 Jun 2027 10:53:30.256             2.502           375.094
       115   04 Jun 2027 10:53:51.045   04 Jun 2027 10:53:52.552             1.507           649.656
       116   04 Jun 2027 10:54:30.646   04 Jun 2027 10:54:33.659             3.013          1190.437
       117   04 Jun 2027 10:55:12.749   04 Jun 2027 10:55:14.149             1.400           700.000
       118   04 Jun 2027 10:55:28.571   04 Jun 2027 10:55:30.605             2.034           683.656
       119   04 Jun 2027 10:55:53.450   04 Jun 2027 10:55:54.881             1.431           301.125
       120   04 Jun 2027 10:56:38.898   04 Jun 2027 10:56:41.107             2.209          1076.969
       121   04 Jun 2027 10:57:11.803   04 Jun 2027 10:57:15.024             3.221           912.938
       122   04 Jun 2027 10:57:48.510   04 Jun 2027 10:57:50.129             1.619           325.687
       123   04 Jun 2027 10:58:42.250   04 Jun 2027 10:58:45.710             3.460          1547.781
       124   04 Jun 2027 10:59:25.055   04 Jun 2027 10:59:30.223             5.168           894.875
       125   05 Jun 2027 03:03:24.572   05 Jun 2027 03:03:35.951            11.379          5689.500
       126   05 Jun 2027 03:03:59.228   05 Jun 2027 03:03:59.228             0.000             0.000
       127   05 Jun 2027 03:04:21.639   05 Jun 2027 03:04:24.757             3.118          1559.000
       128   05 Jun 2027 03:06:28.162   05 Jun 2027 03:06:58.397            30.235         15117.500
       129   05 Jun 2027 03:07:24.443   05 Jun 2027 03:07:24.443             0.000             0.000
       130   05 Jun 2027 03:07:50.284   05 Jun 2027 03:07:56.174             5.890          2945.000
       131   05 Jun 2027 03:08:08.532   05 Jun 2027 03:08:43.155            34.623         17311.500
       132   05 Jun 2027 03:08:49.841   05 Jun 2027 03:09:25.640            35.799         17899.500
       133   05 Jun 2027 04:38:17.275   05 Jun 2027 04:40:13.117           115.842         57921.000
       134   05 Jun 2027 04:40:39.364   05 Jun 2027 04:41:01.041            21.677         10838.500
       135   05 Jun 2027 04:41:06.757   05 Jun 2027 04:41:08.818             2.061          1030.500
       136   05 Jun 2027 04:41:24.689   05 Jun 2027 04:41:24.689             0.000             0.000
       137   05 Jun 2027 04:41:35.665   05 Jun 2027 04:41:39.185             3.520          1760.000
       138   05 Jun 2027 04:42:52.301   05 Jun 2027 04:43:02.913            10.612          5306.000
       139   05 Jun 2027 04:46:18.567   05 Jun 2027 04:46:34.263            15.696          7848.000
       140   05 Jun 2027 06:16:24.087   05 Jun 2027 06:17:49.995            85.908         41866.657
       141   05 Jun 2027 06:18:48.539   05 Jun 2027 06:18:53.055             4.516          1628.125
       142   05 Jun 2027 06:19:33.331   05 Jun 2027 06:19:37.049             3.718          1258.625
       143   05 Jun 2027 06:20:07.284   05 Jun 2027 06:20:09.361             2.077           610.312
       144   05 Jun 2027 06:20:18.915   05 Jun 2027 06:20:19.939             1.024            75.844
       145   05 Jun 2027 06:20:30.995   05 Jun 2027 06:20:31.979             0.984           345.500
       146   05 Jun 2027 06:22:48.542   05 Jun 2027 06:22:57.143             8.601          4115.688
       147   05 Jun 2027 07:53:19.083   05 Jun 2027 07:53:44.081            24.998         12499.000
       148   05 Jun 2027 07:53:51.418   05 Jun 2027 07:54:07.195            15.777          7293.437
       149   05 Jun 2027 07:55:06.124   05 Jun 2027 07:55:08.301             2.177           785.500
       150   05 Jun 2027 07:56:07.185   05 Jun 2027 07:56:16.291             9.106          1750.187
       151   05 Jun 2027 07:56:59.394   05 Jun 2027 07:57:05.318             5.924          1346.969
       152   05 Jun 2027 07:57:43.443   05 Jun 2027 07:57:45.683             2.240          1070.500
       153   05 Jun 2027 07:57:59.777   05 Jun 2027 07:58:01.124             1.347           438.000
       154   05 Jun 2027 07:58:07.583   05 Jun 2027 07:58:08.584             1.001           173.875
       155   05 Jun 2027 07:59:22.450   05 Jun 2027 07:59:27.148             4.698          1972.531
       156   05 Jun 2027 09:30:26.560   05 Jun 2027 09:30:47.527            20.967          9622.312
       157   05 Jun 2027 09:30:59.847   05 Jun 2027 09:31:01.672             1.825           385.000
       158   05 Jun 2027 09:32:40.496   05 Jun 2027 09:32:46.848             6.352          3088.250
       159   05 Jun 2027 09:32:49.895   05 Jun 2027 09:32:53.053             3.158            95.219
       160   05 Jun 2027 09:33:37.417   05 Jun 2027 09:33:39.547             2.130          1065.000
       161   05 Jun 2027 09:33:41.009   05 Jun 2027 09:33:42.652             1.643           367.062
       162   05 Jun 2027 09:34:18.783   05 Jun 2027 09:34:23.916             5.133          1129.094
       163   05 Jun 2027 09:35:05.143   05 Jun 2027 09:35:11.604             6.461          1215.812
       164   05 Jun 2027 09:35:17.190   05 Jun 2027 09:35:20.362             3.172            32.562
       165   05 Jun 2027 11:05:20.229   05 Jun 2027 11:05:27.404             7.175          2438.094
       166   05 Jun 2027 11:05:36.624   05 Jun 2027 11:05:37.772             1.148           288.125
       167   05 Jun 2027 11:05:50.991   05 Jun 2027 11:05:53.458             2.467           271.563
       168   05 Jun 2027 11:07:08.764   05 Jun 2027 11:07:16.430             7.666           725.750
       169   05 Jun 2027 11:07:31.574   05 Jun 2027 11:07:34.721             3.147           282.094
       170   05 Jun 2027 11:07:53.231   05 Jun 2027 11:07:53.231             0.000             0.000
       171   05 Jun 2027 11:08:00.365   05 Jun 2027 11:08:01.627             1.262           586.719
       172   05 Jun 2027 11:08:30.300   05 Jun 2027 11:08:32.443             2.143           674.719
       173   05 Jun 2027 11:09:25.233   05 Jun 2027 11:09:36.874            11.641          1336.125
       174   06 Jun 2027 03:17:46.198   06 Jun 2027 03:18:13.501            27.303         13651.500
       175   06 Jun 2027 03:18:48.578   06 Jun 2027 03:18:48.578             0.000             0.000
       176   06 Jun 2027 03:18:58.878   06 Jun 2027 03:19:07.118             8.240          4120.000
       177   06 Jun 2027 03:19:45.575   06 Jun 2027 03:19:58.363            12.788          6394.000
       178   06 Jun 2027 04:51:18.552   06 Jun 2027 04:54:47.718           209.166        104583.000
       179   06 Jun 2027 04:57:15.121   06 Jun 2027 04:57:18.264             3.143          1571.500
       180   06 Jun 2027 04:58:47.633   06 Jun 2027 04:58:52.685             5.052          2526.000
       181   06 Jun 2027 04:58:58.802   06 Jun 2027 04:59:30.235            31.433         15716.500
       182   06 Jun 2027 04:59:50.051   06 Jun 2027 04:59:51.636             1.585           792.500
       183   06 Jun 2027 06:28:51.163   06 Jun 2027 06:30:04.533            73.370         36499.907
       184   06 Jun 2027 06:30:31.420   06 Jun 2027 06:30:31.636             0.216            98.500
       185   06 Jun 2027 06:31:10.732   06 Jun 2027 06:31:10.732             0.000             0.000
       186   06 Jun 2027 06:31:11.654   06 Jun 2027 06:31:14.170             2.516           673.187
       187   06 Jun 2027 06:31:22.076   06 Jun 2027 06:31:27.205             5.129           247.063
       188   06 Jun 2027 06:32:28.887   06 Jun 2027 06:32:35.542             6.655          1919.656
       189   06 Jun 2027 06:34:08.683   06 Jun 2027 06:34:13.454             4.771          2385.500
       190   06 Jun 2027 06:34:20.180   06 Jun 2027 06:34:24.173             3.993           735.344
       191   06 Jun 2027 06:34:56.875   06 Jun 2027 06:34:58.631             1.756           807.094
       192   06 Jun 2027 06:35:20.187   06 Jun 2027 06:35:23.392             3.205           240.625
       193   06 Jun 2027 08:05:45.829   06 Jun 2027 08:06:22.614            36.785         18242.156
       194   06 Jun 2027 08:07:00.279   06 Jun 2027 08:07:01.745             1.466           621.281
       195   06 Jun 2027 08:08:11.800   06 Jun 2027 08:08:17.665             5.865          2067.937
       196   06 Jun 2027 08:08:40.704   06 Jun 2027 08:08:40.704             0.000             0.000
       197   06 Jun 2027 08:09:10.854   06 Jun 2027 08:09:14.215             3.361          1569.719
       198   06 Jun 2027 08:09:14.514   06 Jun 2027 08:09:15.706             1.192             9.344
       199   06 Jun 2027 08:10:19.595   06 Jun 2027 08:10:24.828             5.233          1875.219
       200   06 Jun 2027 08:11:13.616   06 Jun 2027 08:11:16.783             3.167          1524.625
       201   06 Jun 2027 08:11:33.540   06 Jun 2027 08:11:36.284             2.744             8.031
       202   06 Jun 2027 09:42:40.100   06 Jun 2027 09:42:59.724            19.624          9187.687
       203   06 Jun 2027 09:43:11.757   06 Jun 2027 09:43:13.094             1.337           277.438
       204   06 Jun 2027 09:43:36.665   06 Jun 2027 09:43:36.665             0.000             0.000
       205   06 Jun 2027 09:43:43.955   06 Jun 2027 09:43:45.262             1.307           653.500
       206   06 Jun 2027 09:44:36.405   06 Jun 2027 09:44:41.624             5.219          1673.125
       207   06 Jun 2027 09:45:03.581   06 Jun 2027 09:45:06.456             2.875           608.375
       208   06 Jun 2027 09:45:49.792   06 Jun 2027 09:45:52.611             2.819          1259.375
       209   06 Jun 2027 09:46:33.228   06 Jun 2027 09:46:35.849             2.621          1145.313
       210   06 Jun 2027 09:46:48.219   06 Jun 2027 09:46:51.730             3.511           150.969
       211   06 Jun 2027 11:19:49.695   06 Jun 2027 11:19:54.885             5.190          2326.844
       212   06 Jun 2027 11:20:10.140   06 Jun 2027 11:20:10.148             0.008             4.000
       213   06 Jun 2027 11:20:13.531   06 Jun 2027 11:20:14.934             1.403           459.937
       214   06 Jun 2027 11:20:37.278   06 Jun 2027 11:20:39.702             2.424           590.437
       215   06 Jun 2027 11:20:55.360   06 Jun 2027 11:21:02.276             6.916           234.562
       216   06 Jun 2027 11:21:35.286   06 Jun 2027 11:21:43.764             8.478          1031.563
       217   07 Jun 2027 03:29:50.194   07 Jun 2027 03:30:07.672            17.478          8739.000
       218   07 Jun 2027 03:30:31.164   07 Jun 2027 03:30:51.069            19.905          9952.500
       219   07 Jun 2027 03:30:51.762   07 Jun 2027 03:30:51.762             0.000             0.000
       220   07 Jun 2027 03:31:04.338   07 Jun 2027 03:31:04.338             0.000             0.000
       221   07 Jun 2027 03:31:36.309   07 Jun 2027 03:31:54.367            18.058          9029.000
       222   07 Jun 2027 03:32:50.901   07 Jun 2027 03:32:50.901             0.000             0.000
       223   07 Jun 2027 03:33:09.273   07 Jun 2027 03:33:25.961            16.688          8344.000
       224   07 Jun 2027 05:01:58.119   07 Jun 2027 05:02:08.656            10.537          5268.500
       225   07 Jun 2027 05:03:57.197   07 Jun 2027 05:06:39.921           162.724         81362.000
       226   07 Jun 2027 05:06:58.244   07 Jun 2027 05:07:31.886            33.642         16821.000
       227   07 Jun 2027 05:07:57.830   07 Jun 2027 05:08:04.509             6.679          3339.500
       228   07 Jun 2027 05:10:03.489   07 Jun 2027 05:10:13.606            10.117          5058.500
       229   07 Jun 2027 05:11:45.347   07 Jun 2027 05:11:45.855             0.508           254.000
       230   07 Jun 2027 06:40:55.647   07 Jun 2027 06:42:02.714            67.067         33428.593
       231   07 Jun 2027 06:42:29.919   07 Jun 2027 06:42:34.453             4.534            74.469
       232   07 Jun 2027 06:43:04.186   07 Jun 2027 06:43:07.540             3.354           797.625
       233   07 Jun 2027 06:43:16.296   07 Jun 2027 06:43:18.077             1.781            14.344
       234   07 Jun 2027 06:43:36.400   07 Jun 2027 06:43:37.475             1.075           451.375
       235   07 Jun 2027 06:43:48.001   07 Jun 2027 06:43:54.351             6.350           267.250
       236   07 Jun 2027 06:44:21.520   07 Jun 2027 06:44:22.894             1.374           322.094
       237   07 Jun 2027 06:44:44.083   07 Jun 2027 06:44:45.720             1.637           515.875
       238   07 Jun 2027 06:45:08.153   07 Jun 2027 06:45:08.461             0.308           154.000
       239   07 Jun 2027 06:45:15.592   07 Jun 2027 06:45:21.723             6.131           615.219
       240   07 Jun 2027 06:45:32.003   07 Jun 2027 06:45:35.881             3.878            81.625
       241   07 Jun 2027 06:46:29.330   07 Jun 2027 06:46:33.314             3.984          1609.562
       242   07 Jun 2027 06:47:04.036   07 Jun 2027 06:47:10.696             6.660           872.469
       243   07 Jun 2027 06:47:30.686   07 Jun 2027 06:47:33.539             2.853           611.594
       244   07 Jun 2027 08:18:26.724   07 Jun 2027 08:18:57.794            31.070         15001.344
       245   07 Jun 2027 08:19:47.312   07 Jun 2027 08:19:54.984             7.672          1369.250
       246   07 Jun 2027 08:20:03.991   07 Jun 2027 08:20:05.708             1.717           281.469
       247   07 Jun 2027 08:20:36.825   07 Jun 2027 08:20:41.398             4.573           972.406
       248   07 Jun 2027 08:21:13.999   07 Jun 2027 08:21:16.759             2.760          1018.781
       249   07 Jun 2027 08:23:03.187   07 Jun 2027 08:23:03.255             0.068            34.000
       250   07 Jun 2027 09:54:45.044   07 Jun 2027 09:55:02.316            17.272          8479.875
       251   07 Jun 2027 09:55:26.502   07 Jun 2027 09:55:28.787             2.285           580.719
       252   07 Jun 2027 09:56:07.217   07 Jun 2027 09:56:13.636             6.419          1200.937
       253   07 Jun 2027 09:56:53.791   07 Jun 2027 09:56:57.493             3.702          1254.844
       254   07 Jun 2027 09:57:42.370   07 Jun 2027 09:57:45.531             3.161           785.875
       255   07 Jun 2027 09:58:02.348   07 Jun 2027 09:58:04.834             2.486           235.500
       256   07 Jun 2027 09:58:47.379   07 Jun 2027 09:58:54.855             7.476          1216.969
       257   07 Jun 2027 11:32:59.395   07 Jun 2027 11:33:11.061            11.666          3500.594
       258   07 Jun 2027 11:33:14.878   07 Jun 2027 11:33:24.299             9.421           109.031
       259   08 Jun 2027 03:42:00.195   08 Jun 2027 03:42:17.103            16.908          8454.000
       260   08 Jun 2027 03:42:28.284   08 Jun 2027 03:42:58.908            30.624         15312.000
       261   08 Jun 2027 03:44:00.291   08 Jun 2027 03:44:07.785             7.494          3747.000
       262   08 Jun 2027 03:45:29.612   08 Jun 2027 03:45:35.743             6.131          3065.500
       263   08 Jun 2027 05:17:11.179   08 Jun 2027 05:19:12.704           121.525         60762.500
       264   08 Jun 2027 05:20:03.013   08 Jun 2027 05:20:58.827            55.814         27907.000
       265   08 Jun 2027 05:21:43.796   08 Jun 2027 05:21:57.574            13.778          6889.000
       266   08 Jun 2027 05:22:22.547   08 Jun 2027 05:22:53.106            30.559         15279.500
       267   08 Jun 2027 05:23:39.051   08 Jun 2027 05:23:48.163             9.112          4556.000
       268   08 Jun 2027 06:53:30.160   08 Jun 2027 06:54:24.510            54.350         27129.688
       269   08 Jun 2027 06:55:38.036   08 Jun 2027 06:55:42.138             4.102          1684.531
       270   08 Jun 2027 06:55:54.980   08 Jun 2027 06:55:56.574             1.594           259.906
       271   08 Jun 2027 06:56:16.813   08 Jun 2027 06:56:18.667             1.854           259.594
       272   08 Jun 2027 06:56:42.598   08 Jun 2027 06:56:44.355             1.757           747.844
       273   08 Jun 2027 06:56:59.409   08 Jun 2027 06:57:01.166             1.757           452.437
       274   08 Jun 2027 06:57:47.866   08 Jun 2027 06:57:51.014             3.148           478.844
       275   08 Jun 2027 06:58:09.020   08 Jun 2027 06:58:10.224             1.204           286.031
       276   08 Jun 2027 06:59:17.924   08 Jun 2027 06:59:17.924             0.000             0.000
       277   08 Jun 2027 08:30:53.043   08 Jun 2027 08:31:26.267            33.224         15392.000
       278   08 Jun 2027 08:32:23.920   08 Jun 2027 08:32:38.088            14.168          1483.406
       279   08 Jun 2027 08:33:24.783   08 Jun 2027 08:33:29.146             4.363          1459.219
       280   08 Jun 2027 08:33:49.611   08 Jun 2027 08:33:52.286             2.675           614.687
       281   08 Jun 2027 08:34:07.342   08 Jun 2027 08:34:11.803             4.461           470.500
       282   08 Jun 2027 08:35:07.887   08 Jun 2027 08:35:12.606             4.719          1752.625
       283   08 Jun 2027 10:07:02.406   08 Jun 2027 10:07:20.878            18.472          8201.594
       284   08 Jun 2027 10:08:12.061   08 Jun 2027 10:08:12.061             0.000             0.000
       285   08 Jun 2027 10:08:54.541   08 Jun 2027 10:08:57.666             3.125          1541.250
       286   08 Jun 2027 10:10:06.212   08 Jun 2027 10:10:07.556             1.344           510.656
       287   08 Jun 2027 10:10:09.295   08 Jun 2027 10:10:15.151             5.856            54.344
       288   08 Jun 2027 10:11:25.621   08 Jun 2027 10:11:31.195             5.574          2071.656
       289   09 Jun 2027 03:53:57.350   09 Jun 2027 03:54:07.807            10.457          5228.500
       290   09 Jun 2027 03:54:08.186   09 Jun 2027 03:54:40.430            32.244         16122.000
       291   09 Jun 2027 03:55:57.299   09 Jun 2027 03:56:50.668            53.369         26684.500
       292   09 Jun 2027 03:56:54.560   09 Jun 2027 03:57:07.223            12.663          6331.500
       293   09 Jun 2027 03:57:21.332   09 Jun 2027 03:57:26.281             4.949          2474.500
       294   09 Jun 2027 05:29:01.616   09 Jun 2027 05:31:37.000           155.384         77692.000
       295   09 Jun 2027 05:31:47.607   09 Jun 2027 05:32:04.699            17.092          8546.000
       296   09 Jun 2027 05:33:26.449   09 Jun 2027 05:34:01.328            34.879         17427.531
       297   09 Jun 2027 05:35:30.692   09 Jun 2027 05:35:38.089             7.397          2515.437
       298   09 Jun 2027 07:05:07.250   09 Jun 2027 07:05:43.784            36.534         18267.000
       299   09 Jun 2027 07:05:47.400   09 Jun 2027 07:06:25.683            38.283         17545.656
       300   09 Jun 2027 07:06:32.038   09 Jun 2027 07:06:32.669             0.631           150.875
       301   09 Jun 2027 07:06:42.131   09 Jun 2027 07:06:46.684             4.553           290.438
       302   09 Jun 2027 07:07:52.485   09 Jun 2027 07:07:57.179             4.694          1049.406
       303   09 Jun 2027 07:08:49.215   09 Jun 2027 07:09:01.099            11.884          1626.125
       304   09 Jun 2027 07:09:56.554   09 Jun 2027 07:10:02.987             6.433          1732.969
       305   09 Jun 2027 08:43:05.799   09 Jun 2027 08:43:30.792            24.993         12445.594
       306   09 Jun 2027 08:43:56.323   09 Jun 2027 08:43:56.812             0.489           189.281
       307   09 Jun 2027 08:44:03.791   09 Jun 2027 08:44:04.040             0.249             9.969
       308   09 Jun 2027 08:44:21.231   09 Jun 2027 08:44:22.600             1.369           387.656
       309   09 Jun 2027 08:44:51.186   09 Jun 2027 08:44:52.179             0.993           381.406
       310   09 Jun 2027 08:45:50.472   09 Jun 2027 08:45:55.048             4.576          1821.656
       311   09 Jun 2027 08:46:32.944   09 Jun 2027 08:46:36.629             3.685           765.250
       312   09 Jun 2027 08:47:23.586   09 Jun 2027 08:47:29.948             6.362          1397.562
       313   09 Jun 2027 10:18:56.863   09 Jun 2027 10:19:15.372            18.509          8818.094
       314   09 Jun 2027 10:20:06.414   09 Jun 2027 10:20:07.920             1.506           753.000
       315   09 Jun 2027 10:20:16.884   09 Jun 2027 10:20:16.884             0.000             0.000
       316   09 Jun 2027 10:20:55.503   09 Jun 2027 10:21:02.265             6.762          2299.250
       317   09 Jun 2027 10:21:51.128   09 Jun 2027 10:21:55.481             4.353          1443.031
       318   09 Jun 2027 10:22:07.068   09 Jun 2027 10:22:10.977             3.909           281.719
       319   09 Jun 2027 10:22:32.627   09 Jun 2027 10:22:34.628             2.001           410.250
       320   09 Jun 2027 10:22:41.465   09 Jun 2027 10:22:46.616             5.151           188.406
       321   09 Jun 2027 10:23:50.887   09 Jun 2027 10:23:54.571             3.684          1439.500
       322   09 Jun 2027 10:24:10.447   09 Jun 2027 10:24:12.040             1.593           496.125
       323   10 Jun 2027 04:05:42.084   10 Jun 2027 04:06:53.521            71.437         35718.500
       324   10 Jun 2027 04:09:24.289   10 Jun 2027 04:09:51.244            26.955         13477.500
       325   10 Jun 2027 05:40:27.994   10 Jun 2027 05:42:51.038           143.044         71522.000
       326   10 Jun 2027 05:43:25.128   10 Jun 2027 05:43:54.425            29.297         14648.500
       327   10 Jun 2027 05:45:13.706   10 Jun 2027 05:45:59.977            46.271         23135.500
       328   10 Jun 2027 05:47:19.533   10 Jun 2027 05:47:22.174             2.641          1320.500
       329   10 Jun 2027 05:47:56.586   10 Jun 2027 05:48:00.778             4.192          2096.000
       330   10 Jun 2027 07:17:17.571   10 Jun 2027 07:18:51.226            93.655         43566.968
       331   10 Jun 2027 07:19:41.003   10 Jun 2027 07:19:44.017             3.014          1361.187
       332   10 Jun 2027 07:20:28.199   10 Jun 2027 07:20:35.345             7.146          1380.688
       333   10 Jun 2027 07:20:40.394   10 Jun 2027 07:20:41.829             1.435           157.781
       334   10 Jun 2027 07:21:47.996   10 Jun 2027 07:21:48.172             0.176            88.000
       335   10 Jun 2027 07:21:58.035   10 Jun 2027 07:21:58.035             0.000             0.000
       336   10 Jun 2027 07:22:19.650   10 Jun 2027 07:22:25.216             5.566          2222.469
       337   10 Jun 2027 07:22:57.343   10 Jun 2027 07:23:02.443             5.100           891.000
       338   10 Jun 2027 07:23:23.271   10 Jun 2027 07:23:24.198             0.927           463.500
       339   10 Jun 2027 07:23:33.951   10 Jun 2027 07:23:36.457             2.506           386.969
       340   10 Jun 2027 08:55:27.962   10 Jun 2027 08:55:50.218            22.256         11128.000
       341   10 Jun 2027 08:55:57.179   10 Jun 2027 08:56:03.399             6.220           277.937
       342   10 Jun 2027 08:56:24.438   10 Jun 2027 08:56:27.152             2.714           657.469
       343   10 Jun 2027 08:56:38.633   10 Jun 2027 08:56:38.708             0.075            37.500
       344   10 Jun 2027 08:57:14.695   10 Jun 2027 08:57:18.445             3.750          1445.875
       345   10 Jun 2027 08:57:32.092   10 Jun 2027 08:57:33.180             1.088           317.188
       346   10 Jun 2027 08:57:54.714   10 Jun 2027 08:57:57.743             3.029            82.406
       347   10 Jun 2027 08:58:24.605   10 Jun 2027 08:58:26.213             1.608           629.969
       348   10 Jun 2027 08:58:34.826   10 Jun 2027 08:58:34.826             0.000             0.000
       349   10 Jun 2027 08:58:51.263   10 Jun 2027 08:58:56.164             4.901           782.812
       350   10 Jun 2027 08:59:06.846   10 Jun 2027 08:59:08.105             1.259           123.375
       351   10 Jun 2027 08:59:23.526   10 Jun 2027 08:59:24.144             0.618           279.344
       352   10 Jun 2027 10:28:45.301   10 Jun 2027 10:29:00.095            14.794          7326.781
       353   10 Jun 2027 10:30:18.937   10 Jun 2027 10:30:24.356             5.419          1652.281
       354   10 Jun 2027 10:30:37.887   10 Jun 2027 10:30:43.297             5.410           209.000
       355   10 Jun 2027 10:32:03.203   10 Jun 2027 10:32:04.426             1.223           611.500
       356   10 Jun 2027 10:32:07.373   10 Jun 2027 10:32:12.411             5.038          1697.156
       357   10 Jun 2027 10:33:52.312   10 Jun 2027 10:34:00.498             8.186          2969.625
       358   10 Jun 2027 10:34:23.522   10 Jun 2027 10:34:25.509             1.987           701.375
       359   10 Jun 2027 10:34:34.745   10 Jun 2027 10:34:35.705             0.960           261.125
       360   10 Jun 2027 10:35:05.640   10 Jun 2027 10:35:08.918             3.278           817.125
       361   10 Jun 2027 10:35:40.425   10 Jun 2027 10:35:42.788             2.363           372.719
       362   10 Jun 2027 10:36:04.950   10 Jun 2027 10:36:06.938             1.988           504.094
       363   11 Jun 2027 04:15:30.071   11 Jun 2027 04:16:54.849            84.778         42389.000
       364   11 Jun 2027 04:17:26.189   11 Jun 2027 04:17:38.627            12.438          6219.000
       365   11 Jun 2027 04:18:07.039   11 Jun 2027 04:18:07.039             0.000             0.000
       366   11 Jun 2027 04:18:26.717   11 Jun 2027 04:18:29.074             2.357          1178.500
       367   11 Jun 2027 04:18:51.267   11 Jun 2027 04:18:52.295             1.028           514.000
       368   11 Jun 2027 04:19:18.890   11 Jun 2027 04:19:30.491            11.601          5800.500
       369   11 Jun 2027 04:21:10.365   11 Jun 2027 04:21:18.927             8.562          4281.000
       370   11 Jun 2027 04:21:25.965   11 Jun 2027 04:21:33.461             7.496          3748.000
       371   11 Jun 2027 04:23:21.234   11 Jun 2027 04:23:24.411             3.177          1588.500
       372   11 Jun 2027 05:52:34.809   11 Jun 2027 05:55:11.834           157.025         78512.500
       373   11 Jun 2027 05:55:31.798   11 Jun 2027 05:56:12.503            40.705         20352.500
       374   11 Jun 2027 05:57:03.236   11 Jun 2027 05:57:06.827             3.591          1795.500
       375   11 Jun 2027 05:59:04.380   11 Jun 2027 05:59:21.319            16.939          8469.500
       376   11 Jun 2027 05:59:47.430   11 Jun 2027 05:59:47.636             0.206           103.000
       377   11 Jun 2027 07:29:32.948   11 Jun 2027 07:30:33.627            60.679         30302.312
       378   11 Jun 2027 07:30:57.285   11 Jun 2027 07:30:58.593             1.308           356.687
       379   11 Jun 2027 07:32:58.457   11 Jun 2027 07:33:06.317             7.860          3449.750
       380   11 Jun 2027 07:33:29.581   11 Jun 2027 07:33:31.127             1.546           627.531
       381   11 Jun 2027 07:34:39.477   11 Jun 2027 07:34:40.457             0.980           490.000
       382   11 Jun 2027 07:34:49.346   11 Jun 2027 07:34:53.311             3.965          1553.781
       383   11 Jun 2027 07:35:40.599   11 Jun 2027 07:35:41.500             0.901           450.500
       384   11 Jun 2027 09:07:29.224   11 Jun 2027 09:07:52.445            23.221         10008.250
       385   11 Jun 2027 09:08:40.577   11 Jun 2027 09:08:47.266             6.689          1504.125
       386   11 Jun 2027 09:09:47.697   11 Jun 2027 09:09:56.197             8.500          1883.281
       387   11 Jun 2027 09:10:05.807   11 Jun 2027 09:10:07.410             1.603           300.312
       388   11 Jun 2027 09:10:51.181   11 Jun 2027 09:10:58.204             7.023          1156.656
       389   11 Jun 2027 09:11:05.221   11 Jun 2027 09:11:06.086             0.865           219.281
       390   11 Jun 2027 09:11:13.440   11 Jun 2027 09:11:14.813             1.373            89.187
       391   11 Jun 2027 10:40:50.875   11 Jun 2027 10:41:03.513            12.638          6103.687
       392   11 Jun 2027 10:41:35.855   11 Jun 2027 10:41:36.405             0.550           229.750
       393   11 Jun 2027 10:41:53.357   11 Jun 2027 10:41:56.862             3.505           529.750
       394   11 Jun 2027 10:42:19.796   11 Jun 2027 10:42:19.796             0.000             0.000
       395   11 Jun 2027 10:42:53.085   11 Jun 2027 10:42:59.872             6.787          1457.469
       396   11 Jun 2027 10:43:02.742   11 Jun 2027 10:43:03.000             0.258            31.312
       397   11 Jun 2027 10:43:35.696   11 Jun 2027 10:43:41.009             5.313           322.094
       398   11 Jun 2027 10:44:39.411   11 Jun 2027 10:44:48.232             8.821          1486.000
       399   11 Jun 2027 10:45:11.743   11 Jun 2027 10:45:19.035             7.292           617.469
       400   11 Jun 2027 10:46:07.112   11 Jun 2027 10:46:09.374             2.262          1131.000
       401   11 Jun 2027 10:46:52.023   11 Jun 2027 10:46:57.112             5.089          1704.188
       402   11 Jun 2027 10:47:47.247   11 Jun 2027 10:47:53.110             5.863          1531.281
       403   12 Jun 2027 04:26:57.688   12 Jun 2027 04:30:06.600           188.912         94456.000
       404   12 Jun 2027 04:30:08.831   12 Jun 2027 04:30:16.929             8.098          4049.000
       405   12 Jun 2027 04:32:13.891   12 Jun 2027 04:32:13.891             0.000             0.000
       406   12 Jun 2027 04:32:52.792   12 Jun 2027 04:32:59.995             7.203          3601.500
       407   12 Jun 2027 04:33:02.432   12 Jun 2027 04:33:02.432             0.000             0.000
       408   12 Jun 2027 04:34:07.047   12 Jun 2027 04:34:33.258            26.211         13105.500
       409   12 Jun 2027 04:35:08.589   12 Jun 2027 04:35:21.776            13.187          6593.500
       410   12 Jun 2027 06:04:36.861   12 Jun 2027 06:05:59.016            82.155         41077.500
       411   12 Jun 2027 06:06:03.134   12 Jun 2027 06:06:24.246            21.112         10556.000
       412   12 Jun 2027 06:06:54.599   12 Jun 2027 06:07:09.311            14.712          7356.000
       413   12 Jun 2027 06:07:18.332   12 Jun 2027 06:07:21.682             3.350          1657.126
       414   12 Jun 2027 06:09:09.189   12 Jun 2027 06:09:12.100             2.911          1455.500
       415   12 Jun 2027 06:10:21.122   12 Jun 2027 06:10:25.184             4.062          2031.000
       416   12 Jun 2027 06:10:49.366   12 Jun 2027 06:10:59.215             9.849          2785.719
       417   12 Jun 2027 06:11:23.619   12 Jun 2027 06:11:28.036             4.417           132.938
       418   12 Jun 2027 06:11:32.548   12 Jun 2027 06:11:34.673             2.125           141.000
       419   12 Jun 2027 07:41:23.783   12 Jun 2027 07:42:15.862            52.079         24644.625
       420   12 Jun 2027 07:42:18.934   12 Jun 2027 07:42:19.071             0.137            68.500
       421   12 Jun 2027 07:42:20.746   12 Jun 2027 07:42:21.732             0.986            65.687
       422   12 Jun 2027 07:43:34.116   12 Jun 2027 07:43:40.320             6.204          2262.000
       423   12 Jun 2027 07:44:16.790   12 Jun 2027 07:44:16.790             0.000             0.000
       424   12 Jun 2027 07:44:56.287   12 Jun 2027 07:45:01.115             4.828          1926.750
       425   12 Jun 2027 07:45:37.763   12 Jun 2027 07:45:38.439             0.676           338.000
       426   12 Jun 2027 07:45:44.690   12 Jun 2027 07:45:44.690             0.000             0.000
       427   12 Jun 2027 07:46:10.172   12 Jun 2027 07:46:16.122             5.950          1797.344
       428   12 Jun 2027 07:46:48.221   12 Jun 2027 07:46:48.638             0.417           208.500
       429   12 Jun 2027 07:46:51.602   12 Jun 2027 07:46:53.117             1.515           748.750
       430   12 Jun 2027 09:19:26.237   12 Jun 2027 09:19:46.732            20.495          9277.750
       431   12 Jun 2027 09:20:09.205   12 Jun 2027 09:20:13.894             4.689           362.531
       432   12 Jun 2027 09:20:24.057   12 Jun 2027 09:20:25.324             1.267           317.594
       433   12 Jun 2027 09:20:50.882   12 Jun 2027 09:20:55.670             4.788           362.563
       434   12 Jun 2027 09:21:09.578   12 Jun 2027 09:21:17.284             7.706           382.031
       435   12 Jun 2027 09:21:41.687   12 Jun 2027 09:21:46.078             4.391           252.844
       436   12 Jun 2027 09:22:16.172   12 Jun 2027 09:22:16.172             0.000             0.000
       437   12 Jun 2027 09:22:28.596   12 Jun 2027 09:22:31.718             3.122          1328.688
       438   12 Jun 2027 09:22:39.213   12 Jun 2027 09:22:41.359             2.146           215.344
       439   12 Jun 2027 09:22:58.324   12 Jun 2027 09:22:59.929             1.605           319.500
       440   12 Jun 2027 09:23:30.638   12 Jun 2027 09:23:31.302             0.664           332.000
       441   12 Jun 2027 10:53:17.132   12 Jun 2027 10:53:24.411             7.279          3525.907
       442   12 Jun 2027 10:54:08.954   12 Jun 2027 10:54:17.199             8.245           952.281
       443   12 Jun 2027 10:54:45.264   12 Jun 2027 10:54:46.625             1.361           522.344
       444   12 Jun 2027 10:55:59.199   12 Jun 2027 10:56:06.591             7.392          2267.937
       445   12 Jun 2027 10:56:21.829   12 Jun 2027 10:56:23.577             1.748           423.187
       446   12 Jun 2027 10:56:59.208   12 Jun 2027 10:57:01.931             2.723           972.844
       447   12 Jun 2027 10:58:07.572   12 Jun 2027 10:58:11.627             4.055          1823.187
       448   12 Jun 2027 10:58:56.957   12 Jun 2027 10:59:00.116             3.159          1276.656
       449   12 Jun 2027 10:59:40.861   12 Jun 2027 10:59:44.542             3.681           920.156
       450   13 Jun 2027 03:03:38.898   13 Jun 2027 03:03:51.973            13.075          6537.500
       451   13 Jun 2027 03:04:37.202   13 Jun 2027 03:04:39.330             2.128          1064.000
       452   13 Jun 2027 03:04:52.013   13 Jun 2027 03:04:52.624             0.611           305.500
       453   13 Jun 2027 03:06:32.492   13 Jun 2027 03:06:43.148            10.656          5328.000
       454   13 Jun 2027 03:08:23.246   13 Jun 2027 03:08:57.981            34.735         17367.500
       455   13 Jun 2027 03:09:05.767   13 Jun 2027 03:09:06.175             0.408           204.000
       456   13 Jun 2027 03:09:18.910   13 Jun 2027 03:09:40.363            21.453         10726.500
       457   13 Jun 2027 04:38:31.858   13 Jun 2027 04:41:22.024           170.166         85083.000
       458   13 Jun 2027 04:42:04.270   13 Jun 2027 04:42:04.270             0.000             0.000
       459   13 Jun 2027 04:45:22.672   13 Jun 2027 04:45:34.484            11.812          5906.000
       460   13 Jun 2027 04:47:22.763   13 Jun 2027 04:47:23.518             0.755           377.500
       461   13 Jun 2027 04:47:38.078   13 Jun 2027 04:47:41.169             3.091          1545.500
       462   13 Jun 2027 04:47:49.703   13 Jun 2027 04:48:06.987            17.284          8642.000
       463   13 Jun 2027 06:16:38.958   13 Jun 2027 06:18:12.060            93.102         46551.000
       464   13 Jun 2027 06:19:04.003   13 Jun 2027 06:19:07.570             3.567          1783.500
       465   13 Jun 2027 06:19:16.806   13 Jun 2027 06:19:18.182             1.376           360.969
       466   13 Jun 2027 06:19:49.018   13 Jun 2027 06:19:53.789             4.771           753.031
       467   13 Jun 2027 06:23:03.040   13 Jun 2027 06:23:14.246            11.206          5455.719
       468   13 Jun 2027 07:53:34.011   13 Jun 2027 07:53:58.673            24.662         12331.000
       469   13 Jun 2027 07:54:06.302   13 Jun 2027 07:54:20.356            14.054          6648.344
       470   13 Jun 2027 07:55:20.696   13 Jun 2027 07:55:22.398             1.702           765.250
       471   13 Jun 2027 07:55:25.659   13 Jun 2027 07:55:27.163             1.504            95.906
       472   13 Jun 2027 07:56:21.791   13 Jun 2027 07:56:22.449             0.658           329.000
       473   13 Jun 2027 07:56:35.698   13 Jun 2027 07:56:40.754             5.056          1783.062
       474   13 Jun 2027 07:57:15.994   13 Jun 2027 07:57:23.293             7.299           990.031
       475   13 Jun 2027 07:57:29.889   13 Jun 2027 07:57:34.564             4.675           156.813
       476   13 Jun 2027 07:58:14.851   13 Jun 2027 07:58:16.686             1.835           917.500
       477   13 Jun 2027 07:58:22.711   13 Jun 2027 07:58:25.008             2.297           529.750
       478   13 Jun 2027 07:59:36.987   13 Jun 2027 07:59:40.886             3.899          1938.094
       479   13 Jun 2027 09:30:41.162   13 Jun 2027 09:31:03.738            22.576          9726.469
       480   13 Jun 2027 09:31:16.974   13 Jun 2027 09:31:19.499             2.525           309.875
       481   13 Jun 2027 09:31:27.523   13 Jun 2027 09:31:32.519             4.996           250.750
       482   13 Jun 2027 09:32:09.383   13 Jun 2027 09:32:13.528             4.145           616.438
       483   13 Jun 2027 09:32:28.951   13 Jun 2027 09:32:30.177             1.226           456.875
       484   13 Jun 2027 09:33:07.700   13 Jun 2027 09:33:23.805            16.105           743.813
       485   13 Jun 2027 09:33:33.248   13 Jun 2027 09:33:33.985             0.737           295.094
       486   13 Jun 2027 09:34:28.844   13 Jun 2027 09:34:33.806             4.962          1714.344
       487   13 Jun 2027 09:35:32.206   13 Jun 2027 09:35:34.927             2.721          1360.500
       488   13 Jun 2027 11:06:32.612   13 Jun 2027 11:06:35.920             3.308          1654.000
       489   13 Jun 2027 11:07:23.629   13 Jun 2027 11:07:32.008             8.379          1667.062
       490   13 Jun 2027 11:07:46.972   13 Jun 2027 11:07:50.548             3.576           305.531
       491   13 Jun 2027 11:08:23.367   13 Jun 2027 11:08:25.634             2.267           826.406
       492   13 Jun 2027 11:09:45.626   13 Jun 2027 11:09:51.741             6.115          1970.594
       493   13 Jun 2027 11:10:00.066   13 Jun 2027 11:10:02.079             2.013           260.156
       494   13 Jun 2027 11:10:11.998   13 Jun 2027 11:10:11.998             0.000             0.000
       495   13 Jun 2027 11:10:25.875   13 Jun 2027 11:10:27.171             1.296           549.438
