uniorb/output/strategy_2/Camera/Camera_KinoSat_110407.txt

KinoSat_110407
-------------------------
    Access    *     Start Time (UTCG)     *     Stop Time (UTCG)  *   Duration (s) *   Data (Mbytes)
         1   01 Jun 2027 03:31:25.486   01 Jun 2027 03:31:37.272            11.786          5893.000
         2   01 Jun 2027 03:32:38.405   01 Jun 2027 03:32:44.437             6.032          3016.000
         3   01 Jun 2027 03:33:16.715   01 Jun 2027 03:33:18.789             2.074          1037.000
         4   01 Jun 2027 03:33:42.368   01 Jun 2027 03:33:43.057             0.689           344.500
         5   01 Jun 2027 03:34:23.562   01 Jun 2027 03:34:24.290             0.728           364.000
         6   01 Jun 2027 03:34:38.761   01 Jun 2027 03:34:41.142             2.381          1190.500
         7   01 Jun 2027 03:34:54.982   01 Jun 2027 03:35:00.141             5.159          2579.500
         8   01 Jun 2027 03:35:26.969   01 Jun 2027 03:35:27.290             0.321           160.500
         9   01 Jun 2027 03:36:14.764   01 Jun 2027 03:36:15.261             0.497           248.500
        10   01 Jun 2027 03:36:28.970   01 Jun 2027 03:36:31.282             2.312          1156.000
        11   01 Jun 2027 03:36:47.461   01 Jun 2027 03:36:54.470             7.009          3504.500
        12   01 Jun 2027 03:38:11.610   01 Jun 2027 03:38:22.946            11.336          5668.000
        13   01 Jun 2027 03:39:07.148   01 Jun 2027 03:39:17.279            10.131          5065.500
        14   01 Jun 2027 05:08:32.961   01 Jun 2027 05:08:37.321             4.360          2180.000
        15   01 Jun 2027 05:09:18.170   01 Jun 2027 05:09:19.599             1.429           714.500
        16   01 Jun 2027 05:09:21.239   01 Jun 2027 05:09:24.593             3.354          1677.000
        17   01 Jun 2027 05:09:45.104   01 Jun 2027 05:09:47.412             2.308          1154.000
        18   01 Jun 2027 05:10:00.899   01 Jun 2027 05:10:06.426             5.527          2763.500
        19   01 Jun 2027 05:10:11.540   01 Jun 2027 05:10:16.616             5.076          2538.000
        20   01 Jun 2027 05:11:05.331   01 Jun 2027 05:11:18.015            12.684          6342.000
        21   01 Jun 2027 05:12:20.329   01 Jun 2027 05:12:20.681             0.352           176.000
        22   01 Jun 2027 05:13:08.934   01 Jun 2027 05:13:16.677             7.743          3871.500
        23   01 Jun 2027 05:13:50.645   01 Jun 2027 05:14:04.509            13.864          6932.000
        24   01 Jun 2027 05:15:07.418   01 Jun 2027 05:15:11.946             4.528          2264.000
        25   01 Jun 2027 05:15:33.982   01 Jun 2027 05:15:35.585             1.603           801.500
        26   01 Jun 2027 06:45:36.008   01 Jun 2027 06:45:44.827             8.819          4409.500
        27   01 Jun 2027 06:46:51.019   01 Jun 2027 06:47:01.872            10.853          5426.500
        28   01 Jun 2027 06:47:46.887   01 Jun 2027 06:47:53.033             6.146          3073.000
        29   01 Jun 2027 06:48:20.128   01 Jun 2027 06:48:23.818             3.690          1845.000
        30   01 Jun 2027 06:48:51.539   01 Jun 2027 06:48:59.489             7.950          3975.000
        31   01 Jun 2027 06:49:56.683   01 Jun 2027 06:49:59.933             3.250          1625.000
        32   01 Jun 2027 06:50:51.180   01 Jun 2027 06:51:03.047            11.867          5933.500
        33   01 Jun 2027 08:22:33.539   01 Jun 2027 08:22:35.190             1.651           825.500
        34   01 Jun 2027 08:22:50.702   01 Jun 2027 08:23:05.457            14.755          7377.500
        35   01 Jun 2027 08:24:34.204   01 Jun 2027 08:24:39.200             4.996          2498.000
        36   01 Jun 2027 08:25:05.699   01 Jun 2027 08:25:06.438             0.739           369.500
        37   01 Jun 2027 08:25:26.834   01 Jun 2027 08:25:29.275             2.441          1220.500
        38   01 Jun 2027 08:25:58.841   01 Jun 2027 08:26:00.415             1.574           787.000
        39   01 Jun 2027 08:26:09.890   01 Jun 2027 08:26:14.291             4.401          2200.500
        40   01 Jun 2027 08:26:27.538   01 Jun 2027 08:26:28.139             0.601           300.500
        41   01 Jun 2027 09:57:36.867   01 Jun 2027 09:57:53.670            16.803          8401.500
        42   01 Jun 2027 09:59:16.744   01 Jun 2027 09:59:29.328            12.584          6292.000
        43   01 Jun 2027 10:00:51.908   01 Jun 2027 10:01:21.504            29.596         14798.000
        44   01 Jun 2027 10:02:01.743   01 Jun 2027 10:02:24.340            22.597         11298.500
        45   02 Jun 2027 03:43:39.256   02 Jun 2027 03:43:39.571             0.315           157.500
        46   02 Jun 2027 03:43:52.587   02 Jun 2027 03:43:53.834             1.247           623.500
        47   02 Jun 2027 03:44:20.247   02 Jun 2027 03:44:28.270             8.023          4011.500
        48   02 Jun 2027 03:45:43.138   02 Jun 2027 03:45:43.298             0.160            80.000
        49   02 Jun 2027 03:45:45.963   02 Jun 2027 03:45:57.759            11.796          5898.000
        50   02 Jun 2027 03:46:57.092   02 Jun 2027 03:47:01.448             4.356          2178.000
        51   02 Jun 2027 03:47:25.999   02 Jun 2027 03:47:30.021             4.022          2011.000
        52   02 Jun 2027 03:48:03.552   02 Jun 2027 03:48:15.893            12.341          6170.500
        53   02 Jun 2027 03:49:28.118   02 Jun 2027 03:49:31.362             3.244          1622.000
        54   02 Jun 2027 03:50:19.711   02 Jun 2027 03:50:21.382             1.671           835.500
        55   02 Jun 2027 03:50:33.699   02 Jun 2027 03:50:39.391             5.692          2846.000
        56   02 Jun 2027 03:51:06.601   02 Jun 2027 03:51:12.630             6.029          3014.500
        57   02 Jun 2027 03:51:29.085   02 Jun 2027 03:51:35.968             6.883          3441.500
        58   02 Jun 2027 03:51:52.441   02 Jun 2027 03:51:54.916             2.475          1237.500
        59   02 Jun 2027 05:20:59.231   02 Jun 2027 05:21:11.516            12.285          6142.500
        60   02 Jun 2027 05:21:30.804   02 Jun 2027 05:21:39.816             9.012          4506.000
        61   02 Jun 2027 05:22:59.314   02 Jun 2027 05:22:59.806             0.492           246.000
        62   02 Jun 2027 05:23:24.096   02 Jun 2027 05:23:48.397            24.301         12150.500
        63   02 Jun 2027 05:25:45.015   02 Jun 2027 05:25:53.077             8.062          4031.000
        64   02 Jun 2027 05:26:36.331   02 Jun 2027 05:26:39.195             2.864          1432.000
        65   02 Jun 2027 05:26:53.149   02 Jun 2027 05:26:57.560             4.411          2205.500
        66   02 Jun 2027 05:27:29.069   02 Jun 2027 05:27:39.736            10.667          5333.500
        67   02 Jun 2027 06:57:56.001   02 Jun 2027 06:57:57.709             1.708           854.000
        68   02 Jun 2027 06:58:23.776   02 Jun 2027 06:58:56.462            32.686         16343.000
        69   02 Jun 2027 07:01:12.840   02 Jun 2027 07:01:17.367             4.527          2263.500
        70   02 Jun 2027 07:02:21.075   02 Jun 2027 07:02:27.309             6.234          3117.000
        71   02 Jun 2027 07:03:11.073   02 Jun 2027 07:03:20.608             9.535          4767.500
        72   02 Jun 2027 08:34:46.432   02 Jun 2027 08:34:51.470             5.038          2519.000
        73   02 Jun 2027 08:35:11.497   02 Jun 2027 08:35:15.355             3.858          1929.000
        74   02 Jun 2027 08:35:23.696   02 Jun 2027 08:35:24.305             0.609           304.500
        75   02 Jun 2027 08:36:28.569   02 Jun 2027 08:36:35.229             6.660          3330.000
        76   02 Jun 2027 08:37:43.814   02 Jun 2027 08:37:45.287             1.473           736.500
        77   02 Jun 2027 08:38:58.522   02 Jun 2027 08:39:02.080             3.558          1779.000
        78   02 Jun 2027 10:12:27.507   02 Jun 2027 10:12:30.298             2.791          1395.500
        79   02 Jun 2027 10:13:03.274   02 Jun 2027 10:13:31.176            27.902         13951.000
        80   03 Jun 2027 03:56:58.854   03 Jun 2027 03:57:07.827             8.973          4486.500
        81   03 Jun 2027 03:57:44.397   03 Jun 2027 03:57:48.716             4.319          2159.500
        82   03 Jun 2027 03:58:20.902   03 Jun 2027 03:58:41.221            20.319         10159.500
        83   03 Jun 2027 04:00:18.290   03 Jun 2027 04:00:33.403            15.113          7556.500
        84   03 Jun 2027 04:02:00.468   03 Jun 2027 04:02:02.400             1.932           966.000
        85   03 Jun 2027 04:02:36.193   03 Jun 2027 04:02:42.989             6.796          3398.000
        86   03 Jun 2027 04:02:46.803   03 Jun 2027 04:02:48.974             2.171          1085.500
        87   03 Jun 2027 04:03:27.404   03 Jun 2027 04:03:35.751             8.347          4173.500
        88   03 Jun 2027 04:03:47.261   03 Jun 2027 04:03:49.343             2.082          1041.000
        89   03 Jun 2027 05:33:06.785   03 Jun 2027 05:33:08.974             2.189          1094.500
        90   03 Jun 2027 05:33:35.172   03 Jun 2027 05:33:43.702             8.530          4265.000
        91   03 Jun 2027 05:34:12.400   03 Jun 2027 05:34:42.581            30.181         15090.500
        92   03 Jun 2027 05:37:26.869   03 Jun 2027 05:37:33.412             6.543          3271.500
        93   03 Jun 2027 05:38:03.701   03 Jun 2027 05:38:09.421             5.720          2860.000
        94   03 Jun 2027 05:38:46.961   03 Jun 2027 05:38:48.073             1.112           556.000
        95   03 Jun 2027 05:39:17.798   03 Jun 2027 05:39:19.459             1.661           830.500
        96   03 Jun 2027 07:10:51.095   03 Jun 2027 07:10:56.259             5.164          2582.000
        97   03 Jun 2027 07:11:19.155   03 Jun 2027 07:11:23.815             4.660          2330.000
        98   03 Jun 2027 07:11:49.673   03 Jun 2027 07:11:55.771             6.098          3049.000
        99   03 Jun 2027 07:12:23.960   03 Jun 2027 07:12:25.548             1.588           794.000
       100   03 Jun 2027 07:12:56.010   03 Jun 2027 07:12:56.490             0.480           240.000
       101   03 Jun 2027 07:13:17.002   03 Jun 2027 07:13:22.170             5.168          2584.000
       102   03 Jun 2027 07:13:46.954   03 Jun 2027 07:13:47.949             0.995           497.500
       103   03 Jun 2027 07:13:53.087   03 Jun 2027 07:14:00.108             7.021          3510.500
       104   03 Jun 2027 07:14:40.530   03 Jun 2027 07:14:42.697             2.167          1083.500
       105   03 Jun 2027 07:15:01.058   03 Jun 2027 07:15:02.988             1.930           965.000
       106   03 Jun 2027 08:46:56.626   03 Jun 2027 08:47:04.715             8.089          4044.500
       107   03 Jun 2027 08:47:53.032   03 Jun 2027 08:47:55.492             2.460          1230.000
       108   03 Jun 2027 08:48:38.812   03 Jun 2027 08:48:43.232             4.420          2210.000
       109   03 Jun 2027 08:49:07.067   03 Jun 2027 08:49:09.265             2.198          1099.000
       110   03 Jun 2027 08:49:21.626   03 Jun 2027 08:49:27.859             6.233          3116.500
       111   03 Jun 2027 08:49:57.845   03 Jun 2027 08:49:59.386             1.541           770.500
       112   03 Jun 2027 08:50:55.395   03 Jun 2027 08:51:01.884             6.489          3244.500
       113   04 Jun 2027 04:09:16.248   04 Jun 2027 04:09:17.937             1.689           844.500
       114   04 Jun 2027 04:09:27.339   04 Jun 2027 04:09:33.235             5.896          2948.000
       115   04 Jun 2027 04:10:26.022   04 Jun 2027 04:10:32.379             6.357          3178.500
       116   04 Jun 2027 04:11:18.873   04 Jun 2027 04:11:20.688             1.815           907.500
       117   04 Jun 2027 04:11:32.929   04 Jun 2027 04:11:35.445             2.516          1258.000
       118   04 Jun 2027 04:11:50.409   04 Jun 2027 04:11:53.507             3.098          1549.000
       119   04 Jun 2027 04:12:35.004   04 Jun 2027 04:12:35.185             0.181            90.500
       120   04 Jun 2027 04:12:39.154   04 Jun 2027 04:12:39.410             0.256           128.000
       121   04 Jun 2027 04:13:33.809   04 Jun 2027 04:13:41.802             7.993          3996.500
       122   04 Jun 2027 04:14:12.216   04 Jun 2027 04:14:14.926             2.710          1355.000
       123   04 Jun 2027 04:14:35.086   04 Jun 2027 04:14:37.766             2.680          1340.000
       124   04 Jun 2027 04:15:06.452   04 Jun 2027 04:15:09.860             3.408          1704.000
       125   04 Jun 2027 04:15:34.675   04 Jun 2027 04:15:36.536             1.861           930.500
       126   04 Jun 2027 04:15:40.354   04 Jun 2027 04:15:43.890             3.536          1768.000
       127   04 Jun 2027 04:15:51.793   04 Jun 2027 04:15:52.151             0.358           179.000
       128   04 Jun 2027 05:45:39.504   04 Jun 2027 05:45:56.078            16.574          8287.000
       129   04 Jun 2027 05:47:12.542   04 Jun 2027 05:47:21.720             9.178          4589.000
       130   04 Jun 2027 05:48:04.572   04 Jun 2027 05:48:16.895            12.323          6161.500
       131   04 Jun 2027 05:49:09.062   04 Jun 2027 05:49:12.030             2.968          1484.000
       132   04 Jun 2027 05:49:28.865   04 Jun 2027 05:49:29.912             1.047           523.500
       133   04 Jun 2027 05:49:52.236   04 Jun 2027 05:50:02.260            10.024          5012.000
       134   04 Jun 2027 05:50:53.017   04 Jun 2027 05:51:00.470             7.453          3726.500
       135   04 Jun 2027 07:22:56.545   04 Jun 2027 07:22:56.954             0.409           204.500
       136   04 Jun 2027 07:23:29.319   04 Jun 2027 07:23:38.478             9.159          4579.500
       137   04 Jun 2027 07:24:15.720   04 Jun 2027 07:24:17.413             1.693           846.500
       138   04 Jun 2027 07:25:31.933   04 Jun 2027 07:25:33.005             1.072           536.000
       139   04 Jun 2027 07:25:52.999   04 Jun 2027 07:25:53.227             0.228           114.000
       140   04 Jun 2027 07:26:08.721   04 Jun 2027 07:26:21.738            13.017          6508.500
       141   04 Jun 2027 08:59:09.601   04 Jun 2027 08:59:20.743            11.142          5571.000
       142   04 Jun 2027 09:00:16.162   04 Jun 2027 09:00:23.621             7.459          3729.500
       143   04 Jun 2027 09:01:44.262   04 Jun 2027 09:01:44.903             0.641           320.500
       144   04 Jun 2027 09:03:00.191   04 Jun 2027 09:03:04.759             4.568          2284.000
       145   04 Jun 2027 09:03:34.069   04 Jun 2027 09:03:44.769            10.700          5350.000
       146   05 Jun 2027 04:20:54.288   05 Jun 2027 04:21:16.527            22.239         11119.500
       147   05 Jun 2027 04:22:27.707   05 Jun 2027 04:22:28.504             0.797           398.500
       148   05 Jun 2027 04:22:55.532   05 Jun 2027 04:22:58.148             2.616          1308.000
       149   05 Jun 2027 04:23:07.378   05 Jun 2027 04:23:15.306             7.928          3964.000
       150   05 Jun 2027 04:23:32.316   05 Jun 2027 04:23:38.827             6.511          3255.500
       151   05 Jun 2027 04:24:35.774   05 Jun 2027 04:24:39.876             4.102          2051.000
       152   05 Jun 2027 04:25:26.232   05 Jun 2027 04:25:35.552             9.320          4660.000
       153   05 Jun 2027 04:25:51.496   05 Jun 2027 04:25:51.496             0.000             0.000
       154   05 Jun 2027 04:26:13.844   05 Jun 2027 04:26:19.067             5.223          2611.500
       155   05 Jun 2027 04:27:07.478   05 Jun 2027 04:27:21.991            14.513          7256.500
       156   05 Jun 2027 05:57:13.650   05 Jun 2027 05:57:19.146             5.496          2748.000
       157   05 Jun 2027 05:58:20.446   05 Jun 2027 05:58:25.484             5.038          2519.000
       158   05 Jun 2027 05:58:47.723   05 Jun 2027 05:59:00.080            12.357          6178.500
       159   05 Jun 2027 06:00:04.663   05 Jun 2027 06:00:10.366             5.703          2851.500
       160   05 Jun 2027 06:00:44.367   05 Jun 2027 06:00:46.522             2.155          1077.500
       161   05 Jun 2027 06:01:07.391   05 Jun 2027 06:01:09.854             2.463          1231.500
       162   05 Jun 2027 06:01:31.080   05 Jun 2027 06:01:34.997             3.917          1958.500
       163   05 Jun 2027 06:02:46.072   05 Jun 2027 06:02:49.378             3.306          1653.000
       164   05 Jun 2027 06:03:22.971   05 Jun 2027 06:03:31.844             8.873          4436.500
       165   05 Jun 2027 07:35:29.401   05 Jun 2027 07:35:29.773             0.372           186.000
       166   05 Jun 2027 07:35:38.098   05 Jun 2027 07:35:45.979             7.881          3940.500
       167   05 Jun 2027 07:36:08.134   05 Jun 2027 07:36:09.905             1.771           885.500
       168   05 Jun 2027 07:36:58.245   05 Jun 2027 07:37:05.449             7.204          3602.000
       169   05 Jun 2027 07:37:54.737   05 Jun 2027 07:37:56.094             1.357           678.500
       170   05 Jun 2027 07:38:42.745   05 Jun 2027 07:38:45.739             2.994          1497.000
       171   05 Jun 2027 07:38:59.722   05 Jun 2027 07:39:10.405            10.683          5341.500
       172   05 Jun 2027 09:10:49.998   05 Jun 2027 09:10:55.834             5.836          2918.000
       173   05 Jun 2027 09:12:08.350   05 Jun 2027 09:12:10.261             1.911           955.500
       174   05 Jun 2027 09:12:28.311   05 Jun 2027 09:12:29.724             1.413           706.500
       175   05 Jun 2027 09:12:51.750   05 Jun 2027 09:12:57.050             5.300          2650.000
       176   05 Jun 2027 09:13:31.268   05 Jun 2027 09:13:35.504             4.236          2118.000
       177   05 Jun 2027 09:14:32.638   05 Jun 2027 09:14:44.564            11.926          5963.000
       178   05 Jun 2027 09:15:37.633   05 Jun 2027 09:15:40.361             2.728          1364.000
       179   05 Jun 2027 09:15:56.384   05 Jun 2027 09:15:57.294             0.910           455.000
       180   05 Jun 2027 09:16:12.497   05 Jun 2027 09:16:20.339             7.842          3921.000
       181   06 Jun 2027 03:00:00.000   06 Jun 2027 03:00:01.295             1.295           647.500
       182   06 Jun 2027 03:00:12.515   06 Jun 2027 03:00:26.549            14.034          7017.000
       183   06 Jun 2027 04:32:27.690   06 Jun 2027 04:32:30.383             2.693          1346.500
       184   06 Jun 2027 04:33:05.786   06 Jun 2027 04:33:06.850             1.064           532.000
       185   06 Jun 2027 04:33:32.530   06 Jun 2027 04:33:47.352            14.822          7411.000
       186   06 Jun 2027 04:34:55.389   06 Jun 2027 04:35:09.845            14.456          7228.000
       187   06 Jun 2027 04:36:22.658   06 Jun 2027 04:36:25.103             2.445          1222.500
       188   06 Jun 2027 04:36:48.173   06 Jun 2027 04:37:13.717            25.544         12772.000
       189   06 Jun 2027 04:39:33.853   06 Jun 2027 04:39:51.862            18.009          9004.500
       190   06 Jun 2027 04:40:01.763   06 Jun 2027 04:40:01.868             0.105            52.500
       191   06 Jun 2027 06:09:33.511   06 Jun 2027 06:09:38.228             4.717          2358.500
       192   06 Jun 2027 06:10:14.014   06 Jun 2027 06:10:33.480            19.466          9733.000
       193   06 Jun 2027 06:11:55.800   06 Jun 2027 06:12:03.893             8.093          4046.500
       194   06 Jun 2027 06:13:02.881   06 Jun 2027 06:13:03.707             0.826           413.000
       195   06 Jun 2027 06:13:07.025   06 Jun 2027 06:13:08.176             1.151           575.500
       196   06 Jun 2027 06:13:33.307   06 Jun 2027 06:13:33.686             0.379           189.500
       197   06 Jun 2027 06:13:50.152   06 Jun 2027 06:13:50.781             0.629           314.500
       198   06 Jun 2027 06:14:25.476   06 Jun 2027 06:14:25.489             0.013             6.500
       199   06 Jun 2027 06:15:51.435   06 Jun 2027 06:15:55.882             4.447          2223.500
       200   06 Jun 2027 07:47:31.760   06 Jun 2027 07:47:35.231             3.471          1735.500
       201   06 Jun 2027 07:48:00.399   06 Jun 2027 07:48:00.829             0.430           215.000
       202   06 Jun 2027 07:49:02.405   06 Jun 2027 07:49:06.523             4.118          2059.000
       203   06 Jun 2027 07:49:42.339   06 Jun 2027 07:49:50.437             8.098          4049.000
       204   06 Jun 2027 07:50:55.347   06 Jun 2027 07:50:58.038             2.691          1345.500
       205   06 Jun 2027 07:51:10.424   06 Jun 2027 07:51:14.226             3.802          1901.000
       206   06 Jun 2027 07:51:24.297   06 Jun 2027 07:51:27.260             2.963          1481.500
       207   06 Jun 2027 09:20:40.610   06 Jun 2027 09:21:30.685            50.075         25037.500
       208   06 Jun 2027 09:25:05.229   06 Jun 2027 09:25:06.648             1.419           709.500
       209   06 Jun 2027 09:25:31.338   06 Jun 2027 09:25:34.620             3.282          1641.000
       210   06 Jun 2027 09:26:00.361   06 Jun 2027 09:26:06.623             6.262          3131.000
       211   06 Jun 2027 09:26:42.791   06 Jun 2027 09:26:46.455             3.664          1832.000
       212   06 Jun 2027 09:27:21.742   06 Jun 2027 09:27:24.364             2.622          1311.000
       213   06 Jun 2027 09:27:39.854   06 Jun 2027 09:27:44.528             4.674          2337.000
       214   06 Jun 2027 09:28:28.403   06 Jun 2027 09:28:36.827             8.424          4212.000
       215   07 Jun 2027 03:07:22.783   07 Jun 2027 03:07:25.581             2.798          1399.000
       216   07 Jun 2027 03:07:49.963   07 Jun 2027 03:07:56.580             6.617          3308.500
       217   07 Jun 2027 03:08:13.710   07 Jun 2027 03:08:27.419            13.709          6854.500
       218   07 Jun 2027 03:10:00.405   07 Jun 2027 03:10:08.846             8.441          4220.500
       219   07 Jun 2027 03:10:35.199   07 Jun 2027 03:10:38.547             3.348          1674.000
       220   07 Jun 2027 03:11:02.911   07 Jun 2027 03:11:07.192             4.281          2140.500
       221   07 Jun 2027 03:11:38.370   07 Jun 2027 03:11:41.894             3.524          1762.000
       222   07 Jun 2027 03:11:57.147   07 Jun 2027 03:12:02.888             5.741          2870.500
       223   07 Jun 2027 03:12:42.113   07 Jun 2027 03:12:45.559             3.446          1723.000
       224   07 Jun 2027 03:12:59.932   07 Jun 2027 03:13:12.828            12.896          6448.000
       225   07 Jun 2027 03:14:00.211   07 Jun 2027 03:14:07.551             7.340          3670.000
       226   07 Jun 2027 03:15:18.915   07 Jun 2027 03:15:19.183             0.268           134.000
       227   07 Jun 2027 03:15:23.839   07 Jun 2027 03:15:25.422             1.583           791.500
       228   07 Jun 2027 03:15:37.356   07 Jun 2027 03:15:40.485             3.129          1564.500
       229   07 Jun 2027 04:44:47.104   07 Jun 2027 04:44:54.694             7.590          3795.000
       230   07 Jun 2027 04:45:17.572   07 Jun 2027 04:45:26.448             8.876          4438.000
       231   07 Jun 2027 04:46:26.122   07 Jun 2027 04:46:31.261             5.139          2569.500
       232   07 Jun 2027 04:47:25.851   07 Jun 2027 04:47:27.460             1.609           804.500
       233   07 Jun 2027 04:48:41.351   07 Jun 2027 04:48:45.294             3.943          1971.500
       234   07 Jun 2027 04:49:06.268   07 Jun 2027 04:49:09.215             2.947          1473.500
       235   07 Jun 2027 04:49:49.028   07 Jun 2027 04:49:50.869             1.841           920.500
       236   07 Jun 2027 04:49:57.334   07 Jun 2027 04:49:57.587             0.253           126.500
       237   07 Jun 2027 04:50:24.795   07 Jun 2027 04:50:36.013            11.218          5609.000
       238   07 Jun 2027 04:50:59.969   07 Jun 2027 04:50:59.969             0.000             0.000
       239   07 Jun 2027 04:51:28.420   07 Jun 2027 04:51:32.554             4.134          2067.000
       240   07 Jun 2027 04:51:49.985   07 Jun 2027 04:52:05.612            15.627          7813.500
       241   07 Jun 2027 06:21:34.937   07 Jun 2027 06:21:42.692             7.755          3877.500
       242   07 Jun 2027 06:22:29.853   07 Jun 2027 06:22:32.506             2.653          1326.500
       243   07 Jun 2027 06:22:54.300   07 Jun 2027 06:23:14.251            19.951          9975.500
       244   07 Jun 2027 06:24:39.367   07 Jun 2027 06:24:41.562             2.195          1097.500
       245   07 Jun 2027 06:25:06.958   07 Jun 2027 06:25:07.964             1.006           503.000
       246   07 Jun 2027 06:25:14.355   07 Jun 2027 06:25:14.723             0.368           184.000
       247   07 Jun 2027 06:25:26.870   07 Jun 2027 06:25:27.970             1.100           550.000
       248   07 Jun 2027 06:26:08.541   07 Jun 2027 06:26:09.375             0.834           417.000
       249   07 Jun 2027 06:26:13.196   07 Jun 2027 06:26:19.677             6.481          3240.500
       250   07 Jun 2027 06:27:06.219   07 Jun 2027 06:27:10.051             3.832          1916.000
       251   07 Jun 2027 07:59:32.001   07 Jun 2027 07:59:34.152             2.151          1075.500
       252   07 Jun 2027 07:59:54.995   07 Jun 2027 08:00:02.674             7.679          3839.500
       253   07 Jun 2027 08:00:59.914   07 Jun 2027 08:01:00.277             0.363           181.500
       254   07 Jun 2027 08:01:36.786   07 Jun 2027 08:01:53.253            16.467          8233.500
       255   07 Jun 2027 08:03:00.674   07 Jun 2027 08:03:09.091             8.417          4208.500
       256   07 Jun 2027 09:33:07.705   07 Jun 2027 09:33:11.360             3.655          1827.500
       257   07 Jun 2027 09:33:32.953   07 Jun 2027 09:33:40.683             7.730          3865.000
       258   07 Jun 2027 09:33:48.041   07 Jun 2027 09:33:59.527            11.486          5743.000
       259   07 Jun 2027 09:35:16.156   07 Jun 2027 09:35:35.293            19.137          9568.500
       260   07 Jun 2027 09:36:52.337   07 Jun 2027 09:37:02.176             9.839          4919.500
       261   07 Jun 2027 09:37:44.042   07 Jun 2027 09:37:46.853             2.811          1405.500
       262   07 Jun 2027 09:38:10.172   07 Jun 2027 09:38:10.981             0.809           404.500
       263   07 Jun 2027 09:38:36.105   07 Jun 2027 09:38:48.443            12.338          6169.000
       264   07 Jun 2027 09:39:52.474   07 Jun 2027 09:39:59.870             7.396          3698.000
       265   07 Jun 2027 09:40:19.482   07 Jun 2027 09:40:19.482             0.000             0.000
       266   08 Jun 2027 03:18:51.304   08 Jun 2027 03:18:55.435             4.131          2065.500
       267   08 Jun 2027 03:19:24.269   08 Jun 2027 03:19:25.534             1.265           632.500
       268   08 Jun 2027 03:19:59.971   08 Jun 2027 03:20:04.983             5.012          2506.000
       269   08 Jun 2027 03:20:14.287   08 Jun 2027 03:20:30.455            16.168          8084.000
       270   08 Jun 2027 03:21:33.600   08 Jun 2027 03:21:36.147             2.547          1273.500
       271   08 Jun 2027 03:22:17.632   08 Jun 2027 03:22:17.737             0.105            52.500
       272   08 Jun 2027 03:22:19.874   08 Jun 2027 03:22:23.976             4.102          2051.000
       273   08 Jun 2027 03:23:08.068   08 Jun 2027 03:23:18.100            10.032          5016.000
       274   08 Jun 2027 03:24:20.835   08 Jun 2027 03:24:22.507             1.672           836.000
       275   08 Jun 2027 03:24:48.996   08 Jun 2027 03:24:53.750             4.754          2377.000
       276   08 Jun 2027 03:26:19.570   08 Jun 2027 03:26:23.035             3.465          1732.500
       277   08 Jun 2027 03:27:11.116   08 Jun 2027 03:27:12.685             1.569           784.500
       278   08 Jun 2027 03:27:27.580   08 Jun 2027 03:27:30.202             2.622          1311.000
       279   08 Jun 2027 03:27:35.205   08 Jun 2027 03:27:35.635             0.430           215.000
       280   08 Jun 2027 04:56:41.016   08 Jun 2027 04:56:43.358             2.342          1171.000
       281   08 Jun 2027 04:57:05.471   08 Jun 2027 04:57:05.657             0.186            93.000
       282   08 Jun 2027 04:57:13.580   08 Jun 2027 04:57:22.873             9.293          4646.500
       283   08 Jun 2027 04:58:00.799   08 Jun 2027 04:58:01.671             0.872           436.000
       284   08 Jun 2027 04:58:04.334   08 Jun 2027 04:58:13.844             9.510          4755.000
       285   08 Jun 2027 04:59:08.447   08 Jun 2027 04:59:12.379             3.932          1966.000
       286   08 Jun 2027 04:59:27.806   08 Jun 2027 04:59:30.888             3.082          1541.000
       287   08 Jun 2027 05:00:13.738   08 Jun 2027 05:00:22.405             8.667          4333.500
       288   08 Jun 2027 05:01:19.694   08 Jun 2027 05:01:35.539            15.845          7922.500
       289   08 Jun 2027 05:02:41.129   08 Jun 2027 05:02:49.898             8.769          4384.500
       290   08 Jun 2027 05:03:29.919   08 Jun 2027 05:03:30.493             0.574           287.000
       291   08 Jun 2027 05:03:33.836   08 Jun 2027 05:03:37.857             4.021          2010.500
       292   08 Jun 2027 06:33:25.450   08 Jun 2027 06:33:30.594             5.144          2572.000
       293   08 Jun 2027 06:34:01.424   08 Jun 2027 06:34:09.242             7.818          3909.000
       294   08 Jun 2027 06:35:27.962   08 Jun 2027 06:35:30.578             2.616          1308.000
       295   08 Jun 2027 06:36:08.653   08 Jun 2027 06:36:19.264            10.611          5305.500
       296   08 Jun 2027 06:37:03.205   08 Jun 2027 06:37:06.160             2.955          1477.500
       297   08 Jun 2027 06:37:37.708   08 Jun 2027 06:37:38.061             0.353           176.500
       298   08 Jun 2027 06:38:19.824   08 Jun 2027 06:38:19.930             0.106            53.000
       299   08 Jun 2027 06:38:33.536   08 Jun 2027 06:38:42.171             8.635          4317.500
       300   08 Jun 2027 06:39:45.099   08 Jun 2027 06:39:54.368             9.269          4634.500
       301   08 Jun 2027 08:11:34.058   08 Jun 2027 08:11:39.883             5.825          2912.500
       302   08 Jun 2027 08:12:18.877   08 Jun 2027 08:12:29.463            10.586          5293.000
       303   08 Jun 2027 08:13:17.171   08 Jun 2027 08:13:22.936             5.765          2882.500
       304   08 Jun 2027 08:13:52.221   08 Jun 2027 08:13:54.963             2.742          1371.000
       305   08 Jun 2027 08:14:07.745   08 Jun 2027 08:14:08.045             0.300           150.000
       306   08 Jun 2027 08:14:11.634   08 Jun 2027 08:14:11.710             0.076            38.000
       307   08 Jun 2027 08:14:12.199   08 Jun 2027 08:14:15.568             3.369          1684.500
       308   08 Jun 2027 08:14:31.298   08 Jun 2027 08:14:34.536             3.238          1619.000
       309   08 Jun 2027 09:45:24.730   08 Jun 2027 09:45:34.693             9.963          4981.500
       310   08 Jun 2027 09:46:34.444   08 Jun 2027 09:46:36.069             1.625           812.500
       311   08 Jun 2027 09:47:04.787   08 Jun 2027 09:47:07.278             2.491          1245.500
       312   08 Jun 2027 09:47:27.754   08 Jun 2027 09:47:33.354             5.600          2800.000
       313   08 Jun 2027 09:48:09.662   08 Jun 2027 09:48:23.673            14.011          7005.500
       314   08 Jun 2027 09:49:44.385   08 Jun 2027 09:49:52.175             7.790          3895.000
       315   08 Jun 2027 09:50:09.525   08 Jun 2027 09:50:36.396            26.871         13435.500
       316   09 Jun 2027 03:31:39.614   09 Jun 2027 03:31:53.402            13.788          6894.000
       317   09 Jun 2027 03:32:13.659   09 Jun 2027 03:32:25.194            11.535          5767.500
       318   09 Jun 2027 03:33:58.457   09 Jun 2027 03:33:59.701             1.244           622.000
       319   09 Jun 2027 03:34:38.768   09 Jun 2027 03:34:55.753            16.985          8492.500
       320   09 Jun 2027 03:36:23.808   09 Jun 2027 03:36:28.892             5.084          2542.000
       321   09 Jun 2027 03:36:54.391   09 Jun 2027 03:36:54.848             0.457           228.500
       322   09 Jun 2027 03:37:01.350   09 Jun 2027 03:37:02.467             1.117           558.500
       323   09 Jun 2027 03:37:35.316   09 Jun 2027 03:37:42.758             7.442          3721.000
       324   09 Jun 2027 03:38:19.111   09 Jun 2027 03:38:20.310             1.199           599.500
       325   09 Jun 2027 03:38:52.346   09 Jun 2027 03:38:53.768             1.422           711.000
       326   09 Jun 2027 03:39:24.689   09 Jun 2027 03:39:34.272             9.583          4791.500
       327   09 Jun 2027 05:08:47.756   09 Jun 2027 05:08:51.789             4.033          2016.500
       328   09 Jun 2027 05:09:32.225   09 Jun 2027 05:09:34.528             2.303          1151.500
       329   09 Jun 2027 05:09:36.386   09 Jun 2027 05:09:39.125             2.739          1369.500
       330   09 Jun 2027 05:10:00.000   09 Jun 2027 05:10:01.998             1.997           998.500
       331   09 Jun 2027 05:10:10.101   09 Jun 2027 05:10:15.898             5.797          2898.500
       332   09 Jun 2027 05:10:44.453   09 Jun 2027 05:10:53.561             9.108          4554.000
       333   09 Jun 2027 05:11:50.112   09 Jun 2027 05:11:50.893             0.781           390.500
       334   09 Jun 2027 05:12:54.459   09 Jun 2027 05:13:17.498            23.039         11519.500
       335   09 Jun 2027 05:15:41.139   09 Jun 2027 05:15:42.226             1.087           543.500
       336   09 Jun 2027 06:45:50.734   09 Jun 2027 06:46:01.061            10.327          5163.500
       337   09 Jun 2027 06:47:48.633   09 Jun 2027 06:47:51.414             2.781          1390.500
       338   09 Jun 2027 06:48:31.467   09 Jun 2027 06:48:35.060             3.593          1796.500
       339   09 Jun 2027 06:48:58.540   09 Jun 2027 06:49:00.394             1.854           927.000
       340   09 Jun 2027 06:49:14.976   09 Jun 2027 06:49:18.467             3.491          1745.500
       341   09 Jun 2027 06:49:39.465   09 Jun 2027 06:49:39.816             0.351           175.500
       342   09 Jun 2027 06:50:45.917   09 Jun 2027 06:50:56.025            10.108          5054.000
       343   09 Jun 2027 06:51:51.552   09 Jun 2027 06:51:56.921             5.369          2684.500
       344   09 Jun 2027 08:22:47.701   09 Jun 2027 08:22:51.379             3.678          1839.000
       345   09 Jun 2027 08:23:27.830   09 Jun 2027 08:23:29.012             1.182           591.000
       346   09 Jun 2027 08:23:44.563   09 Jun 2027 08:23:49.820             5.257          2628.500
       347   09 Jun 2027 08:24:50.559   09 Jun 2027 08:24:53.785             3.226          1613.000
       348   09 Jun 2027 08:25:20.854   09 Jun 2027 08:25:21.217             0.363           181.500
       349   09 Jun 2027 08:25:44.350   09 Jun 2027 08:25:48.030             3.680          1840.000
       350   09 Jun 2027 08:26:04.000   09 Jun 2027 08:26:15.172            11.172          5586.000
       351   09 Jun 2027 09:57:51.756   09 Jun 2027 09:58:08.368            16.612          8306.000
       352   09 Jun 2027 09:59:31.457   09 Jun 2027 09:59:32.698             1.241           620.500
       353   09 Jun 2027 09:59:54.123   09 Jun 2027 10:00:13.786            19.663          9831.500
       354   09 Jun 2027 10:01:44.998   09 Jun 2027 10:02:08.007            23.009         11504.500
       355   09 Jun 2027 10:02:21.716   09 Jun 2027 10:02:28.601             6.885          3442.500
       356   10 Jun 2027 03:43:59.509   10 Jun 2027 03:44:07.333             7.824          3912.000
       357   10 Jun 2027 03:44:52.863   10 Jun 2027 03:44:55.060             2.197          1098.500
       358   10 Jun 2027 03:45:06.378   10 Jun 2027 03:45:16.177             9.799          4899.500
       359   10 Jun 2027 03:46:01.691   10 Jun 2027 03:46:11.880            10.189          5094.500
       360   10 Jun 2027 03:46:20.453   10 Jun 2027 03:46:28.124             7.671          3835.500
       361   10 Jun 2027 03:47:35.619   10 Jun 2027 03:47:37.481             1.862           931.000
       362   10 Jun 2027 03:47:47.393   10 Jun 2027 03:47:48.874             1.481           740.500
       363   10 Jun 2027 03:48:16.821   10 Jun 2027 03:48:17.677             0.856           428.000
       364   10 Jun 2027 03:48:47.259   10 Jun 2027 03:48:47.628             0.369           184.500
       365   10 Jun 2027 03:49:03.052   10 Jun 2027 03:49:03.351             0.299           149.500
       366   10 Jun 2027 03:50:36.646   10 Jun 2027 03:50:37.253             0.607           303.500
       367   10 Jun 2027 03:50:49.698   10 Jun 2027 03:50:57.848             8.150          4075.000
       368   10 Jun 2027 03:51:35.791   10 Jun 2027 03:51:39.934             4.143          2071.500
       369   10 Jun 2027 03:52:07.026   10 Jun 2027 03:52:09.484             2.458          1229.000
       370   10 Jun 2027 05:21:14.041   10 Jun 2027 05:21:25.711            11.670          5835.000
       371   10 Jun 2027 05:21:46.019   10 Jun 2027 05:21:54.725             8.706          4353.000
       372   10 Jun 2027 05:23:15.680   10 Jun 2027 05:23:22.198             6.518          3259.000
       373   10 Jun 2027 05:24:03.258   10 Jun 2027 05:24:07.926             4.668          2334.000
       374   10 Jun 2027 05:24:45.053   10 Jun 2027 05:24:45.520             0.467           233.500
       375   10 Jun 2027 05:24:49.636   10 Jun 2027 05:24:52.232             2.596          1298.000
       376   10 Jun 2027 05:25:30.586   10 Jun 2027 05:25:32.803             2.217          1108.500
       377   10 Jun 2027 05:25:42.511   10 Jun 2027 05:25:44.225             1.714           857.000
       378   10 Jun 2027 05:25:59.345   10 Jun 2027 05:26:00.296             0.951           475.500
       379   10 Jun 2027 05:26:27.679   10 Jun 2027 05:26:31.308             3.629          1814.500
       380   10 Jun 2027 05:26:51.869   10 Jun 2027 05:26:56.998             5.129          2564.500
       381   10 Jun 2027 05:27:34.548   10 Jun 2027 05:27:42.548             8.000          4000.000
       382   10 Jun 2027 06:58:10.770   10 Jun 2027 06:58:15.069             4.299          2149.500
       383   10 Jun 2027 06:58:30.377   10 Jun 2027 06:59:10.620            40.243         20121.500
       384   10 Jun 2027 07:01:41.302   10 Jun 2027 07:01:41.828             0.526           263.000
       385   10 Jun 2027 07:02:36.023   10 Jun 2027 07:02:42.529             6.506          3253.000
       386   10 Jun 2027 07:03:27.449   10 Jun 2027 07:03:28.400             0.951           475.500
       387   10 Jun 2027 08:35:01.125   10 Jun 2027 08:35:06.690             5.565          2782.500
       388   10 Jun 2027 08:36:36.898   10 Jun 2027 08:36:42.605             5.707          2853.500
       389   10 Jun 2027 08:37:12.506   10 Jun 2027 08:37:18.345             5.839          2919.500
       390   10 Jun 2027 08:37:32.387   10 Jun 2027 08:37:33.355             0.968           484.000
       391   10 Jun 2027 08:37:49.939   10 Jun 2027 08:37:58.544             8.605          4302.500
       392   10 Jun 2027 08:39:13.609   10 Jun 2027 08:39:13.683             0.074            37.000
       393   10 Jun 2027 08:39:21.255   10 Jun 2027 08:39:28.400             7.145          3572.500
       394   10 Jun 2027 10:12:59.501   10 Jun 2027 10:13:01.387             1.886           943.000
       395   10 Jun 2027 10:13:45.833   10 Jun 2027 10:14:05.480            19.647          9823.500
       396   11 Jun 2027 03:57:13.528   11 Jun 2027 03:57:22.655             9.127          4563.500
       397   11 Jun 2027 03:58:01.127   11 Jun 2027 03:58:04.004             2.877          1438.500
       398   11 Jun 2027 03:58:35.430   11 Jun 2027 03:58:55.713            20.283         10141.500
       399   11 Jun 2027 04:00:34.999   11 Jun 2027 04:00:37.750             2.751          1375.500
       400   11 Jun 2027 04:02:14.854   11 Jun 2027 04:02:17.476             2.622          1311.000
       401   11 Jun 2027 04:02:52.426   11 Jun 2027 04:02:57.776             5.350          2675.000
       402   11 Jun 2027 04:03:42.792   11 Jun 2027 04:03:52.732             9.940          4970.000
       403   11 Jun 2027 04:04:01.827   11 Jun 2027 04:04:06.233             4.406          2203.000
       404   11 Jun 2027 05:33:22.124   11 Jun 2027 05:33:23.527             1.403           701.500
       405   11 Jun 2027 05:33:50.094   11 Jun 2027 05:33:53.266             3.172          1586.000
       406   11 Jun 2027 05:33:58.988   11 Jun 2027 05:34:28.003            29.015         14507.500
       407   11 Jun 2027 05:34:30.758   11 Jun 2027 05:34:56.950            26.192         13096.000
       408   11 Jun 2027 05:38:12.340   11 Jun 2027 05:38:15.493             3.153          1576.500
       409   11 Jun 2027 05:39:02.820   11 Jun 2027 05:39:04.634             1.814           907.000
       410   11 Jun 2027 05:39:32.587   11 Jun 2027 05:39:35.360             2.773          1386.500
       411   11 Jun 2027 05:40:00.730   11 Jun 2027 05:40:01.401             0.671           335.500
       412   11 Jun 2027 07:11:06.165   11 Jun 2027 07:11:11.637             5.472          2736.000
       413   11 Jun 2027 07:11:24.069   11 Jun 2027 07:11:33.819             9.750          4875.000
       414   11 Jun 2027 07:12:40.287   11 Jun 2027 07:13:01.765            21.478         10739.000
       415   11 Jun 2027 07:14:01.747   11 Jun 2027 07:14:04.727             2.980          1490.000
       416   11 Jun 2027 07:14:15.085   11 Jun 2027 07:14:24.619             9.534          4767.000
       417   11 Jun 2027 08:47:11.476   11 Jun 2027 08:47:17.891             6.415          3207.500
       418   11 Jun 2027 08:47:42.538   11 Jun 2027 08:48:10.153            27.615         13807.500
       419   11 Jun 2027 08:50:02.797   11 Jun 2027 08:50:03.599             0.802           401.000
       420   11 Jun 2027 08:51:07.565   11 Jun 2027 08:51:10.172             2.607          1303.500
       421   12 Jun 2027 04:09:31.009   12 Jun 2027 04:09:32.723             1.714           857.000
       422   12 Jun 2027 04:09:42.212   12 Jun 2027 04:09:53.473            11.261          5630.500
       423   12 Jun 2027 04:10:40.521   12 Jun 2027 04:10:47.244             6.723          3361.500
       424   12 Jun 2027 04:11:34.544   12 Jun 2027 04:11:36.420             1.876           938.000
       425   12 Jun 2027 04:12:08.553   12 Jun 2027 04:12:10.756             2.203          1101.500
       426   12 Jun 2027 04:12:49.911   12 Jun 2027 04:12:50.355             0.444           222.000
       427   12 Jun 2027 04:12:54.448   12 Jun 2027 04:12:54.698             0.250           125.000
       428   12 Jun 2027 04:13:47.381   12 Jun 2027 04:13:48.529             1.148           574.000
       429   12 Jun 2027 04:14:08.649   12 Jun 2027 04:14:26.217            17.568          8784.000
       430   12 Jun 2027 04:15:36.935   12 Jun 2027 04:15:39.368             2.433          1216.500
       431   12 Jun 2027 04:16:06.734   12 Jun 2027 04:16:07.017             0.283           141.500
       432   12 Jun 2027 05:45:53.788   12 Jun 2027 05:46:15.517            21.729         10864.500
       433   12 Jun 2027 05:47:22.633   12 Jun 2027 05:47:27.405             4.772          2386.000
       434   12 Jun 2027 05:48:19.217   12 Jun 2027 05:48:35.018            15.801          7900.500
       435   12 Jun 2027 05:50:00.054   12 Jun 2027 05:50:07.584             7.530          3765.000
       436   12 Jun 2027 05:50:50.292   12 Jun 2027 05:50:54.462             4.170          2085.000
       437   12 Jun 2027 05:51:00.184   12 Jun 2027 05:51:06.266             6.082          3041.000
       438   12 Jun 2027 07:23:11.136   12 Jun 2027 07:23:14.519             3.383          1691.500
       439   12 Jun 2027 07:23:34.325   12 Jun 2027 07:23:35.696             1.371           685.500
       440   12 Jun 2027 07:23:55.215   12 Jun 2027 07:24:03.341             8.126          4063.000
       441   12 Jun 2027 07:25:12.064   12 Jun 2027 07:25:19.444             7.380          3690.000
       442   12 Jun 2027 07:26:07.955   12 Jun 2027 07:26:08.151             0.196            98.000
       443   12 Jun 2027 07:26:41.424   12 Jun 2027 07:26:47.064             5.640          2820.000
       444   12 Jun 2027 07:27:20.251   12 Jun 2027 07:27:26.143             5.892          2946.000
       445   12 Jun 2027 08:59:24.031   12 Jun 2027 08:59:35.650            11.619          5809.500
       446   12 Jun 2027 09:00:33.392   12 Jun 2027 09:00:38.139             4.747          2373.500
       447   12 Jun 2027 09:01:58.967   12 Jun 2027 09:01:59.539             0.572           286.000
       448   12 Jun 2027 09:02:53.959   12 Jun 2027 09:02:59.984             6.025          3012.500
       449   12 Jun 2027 09:03:03.095   12 Jun 2027 09:03:09.539             6.444          3222.000
       450   12 Jun 2027 09:03:59.439   12 Jun 2027 09:04:02.117             2.678          1339.000
       451   13 Jun 2027 04:21:08.433   13 Jun 2027 04:21:32.484            24.051         12025.500
       452   13 Jun 2027 04:22:42.547   13 Jun 2027 04:22:43.780             1.233           616.500
       453   13 Jun 2027 04:23:00.089   13 Jun 2027 04:23:00.089             0.000             0.000
       454   13 Jun 2027 04:23:30.372   13 Jun 2027 04:23:32.585             2.213          1106.500
       455   13 Jun 2027 04:23:49.680   13 Jun 2027 04:23:54.655             4.975          2487.500
       456   13 Jun 2027 04:24:50.492   13 Jun 2027 04:24:54.813             4.321          2160.500
       457   13 Jun 2027 04:25:40.455   13 Jun 2027 04:25:52.014            11.559          5779.500
       458   13 Jun 2027 04:26:56.504   13 Jun 2027 04:27:22.934            26.430         13215.000
       459   13 Jun 2027 05:57:28.168   13 Jun 2027 05:57:42.652            14.484          7242.000
       460   13 Jun 2027 05:58:41.810   13 Jun 2027 05:59:00.540            18.730          9365.000
       461   13 Jun 2027 06:00:25.175   13 Jun 2027 06:00:27.150             1.975           987.500
       462   13 Jun 2027 06:01:09.571   13 Jun 2027 06:01:13.342             3.771          1885.500
       463   13 Jun 2027 06:01:49.241   13 Jun 2027 06:01:50.807             1.566           783.000
       464   13 Jun 2027 06:03:00.611   13 Jun 2027 06:03:14.848            14.237          7118.500
       465   13 Jun 2027 07:35:44.375   13 Jun 2027 07:35:46.950             2.575          1287.500
       466   13 Jun 2027 07:36:10.143   13 Jun 2027 07:36:11.224             1.081           540.500
       467   13 Jun 2027 07:36:31.935   13 Jun 2027 07:36:33.387             1.452           726.000
       468   13 Jun 2027 07:36:46.341   13 Jun 2027 07:36:52.521             6.180          3090.000
       469   13 Jun 2027 07:38:00.180   13 Jun 2027 07:38:01.908             1.728           864.000
       470   13 Jun 2027 07:38:10.561   13 Jun 2027 07:38:13.231             2.670          1335.000
       471   13 Jun 2027 07:38:29.289   13 Jun 2027 07:38:31.993             2.704          1352.000
       472   13 Jun 2027 07:39:00.360   13 Jun 2027 07:39:01.318             0.958           479.000
       473   13 Jun 2027 09:11:04.951   13 Jun 2027 09:11:10.370             5.419          2709.500
       474   13 Jun 2027 09:12:25.487   13 Jun 2027 09:12:25.779             0.292           146.000
       475   13 Jun 2027 09:12:43.174   13 Jun 2027 09:12:49.165             5.991          2995.500
       476   13 Jun 2027 09:13:42.991   13 Jun 2027 09:13:46.475             3.484          1742.000
       477   13 Jun 2027 09:14:48.965   13 Jun 2027 09:14:58.611             9.646          4823.000
       478   13 Jun 2027 09:15:53.530   13 Jun 2027 09:15:55.003             1.473           736.500
       479   13 Jun 2027 09:16:13.630   13 Jun 2027 09:16:28.018            14.388          7194.000
