uniorb/output/strategy_2/Camera/Camera_KinoSat_111510.txt

KinoSat_111510
-------------------------
    Access    *     Start Time (UTCG)     *     Stop Time (UTCG)  *   Duration (s) *   Data (Mbytes)
         1   01 Jun 2027 04:07:44.354   01 Jun 2027 04:10:57.540           193.186         96593.000
         2   01 Jun 2027 04:11:08.430   01 Jun 2027 04:11:13.908             5.478          2739.000
         3   01 Jun 2027 04:11:42.457   01 Jun 2027 04:11:49.777             7.320          3660.000
         4   01 Jun 2027 04:12:01.657   01 Jun 2027 04:12:17.293            15.636          7818.000
         5   01 Jun 2027 04:12:40.670   01 Jun 2027 04:12:40.670             0.000             0.000
         6   01 Jun 2027 04:13:34.203   01 Jun 2027 04:13:34.203             0.000             0.000
         7   01 Jun 2027 04:13:53.393   01 Jun 2027 04:13:53.393             0.000             0.000
         8   01 Jun 2027 04:14:42.673   01 Jun 2027 04:14:48.845             6.172          3086.000
         9   01 Jun 2027 05:32:05.992   01 Jun 2027 05:32:54.284            48.292         24146.000
        10   01 Jun 2027 05:33:27.234   01 Jun 2027 05:33:54.432            27.198         13599.000
        11   01 Jun 2027 05:44:19.281   01 Jun 2027 05:44:43.805            24.524         12262.000
        12   01 Jun 2027 07:06:14.283   01 Jun 2027 07:07:28.351            74.068         37034.000
        13   01 Jun 2027 07:08:17.400   01 Jun 2027 07:09:20.270            62.870         31435.000
        14   01 Jun 2027 07:10:26.195   01 Jun 2027 07:10:47.050            20.855         10427.500
        15   01 Jun 2027 07:10:51.679   01 Jun 2027 07:11:10.920            19.241          9620.500
        16   01 Jun 2027 08:41:02.441   01 Jun 2027 08:43:31.105           148.664         74332.000
        17   01 Jun 2027 08:49:57.313   01 Jun 2027 08:49:58.294             0.981           490.500
        18   01 Jun 2027 10:18:52.312   01 Jun 2027 10:20:30.158            97.846         48923.000
        19   01 Jun 2027 10:21:03.701   01 Jun 2027 10:21:54.994            51.293         25646.500
        20   01 Jun 2027 10:24:31.562   01 Jun 2027 10:24:31.562             0.000             0.000
        21   01 Jun 2027 10:24:51.158   01 Jun 2027 10:25:12.480            21.322         10661.000
        22   01 Jun 2027 10:25:17.499   01 Jun 2027 10:25:24.640             7.141          3570.500
        23   01 Jun 2027 10:26:01.202   01 Jun 2027 10:26:12.190            10.988          5494.000
        24   01 Jun 2027 11:55:36.801   01 Jun 2027 11:55:50.735            13.934          6967.000
        25   01 Jun 2027 11:56:07.628   01 Jun 2027 11:57:52.107           104.479         52239.500
        26   01 Jun 2027 11:59:21.830   01 Jun 2027 11:59:27.427             5.597          2798.500
        27   02 Jun 2027 04:20:06.304   02 Jun 2027 04:22:44.116           157.812         78906.000
        28   02 Jun 2027 04:23:33.614   02 Jun 2027 04:23:38.236             4.622          2311.000
        29   02 Jun 2027 04:24:30.787   02 Jun 2027 04:25:08.416            37.629         18814.500
        30   02 Jun 2027 05:44:04.483   02 Jun 2027 05:45:11.698            67.215         33607.500
        31   02 Jun 2027 05:45:49.333   02 Jun 2027 05:46:06.246            16.913          8456.500
        32   02 Jun 2027 07:20:01.320   02 Jun 2027 07:23:11.457           190.137         95068.500
        33   02 Jun 2027 08:53:50.772   02 Jun 2027 08:55:50.865           120.093         60046.500
        34   02 Jun 2027 08:57:34.582   02 Jun 2027 08:57:47.640            13.058          5572.468
        35   02 Jun 2027 08:58:35.512   02 Jun 2027 08:58:40.867             5.355           714.281
        36   02 Jun 2027 08:58:43.601   02 Jun 2027 08:58:46.422             2.821            85.438
        37   02 Jun 2027 10:30:59.519   02 Jun 2027 10:31:23.877            24.358         10116.781
        38   02 Jun 2027 10:31:45.016   02 Jun 2027 10:31:48.672             3.656           432.531
        39   02 Jun 2027 10:32:26.420   02 Jun 2027 10:32:30.860             4.440           890.969
        40   02 Jun 2027 10:32:33.883   02 Jun 2027 10:32:34.204             0.321            94.469
        41   02 Jun 2027 10:35:47.625   02 Jun 2027 10:36:02.049            14.424          5601.719
        42   02 Jun 2027 10:36:11.609   02 Jun 2027 10:36:12.824             1.215           298.750
        43   02 Jun 2027 10:36:18.707   02 Jun 2027 10:36:19.327             0.620           183.844
        44   02 Jun 2027 10:36:22.040   02 Jun 2027 10:36:23.268             1.228            84.781
        45   02 Jun 2027 10:36:38.771   02 Jun 2027 10:36:38.891             0.120            60.000
        46   02 Jun 2027 10:36:42.869   02 Jun 2027 10:36:45.965             3.096           523.000
        47   02 Jun 2027 10:36:56.012   02 Jun 2027 10:36:57.730             1.718           183.531
        48   02 Jun 2027 10:37:42.644   02 Jun 2027 10:37:46.159             3.515          1114.187
        49   02 Jun 2027 10:38:01.820   02 Jun 2027 10:38:03.538             1.718           489.406
        50   03 Jun 2027 04:32:36.356   03 Jun 2027 04:34:28.932           112.576         56288.000
        51   03 Jun 2027 04:35:18.653   03 Jun 2027 04:37:17.699           119.046         59523.000
        52   03 Jun 2027 05:55:58.015   03 Jun 2027 05:56:40.813            42.798         21399.000
        53   03 Jun 2027 05:58:20.435   03 Jun 2027 05:58:25.880             5.445          2722.500
        54   03 Jun 2027 07:32:22.979   03 Jun 2027 07:33:01.676            38.697         19088.531
        55   03 Jun 2027 07:33:26.011   03 Jun 2027 07:33:28.377             2.366           650.531
        56   03 Jun 2027 07:34:03.930   03 Jun 2027 07:34:05.639             1.709           723.812
        57   03 Jun 2027 07:35:11.589   03 Jun 2027 07:35:16.353             4.764          1810.438
        58   03 Jun 2027 09:06:11.197   03 Jun 2027 09:06:19.360             8.163          3934.187
        59   03 Jun 2027 09:08:54.009   03 Jun 2027 09:09:03.270             9.261          3411.469
        60   03 Jun 2027 09:09:40.305   03 Jun 2027 09:09:43.237             2.932          1157.344
        61   03 Jun 2027 09:11:55.494   03 Jun 2027 09:12:03.707             8.213          2945.375
        62   03 Jun 2027 09:12:16.886   03 Jun 2027 09:12:19.788             2.902            35.156
        63   03 Jun 2027 09:12:46.312   03 Jun 2027 09:12:46.809             0.497           200.062
        64   03 Jun 2027 09:14:04.022   03 Jun 2027 09:14:08.031             4.009          2004.500
        65   03 Jun 2027 09:14:16.886   03 Jun 2027 09:14:19.704             2.818           659.656
        66   03 Jun 2027 10:43:26.061   03 Jun 2027 10:43:40.431            14.370          6637.437
        67   03 Jun 2027 10:43:50.896   03 Jun 2027 10:43:53.175             2.279           281.688
        68   03 Jun 2027 10:43:56.172   03 Jun 2027 10:43:57.972             1.800            82.625
        69   03 Jun 2027 10:44:10.239   03 Jun 2027 10:44:11.342             1.103            32.687
        70   03 Jun 2027 10:45:40.756   03 Jun 2027 10:45:45.260             4.504          2252.000
        71   03 Jun 2027 10:45:56.981   03 Jun 2027 10:45:59.770             2.789           670.844
        72   03 Jun 2027 10:46:38.320   03 Jun 2027 10:46:41.383             3.063          1204.688
        73   03 Jun 2027 10:47:29.011   03 Jun 2027 10:47:31.551             2.540           957.531
        74   03 Jun 2027 10:47:52.823   03 Jun 2027 10:47:53.359             0.536            14.063
        75   03 Jun 2027 10:47:54.778   03 Jun 2027 10:47:57.685             2.907            44.344
        76   03 Jun 2027 10:48:33.593   03 Jun 2027 10:48:35.235             1.642           715.156
        77   03 Jun 2027 10:48:44.748   03 Jun 2027 10:48:45.556             0.808           234.219
        78   03 Jun 2027 10:49:42.737   03 Jun 2027 10:49:46.232             3.495          1700.375
        79   04 Jun 2027 03:06:40.866   04 Jun 2027 03:08:52.359           131.493         65746.500
        80   04 Jun 2027 03:09:36.099   04 Jun 2027 03:09:43.071             6.972          3486.000
        81   04 Jun 2027 03:10:19.452   04 Jun 2027 03:10:25.322             5.870          2935.000
        82   04 Jun 2027 03:11:38.780   04 Jun 2027 03:11:57.886            19.106          9553.000
        83   04 Jun 2027 04:44:52.269   04 Jun 2027 04:47:09.452           137.183         68591.500
        84   04 Jun 2027 04:47:49.212   04 Jun 2027 04:47:49.212             0.000             0.000
        85   04 Jun 2027 04:48:08.878   04 Jun 2027 04:48:19.985            11.107          5553.500
        86   04 Jun 2027 04:48:36.666   04 Jun 2027 04:48:41.829             5.163          2215.156
        87   04 Jun 2027 06:07:46.152   04 Jun 2027 06:08:01.415            15.263          7128.563
        88   04 Jun 2027 07:44:25.306   04 Jun 2027 07:44:38.490            13.184          6072.000
        89   04 Jun 2027 07:45:06.982   04 Jun 2027 07:45:10.054             3.072           555.375
        90   04 Jun 2027 07:46:25.150   04 Jun 2027 07:46:25.150             0.000             0.000
        91   04 Jun 2027 07:47:11.218   04 Jun 2027 07:47:18.633             7.415          3266.219
        92   04 Jun 2027 09:19:25.751   04 Jun 2027 09:19:35.497             9.746          4273.094
        93   04 Jun 2027 09:20:27.013   04 Jun 2027 09:20:27.013             0.000             0.000
        94   04 Jun 2027 09:20:42.844   04 Jun 2027 09:20:47.914             5.070          1025.000
        95   04 Jun 2027 09:22:23.443   04 Jun 2027 09:22:32.930             9.487          2449.187
        96   04 Jun 2027 09:23:20.271   04 Jun 2027 09:23:24.801             4.530          1157.031
        97   04 Jun 2027 09:24:54.859   04 Jun 2027 09:25:03.195             8.336          2742.969
        98   04 Jun 2027 09:25:14.277   04 Jun 2027 09:25:15.987             1.710           345.781
        99   04 Jun 2027 09:26:04.200   04 Jun 2027 09:26:06.956             2.756          1194.719
       100   04 Jun 2027 09:26:11.640   04 Jun 2027 09:26:11.812             0.172            27.375
       101   04 Jun 2027 10:55:35.624   04 Jun 2027 10:55:49.635            14.011          6340.500
       102   04 Jun 2027 10:56:14.775   04 Jun 2027 10:56:16.961             2.186           313.562
       103   04 Jun 2027 10:57:21.083   04 Jun 2027 10:57:25.233             4.150          1669.469
       104   04 Jun 2027 10:58:03.564   04 Jun 2027 10:58:06.124             2.560          1197.844
       105   04 Jun 2027 10:58:40.679   04 Jun 2027 10:58:45.710             5.031          1032.312
       106   04 Jun 2027 10:59:16.699   04 Jun 2027 10:59:22.453             5.754           968.406
       107   04 Jun 2027 10:59:30.943   04 Jun 2027 10:59:32.020             1.077           184.000
       108   04 Jun 2027 10:59:52.743   04 Jun 2027 10:59:53.899             1.156           319.688
       109   04 Jun 2027 11:00:18.190   04 Jun 2027 11:00:20.054             1.864           759.094
       110   04 Jun 2027 11:01:31.928   04 Jun 2027 11:01:35.460             3.532          1766.000
       111   04 Jun 2027 11:02:02.544   04 Jun 2027 11:02:07.685             5.141          1298.156
       112   05 Jun 2027 03:18:20.129   05 Jun 2027 03:19:22.100            61.971         30985.500
       113   05 Jun 2027 03:19:28.556   05 Jun 2027 03:21:30.703           122.147         61073.500
       114   05 Jun 2027 03:23:28.656   05 Jun 2027 03:23:53.404            24.748         12374.000
       115   05 Jun 2027 03:23:56.648   05 Jun 2027 03:24:26.949            30.301         15150.500
       116   05 Jun 2027 04:56:38.579   05 Jun 2027 04:57:10.837            32.258         16129.000
       117   05 Jun 2027 04:57:27.674   05 Jun 2027 04:57:31.868             4.194          2097.000
       118   05 Jun 2027 04:57:40.435   05 Jun 2027 04:58:21.051            40.616         19962.531
       119   05 Jun 2027 04:58:49.490   05 Jun 2027 04:58:53.317             3.827           788.906
       120   05 Jun 2027 04:59:19.318   05 Jun 2027 04:59:21.200             1.882           809.750
       121   05 Jun 2027 04:59:32.432   05 Jun 2027 04:59:34.857             2.425           228.437
       122   05 Jun 2027 04:59:42.640   05 Jun 2027 04:59:46.580             3.940            41.437
       123   05 Jun 2027 05:00:03.053   05 Jun 2027 05:00:04.442             1.389           514.781
       124   05 Jun 2027 06:20:00.540   05 Jun 2027 06:20:13.753            13.213          5124.125
       125   05 Jun 2027 06:21:14.775   05 Jun 2027 06:21:14.775             0.000             0.000
       126   05 Jun 2027 06:21:32.739   05 Jun 2027 06:21:37.859             5.120          2446.375
       127   05 Jun 2027 06:22:44.425   05 Jun 2027 06:22:44.425             0.000             0.000
       128   05 Jun 2027 06:22:57.143   05 Jun 2027 06:23:08.928            11.785          2477.625
       129   05 Jun 2027 07:56:32.966   05 Jun 2027 07:56:39.723             6.757          3241.781
       130   05 Jun 2027 07:57:29.317   05 Jun 2027 07:57:33.073             3.756          1424.844
       131   05 Jun 2027 07:58:39.022   05 Jun 2027 07:58:42.780             3.758          1666.844
       132   05 Jun 2027 09:31:59.504   05 Jun 2027 09:32:10.690            11.186          5041.469
       133   05 Jun 2027 09:33:06.929   05 Jun 2027 09:33:08.718             1.789            13.281
       134   05 Jun 2027 09:34:40.195   05 Jun 2027 09:34:46.586             6.391          2811.719
       135   05 Jun 2027 09:35:32.719   05 Jun 2027 09:35:38.341             5.622          1206.969
       136   05 Jun 2027 09:36:24.396   05 Jun 2027 09:36:26.187             1.791           523.937
       137   05 Jun 2027 09:36:55.158   05 Jun 2027 09:37:12.311            17.153           905.344
       138   05 Jun 2027 09:37:43.738   05 Jun 2027 09:37:46.777             3.039           895.500
       139   05 Jun 2027 09:37:58.317   05 Jun 2027 09:38:00.044             1.727           201.281
       140   05 Jun 2027 09:38:08.203   05 Jun 2027 09:38:10.909             2.706           251.875
       141   05 Jun 2027 09:38:18.278   05 Jun 2027 09:38:19.554             1.276           230.281
       142   05 Jun 2027 11:08:05.475   05 Jun 2027 11:08:19.016            13.541          6226.312
       143   05 Jun 2027 11:08:57.106   05 Jun 2027 11:09:00.307             3.201           430.250
       144   05 Jun 2027 11:09:54.500   05 Jun 2027 11:09:59.259             4.759          1374.625
       145   05 Jun 2027 11:10:06.866   05 Jun 2027 11:10:10.703             3.837           237.719
       146   05 Jun 2027 11:11:08.687   05 Jun 2027 11:11:12.463             3.776          1431.969
       147   05 Jun 2027 11:11:30.235   05 Jun 2027 11:11:32.428             2.193           553.469
       148   05 Jun 2027 11:11:54.746   05 Jun 2027 11:11:58.814             4.068           675.031
       149   05 Jun 2027 11:12:37.560   05 Jun 2027 11:12:40.087             2.527          1105.063
       150   05 Jun 2027 11:12:58.261   05 Jun 2027 11:13:02.355             4.094           567.938
       151   05 Jun 2027 11:13:12.421   05 Jun 2027 11:13:17.344             4.923           130.344
       152   05 Jun 2027 11:14:04.145   05 Jun 2027 11:14:10.676             6.531          1389.250
       153   06 Jun 2027 03:31:26.627   06 Jun 2027 03:35:02.245           215.618        107809.000
       154   06 Jun 2027 03:35:27.716   06 Jun 2027 03:35:48.689            20.973         10486.500
       155   06 Jun 2027 03:38:15.503   06 Jun 2027 03:38:16.036             0.533           266.500
       156   06 Jun 2027 03:39:14.452   06 Jun 2027 03:39:23.587             9.135          4567.500
       157   06 Jun 2027 05:08:34.978   06 Jun 2027 05:09:14.497            39.519         19759.500
       158   06 Jun 2027 05:09:34.738   06 Jun 2027 05:10:09.602            34.864         16977.250
       159   06 Jun 2027 05:10:46.664   06 Jun 2027 05:10:46.664             0.000             0.000
       160   06 Jun 2027 05:10:55.787   06 Jun 2027 05:10:56.948             1.161           580.500
       161   06 Jun 2027 05:11:35.466   06 Jun 2027 05:11:39.622             4.156          1927.844
       162   06 Jun 2027 05:11:59.684   06 Jun 2027 05:12:00.983             1.299           465.844
       163   06 Jun 2027 06:32:02.046   06 Jun 2027 06:32:12.535            10.489          5228.812
       164   06 Jun 2027 06:34:06.032   06 Jun 2027 06:34:13.454             7.422          3510.750
       165   06 Jun 2027 08:08:25.062   06 Jun 2027 08:08:36.093            11.031          4207.813
       166   06 Jun 2027 08:10:29.652   06 Jun 2027 08:10:36.956             7.304          3548.719
       167   06 Jun 2027 08:11:01.892   06 Jun 2027 08:11:01.892             0.000             0.000
       168   06 Jun 2027 08:11:41.955   06 Jun 2027 08:11:43.980             2.025          1012.500
       169   06 Jun 2027 08:11:58.684   06 Jun 2027 08:12:10.545            11.861          1360.063
       170   06 Jun 2027 09:43:19.252   06 Jun 2027 09:43:29.933            10.681          4118.344
       171   06 Jun 2027 09:45:35.027   06 Jun 2027 09:45:44.215             9.188          3435.031
       172   06 Jun 2027 09:46:22.445   06 Jun 2027 09:46:24.551             2.106           737.344
       173   06 Jun 2027 09:47:24.103   06 Jun 2027 09:47:28.523             4.420          1746.031
       174   06 Jun 2027 09:47:58.007   06 Jun 2027 09:48:00.486             2.479           905.656
       175   06 Jun 2027 09:48:29.368   06 Jun 2027 09:48:31.363             1.995           502.219
       176   06 Jun 2027 09:49:40.389   06 Jun 2027 09:49:45.813             5.424          2061.781
       177   06 Jun 2027 09:50:19.183   06 Jun 2027 09:50:24.037             4.854          1042.813
       178   06 Jun 2027 11:19:40.911   06 Jun 2027 11:19:54.885            13.974          6668.094
       179   06 Jun 2027 11:20:14.111   06 Jun 2027 11:20:14.934             0.823           251.750
       180   06 Jun 2027 11:20:50.201   06 Jun 2027 11:20:55.360             5.159           328.094
       181   06 Jun 2027 11:21:17.318   06 Jun 2027 11:21:28.214            10.896           183.656
       182   06 Jun 2027 11:21:43.764   06 Jun 2027 11:21:44.467             0.703           235.438
       183   06 Jun 2027 11:22:33.118   06 Jun 2027 11:22:37.305             4.187          1520.344
       184   06 Jun 2027 11:23:50.010   06 Jun 2027 11:23:55.225             5.215          2272.031
       185   06 Jun 2027 11:24:42.180   06 Jun 2027 11:24:47.454             5.274          1467.344
       186   06 Jun 2027 11:25:30.644   06 Jun 2027 11:25:35.856             5.212          1349.687
       187   06 Jun 2027 11:25:44.739   06 Jun 2027 11:25:46.372             1.633           277.594
       188   06 Jun 2027 11:25:56.631   06 Jun 2027 11:25:59.267             2.636            84.281
       189   07 Jun 2027 03:43:30.501   07 Jun 2027 03:46:37.643           187.142         93571.000
       190   07 Jun 2027 03:48:02.640   07 Jun 2027 03:48:25.216            22.576         11288.000
       191   07 Jun 2027 03:48:53.841   07 Jun 2027 03:48:53.841             0.000             0.000
       192   07 Jun 2027 03:49:32.515   07 Jun 2027 03:49:43.567            11.052          5526.000
       193   07 Jun 2027 03:49:57.048   07 Jun 2027 03:50:00.623             3.575          1787.500
       194   07 Jun 2027 05:09:17.119   07 Jun 2027 05:10:11.776            54.657         27328.500
       195   07 Jun 2027 05:20:31.072   07 Jun 2027 05:21:09.252            38.180         18235.063
       196   07 Jun 2027 05:23:10.726   07 Jun 2027 05:23:16.378             5.652          1863.156
       197   07 Jun 2027 05:23:32.180   07 Jun 2027 05:23:32.871             0.691           137.781
       198   07 Jun 2027 06:43:07.712   07 Jun 2027 06:43:21.956            14.244          6135.375
       199   07 Jun 2027 06:43:54.351   07 Jun 2027 06:43:59.484             5.133           489.656
       200   07 Jun 2027 06:45:15.282   07 Jun 2027 06:45:21.723             6.441          1637.125
       201   07 Jun 2027 06:45:55.526   07 Jun 2027 06:45:55.526             0.000             0.000
       202   07 Jun 2027 06:46:44.287   07 Jun 2027 06:46:50.412             6.125          2425.750
       203   07 Jun 2027 06:47:38.761   07 Jun 2027 06:47:41.168             2.407          1111.656
       204   07 Jun 2027 08:18:42.314   07 Jun 2027 08:18:52.305             9.991          4613.906
       205   07 Jun 2027 08:20:25.391   07 Jun 2027 08:20:36.825            11.434          2348.781
       206   07 Jun 2027 08:21:49.811   07 Jun 2027 08:21:55.777             5.966          1896.281
       207   07 Jun 2027 08:22:53.725   07 Jun 2027 08:22:56.741             3.016           756.156
       208   07 Jun 2027 08:23:01.896   07 Jun 2027 08:23:02.971             1.075           161.094
       209   07 Jun 2027 08:23:27.365   07 Jun 2027 08:23:29.598             2.233           762.312
       210   07 Jun 2027 08:24:18.419   07 Jun 2027 08:24:24.202             5.783           761.125
       211   07 Jun 2027 08:24:34.023   07 Jun 2027 08:24:34.023             0.000             0.000
       212   07 Jun 2027 09:54:54.822   07 Jun 2027 09:54:59.574             4.752          2376.000
       213   07 Jun 2027 09:57:08.070   07 Jun 2027 09:57:08.070             0.000             0.000
       214   07 Jun 2027 09:58:07.649   07 Jun 2027 09:58:25.764            18.115          8235.219
       215   07 Jun 2027 09:59:05.463   07 Jun 2027 09:59:16.274            10.811          1111.000
       216   07 Jun 2027 10:01:47.177   07 Jun 2027 10:01:56.647             9.470          4133.281
       217   07 Jun 2027 10:02:26.213   07 Jun 2027 10:02:28.209             1.996           826.156
       218   07 Jun 2027 11:32:01.206   07 Jun 2027 11:32:18.294            17.088          8093.812
       219   07 Jun 2027 11:33:24.299   07 Jun 2027 11:33:29.446             5.147          2017.281
       220   07 Jun 2027 11:33:30.955   07 Jun 2027 11:33:32.355             1.400            47.156
       221   07 Jun 2027 11:34:44.635   07 Jun 2027 11:34:49.662             5.027          2096.531
       222   07 Jun 2027 11:36:08.228   07 Jun 2027 11:36:12.566             4.338          2019.813
       223   07 Jun 2027 11:36:15.797   07 Jun 2027 11:36:15.797             0.000             0.000
       224   07 Jun 2027 11:36:16.233   07 Jun 2027 11:36:17.217             0.984           114.594
       225   07 Jun 2027 11:36:45.560   07 Jun 2027 11:36:46.021             0.461           230.500
       226   07 Jun 2027 11:37:04.972   07 Jun 2027 11:37:12.087             7.115          1135.437
       227   07 Jun 2027 11:37:29.021   07 Jun 2027 11:37:32.521             3.500           433.188
       228   07 Jun 2027 11:37:45.323   07 Jun 2027 11:37:47.518             2.195           366.594
       229   08 Jun 2027 03:55:59.672   08 Jun 2027 03:57:34.250            94.578         47289.000
       230   08 Jun 2027 03:57:39.714   08 Jun 2027 03:58:27.749            48.035         24017.500
       231   08 Jun 2027 03:58:49.982   08 Jun 2027 03:58:54.353             4.371          2185.500
       232   08 Jun 2027 04:00:04.526   08 Jun 2027 04:00:21.612            17.086          8543.000
       233   08 Jun 2027 04:00:42.550   08 Jun 2027 04:01:48.362            65.812         32906.000
       234   08 Jun 2027 04:02:09.167   08 Jun 2027 04:02:13.508             4.341          2170.500
       235   08 Jun 2027 05:20:50.941   08 Jun 2027 05:21:25.124            34.183         17091.500
       236   08 Jun 2027 05:32:34.032   08 Jun 2027 05:33:27.730            53.698         26833.343
       237   08 Jun 2027 06:54:49.768   08 Jun 2027 06:55:04.327            14.559          6758.656
       238   08 Jun 2027 06:55:42.138   08 Jun 2027 06:55:46.663             4.525           420.094
       239   08 Jun 2027 06:57:38.255   08 Jun 2027 06:57:43.174             4.919          2242.938
       240   08 Jun 2027 08:29:49.139   08 Jun 2027 08:29:59.731            10.592          4346.406
       241   08 Jun 2027 08:30:34.337   08 Jun 2027 08:30:35.439             1.102           550.406
       242   08 Jun 2027 08:31:19.520   08 Jun 2027 08:31:26.267             6.747          1083.406
       243   08 Jun 2027 08:33:32.698   08 Jun 2027 08:33:42.713            10.015          3914.063
       244   08 Jun 2027 08:35:03.608   08 Jun 2027 08:35:09.513             5.905          2356.125
       245   08 Jun 2027 08:35:41.412   08 Jun 2027 08:35:47.115             5.703           900.188
       246   08 Jun 2027 08:35:50.653   08 Jun 2027 08:35:54.719             4.066           110.563
       247   08 Jun 2027 10:07:14.958   08 Jun 2027 10:07:23.648             8.690          3920.969
       248   08 Jun 2027 10:08:01.818   08 Jun 2027 10:08:03.495             1.677            96.812
       249   08 Jun 2027 10:08:33.783   08 Jun 2027 10:08:37.459             3.676           551.844
       250   08 Jun 2027 10:09:13.610   08 Jun 2027 10:09:15.685             2.075           912.937
       251   08 Jun 2027 10:09:59.369   08 Jun 2027 10:10:02.028             2.659           290.750
       252   08 Jun 2027 10:10:22.112   08 Jun 2027 10:10:23.801             1.689           114.687
       253   08 Jun 2027 10:12:51.688   08 Jun 2027 10:13:00.033             8.345          3941.813
       254   08 Jun 2027 10:13:18.620   08 Jun 2027 10:13:18.620             0.000             0.000
       255   08 Jun 2027 10:14:08.010   08 Jun 2027 10:14:13.524             5.514          1948.844
       256   08 Jun 2027 11:44:01.987   08 Jun 2027 11:44:15.942            13.955          6676.719
       257   08 Jun 2027 11:45:33.750   08 Jun 2027 11:45:42.810             9.060          2420.938
       258   08 Jun 2027 11:46:36.877   08 Jun 2027 11:46:44.062             7.185          1689.594
       259   08 Jun 2027 11:47:33.270   08 Jun 2027 11:47:39.291             6.021          1537.750
       260   08 Jun 2027 11:47:58.767   08 Jun 2027 11:48:01.793             3.026           608.625
       261   08 Jun 2027 11:48:47.080   08 Jun 2027 11:48:50.813             3.733          1412.594
       262   08 Jun 2027 11:49:27.866   08 Jun 2027 11:49:33.142             5.276           350.281
       263   08 Jun 2027 11:49:45.429   08 Jun 2027 11:49:45.961             0.532           166.156
       264   08 Jun 2027 11:49:56.935   08 Jun 2027 11:49:58.883             1.948            83.125
       265   08 Jun 2027 11:50:08.322   08 Jun 2027 11:50:12.525             4.203           294.969
       266   09 Jun 2027 04:08:01.581   09 Jun 2027 04:10:54.621           173.040         86520.000
       267   09 Jun 2027 04:11:06.788   09 Jun 2027 04:11:14.980             8.192          4096.000
       268   09 Jun 2027 04:11:54.135   09 Jun 2027 04:12:06.488            12.353          6176.500
       269   09 Jun 2027 04:12:31.845   09 Jun 2027 04:12:31.845             0.000             0.000
       270   09 Jun 2027 04:12:55.351   09 Jun 2027 04:13:20.331            24.980         12490.000
       271   09 Jun 2027 04:14:10.705   09 Jun 2027 04:14:10.705             0.000             0.000
       272   09 Jun 2027 04:14:59.963   09 Jun 2027 04:15:03.803             3.840          1920.000
       273   09 Jun 2027 05:32:23.172   09 Jun 2027 05:33:25.153            61.981         30990.500
       274   09 Jun 2027 05:44:40.133   09 Jun 2027 05:45:07.387            27.254         13627.000
       275   09 Jun 2027 07:06:29.922   09 Jun 2027 07:06:57.820            27.898         12934.812
       276   09 Jun 2027 07:08:32.973   09 Jun 2027 07:08:37.797             4.824          1283.406
       277   09 Jun 2027 07:09:04.101   09 Jun 2027 07:09:04.101             0.000             0.000
       278   09 Jun 2027 07:09:10.146   09 Jun 2027 07:09:13.779             3.633           735.063
       279   09 Jun 2027 07:09:40.160   09 Jun 2027 07:09:40.160             0.000             0.000
       280   09 Jun 2027 07:10:11.216   09 Jun 2027 07:10:15.332             4.116          1794.906
       281   09 Jun 2027 07:12:03.625   09 Jun 2027 07:12:11.354             7.729          3384.156
       282   09 Jun 2027 08:41:17.739   09 Jun 2027 08:41:30.605            12.866          4510.281
       283   09 Jun 2027 08:42:40.566   09 Jun 2027 08:42:44.204             3.638          1185.313
       284   09 Jun 2027 08:43:20.792   09 Jun 2027 08:43:22.258             1.466           104.406
       285   09 Jun 2027 08:43:25.140   09 Jun 2027 08:43:25.140             0.000             0.000
       286   09 Jun 2027 08:43:45.643   09 Jun 2027 08:43:50.266             4.623           730.781
       287   09 Jun 2027 08:45:04.225   09 Jun 2027 08:45:08.020             3.795          1723.969
       288   09 Jun 2027 08:45:49.043   09 Jun 2027 08:45:51.824             2.781          1010.438
       289   09 Jun 2027 08:46:24.992   09 Jun 2027 08:46:27.502             2.510           367.031
       290   09 Jun 2027 08:47:51.501   09 Jun 2027 08:47:57.663             6.162          1730.312
       291   09 Jun 2027 08:48:12.690   09 Jun 2027 08:48:19.851             7.161           452.062
       292   09 Jun 2027 08:48:35.164   09 Jun 2027 08:48:37.312             2.148           478.531
       293   09 Jun 2027 08:48:44.535   09 Jun 2027 08:48:45.270             0.735           225.719
       294   09 Jun 2027 10:19:09.239   09 Jun 2027 10:19:24.220            14.981          6225.844
       295   09 Jun 2027 10:20:04.566   09 Jun 2027 10:20:05.754             1.188           351.625
       296   09 Jun 2027 10:20:14.070   09 Jun 2027 10:20:15.708             1.638           259.875
       297   09 Jun 2027 10:21:28.168   09 Jun 2027 10:21:37.198             9.030          2264.375
       298   09 Jun 2027 10:23:16.613   09 Jun 2027 10:23:16.613             0.000             0.000
       299   09 Jun 2027 10:23:29.914   09 Jun 2027 10:23:35.895             5.981          2466.781
       300   09 Jun 2027 10:23:54.571   09 Jun 2027 10:23:55.847             1.276           428.000
       301   09 Jun 2027 10:24:25.579   09 Jun 2027 10:24:26.532             0.953           472.875
       302   09 Jun 2027 10:24:29.741   09 Jun 2027 10:24:30.407             0.666            33.313
       303   09 Jun 2027 10:24:52.993   09 Jun 2027 10:24:54.503             1.510           398.500
       304   09 Jun 2027 10:24:56.635   09 Jun 2027 10:24:59.485             2.850            66.625
       305   09 Jun 2027 10:25:15.312   09 Jun 2027 10:25:16.645             1.333           239.906
       306   09 Jun 2027 10:26:02.759   09 Jun 2027 10:26:07.207             4.448          1333.844
       307   09 Jun 2027 10:26:18.342   09 Jun 2027 10:26:19.109             0.767           347.969
       308   09 Jun 2027 11:55:53.765   09 Jun 2027 11:56:05.326            11.561          5780.500
       309   09 Jun 2027 11:56:25.595   09 Jun 2027 11:56:29.380             3.785          1187.156
       310   09 Jun 2027 11:56:57.307   09 Jun 2027 11:57:06.684             9.377           848.188
       311   09 Jun 2027 11:57:13.451   09 Jun 2027 11:57:19.205             5.754           132.219
       312   09 Jun 2027 11:57:56.598   09 Jun 2027 11:57:58.223             1.625           217.313
       313   09 Jun 2027 11:58:46.102   09 Jun 2027 11:58:51.064             4.962          1277.469
       314   09 Jun 2027 11:59:06.252   09 Jun 2027 11:59:06.252             0.000             0.000
       315   09 Jun 2027 11:59:10.695   09 Jun 2027 11:59:12.442             1.747           393.562
       316   10 Jun 2027 04:20:24.500   10 Jun 2027 04:22:26.856           122.356         61178.000
       317   10 Jun 2027 04:22:37.948   10 Jun 2027 04:23:54.696            76.748         38374.000
       318   10 Jun 2027 04:24:50.576   10 Jun 2027 04:25:18.168            27.592         13796.000
       319   10 Jun 2027 05:44:21.016   10 Jun 2027 05:44:52.439            31.423         15711.500
       320   10 Jun 2027 05:45:58.701   10 Jun 2027 05:46:05.230             6.529          3264.500
       321   10 Jun 2027 07:20:18.587   10 Jun 2027 07:21:32.246            73.659         35790.719
       322   10 Jun 2027 07:22:22.545   10 Jun 2027 07:22:25.216             2.671          1265.844
       323   10 Jun 2027 07:23:11.261   10 Jun 2027 07:23:14.428             3.167          1011.781
       324   10 Jun 2027 08:54:06.972   10 Jun 2027 08:54:14.526             7.554          3514.406
       325   10 Jun 2027 08:54:44.915   10 Jun 2027 08:54:46.848             1.933           201.406
       326   10 Jun 2027 08:54:57.414   10 Jun 2027 08:54:59.791             2.377           232.687
       327   10 Jun 2027 08:55:36.101   10 Jun 2027 08:55:38.005             1.904           451.719
       328   10 Jun 2027 08:57:19.052   10 Jun 2027 08:57:30.924            11.872          2196.188
       329   10 Jun 2027 09:00:28.673   10 Jun 2027 09:00:41.100            12.427          5484.156
       330   10 Jun 2027 09:00:49.247   10 Jun 2027 09:00:50.653             1.406           247.313
       331   10 Jun 2027 09:01:54.193   10 Jun 2027 09:01:54.979             0.786           393.000
       332   10 Jun 2027 10:31:16.510   10 Jun 2027 10:31:33.351            16.841          7130.625
       333   10 Jun 2027 10:32:02.900   10 Jun 2027 10:32:04.426             1.526           440.750
       334   10 Jun 2027 10:32:16.746   10 Jun 2027 10:32:17.284             0.538           135.469
       335   10 Jun 2027 10:35:45.037   10 Jun 2027 10:36:03.220            18.183          6381.219
       336   10 Jun 2027 10:36:40.554   10 Jun 2027 10:36:43.690             3.136          1112.625
       337   10 Jun 2027 10:37:44.872   10 Jun 2027 10:37:48.455             3.583          1791.500
       338   10 Jun 2027 10:37:53.187   10 Jun 2027 10:37:53.764             0.577           268.313
       339   10 Jun 2027 10:38:10.374   10 Jun 2027 10:38:12.059             1.685           498.781
       340   11 Jun 2027 03:00:00.000   11 Jun 2027 03:00:28.870            28.870         14435.000
       341   11 Jun 2027 04:32:51.622   11 Jun 2027 04:34:46.450           114.828         57414.000
       342   11 Jun 2027 04:35:32.681   11 Jun 2027 04:36:34.812            62.131         31065.500
       343   11 Jun 2027 04:37:27.204   11 Jun 2027 04:37:33.482             6.278          3139.000
       344   11 Jun 2027 05:56:13.688   11 Jun 2027 05:57:29.282            75.594         37797.000
       345   11 Jun 2027 05:58:30.807   11 Jun 2027 05:58:43.163            12.356          6178.000
       346   11 Jun 2027 07:32:36.019   11 Jun 2027 07:32:54.847            18.828          7338.688
       347   11 Jun 2027 07:33:14.154   11 Jun 2027 07:33:16.838             2.684           239.656
       348   11 Jun 2027 07:33:57.357   11 Jun 2027 07:34:00.603             3.246          1266.219
       349   11 Jun 2027 07:34:28.100   11 Jun 2027 07:34:31.703             3.603           248.219
       350   11 Jun 2027 07:35:28.437   11 Jun 2027 07:35:32.595             4.158          1765.094
       351   11 Jun 2027 09:06:28.968   11 Jun 2027 09:06:37.593             8.625          3851.406
       352   11 Jun 2027 09:09:12.560   11 Jun 2027 09:09:21.130             8.570          3454.813
       353   11 Jun 2027 09:11:02.013   11 Jun 2027 09:11:10.586             8.573          3152.594
       354   11 Jun 2027 09:11:48.202   11 Jun 2027 09:11:51.672             3.470            55.063
       355   11 Jun 2027 09:13:11.611   11 Jun 2027 09:13:14.525             2.914          1457.000
       356   11 Jun 2027 09:13:22.568   11 Jun 2027 09:13:25.298             2.730          1287.188
       357   11 Jun 2027 09:14:24.528   11 Jun 2027 09:14:31.126             6.598          1812.812
       358   11 Jun 2027 10:43:42.978   11 Jun 2027 10:43:56.494            13.516          6758.000
       359   11 Jun 2027 10:44:25.079   11 Jun 2027 10:44:29.929             4.850          1205.688
       360   11 Jun 2027 10:45:30.260   11 Jun 2027 10:45:34.566             4.306          1128.844
       361   11 Jun 2027 10:45:58.271   11 Jun 2027 10:46:02.314             4.043           720.500
       362   11 Jun 2027 10:46:16.271   11 Jun 2027 10:46:19.987             3.716           137.313
       363   11 Jun 2027 10:46:28.706   11 Jun 2027 10:46:39.906            11.200           122.156
       364   11 Jun 2027 10:46:54.801   11 Jun 2027 10:46:57.112             2.311           465.469
       365   11 Jun 2027 10:48:08.265   11 Jun 2027 10:48:18.025             9.760          2223.531
       366   11 Jun 2027 10:48:55.194   11 Jun 2027 10:48:57.328             2.134           895.094
       367   11 Jun 2027 10:48:59.479   11 Jun 2027 10:48:59.964             0.485            50.344
       368   11 Jun 2027 10:49:50.628   11 Jun 2027 10:49:53.642             3.014          1493.500
       369   11 Jun 2027 10:50:05.918   11 Jun 2027 10:50:07.973             2.055           383.625
       370   11 Jun 2027 10:50:15.141   11 Jun 2027 10:50:15.839             0.698             3.000
       371   11 Jun 2027 10:50:17.073   11 Jun 2027 10:50:20.613             3.540            37.813
       372   12 Jun 2027 03:06:28.769   12 Jun 2027 03:06:31.894             3.125          1562.500
       373   12 Jun 2027 03:06:57.038   12 Jun 2027 03:07:42.710            45.672         22836.000
       374   12 Jun 2027 03:07:47.953   12 Jun 2027 03:09:05.997            78.044         39022.000
       375   12 Jun 2027 03:09:47.569   12 Jun 2027 03:09:51.090             3.521          1760.500
       376   12 Jun 2027 03:11:17.367   12 Jun 2027 03:11:53.304            35.937         17968.500
       377   12 Jun 2027 03:12:14.563   12 Jun 2027 03:12:22.500             7.937          3968.500
       378   12 Jun 2027 04:45:08.929   12 Jun 2027 04:46:45.715            96.786         48393.000
       379   12 Jun 2027 04:47:40.230   12 Jun 2027 04:47:40.822             0.592           296.000
       380   12 Jun 2027 04:48:41.083   12 Jun 2027 04:48:57.225            16.142          8071.000
       381   12 Jun 2027 06:08:02.983   12 Jun 2027 06:08:32.605            29.622         14478.906
       382   12 Jun 2027 07:44:39.498   12 Jun 2027 07:44:50.872            11.374          5157.281
       383   12 Jun 2027 07:45:25.213   12 Jun 2027 07:45:30.243             5.030           625.375
       384   12 Jun 2027 07:46:12.139   12 Jun 2027 07:46:16.122             3.983           892.500
       385   12 Jun 2027 07:47:15.632   12 Jun 2027 07:47:20.031             4.399          1575.688
       386   12 Jun 2027 09:19:46.732   12 Jun 2027 09:19:57.604            10.872          4500.438
       387   12 Jun 2027 09:20:45.429   12 Jun 2027 09:20:45.429             0.000             0.000
       388   12 Jun 2027 09:21:01.241   12 Jun 2027 09:21:06.102             4.861          1107.344
       389   12 Jun 2027 09:22:06.979   12 Jun 2027 09:22:10.129             3.150          1377.594
       390   12 Jun 2027 09:23:40.561   12 Jun 2027 09:23:44.528             3.967          1850.063
       391   12 Jun 2027 09:25:12.329   12 Jun 2027 09:25:18.567             6.238          2732.281
       392   12 Jun 2027 09:25:28.903   12 Jun 2027 09:25:28.903             0.000             0.000
       393   12 Jun 2027 09:26:12.533   12 Jun 2027 09:26:16.169             3.636          1663.313
       394   12 Jun 2027 09:26:31.030   12 Jun 2027 09:26:34.836             3.806           250.156
       395   12 Jun 2027 10:56:07.202   12 Jun 2027 10:56:23.577            16.375          7670.594
       396   12 Jun 2027 10:56:43.733   12 Jun 2027 10:56:46.141             2.408           554.562
       397   12 Jun 2027 10:56:47.641   12 Jun 2027 10:56:53.479             5.838            46.875
       398   12 Jun 2027 10:57:44.086   12 Jun 2027 10:57:52.697             8.611          1317.344
       399   12 Jun 2027 10:58:03.756   12 Jun 2027 10:58:04.919             1.163           183.563
       400   12 Jun 2027 10:58:20.036   12 Jun 2027 10:58:21.522             1.486           412.375
       401   12 Jun 2027 10:58:57.730   12 Jun 2027 10:59:00.116             2.386          1057.687
       402   12 Jun 2027 10:59:33.639   12 Jun 2027 10:59:38.016             4.377          1047.594
       403   12 Jun 2027 11:00:16.752   12 Jun 2027 11:00:23.020             6.268          1121.594
       404   12 Jun 2027 11:00:32.427   12 Jun 2027 11:00:33.869             1.442           293.969
       405   12 Jun 2027 11:00:59.364   12 Jun 2027 11:01:00.641             1.277           638.500
       406   12 Jun 2027 11:01:24.898   12 Jun 2027 11:01:26.601             1.703           796.281
       407   12 Jun 2027 11:01:48.295   12 Jun 2027 11:01:50.602             2.307           655.344
       408   12 Jun 2027 11:02:13.169   12 Jun 2027 11:02:15.431             2.262           705.219
       409   12 Jun 2027 11:02:23.891   12 Jun 2027 11:02:23.891             0.000             0.000
       410   13 Jun 2027 03:18:36.702   13 Jun 2027 03:19:38.288            61.586         30793.000
       411   13 Jun 2027 03:19:45.113   13 Jun 2027 03:21:41.828           116.715         58357.500
       412   13 Jun 2027 03:21:49.902   13 Jun 2027 03:21:49.902             0.000             0.000
       413   13 Jun 2027 03:23:32.387   13 Jun 2027 03:23:43.170            10.783          5391.500
       414   13 Jun 2027 03:24:08.642   13 Jun 2027 03:24:09.605             0.963           481.500
       415   13 Jun 2027 03:24:36.700   13 Jun 2027 03:24:48.826            12.126          6063.000
       416   13 Jun 2027 04:56:54.418   13 Jun 2027 04:57:28.251            33.833         16916.500
       417   13 Jun 2027 04:57:42.969   13 Jun 2027 04:58:11.181            28.212         14106.000
       418   13 Jun 2027 04:59:08.648   13 Jun 2027 04:59:36.789            28.141         14070.500
       419   13 Jun 2027 04:59:55.912   13 Jun 2027 04:59:55.912             0.000             0.000
       420   13 Jun 2027 05:00:11.683   13 Jun 2027 05:00:18.964             7.281          3379.875
       421   13 Jun 2027 06:20:16.323   13 Jun 2027 06:20:33.778            17.455          7866.313
       422   13 Jun 2027 06:22:59.868   13 Jun 2027 06:23:10.185            10.317          3529.219
       423   13 Jun 2027 07:56:50.658   13 Jun 2027 07:56:59.609             8.951          3545.562
       424   13 Jun 2027 07:57:47.126   13 Jun 2027 07:57:52.377             5.251          1484.906
       425   13 Jun 2027 07:58:57.702   13 Jun 2027 07:59:02.445             4.743          1672.844
       426   13 Jun 2027 07:59:49.763   13 Jun 2027 07:59:49.763             0.000             0.000
       427   13 Jun 2027 09:32:15.084   13 Jun 2027 09:32:28.951            13.867          5396.281
       428   13 Jun 2027 09:33:29.012   13 Jun 2027 09:33:29.236             0.224           107.094
       429   13 Jun 2027 09:34:56.795   13 Jun 2027 09:35:01.763             4.968          1198.187
       430   13 Jun 2027 09:35:45.212   13 Jun 2027 09:35:48.854             3.642          1058.969
       431   13 Jun 2027 09:36:19.045   13 Jun 2027 09:36:21.433             2.388           899.313
       432   13 Jun 2027 09:36:40.515   13 Jun 2027 09:36:41.850             1.335           541.375
       433   13 Jun 2027 09:37:10.966   13 Jun 2027 09:37:11.330             0.364           182.000
       434   13 Jun 2027 09:37:29.710   13 Jun 2027 09:37:33.340             3.630          1302.250
       435   13 Jun 2027 09:37:56.216   13 Jun 2027 09:37:59.948             3.732           714.875
       436   13 Jun 2027 09:38:14.206   13 Jun 2027 09:38:14.206             0.000             0.000
       437   13 Jun 2027 09:38:29.400   13 Jun 2027 09:38:31.977             2.577           913.281
       438   13 Jun 2027 11:08:21.385   13 Jun 2027 11:08:42.567            21.182          7457.438
       439   13 Jun 2027 11:08:59.473   13 Jun 2027 11:09:00.029             0.556           164.969
       440   13 Jun 2027 11:09:55.546   13 Jun 2027 11:09:59.668             4.122          1331.094
       441   13 Jun 2027 11:10:05.393   13 Jun 2027 11:10:06.702             1.309           178.906
       442   13 Jun 2027 11:10:50.314   13 Jun 2027 11:10:57.086             6.772          1228.719
       443   13 Jun 2027 11:11:33.331   13 Jun 2027 11:11:35.478             2.147          1046.219
       444   13 Jun 2027 11:11:45.432   13 Jun 2027 11:11:46.347             0.915           141.250
       445   13 Jun 2027 11:12:11.989   13 Jun 2027 11:12:13.600             1.611           721.156
       446   13 Jun 2027 11:12:55.415   13 Jun 2027 11:12:59.988             4.573          1172.781
       447   13 Jun 2027 11:13:26.561   13 Jun 2027 11:13:26.561             0.000             0.000
       448   13 Jun 2027 11:13:48.396   13 Jun 2027 11:13:53.285             4.889          1463.469
       449   13 Jun 2027 11:14:13.810   13 Jun 2027 11:14:18.546             4.736           469.563
