uniorb/output/strategy_2/Camera/Camera_KinoSat_110804.txt

KinoSat_110804
-------------------------
    Access    *     Start Time (UTCG)     *     Stop Time (UTCG)  *   Duration (s) *   Data (Mbytes)
         1   01 Jun 2027 03:43:43.998   01 Jun 2027 03:44:27.866            43.868         21934.000
         2   01 Jun 2027 03:45:25.473   01 Jun 2027 03:45:35.443             9.970          4985.000
         3   01 Jun 2027 03:45:56.590   01 Jun 2027 03:46:06.013             9.423          4711.500
         4   01 Jun 2027 03:47:39.106   01 Jun 2027 03:47:58.178            19.072          9536.000
         5   01 Jun 2027 03:48:07.127   01 Jun 2027 03:48:11.890             4.763          2381.500
         6   01 Jun 2027 03:48:20.640   01 Jun 2027 03:48:20.640             0.000             0.000
         7   01 Jun 2027 05:18:47.573   01 Jun 2027 05:20:05.896            78.323         39161.500
         8   01 Jun 2027 05:20:37.832   01 Jun 2027 05:22:06.876            89.044         44522.000
         9   01 Jun 2027 05:22:20.298   01 Jun 2027 05:23:04.461            44.163         22081.500
        10   01 Jun 2027 06:55:45.682   01 Jun 2027 06:56:55.564            69.882         34941.000
        11   01 Jun 2027 06:57:25.154   01 Jun 2027 06:58:54.984            89.830         44915.000
        12   01 Jun 2027 07:00:02.646   01 Jun 2027 07:00:39.866            37.220         18610.000
        13   01 Jun 2027 07:02:20.829   01 Jun 2027 07:03:09.625            48.796         24398.000
        14   01 Jun 2027 08:32:43.825   01 Jun 2027 08:35:43.279           179.454         89727.000
        15   01 Jun 2027 08:36:07.910   01 Jun 2027 08:36:27.365            19.455          9727.500
        16   01 Jun 2027 08:37:23.030   01 Jun 2027 08:37:28.898             5.868          2934.000
        17   01 Jun 2027 08:38:06.864   01 Jun 2027 08:38:12.098             5.234          2617.000
        18   01 Jun 2027 08:38:23.901   01 Jun 2027 08:38:23.901             0.000             0.000
        19   01 Jun 2027 10:10:38.762   01 Jun 2027 10:13:19.678           160.916         80458.000
        20   01 Jun 2027 10:14:03.299   01 Jun 2027 10:14:03.299             0.000             0.000
        21   01 Jun 2027 11:43:57.889   01 Jun 2027 11:45:27.298            89.409         44704.500
        22   01 Jun 2027 11:45:58.049   01 Jun 2027 11:45:58.049             0.000             0.000
        23   01 Jun 2027 11:46:33.759   01 Jun 2027 11:46:49.954            16.195          8097.500
        24   01 Jun 2027 11:51:27.773   01 Jun 2027 11:51:27.773             0.000             0.000
        25   02 Jun 2027 03:55:08.320   02 Jun 2027 03:55:56.786            48.466         24233.000
        26   02 Jun 2027 03:57:16.126   02 Jun 2027 03:57:37.546            21.420         10710.000
        27   02 Jun 2027 03:59:40.253   02 Jun 2027 03:59:42.296             2.043          1021.500
        28   02 Jun 2027 04:00:18.169   02 Jun 2027 04:00:45.271            27.102         13551.000
        29   02 Jun 2027 05:30:12.499   02 Jun 2027 05:31:14.094            61.595         30797.500
        30   02 Jun 2027 05:32:21.937   02 Jun 2027 05:33:52.982            91.045         45522.500
        31   02 Jun 2027 05:34:16.205   02 Jun 2027 05:35:06.687            50.482         25241.000
        32   02 Jun 2027 05:36:18.050   02 Jun 2027 05:36:18.050             0.000             0.000
        33   02 Jun 2027 05:37:05.473   02 Jun 2027 05:37:10.825             5.352          2676.000
        34   02 Jun 2027 05:37:42.251   02 Jun 2027 05:37:50.513             8.262          4131.000
        35   02 Jun 2027 07:07:48.388   02 Jun 2027 07:10:23.839           155.451         77725.500
        36   02 Jun 2027 07:11:00.670   02 Jun 2027 07:11:12.714            12.044          6022.000
        37   02 Jun 2027 07:11:28.887   02 Jun 2027 07:11:51.039            22.152         11076.000
        38   02 Jun 2027 07:12:30.714   02 Jun 2027 07:12:38.483             7.769          3884.500
        39   02 Jun 2027 07:13:14.101   02 Jun 2027 07:13:17.908             3.807          1903.500
        40   02 Jun 2027 07:13:56.001   02 Jun 2027 07:14:04.275             8.274          4137.000
        41   02 Jun 2027 07:14:47.415   02 Jun 2027 07:14:59.936            12.521          6260.500
        42   02 Jun 2027 08:44:33.390   02 Jun 2027 08:44:43.067             9.677          4838.500
        43   02 Jun 2027 08:44:51.731   02 Jun 2027 08:46:34.260           102.529         51264.500
        44   02 Jun 2027 08:47:02.437   02 Jun 2027 08:47:06.047             3.610          1493.219
        45   02 Jun 2027 08:47:20.738   02 Jun 2027 08:47:21.291             0.553           276.500
        46   02 Jun 2027 08:47:52.987   02 Jun 2027 08:47:57.630             4.643          1173.094
        47   02 Jun 2027 08:48:20.196   02 Jun 2027 08:48:24.254             4.058           583.781
        48   02 Jun 2027 08:48:42.432   02 Jun 2027 08:48:42.950             0.518           259.000
        49   02 Jun 2027 08:49:05.092   02 Jun 2027 08:49:08.216             3.124          1001.000
        50   02 Jun 2027 08:49:41.964   02 Jun 2027 08:49:44.182             2.218           958.719
        51   02 Jun 2027 08:50:29.502   02 Jun 2027 08:50:33.084             3.582          1285.531
        52   02 Jun 2027 08:50:54.220   02 Jun 2027 08:50:56.745             2.525           660.500
        53   02 Jun 2027 08:51:12.534   02 Jun 2027 08:51:12.534             0.000             0.000
        54   02 Jun 2027 10:22:38.131   02 Jun 2027 10:22:58.686            20.555         10204.344
        55   02 Jun 2027 10:24:17.374   02 Jun 2027 10:24:23.425             6.051          2459.000
        56   02 Jun 2027 10:24:41.178   02 Jun 2027 10:24:42.082             0.904           256.625
        57   02 Jun 2027 10:25:36.034   02 Jun 2027 10:25:38.277             2.243          1121.500
        58   02 Jun 2027 10:25:45.235   02 Jun 2027 10:25:46.636             1.401           700.500
        59   02 Jun 2027 10:25:51.058   02 Jun 2027 10:25:52.529             1.471           219.625
        60   02 Jun 2027 11:56:24.214   02 Jun 2027 11:56:31.891             7.677          2222.000
        61   02 Jun 2027 11:56:55.500   02 Jun 2027 11:56:57.845             2.345           480.187
        62   02 Jun 2027 11:57:32.031   02 Jun 2027 11:57:35.975             3.944           728.656
        63   02 Jun 2027 11:58:03.794   02 Jun 2027 11:58:05.812             2.018           786.188
        64   02 Jun 2027 11:58:56.661   02 Jun 2027 11:59:03.961             7.300          1293.750
        65   02 Jun 2027 11:59:55.102   02 Jun 2027 11:59:59.821             4.719          1598.156
        66   03 Jun 2027 04:06:50.267   03 Jun 2027 04:07:57.694            67.427         33713.500
        67   03 Jun 2027 04:08:30.598   03 Jun 2027 04:08:41.286            10.688          5344.000
        68   03 Jun 2027 04:11:31.361   03 Jun 2027 04:11:41.581            10.220          5110.000
        69   03 Jun 2027 04:12:11.672   03 Jun 2027 04:12:14.101             2.429          1214.500
        70   03 Jun 2027 05:41:43.006   03 Jun 2027 05:45:15.551           212.545        106272.500
        71   03 Jun 2027 05:49:25.385   03 Jun 2027 05:49:25.385             0.000             0.000
        72   03 Jun 2027 05:50:56.473   03 Jun 2027 05:50:56.473             0.000             0.000
        73   03 Jun 2027 07:19:48.265   03 Jun 2027 07:20:35.233            46.968         23484.000
        74   03 Jun 2027 07:20:51.352   03 Jun 2027 07:20:55.194             3.842          1490.968
        75   03 Jun 2027 07:21:32.054   03 Jun 2027 07:21:37.808             5.754           785.719
        76   03 Jun 2027 07:22:10.491   03 Jun 2027 07:22:18.315             7.824           720.813
        77   03 Jun 2027 07:23:15.018   03 Jun 2027 07:23:15.845             0.827           413.500
        78   03 Jun 2027 07:23:27.619   03 Jun 2027 07:23:33.188             5.569          1430.000
        79   03 Jun 2027 07:24:55.011   03 Jun 2027 07:25:00.101             5.090          1817.375
        80   03 Jun 2027 07:25:15.911   03 Jun 2027 07:25:19.101             3.190           283.344
        81   03 Jun 2027 07:26:00.888   03 Jun 2027 07:26:04.875             3.987          1290.031
        82   03 Jun 2027 07:26:49.093   03 Jun 2027 07:26:52.177             3.084           900.156
        83   03 Jun 2027 08:56:41.594   03 Jun 2027 08:57:11.501            29.907         12645.312
        84   03 Jun 2027 08:58:01.051   03 Jun 2027 08:58:08.179             7.128           925.594
        85   03 Jun 2027 08:58:54.796   03 Jun 2027 08:58:58.916             4.120           397.313
        86   03 Jun 2027 08:59:57.858   03 Jun 2027 09:00:05.185             7.327          1795.531
        87   03 Jun 2027 09:00:16.128   03 Jun 2027 09:00:17.810             1.682           341.969
        88   03 Jun 2027 09:00:59.452   03 Jun 2027 09:01:02.020             2.568           735.781
        89   03 Jun 2027 09:01:31.370   03 Jun 2027 09:01:35.344             3.974           917.187
        90   03 Jun 2027 09:02:25.467   03 Jun 2027 09:02:27.554             2.087          1043.500
        91   03 Jun 2027 09:02:48.179   03 Jun 2027 09:02:57.518             9.339           908.969
        92   03 Jun 2027 10:33:51.237   03 Jun 2027 10:34:09.404            18.167          6676.750
        93   03 Jun 2027 10:34:31.404   03 Jun 2027 10:34:33.564             2.160           617.687
        94   03 Jun 2027 10:35:17.647   03 Jun 2027 10:35:21.702             4.055          1354.438
        95   03 Jun 2027 10:36:04.719   03 Jun 2027 10:36:08.551             3.832          1326.281
        96   03 Jun 2027 10:36:32.979   03 Jun 2027 10:36:34.697             1.718           708.125
        97   03 Jun 2027 10:36:48.587   03 Jun 2027 10:36:50.948             2.361           422.750
        98   03 Jun 2027 10:37:11.519   03 Jun 2027 10:37:22.497            10.978           642.844
        99   03 Jun 2027 10:38:12.942   03 Jun 2027 10:38:16.582             3.640          1576.406
       100   04 Jun 2027 04:21:09.381   04 Jun 2027 04:23:16.306           126.925         63462.500
       101   04 Jun 2027 04:23:45.839   04 Jun 2027 04:24:06.767            20.928         10464.000
       102   04 Jun 2027 05:54:42.687   04 Jun 2027 05:57:01.827           139.140         69570.000
       103   04 Jun 2027 05:57:15.588   04 Jun 2027 05:57:27.414            11.826          5913.000
       104   04 Jun 2027 05:57:49.251   04 Jun 2027 05:57:58.072             8.821          4410.500
       105   04 Jun 2027 05:59:27.949   04 Jun 2027 05:59:38.814            10.865          5432.500
       106   04 Jun 2027 06:00:38.487   04 Jun 2027 06:00:38.487             0.000             0.000
       107   04 Jun 2027 06:02:15.907   04 Jun 2027 06:02:19.624             3.717          1858.500
       108   04 Jun 2027 06:02:55.685   04 Jun 2027 06:03:00.527             4.842          2421.000
       109   04 Jun 2027 06:03:09.530   04 Jun 2027 06:03:12.264             2.734          1367.000
       110   04 Jun 2027 06:03:15.145   04 Jun 2027 06:03:16.382             1.237           618.500
       111   04 Jun 2027 07:32:10.844   04 Jun 2027 07:32:36.329            25.485         12617.220
       112   04 Jun 2027 07:33:43.957   04 Jun 2027 07:33:45.674             1.717           335.125
       113   04 Jun 2027 07:34:32.672   04 Jun 2027 07:34:37.091             4.419          1468.687
       114   04 Jun 2027 07:34:40.542   04 Jun 2027 07:34:41.977             1.435            24.000
       115   04 Jun 2027 07:35:09.639   04 Jun 2027 07:35:10.230             0.591            20.781
       116   04 Jun 2027 07:35:25.305   04 Jun 2027 07:35:28.845             3.540           292.094
       117   04 Jun 2027 07:36:14.191   04 Jun 2027 07:36:21.041             6.850          1207.250
       118   04 Jun 2027 07:37:32.483   04 Jun 2027 07:37:37.242             4.759          2181.656
       119   04 Jun 2027 07:37:58.453   04 Jun 2027 07:37:59.530             1.077           183.500
       120   04 Jun 2027 07:38:20.408   04 Jun 2027 07:38:20.408             0.000             0.000
       121   04 Jun 2027 07:38:53.206   04 Jun 2027 07:38:57.408             4.202          1627.031
       122   04 Jun 2027 09:09:09.814   04 Jun 2027 09:09:29.432            19.618          9675.156
       123   04 Jun 2027 09:10:12.998   04 Jun 2027 09:10:21.800             8.802          1247.063
       124   04 Jun 2027 09:10:43.949   04 Jun 2027 09:10:48.541             4.592           206.687
       125   04 Jun 2027 09:10:57.068   04 Jun 2027 09:11:00.510             3.442           255.469
       126   04 Jun 2027 09:11:53.264   04 Jun 2027 09:11:57.778             4.514          1648.562
       127   04 Jun 2027 09:12:41.192   04 Jun 2027 09:12:44.152             2.960          1356.688
       128   04 Jun 2027 09:12:56.112   04 Jun 2027 09:13:02.270             6.158           292.594
       129   04 Jun 2027 09:13:25.674   04 Jun 2027 09:13:27.077             1.403           468.688
       130   04 Jun 2027 09:13:45.421   04 Jun 2027 09:13:46.547             1.126           448.750
       131   04 Jun 2027 09:14:14.784   04 Jun 2027 09:14:17.922             3.138           802.844
       132   04 Jun 2027 10:46:03.843   04 Jun 2027 10:46:18.749            14.906          7453.000
       133   04 Jun 2027 10:46:31.347   04 Jun 2027 10:46:31.347             0.000             0.000
       134   04 Jun 2027 10:46:59.576   04 Jun 2027 10:47:05.355             5.779          1481.312
       135   04 Jun 2027 10:47:18.275   04 Jun 2027 10:47:18.275             0.000             0.000
       136   04 Jun 2027 10:47:27.580   04 Jun 2027 10:47:31.960             4.380           579.562
       137   04 Jun 2027 10:47:40.110   04 Jun 2027 10:47:44.844             4.734           106.031
       138   04 Jun 2027 10:48:17.816   04 Jun 2027 10:48:21.485             3.669          1030.375
       139   04 Jun 2027 10:49:06.255   04 Jun 2027 10:49:08.656             2.401          1200.500
       140   04 Jun 2027 10:49:57.326   04 Jun 2027 10:49:58.248             0.922           461.000
       141   05 Jun 2027 04:33:14.602   05 Jun 2027 04:36:50.121           215.519        107759.500
       142   05 Jun 2027 06:05:24.627   05 Jun 2027 06:05:33.990             9.363          4681.500
       143   05 Jun 2027 06:07:21.604   05 Jun 2027 06:08:38.979            77.375         38429.062
       144   05 Jun 2027 06:08:58.164   05 Jun 2027 06:09:00.360             2.196           599.531
       145   05 Jun 2027 06:09:39.486   05 Jun 2027 06:09:49.307             9.821          1061.813
       146   05 Jun 2027 06:11:00.476   05 Jun 2027 06:11:05.575             5.099          2224.031
       147   05 Jun 2027 06:12:04.711   05 Jun 2027 06:12:10.573             5.862          1848.000
       148   05 Jun 2027 06:13:09.468   05 Jun 2027 06:13:13.110             3.642          1365.438
       149   05 Jun 2027 06:13:27.273   05 Jun 2027 06:13:29.654             2.381           442.594
       150   05 Jun 2027 06:13:51.618   05 Jun 2027 06:13:59.067             7.449           668.031
       151   05 Jun 2027 06:14:40.146   05 Jun 2027 06:14:42.437             2.291          1073.062
       152   05 Jun 2027 06:15:08.472   05 Jun 2027 06:15:10.011             1.539           500.625
       153   05 Jun 2027 07:44:19.907   05 Jun 2027 07:44:41.010            21.103         10161.594
       154   05 Jun 2027 07:44:58.813   05 Jun 2027 07:44:59.909             1.096           169.562
       155   05 Jun 2027 07:45:38.736   05 Jun 2027 07:45:46.545             7.809           429.812
       156   05 Jun 2027 07:46:48.029   05 Jun 2027 07:46:52.963             4.934          1785.406
       157   05 Jun 2027 07:47:27.884   05 Jun 2027 07:47:31.490             3.606           465.750
       158   05 Jun 2027 07:48:15.844   05 Jun 2027 07:48:17.820             1.976           930.938
       159   05 Jun 2027 07:48:44.954   05 Jun 2027 07:48:46.410             1.456           638.781
       160   05 Jun 2027 07:49:04.212   05 Jun 2027 07:49:09.288             5.076           190.281
       161   05 Jun 2027 07:49:29.127   05 Jun 2027 07:49:30.518             1.391           172.500
       162   05 Jun 2027 07:49:59.331   05 Jun 2027 07:50:01.420             2.089           187.469
       163   05 Jun 2027 07:50:38.566   05 Jun 2027 07:50:45.049             6.483          1013.312
       164   05 Jun 2027 07:50:55.607   05 Jun 2027 07:50:56.860             1.253           112.688
       165   05 Jun 2027 09:21:38.913   05 Jun 2027 09:22:01.201            22.288         11060.875
       166   05 Jun 2027 09:22:19.943   05 Jun 2027 09:22:22.098             2.155           549.063
       167   05 Jun 2027 09:22:35.115   05 Jun 2027 09:22:37.296             2.181           181.437
       168   05 Jun 2027 09:22:41.439   05 Jun 2027 09:22:47.186             5.747            67.937
       169   05 Jun 2027 09:23:44.236   05 Jun 2027 09:23:56.934            12.698          1178.500
       170   05 Jun 2027 09:24:26.322   05 Jun 2027 09:24:26.592             0.270           135.000
       171   05 Jun 2027 09:24:34.022   05 Jun 2027 09:24:38.674             4.652           986.531
       172   05 Jun 2027 09:25:00.901   05 Jun 2027 09:25:05.127             4.226           691.406
       173   05 Jun 2027 09:25:44.921   05 Jun 2027 09:25:45.364             0.443           221.500
       174   05 Jun 2027 09:25:47.613   05 Jun 2027 09:25:50.935             3.322           960.281
       175   05 Jun 2027 09:26:18.400   05 Jun 2027 09:26:21.141             2.741           858.281
       176   05 Jun 2027 10:58:05.090   05 Jun 2027 10:58:28.140            23.050          7619.437
       177   05 Jun 2027 10:58:46.772   05 Jun 2027 10:58:55.179             8.407           431.875
       178   05 Jun 2027 10:59:11.396   05 Jun 2027 10:59:13.688             2.292           505.750
       179   05 Jun 2027 10:59:53.608   05 Jun 2027 11:00:00.883             7.275          1247.500
       180   05 Jun 2027 11:00:57.465   05 Jun 2027 11:01:01.101             3.636          1688.531
       181   05 Jun 2027 11:01:02.285   05 Jun 2027 11:01:04.722             2.437            37.000
       182   05 Jun 2027 11:01:26.054   05 Jun 2027 11:01:36.224            10.170           575.719
       183   05 Jun 2027 11:01:57.052   05 Jun 2027 11:01:58.254             1.202           510.156
       184   05 Jun 2027 11:02:03.806   05 Jun 2027 11:02:08.606             4.800           173.500
       185   05 Jun 2027 11:02:32.330   05 Jun 2027 11:02:34.764             2.434           451.250
       186   05 Jun 2027 11:02:46.289   05 Jun 2027 11:02:46.478             0.189            88.563
       187   06 Jun 2027 03:08:55.826   06 Jun 2027 03:08:59.822             3.996          1998.000
       188   06 Jun 2027 03:09:26.680   06 Jun 2027 03:10:04.195            37.515         18757.500
       189   06 Jun 2027 03:11:53.453   06 Jun 2027 03:11:58.881             5.428          2714.000
       190   06 Jun 2027 04:45:24.096   06 Jun 2027 04:49:02.626           218.530        109265.000
       191   06 Jun 2027 06:20:34.913   06 Jun 2027 06:21:14.369            39.456         19149.594
       192   06 Jun 2027 06:21:21.020   06 Jun 2027 06:21:21.020             0.000             0.000
       193   06 Jun 2027 06:21:21.184   06 Jun 2027 06:21:29.550             8.366            86.500
       194   06 Jun 2027 06:22:00.500   06 Jun 2027 06:22:03.136             2.636           831.750
       195   06 Jun 2027 06:23:51.908   06 Jun 2027 06:23:56.424             4.516          2258.000
       196   06 Jun 2027 06:25:50.825   06 Jun 2027 06:26:00.281             9.456          3655.062
       197   06 Jun 2027 06:26:30.900   06 Jun 2027 06:26:33.663             2.763           386.875
       198   06 Jun 2027 06:26:42.865   06 Jun 2027 06:26:46.056             3.191           174.031
       199   06 Jun 2027 06:27:01.593   06 Jun 2027 06:27:02.467             0.874            58.687
       200   06 Jun 2027 07:56:53.785   06 Jun 2027 07:57:16.194            22.409         10315.563
       201   06 Jun 2027 07:58:32.485   06 Jun 2027 07:58:33.413             0.928           369.906
       202   06 Jun 2027 07:59:27.689   06 Jun 2027 07:59:31.743             4.054          1426.594
       203   06 Jun 2027 08:00:07.381   06 Jun 2027 08:00:10.306             2.925           955.250
       204   06 Jun 2027 08:00:22.902   06 Jun 2027 08:00:24.294             1.392           340.438
       205   06 Jun 2027 08:00:51.724   06 Jun 2027 08:00:52.872             1.148           549.500
       206   06 Jun 2027 08:01:52.340   06 Jun 2027 08:01:59.799             7.459          1821.625
       207   06 Jun 2027 08:02:14.490   06 Jun 2027 08:02:17.513             3.023           350.000
       208   06 Jun 2027 08:02:50.667   06 Jun 2027 08:02:53.654             2.987           542.594
       209   06 Jun 2027 08:03:04.005   06 Jun 2027 08:03:09.552             5.547           323.469
       210   06 Jun 2027 09:34:17.054   06 Jun 2027 09:34:36.430            19.376          9434.156
       211   06 Jun 2027 09:34:45.306   06 Jun 2027 09:34:46.878             1.572           277.375
       212   06 Jun 2027 09:35:44.740   06 Jun 2027 09:35:54.488             9.748          1537.375
       213   06 Jun 2027 09:36:09.812   06 Jun 2027 09:36:14.045             4.233           478.875
       214   06 Jun 2027 09:36:36.603   06 Jun 2027 09:36:40.799             4.196           412.344
       215   06 Jun 2027 09:37:44.600   06 Jun 2027 09:37:49.037             4.437          1877.719
       216   06 Jun 2027 09:38:09.766   06 Jun 2027 09:38:12.196             2.430           509.125
       217   06 Jun 2027 09:38:39.454   06 Jun 2027 09:38:43.437             3.983           574.094
       218   06 Jun 2027 11:10:28.004   06 Jun 2027 11:10:50.918            22.914          8606.937
       219   06 Jun 2027 11:11:09.125   06 Jun 2027 11:11:11.759             2.634           486.750
       220   06 Jun 2027 11:11:27.207   06 Jun 2027 11:11:27.207             0.000             0.000
       221   06 Jun 2027 11:12:19.092   06 Jun 2027 11:12:29.406            10.314          2095.656
       222   06 Jun 2027 11:13:15.172   06 Jun 2027 11:13:23.538             8.366          1141.438
       223   06 Jun 2027 11:14:17.092   06 Jun 2027 11:14:20.474             3.382          1655.063
       224   06 Jun 2027 11:14:41.890   06 Jun 2027 11:14:41.943             0.053            26.500
       225   07 Jun 2027 03:20:56.827   07 Jun 2027 03:21:16.729            19.902          9951.000
       226   07 Jun 2027 03:21:32.914   07 Jun 2027 03:21:45.664            12.750          6375.000
       227   07 Jun 2027 03:22:01.591   07 Jun 2027 03:22:11.623            10.032          5016.000
       228   07 Jun 2027 03:23:15.704   07 Jun 2027 03:23:28.727            13.023          6511.500
       229   07 Jun 2027 03:23:32.633   07 Jun 2027 03:23:48.698            16.065          8032.500
       230   07 Jun 2027 04:57:24.373   07 Jun 2027 04:58:04.788            40.415         20207.500
       231   07 Jun 2027 04:58:33.398   07 Jun 2027 05:00:54.039           140.641         70320.500
       232   07 Jun 2027 06:32:37.267   07 Jun 2027 06:33:27.800            50.533         25174.500
       233   07 Jun 2027 06:33:42.290   07 Jun 2027 06:33:42.290             0.000             0.000
       234   07 Jun 2027 06:35:03.529   07 Jun 2027 06:35:11.334             7.805          2700.250
       235   07 Jun 2027 06:35:24.282   07 Jun 2027 06:35:26.647             2.365           337.531
       236   07 Jun 2027 06:35:29.710   07 Jun 2027 06:35:29.710             0.000             0.000
       237   07 Jun 2027 06:35:31.599   07 Jun 2027 06:35:32.929             1.330           154.750
       238   07 Jun 2027 06:36:00.628   07 Jun 2027 06:36:09.613             8.985           321.312
       239   07 Jun 2027 06:36:53.377   07 Jun 2027 06:36:57.024             3.647          1019.781
       240   07 Jun 2027 06:37:06.604   07 Jun 2027 06:37:08.654             2.050            38.625
       241   07 Jun 2027 06:37:26.522   07 Jun 2027 06:37:32.958             6.436           511.687
       242   07 Jun 2027 06:38:19.370   07 Jun 2027 06:38:20.724             1.354           572.625
       243   07 Jun 2027 06:38:39.198   07 Jun 2027 06:38:42.073             2.875           577.313
       244   07 Jun 2027 06:39:12.685   07 Jun 2027 06:39:15.841             3.156           809.094
       245   07 Jun 2027 08:08:32.570   07 Jun 2027 08:08:55.118            22.548         10956.000
       246   07 Jun 2027 08:09:29.262   07 Jun 2027 08:09:31.285             2.023           840.125
       247   07 Jun 2027 08:10:32.704   07 Jun 2027 08:10:37.950             5.246          1687.281
       248   07 Jun 2027 08:11:08.813   07 Jun 2027 08:11:10.016             1.203           245.031
       249   07 Jun 2027 08:12:52.388   07 Jun 2027 08:13:04.568            12.180          2970.219
       250   07 Jun 2027 08:13:57.074   07 Jun 2027 08:14:00.384             3.310          1261.719
       251   07 Jun 2027 08:14:34.410   07 Jun 2027 08:14:36.803             2.393           787.062
       252   07 Jun 2027 09:46:32.073   07 Jun 2027 09:46:52.344            20.271          8719.000
       253   07 Jun 2027 09:47:44.251   07 Jun 2027 09:47:47.256             3.005          1401.281
       254   07 Jun 2027 09:48:16.796   07 Jun 2027 09:48:21.834             5.038           901.719
       255   07 Jun 2027 09:48:34.927   07 Jun 2027 09:48:36.202             1.275           409.156
       256   07 Jun 2027 09:48:56.372   07 Jun 2027 09:48:59.965             3.593           581.250
       257   07 Jun 2027 09:49:52.236   07 Jun 2027 09:49:56.067             3.831          1577.687
       258   07 Jun 2027 09:49:57.311   07 Jun 2027 09:49:57.700             0.389            25.031
       259   07 Jun 2027 09:50:01.729   07 Jun 2027 09:50:09.186             7.457           125.906
       260   07 Jun 2027 09:50:48.561   07 Jun 2027 09:50:51.430             2.869           898.688
       261   07 Jun 2027 11:22:23.223   07 Jun 2027 11:22:35.874            12.651          6325.500
       262   07 Jun 2027 11:22:45.434   07 Jun 2027 11:22:46.541             1.107           512.531
       263   07 Jun 2027 11:23:19.525   07 Jun 2027 11:23:27.887             8.362           569.813
       264   07 Jun 2027 11:24:04.052   07 Jun 2027 11:24:06.586             2.534          1070.000
       265   07 Jun 2027 11:24:14.540   07 Jun 2027 11:24:16.249             1.709           248.562
       266   07 Jun 2027 11:24:49.917   07 Jun 2027 11:24:51.220             1.303           651.500
       267   07 Jun 2027 11:25:03.569   07 Jun 2027 11:25:05.214             1.645           742.625
       268   07 Jun 2027 11:26:02.016   07 Jun 2027 11:26:02.016             0.000             0.000
       269   07 Jun 2027 11:26:12.466   07 Jun 2027 11:26:15.057             2.591          1088.250
       270   07 Jun 2027 11:26:35.084   07 Jun 2027 11:26:36.366             1.282           625.844
       271   07 Jun 2027 11:26:45.723   07 Jun 2027 11:26:48.980             3.257           204.188
       272   07 Jun 2027 11:27:13.007   07 Jun 2027 11:27:13.007             0.000             0.000
       273   08 Jun 2027 03:33:23.020   08 Jun 2027 03:34:10.246            47.226         23613.000
       274   08 Jun 2027 03:34:26.446   08 Jun 2027 03:34:33.866             7.420          3710.000
       275   08 Jun 2027 05:09:08.458   08 Jun 2027 05:10:29.421            80.963         40481.500
       276   08 Jun 2027 05:11:05.874   08 Jun 2027 05:13:27.388           141.514         70757.000
       277   08 Jun 2027 06:43:52.346   08 Jun 2027 06:44:22.621            30.275         15137.500
       278   08 Jun 2027 06:44:38.490   08 Jun 2027 06:44:40.372             1.882           780.812
       279   08 Jun 2027 06:45:04.203   08 Jun 2027 06:45:08.703             4.500           265.187
       280   08 Jun 2027 06:45:56.154   08 Jun 2027 06:45:59.326             3.172           944.062
       281   08 Jun 2027 06:46:34.864   08 Jun 2027 06:46:37.250             2.386           908.188
       282   08 Jun 2027 06:47:17.293   08 Jun 2027 06:47:20.412             3.119          1160.188
       283   08 Jun 2027 06:49:14.324   08 Jun 2027 06:49:21.486             7.162          3472.344
       284   08 Jun 2027 06:50:20.158   08 Jun 2027 06:50:27.892             7.734          1833.500
       285   08 Jun 2027 06:51:05.342   08 Jun 2027 06:51:07.901             2.559          1155.437
       286   08 Jun 2027 08:20:41.955   08 Jun 2027 08:21:07.805            25.850         12724.625
       287   08 Jun 2027 08:22:03.968   08 Jun 2027 08:22:08.529             4.561           733.313
       288   08 Jun 2027 08:22:44.399   08 Jun 2027 08:22:45.992             1.593           483.937
       289   08 Jun 2027 08:23:14.158   08 Jun 2027 08:23:17.890             3.732           380.375
       290   08 Jun 2027 08:24:26.782   08 Jun 2027 08:24:33.735             6.953          2140.094
       291   08 Jun 2027 08:24:43.447   08 Jun 2027 08:24:45.594             2.147           144.281
       292   08 Jun 2027 08:25:14.588   08 Jun 2027 08:25:18.192             3.604           582.969
       293   08 Jun 2027 08:25:30.479   08 Jun 2027 08:25:30.862             0.383           184.625
       294   08 Jun 2027 08:25:49.016   08 Jun 2027 08:25:50.560             1.544           421.312
       295   08 Jun 2027 08:26:40.248   08 Jun 2027 08:26:47.073             6.825          1162.094
       296   08 Jun 2027 08:26:54.191   08 Jun 2027 08:26:56.644             2.453            75.750
       297   08 Jun 2027 09:58:54.172   08 Jun 2027 09:59:14.447            20.275          8496.531
       298   08 Jun 2027 09:59:42.918   08 Jun 2027 09:59:51.190             8.272           889.719
       299   08 Jun 2027 10:00:22.430   08 Jun 2027 10:00:24.651             2.221           529.250
       300   08 Jun 2027 10:00:52.637   08 Jun 2027 10:01:00.511             7.874           874.125
       301   08 Jun 2027 10:01:40.387   08 Jun 2027 10:01:44.068             3.681           908.062
       302   08 Jun 2027 10:02:03.292   08 Jun 2027 10:02:03.789             0.497           213.187
       303   08 Jun 2027 10:02:13.348   08 Jun 2027 10:02:15.744             2.396           210.031
       304   08 Jun 2027 10:02:21.509   08 Jun 2027 10:02:21.509             0.000             0.000
       305   08 Jun 2027 11:32:11.970   08 Jun 2027 11:32:24.447            12.477          6238.500
       306   08 Jun 2027 11:32:50.479   08 Jun 2027 11:32:53.161             2.682          1080.906
       307   08 Jun 2027 11:33:19.681   08 Jun 2027 11:33:26.374             6.693           718.313
       308   08 Jun 2027 11:33:46.699   08 Jun 2027 11:33:50.458             3.759            94.000
       309   08 Jun 2027 11:34:15.781   08 Jun 2027 11:34:21.002             5.221           332.188
       310   08 Jun 2027 11:34:54.503   08 Jun 2027 11:34:58.279             3.776           753.375
       311   08 Jun 2027 11:35:15.306   08 Jun 2027 11:35:15.306             0.000             0.000
       312   08 Jun 2027 11:35:20.746   08 Jun 2027 11:35:27.298             6.552           254.156
       313   08 Jun 2027 11:36:07.363   08 Jun 2027 11:36:11.453             4.090           921.500
       314   08 Jun 2027 11:37:03.080   08 Jun 2027 11:37:08.640             5.560          1505.594
       315   08 Jun 2027 11:37:27.064   08 Jun 2027 11:37:38.532            11.468           428.937
       316   08 Jun 2027 11:37:55.487   08 Jun 2027 11:38:01.671             6.184           102.656
       317   08 Jun 2027 11:38:23.232   08 Jun 2027 11:38:33.706            10.474           623.875
       318   08 Jun 2027 11:38:51.205   08 Jun 2027 11:38:55.476             4.271           373.187
       319   08 Jun 2027 11:39:40.931   08 Jun 2027 11:39:43.404             2.473           868.250
       320   09 Jun 2027 03:43:58.272   09 Jun 2027 03:44:59.319            61.047         30523.500
       321   09 Jun 2027 03:46:21.485   09 Jun 2027 03:46:25.027             3.542          1771.000
       322   09 Jun 2027 03:47:55.453   09 Jun 2027 03:48:02.733             7.280          3640.000
       323   09 Jun 2027 03:48:13.142   09 Jun 2027 03:48:35.717            22.575         11287.500
       324   09 Jun 2027 03:48:38.007   09 Jun 2027 03:48:38.007             0.000             0.000
       325   09 Jun 2027 05:19:01.712   09 Jun 2027 05:20:20.729            79.017         39508.500
       326   09 Jun 2027 05:20:52.376   09 Jun 2027 05:21:35.947            43.571         21785.500
       327   09 Jun 2027 05:22:28.557   09 Jun 2027 05:23:24.258            55.701         27850.500
       328   09 Jun 2027 05:23:36.704   09 Jun 2027 05:23:38.076             1.372           686.000
       329   09 Jun 2027 05:23:51.071   09 Jun 2027 05:24:05.675            14.604          7302.000
       330   09 Jun 2027 05:25:38.494   09 Jun 2027 05:25:45.973             7.479          3739.500
       331   09 Jun 2027 06:56:00.406   09 Jun 2027 06:56:44.821            44.415         19754.687
       332   09 Jun 2027 06:57:43.472   09 Jun 2027 06:57:47.127             3.655           625.687
       333   09 Jun 2027 06:58:25.330   09 Jun 2027 06:58:32.295             6.965           734.750
       334   09 Jun 2027 07:00:17.716   09 Jun 2027 07:00:24.825             7.109          3211.094
       335   09 Jun 2027 07:01:13.715   09 Jun 2027 07:01:16.816             3.101          1234.781
       336   09 Jun 2027 07:01:40.860   09 Jun 2027 07:01:42.061             1.201           503.375
       337   09 Jun 2027 07:02:16.344   09 Jun 2027 07:02:20.028             3.684          1071.344
       338   09 Jun 2027 07:03:24.307   09 Jun 2027 07:03:24.628             0.321           160.500
       339   09 Jun 2027 08:32:58.467   09 Jun 2027 08:33:23.597            25.130         11961.594
       340   09 Jun 2027 08:34:42.089   09 Jun 2027 08:34:46.281             4.192          1458.437
       341   09 Jun 2027 08:35:44.530   09 Jun 2027 08:35:46.985             2.455           960.719
       342   09 Jun 2027 08:36:27.904   09 Jun 2027 08:36:33.252             5.348          1192.281
       343   09 Jun 2027 08:36:53.410   09 Jun 2027 08:36:54.404             0.994           340.406
       344   09 Jun 2027 08:36:59.853   09 Jun 2027 08:37:00.207             0.354             4.375
       345   09 Jun 2027 08:37:55.808   09 Jun 2027 08:38:00.473             4.665          1602.000
       346   09 Jun 2027 08:38:12.671   09 Jun 2027 08:38:13.302             0.631           131.656
       347   09 Jun 2027 08:38:47.984   09 Jun 2027 08:38:51.878             3.894          1046.719
       348   09 Jun 2027 10:10:53.877   09 Jun 2027 10:11:13.879            20.002          9906.125
       349   09 Jun 2027 10:12:13.008   09 Jun 2027 10:12:18.845             5.837          1650.688
       350   09 Jun 2027 10:12:34.203   09 Jun 2027 10:12:35.576             1.373            40.344
       351   09 Jun 2027 10:13:34.314   09 Jun 2027 10:13:42.675             8.361           955.750
       352   09 Jun 2027 10:13:54.224   09 Jun 2027 10:13:55.370             1.146           257.219
       353   09 Jun 2027 10:14:04.995   09 Jun 2027 10:14:05.561             0.566           183.156
       354   09 Jun 2027 10:14:28.929   09 Jun 2027 10:14:29.776             0.847           421.281
       355   09 Jun 2027 10:14:31.727   09 Jun 2027 10:14:33.197             1.470            37.563
       356   09 Jun 2027 11:44:13.657   09 Jun 2027 11:44:25.773            12.116          6016.687
       357   09 Jun 2027 11:45:43.501   09 Jun 2027 11:45:46.241             2.740          1327.719
       358   09 Jun 2027 11:46:12.838   09 Jun 2027 11:46:14.725             1.887           831.156
       359   09 Jun 2027 11:47:27.091   09 Jun 2027 11:47:37.961            10.870          2261.438
       360   09 Jun 2027 11:47:54.349   09 Jun 2027 11:47:59.100             4.751           299.125
       361   09 Jun 2027 11:48:12.705   09 Jun 2027 11:48:12.705             0.000             0.000
       362   09 Jun 2027 11:48:22.552   09 Jun 2027 11:48:30.693             8.141           718.906
       363   09 Jun 2027 11:49:04.533   09 Jun 2027 11:49:09.494             4.961          1051.187
       364   09 Jun 2027 11:50:20.893   09 Jun 2027 11:50:24.541             3.648          1824.000
       365   09 Jun 2027 11:51:08.792   09 Jun 2027 11:51:12.143             3.351          1587.250
       366   09 Jun 2027 11:51:48.934   09 Jun 2027 11:51:53.256             4.322          1149.719
       367   10 Jun 2027 03:55:22.822   10 Jun 2027 03:56:47.111            84.289         42144.500
       368   10 Jun 2027 03:59:56.608   10 Jun 2027 03:59:57.420             0.812           406.000
       369   10 Jun 2027 04:00:32.942   10 Jun 2027 04:00:41.178             8.236          4118.000
       370   10 Jun 2027 05:30:26.402   10 Jun 2027 05:32:36.297           129.895         64947.500
       371   10 Jun 2027 05:32:44.136   10 Jun 2027 05:33:25.491            41.355         20677.500
       372   10 Jun 2027 05:33:44.556   10 Jun 2027 05:33:54.072             9.516          4758.000
       373   10 Jun 2027 05:34:30.022   10 Jun 2027 05:34:30.894             0.872           436.000
       374   10 Jun 2027 05:35:49.717   10 Jun 2027 05:35:51.330             1.613           806.500
       375   10 Jun 2027 05:36:21.914   10 Jun 2027 05:36:33.529            11.615          5807.500
       376   10 Jun 2027 05:36:50.913   10 Jun 2027 05:36:52.073             1.160           580.000
       377   10 Jun 2027 05:37:17.843   10 Jun 2027 05:37:20.970             3.127          1563.500
       378   10 Jun 2027 05:37:54.164   10 Jun 2027 05:37:54.164             0.000             0.000
       379   10 Jun 2027 07:08:02.360   10 Jun 2027 07:09:03.799            61.439         28668.782
       380   10 Jun 2027 07:09:46.518   10 Jun 2027 07:09:48.413             1.895           725.156
       381   10 Jun 2027 07:10:44.833   10 Jun 2027 07:10:47.363             2.530           714.125
       382   10 Jun 2027 07:10:56.996   10 Jun 2027 07:10:58.033             1.037            98.094
       383   10 Jun 2027 07:11:04.449   10 Jun 2027 07:11:06.609             2.160           156.813
       384   10 Jun 2027 07:12:15.282   10 Jun 2027 07:12:21.139             5.857          1859.125
       385   10 Jun 2027 07:12:45.047   10 Jun 2027 07:12:50.640             5.593           667.844
       386   10 Jun 2027 07:12:55.345   10 Jun 2027 07:12:58.609             3.264            74.875
       387   10 Jun 2027 07:13:25.678   10 Jun 2027 07:13:27.663             1.985           595.219
       388   10 Jun 2027 07:14:14.926   10 Jun 2027 07:14:18.895             3.969          1467.000
       389   10 Jun 2027 07:15:02.064   10 Jun 2027 07:15:04.958             2.894          1349.031
       390   10 Jun 2027 08:44:48.168   10 Jun 2027 08:44:57.740             9.572          4786.000
       391   10 Jun 2027 08:45:07.030   10 Jun 2027 08:45:24.728            17.698          6659.750
       392   10 Jun 2027 08:45:49.943   10 Jun 2027 08:45:51.507             1.564           278.594
       393   10 Jun 2027 08:46:01.486   10 Jun 2027 08:46:02.567             1.081           220.219
       394   10 Jun 2027 08:47:07.956   10 Jun 2027 08:47:09.832             1.876           609.625
       395   10 Jun 2027 08:47:58.661   10 Jun 2027 08:48:02.904             4.243          1289.375
       396   10 Jun 2027 08:48:22.728   10 Jun 2027 08:48:25.036             2.308           129.281
       397   10 Jun 2027 08:48:45.223   10 Jun 2027 08:48:46.008             0.785           306.375
       398   10 Jun 2027 08:48:58.026   10 Jun 2027 08:49:00.843             2.817           371.719
       399   10 Jun 2027 08:49:02.724   10 Jun 2027 08:49:03.480             0.756             8.906
       400   10 Jun 2027 08:50:15.732   10 Jun 2027 08:50:18.151             2.419          1209.500
       401   10 Jun 2027 08:51:11.159   10 Jun 2027 08:51:20.860             9.701          2704.875
       402   10 Jun 2027 10:22:53.119   10 Jun 2027 10:23:11.664            18.545          7709.125
       403   10 Jun 2027 10:23:19.128   10 Jun 2027 10:23:19.566             0.438           181.000
       404   10 Jun 2027 10:24:04.020   10 Jun 2027 10:24:11.397             7.377          1338.469
       405   10 Jun 2027 10:25:01.762   10 Jun 2027 10:25:06.122             4.360          1402.594
       406   10 Jun 2027 10:26:04.483   10 Jun 2027 10:26:06.801             2.318          1096.281
       407   10 Jun 2027 10:26:25.560   10 Jun 2027 10:26:26.754             1.194           585.437
       408   10 Jun 2027 10:26:57.223   10 Jun 2027 10:27:01.988             4.765           780.281
       409   10 Jun 2027 11:56:40.078   10 Jun 2027 11:56:43.886             3.808          1833.594
       410   10 Jun 2027 11:56:55.003   10 Jun 2027 11:56:56.610             1.607           219.875
       411   10 Jun 2027 11:57:47.523   10 Jun 2027 11:57:52.736             5.213          1392.281
       412   10 Jun 2027 11:58:38.857   10 Jun 2027 11:58:44.341             5.484          1068.563
       413   10 Jun 2027 11:58:53.851   10 Jun 2027 11:58:55.757             1.906           297.187
       414   11 Jun 2027 04:07:05.108   11 Jun 2027 04:08:26.021            80.913         40456.500
       415   11 Jun 2027 04:09:14.074   11 Jun 2027 04:09:20.148             6.074          3037.000
       416   11 Jun 2027 04:09:40.969   11 Jun 2027 04:09:42.468             1.499           749.500
       417   11 Jun 2027 04:10:23.849   11 Jun 2027 04:10:24.277             0.428           214.000
       418   11 Jun 2027 04:11:23.115   11 Jun 2027 04:11:23.115             0.000             0.000
       419   11 Jun 2027 04:11:29.020   11 Jun 2027 04:11:47.386            18.366          9183.000
       420   11 Jun 2027 05:41:57.474   11 Jun 2027 05:44:42.687           165.213         82606.500
       421   11 Jun 2027 05:45:08.424   11 Jun 2027 05:45:31.339            22.915         11457.500
       422   11 Jun 2027 05:47:30.189   11 Jun 2027 05:47:53.935            23.746         11873.000
       423   11 Jun 2027 05:50:54.788   11 Jun 2027 05:51:07.465            12.677          6338.500
       424   11 Jun 2027 05:51:12.886   11 Jun 2027 05:51:18.285             5.399          2699.500
       425   11 Jun 2027 07:20:02.939   11 Jun 2027 07:20:39.414            36.475         17969.531
       426   11 Jun 2027 07:21:05.859   11 Jun 2027 07:21:09.857             3.998           411.063
       427   11 Jun 2027 07:21:46.220   11 Jun 2027 07:21:49.446             3.226            57.219
       428   11 Jun 2027 07:22:03.482   11 Jun 2027 07:22:05.480             1.998           438.625
       429   11 Jun 2027 07:23:20.646   11 Jun 2027 07:23:26.211             5.565          2314.375
       430   11 Jun 2027 07:24:04.371   11 Jun 2027 07:24:04.371             0.000             0.000
       431   11 Jun 2027 07:24:13.335   11 Jun 2027 07:24:15.724             2.389          1194.500
       432   11 Jun 2027 07:24:31.146   11 Jun 2027 07:24:34.399             3.253           599.437
       433   11 Jun 2027 07:24:40.318   11 Jun 2027 07:24:43.528             3.210           113.719
       434   11 Jun 2027 07:26:05.273   11 Jun 2027 07:26:12.288             7.015          1946.531
       435   11 Jun 2027 07:26:27.246   11 Jun 2027 07:26:28.236             0.990           331.844
       436   11 Jun 2027 07:27:03.829   11 Jun 2027 07:27:09.265             5.436           872.781
       437   11 Jun 2027 07:27:28.213   11 Jun 2027 07:27:29.749             1.536           578.438
       438   11 Jun 2027 08:56:56.853   11 Jun 2027 08:57:18.729            21.876         10815.656
       439   11 Jun 2027 08:58:14.222   11 Jun 2027 08:58:16.576             2.354           854.031
       440   11 Jun 2027 08:59:33.590   11 Jun 2027 08:59:38.048             4.458          2169.844
       441   11 Jun 2027 09:00:20.518   11 Jun 2027 09:00:20.550             0.032            10.812
       442   11 Jun 2027 09:00:33.936   11 Jun 2027 09:00:35.451             1.515           418.313
       443   11 Jun 2027 09:00:52.985   11 Jun 2027 09:00:53.781             0.796            79.156
       444   11 Jun 2027 09:01:00.315   11 Jun 2027 09:01:02.207             1.892           204.188
       445   11 Jun 2027 09:01:03.479   11 Jun 2027 09:01:04.960             1.481            39.750
       446   11 Jun 2027 09:01:10.571   11 Jun 2027 09:01:11.963             1.392           175.344
       447   11 Jun 2027 09:01:27.005   11 Jun 2027 09:01:28.727             1.722           327.219
       448   11 Jun 2027 09:01:36.967   11 Jun 2027 09:01:37.507             0.540            72.563
       449   11 Jun 2027 09:02:03.063   11 Jun 2027 09:02:04.125             1.062           531.000
       450   11 Jun 2027 09:02:15.426   11 Jun 2027 09:02:15.681             0.255           127.500
       451   11 Jun 2027 09:02:40.019   11 Jun 2027 09:02:42.948             2.929           873.594
       452   11 Jun 2027 09:03:02.917   11 Jun 2027 09:03:06.032             3.115           624.031
       453   11 Jun 2027 10:34:06.106   11 Jun 2027 10:34:26.176            20.070          7877.781
       454   11 Jun 2027 10:35:32.281   11 Jun 2027 10:35:37.537             5.256          2065.781
       455   11 Jun 2027 10:35:52.920   11 Jun 2027 10:35:52.920             0.000             0.000
       456   11 Jun 2027 10:36:10.962   11 Jun 2027 10:36:17.087             6.125           731.312
       457   11 Jun 2027 10:37:05.725   11 Jun 2027 10:37:14.741             9.016          1493.375
       458   11 Jun 2027 10:37:57.460   11 Jun 2027 10:38:07.248             9.788           991.812
       459   12 Jun 2027 04:21:24.305   12 Jun 2027 04:23:32.406           128.101         64050.500
       460   12 Jun 2027 04:24:25.616   12 Jun 2027 04:24:57.091            31.475         15737.500
       461   12 Jun 2027 05:54:57.574   12 Jun 2027 05:56:55.799           118.225         59112.500
       462   12 Jun 2027 05:59:33.029   12 Jun 2027 05:59:35.704             2.675          1337.500
       463   12 Jun 2027 06:00:08.548   12 Jun 2027 06:00:08.548             0.000             0.000
       464   12 Jun 2027 06:01:10.007   12 Jun 2027 06:01:26.143            16.136          8068.000
       465   12 Jun 2027 06:01:54.007   12 Jun 2027 06:02:02.722             8.715          4357.500
       466   12 Jun 2027 06:02:30.131   12 Jun 2027 06:02:47.705            17.574          8787.000
       467   12 Jun 2027 06:02:56.775   12 Jun 2027 06:03:08.545            11.770          5190.594
       468   12 Jun 2027 07:32:27.919   12 Jun 2027 07:32:55.390            27.471         13364.187
       469   12 Jun 2027 07:33:20.793   12 Jun 2027 07:33:22.011             1.218           284.156
       470   12 Jun 2027 07:34:00.302   12 Jun 2027 07:34:06.581             6.279          1183.781
       471   12 Jun 2027 07:35:23.676   12 Jun 2027 07:35:32.266             8.590          2409.219
       472   12 Jun 2027 07:35:43.302   12 Jun 2027 07:35:45.326             2.024           344.875
       473   12 Jun 2027 07:36:25.727   12 Jun 2027 07:36:29.018             3.291          1262.531
       474   12 Jun 2027 07:36:37.830   12 Jun 2027 07:36:38.444             0.614           275.375
       475   12 Jun 2027 07:36:48.461   12 Jun 2027 07:36:51.271             2.810           124.687
       476   12 Jun 2027 07:37:02.555   12 Jun 2027 07:37:04.434             1.879           352.625
       477   12 Jun 2027 07:37:57.221   12 Jun 2027 07:38:00.215             2.994           277.469
       478   12 Jun 2027 07:38:01.907   12 Jun 2027 07:38:05.278             3.371            52.875
       479   12 Jun 2027 07:38:13.036   12 Jun 2027 07:38:13.725             0.689           117.250
       480   12 Jun 2027 07:38:27.084   12 Jun 2027 07:38:28.170             1.086           417.469
       481   12 Jun 2027 09:09:24.696   12 Jun 2027 09:09:47.729            23.033         10947.000
       482   12 Jun 2027 09:10:28.998   12 Jun 2027 09:10:32.973             3.975          1289.063
       483   12 Jun 2027 09:11:22.532   12 Jun 2027 09:11:27.116             4.584           836.156
       484   12 Jun 2027 09:12:45.071   12 Jun 2027 09:12:50.626             5.555          2235.406
       485   12 Jun 2027 09:13:28.365   12 Jun 2027 09:13:30.586             2.221          1002.375
       486   12 Jun 2027 09:13:49.368   12 Jun 2027 09:13:51.772             2.404           586.937
       487   12 Jun 2027 09:13:59.986   12 Jun 2027 09:14:00.813             0.827            21.406
       488   12 Jun 2027 09:14:29.345   12 Jun 2027 09:14:29.345             0.000             0.000
       489   12 Jun 2027 09:14:48.398   12 Jun 2027 09:14:52.485             4.087          1368.406
       490   12 Jun 2027 10:46:18.727   12 Jun 2027 10:46:38.678            19.951          9626.969
       491   12 Jun 2027 10:46:44.843   12 Jun 2027 10:46:45.901             1.058           192.656
       492   12 Jun 2027 10:47:23.694   12 Jun 2027 10:47:25.717             2.023          1011.500
       493   12 Jun 2027 10:48:18.345   12 Jun 2027 10:48:21.902             3.557          1778.500
       494   12 Jun 2027 10:48:28.253   12 Jun 2027 10:48:29.556             1.303           230.844
       495   12 Jun 2027 10:48:45.454   12 Jun 2027 10:48:49.891             4.437           399.719
       496   12 Jun 2027 10:48:54.011   12 Jun 2027 10:48:57.326             3.315            98.375
       497   12 Jun 2027 10:49:17.204   12 Jun 2027 10:49:20.118             2.914           249.625
       498   12 Jun 2027 10:49:23.347   12 Jun 2027 10:49:23.347             0.000             0.000
       499   12 Jun 2027 10:50:12.506   12 Jun 2027 10:50:16.272             3.766          1602.438
       500   12 Jun 2027 10:50:39.931   12 Jun 2027 10:50:45.081             5.150           111.219
       501   13 Jun 2027 04:33:29.356   13 Jun 2027 04:36:52.275           202.919        101459.500
       502   13 Jun 2027 06:07:36.426   13 Jun 2027 06:09:17.406           100.980         49637.875
       503   13 Jun 2027 06:09:41.881   13 Jun 2027 06:09:46.190             4.309           207.844
       504   13 Jun 2027 06:10:07.133   13 Jun 2027 06:10:07.133             0.000             0.000
       505   13 Jun 2027 06:10:08.426   13 Jun 2027 06:10:11.518             3.092           636.187
       506   13 Jun 2027 06:10:44.159   13 Jun 2027 06:10:45.450             1.291           512.719
       507   13 Jun 2027 06:10:56.124   13 Jun 2027 06:10:57.660             1.536           155.750
       508   13 Jun 2027 06:13:44.293   13 Jun 2027 06:13:57.044            12.751          5207.281
       509   13 Jun 2027 06:14:27.411   13 Jun 2027 06:14:28.572             1.161           552.344
       510   13 Jun 2027 06:14:45.449   13 Jun 2027 06:14:45.449             0.000             0.000
       511   13 Jun 2027 06:14:47.457   13 Jun 2027 06:14:55.946             8.489           466.437
       512   13 Jun 2027 06:15:22.984   13 Jun 2027 06:15:24.771             1.787           844.938
       513   13 Jun 2027 07:44:35.120   13 Jun 2027 07:44:59.375            24.255         10634.625
       514   13 Jun 2027 07:46:05.585   13 Jun 2027 07:46:12.070             6.485            46.875
       515   13 Jun 2027 07:47:08.413   13 Jun 2027 07:47:14.636             6.223           174.313
       516   13 Jun 2027 07:48:01.371   13 Jun 2027 07:48:05.054             3.683          1008.281
       517   13 Jun 2027 07:48:41.989   13 Jun 2027 07:48:43.840             1.851           925.500
       518   13 Jun 2027 07:48:45.891   13 Jun 2027 07:48:49.035             3.144           140.750
       519   13 Jun 2027 07:49:48.141   13 Jun 2027 07:49:52.568             4.427          1815.594
       520   13 Jun 2027 07:50:14.227   13 Jun 2027 07:50:14.954             0.727           197.969
       521   13 Jun 2027 07:50:31.584   13 Jun 2027 07:50:33.367             1.783           485.219
       522   13 Jun 2027 07:51:10.136   13 Jun 2027 07:51:12.504             2.368          1086.188
       523   13 Jun 2027 09:21:56.182   13 Jun 2027 09:22:15.478            19.296          9464.625
       524   13 Jun 2027 09:23:31.160   13 Jun 2027 09:23:33.654             2.494          1247.000
       525   13 Jun 2027 09:23:59.200   13 Jun 2027 09:24:10.460            11.260          1279.313
       526   13 Jun 2027 09:24:40.895   13 Jun 2027 09:24:44.478             3.583           882.594
       527   13 Jun 2027 09:25:37.504   13 Jun 2027 09:25:42.320             4.816          1372.594
       528   13 Jun 2027 09:26:00.023   13 Jun 2027 09:26:00.403             0.380           190.000
       529   13 Jun 2027 09:26:02.758   13 Jun 2027 09:26:05.932             3.174           355.937
       530   13 Jun 2027 09:26:33.975   13 Jun 2027 09:26:37.226             3.251           876.344
       531   13 Jun 2027 10:58:20.414   13 Jun 2027 10:58:36.510            16.096          7683.531
       532   13 Jun 2027 10:58:46.307   13 Jun 2027 10:58:47.610             1.303             8.313
       533   13 Jun 2027 10:59:22.393   13 Jun 2027 10:59:23.651             1.258           629.000
       534   13 Jun 2027 11:00:18.038   13 Jun 2027 11:00:23.770             5.732          2157.562
       535   13 Jun 2027 11:00:29.735   13 Jun 2027 11:00:30.110             0.375           186.406
       536   13 Jun 2027 11:00:46.376   13 Jun 2027 11:00:49.312             2.936           476.844
       537   13 Jun 2027 11:00:53.862   13 Jun 2027 11:00:54.731             0.869            57.750
       538   13 Jun 2027 11:01:18.164   13 Jun 2027 11:01:22.082             3.918           732.281
       539   13 Jun 2027 11:02:12.824   13 Jun 2027 11:02:17.434             4.610          1585.687
       540   13 Jun 2027 11:02:32.804   13 Jun 2027 11:02:37.001             4.197           433.437
       541   13 Jun 2027 11:02:58.133   13 Jun 2027 11:03:01.985             3.852           660.375
       542   13 Jun 2027 11:03:03.055   13 Jun 2027 11:03:05.531             2.476            33.438
       543   13 Jun 2027 11:03:14.479   13 Jun 2027 11:03:15.646             1.167           237.844
