uniorb/output/strategy_2/Camera/Camera_KinoSat_110707.txt

KinoSat_110707
-------------------------
    Access    *     Start Time (UTCG)     *     Stop Time (UTCG)  *   Duration (s) *   Data (Mbytes)
         1   01 Jun 2027 03:18:51.805   01 Jun 2027 03:19:50.727            58.922         29461.000
         2   01 Jun 2027 03:19:53.974   01 Jun 2027 03:19:57.682             3.708          1854.000
         3   01 Jun 2027 03:20:59.677   01 Jun 2027 03:21:07.416             7.739          3869.500
         4   01 Jun 2027 03:21:13.713   01 Jun 2027 03:21:24.768            11.055          5527.500
         5   01 Jun 2027 03:22:41.546   01 Jun 2027 03:22:57.553            16.007          8003.500
         6   01 Jun 2027 04:53:50.113   01 Jun 2027 04:55:44.037           113.924         56962.000
         7   01 Jun 2027 04:55:53.380   01 Jun 2027 04:57:18.073            84.693         42346.500
         8   01 Jun 2027 04:58:53.307   01 Jun 2027 04:58:57.034             3.727          1863.500
         9   01 Jun 2027 06:31:18.129   01 Jun 2027 06:33:59.733           161.604         80802.000
        10   01 Jun 2027 06:34:10.797   01 Jun 2027 06:34:10.797             0.000             0.000
        11   01 Jun 2027 06:34:20.227   01 Jun 2027 06:34:39.482            19.255          9627.500
        12   01 Jun 2027 06:34:55.643   01 Jun 2027 06:35:21.512            25.869         12934.500
        13   01 Jun 2027 06:35:40.222   01 Jun 2027 06:36:00.309            20.087         10043.500
        14   01 Jun 2027 06:37:29.163   01 Jun 2027 06:37:30.283             1.120           560.000
        15   01 Jun 2027 06:37:39.366   01 Jun 2027 06:37:41.152             1.786           893.000
        16   01 Jun 2027 06:38:35.736   01 Jun 2027 06:38:36.174             0.438           219.000
        17   01 Jun 2027 08:08:03.850   01 Jun 2027 08:10:48.724           164.874         82437.000
        18   01 Jun 2027 08:12:22.613   01 Jun 2027 08:13:00.689            38.076         19038.000
        19   01 Jun 2027 08:13:38.823   01 Jun 2027 08:13:39.749             0.926           463.000
        20   01 Jun 2027 08:13:44.292   01 Jun 2027 08:13:47.763             3.471          1735.500
        21   01 Jun 2027 08:14:30.392   01 Jun 2027 08:14:35.111             4.719          2359.500
        22   01 Jun 2027 09:46:01.531   01 Jun 2027 09:48:34.931           153.400         76700.000
        23   01 Jun 2027 09:49:46.139   01 Jun 2027 09:49:54.681             8.542          4271.000
        24   01 Jun 2027 11:19:39.212   01 Jun 2027 11:20:56.820            77.608         38804.000
        25   01 Jun 2027 11:22:57.640   01 Jun 2027 11:22:57.640             0.000             0.000
        26   01 Jun 2027 11:24:04.680   01 Jun 2027 11:24:19.731            15.051          7525.500
        27   02 Jun 2027 03:30:28.392   02 Jun 2027 03:31:44.613            76.221         38110.500
        28   02 Jun 2027 05:05:17.970   02 Jun 2027 05:08:32.356           194.386         97193.000
        29   02 Jun 2027 05:08:55.281   02 Jun 2027 05:09:13.662            18.381          9190.500
        30   02 Jun 2027 06:43:11.173   02 Jun 2027 06:46:12.416           181.243         90621.500
        31   02 Jun 2027 06:46:39.817   02 Jun 2027 06:46:48.296             8.479          4239.500
        32   02 Jun 2027 06:47:58.210   02 Jun 2027 06:48:05.290             7.080          3540.000
        33   02 Jun 2027 06:49:03.415   02 Jun 2027 06:49:26.746            23.331         11665.500
        34   02 Jun 2027 06:49:32.431   02 Jun 2027 06:49:39.036             6.605          3302.500
        35   02 Jun 2027 08:19:55.023   02 Jun 2027 08:20:20.492            25.469         12734.500
        36   02 Jun 2027 08:20:28.862   02 Jun 2027 08:22:02.877            94.015         46837.999
        37   02 Jun 2027 08:22:23.301   02 Jun 2027 08:22:24.923             1.622            29.531
        38   02 Jun 2027 08:22:48.936   02 Jun 2027 08:22:56.422             7.486           593.719
        39   02 Jun 2027 08:24:10.028   02 Jun 2027 08:24:19.106             9.078          2300.188
        40   02 Jun 2027 08:24:58.612   02 Jun 2027 08:25:05.721             7.109          1234.563
        41   02 Jun 2027 08:25:12.746   02 Jun 2027 08:25:14.426             1.680           150.625
        42   02 Jun 2027 08:25:36.515   02 Jun 2027 08:25:39.220             2.705           657.656
        43   02 Jun 2027 09:58:01.941   02 Jun 2027 09:58:21.180            19.239          9619.500
        44   02 Jun 2027 09:58:44.257   02 Jun 2027 09:58:47.105             2.848          1220.063
        45   02 Jun 2027 09:59:28.712   02 Jun 2027 09:59:31.656             2.944          1300.219
        46   02 Jun 2027 09:59:59.191   02 Jun 2027 10:00:04.354             5.163           563.094
        47   02 Jun 2027 10:00:47.736   02 Jun 2027 10:00:51.305             3.569           807.969
        48   02 Jun 2027 10:01:12.407   02 Jun 2027 10:01:12.407             0.000             0.000
        49   02 Jun 2027 10:01:34.988   02 Jun 2027 10:01:35.144             0.156            78.000
        50   02 Jun 2027 10:01:57.818   02 Jun 2027 10:02:00.983             3.165          1582.500
        51   02 Jun 2027 11:33:44.577   02 Jun 2027 11:33:48.451             3.874          1879.719
        52   02 Jun 2027 11:34:55.911   02 Jun 2027 11:35:02.288             6.377          1283.469
        53   02 Jun 2027 11:36:10.200   02 Jun 2027 11:36:19.347             9.147          1977.250
        54   02 Jun 2027 11:36:53.205   02 Jun 2027 11:36:55.027             1.822           911.000
        55   02 Jun 2027 11:37:08.458   02 Jun 2027 11:37:14.000             5.542           566.781
        56   02 Jun 2027 11:37:43.858   02 Jun 2027 11:37:51.376             7.518           932.844
        57   03 Jun 2027 03:44:22.167   03 Jun 2027 03:45:40.054            77.887         38943.500
        58   03 Jun 2027 03:46:05.675   03 Jun 2027 03:46:14.090             8.415          4207.500
        59   03 Jun 2027 03:46:14.714   03 Jun 2027 03:46:30.014            15.300          7650.000
        60   03 Jun 2027 03:47:03.282   03 Jun 2027 03:47:12.296             9.014          4507.000
        61   03 Jun 2027 05:18:09.559   03 Jun 2027 05:20:50.617           161.058         80529.000
        62   03 Jun 2027 05:21:02.509   03 Jun 2027 05:21:21.581            19.072          9536.000
        63   03 Jun 2027 05:24:41.902   03 Jun 2027 05:24:41.902             0.000             0.000
        64   03 Jun 2027 05:25:51.254   03 Jun 2027 05:26:02.965            11.711          5855.500
        65   03 Jun 2027 05:26:40.187   03 Jun 2027 05:26:40.204             0.017             8.500
        66   03 Jun 2027 06:55:18.387   03 Jun 2027 06:56:02.557            44.170         21932.438
        67   03 Jun 2027 06:56:32.389   03 Jun 2027 06:56:39.199             6.810           475.625
        68   03 Jun 2027 06:56:47.618   03 Jun 2027 06:56:48.482             0.864           263.094
        69   03 Jun 2027 06:57:08.754   03 Jun 2027 06:57:09.448             0.694           347.000
        70   03 Jun 2027 06:57:45.071   03 Jun 2027 06:57:54.011             8.940          1351.594
        71   03 Jun 2027 06:58:16.849   03 Jun 2027 06:58:19.587             2.738           434.000
        72   03 Jun 2027 06:58:35.954   03 Jun 2027 06:58:38.172             2.218           343.500
        73   03 Jun 2027 06:58:58.355   03 Jun 2027 06:58:59.853             1.498           363.031
        74   03 Jun 2027 06:59:36.583   03 Jun 2027 06:59:40.545             3.962           900.188
        75   03 Jun 2027 07:00:08.482   03 Jun 2027 07:00:10.631             2.149           417.219
        76   03 Jun 2027 07:00:22.156   03 Jun 2027 07:00:23.548             1.392           243.906
        77   03 Jun 2027 07:02:08.441   03 Jun 2027 07:02:16.447             8.006          3076.594
        78   03 Jun 2027 08:32:32.466   03 Jun 2027 08:33:08.491            36.025         13751.781
        79   03 Jun 2027 08:33:12.521   03 Jun 2027 08:33:13.347             0.826           125.938
        80   03 Jun 2027 08:33:50.852   03 Jun 2027 08:33:53.661             2.809          1016.594
        81   03 Jun 2027 08:34:16.654   03 Jun 2027 08:34:17.056             0.402           201.000
        82   03 Jun 2027 08:35:17.838   03 Jun 2027 08:35:25.807             7.969          2371.156
        83   03 Jun 2027 08:35:45.258   03 Jun 2027 08:35:47.521             2.263           607.844
        84   03 Jun 2027 08:36:01.860   03 Jun 2027 08:36:02.663             0.803           303.063
        85   03 Jun 2027 08:36:45.951   03 Jun 2027 08:36:51.369             5.418          1234.281
        86   03 Jun 2027 08:37:39.475   03 Jun 2027 08:37:42.778             3.303          1499.344
        87   03 Jun 2027 10:09:15.275   03 Jun 2027 10:09:30.822            15.547          7289.312
        88   03 Jun 2027 10:10:21.603   03 Jun 2027 10:10:24.660             3.057          1523.313
        89   03 Jun 2027 10:11:35.847   03 Jun 2027 10:11:40.608             4.761          1922.062
        90   03 Jun 2027 10:12:05.284   03 Jun 2027 10:12:12.814             7.530           750.781
        91   03 Jun 2027 10:13:12.447   03 Jun 2027 10:13:16.443             3.996          1686.781
        92   03 Jun 2027 11:44:26.608   03 Jun 2027 11:44:40.951            14.343          2635.031
        93   03 Jun 2027 11:46:00.956   03 Jun 2027 11:46:12.562            11.606          1442.500
        94   03 Jun 2027 11:46:56.083   03 Jun 2027 11:47:01.482             5.399          1292.375
        95   03 Jun 2027 11:48:18.136   03 Jun 2027 11:48:26.414             8.278          2132.000
        96   04 Jun 2027 03:56:36.398   04 Jun 2027 03:57:52.783            76.385         38192.500
        97   04 Jun 2027 03:59:16.433   04 Jun 2027 03:59:36.945            20.512         10256.000
        98   04 Jun 2027 03:59:40.502   04 Jun 2027 04:00:05.092            24.590         12295.000
        99   04 Jun 2027 05:30:32.603   04 Jun 2027 05:32:08.937            96.334         48167.000
       100   04 Jun 2027 05:32:10.869   04 Jun 2027 05:33:26.024            75.155         37577.500
       101   04 Jun 2027 05:36:15.157   04 Jun 2027 05:36:22.529             7.372          3686.000
       102   04 Jun 2027 05:37:17.076   04 Jun 2027 05:37:17.194             0.118            59.000
       103   04 Jun 2027 05:37:52.619   04 Jun 2027 05:38:30.193            37.574         18787.000
       104   04 Jun 2027 07:07:43.931   04 Jun 2027 07:08:25.563            41.632         19899.375
       105   04 Jun 2027 07:09:10.661   04 Jun 2027 07:09:20.706            10.045           711.375
       106   04 Jun 2027 07:10:12.343   04 Jun 2027 07:10:16.430             4.087          1597.000
       107   04 Jun 2027 07:10:42.746   04 Jun 2027 07:10:44.808             2.062           822.375
       108   04 Jun 2027 07:11:42.947   04 Jun 2027 07:11:48.411             5.464          1547.000
       109   04 Jun 2027 07:12:16.774   04 Jun 2027 07:12:19.118             2.344           886.344
       110   04 Jun 2027 07:13:21.354   04 Jun 2027 07:13:24.638             3.284          1239.000
       111   04 Jun 2027 07:13:26.704   04 Jun 2027 07:13:27.443             0.739            64.563
       112   04 Jun 2027 07:14:14.164   04 Jun 2027 07:14:21.435             7.271          1358.500
       113   04 Jun 2027 08:44:45.915   04 Jun 2027 08:45:09.047            23.132         10793.563
       114   04 Jun 2027 08:45:47.511   04 Jun 2027 08:45:51.636             4.125          1135.219
       115   04 Jun 2027 08:46:12.674   04 Jun 2027 08:46:13.494             0.820           410.000
       116   04 Jun 2027 08:46:25.559   04 Jun 2027 08:46:28.133             2.574           621.531
       117   04 Jun 2027 08:46:55.266   04 Jun 2027 08:46:59.758             4.492           840.563
       118   04 Jun 2027 08:47:54.761   04 Jun 2027 08:47:56.623             1.862           931.000
       119   04 Jun 2027 08:48:09.638   04 Jun 2027 08:48:12.391             2.753          1111.344
       120   04 Jun 2027 08:48:13.196   04 Jun 2027 08:48:14.240             1.044            25.156
       121   04 Jun 2027 08:49:17.384   04 Jun 2027 08:49:22.459             5.075          1973.250
       122   04 Jun 2027 08:49:24.461   04 Jun 2027 08:49:24.636             0.175            62.562
       123   04 Jun 2027 08:49:44.155   04 Jun 2027 08:49:47.684             3.529           609.969
       124   04 Jun 2027 10:21:30.482   04 Jun 2027 10:21:44.954            14.472          7047.906
       125   04 Jun 2027 10:22:47.121   04 Jun 2027 10:22:50.267             3.146          1543.937
       126   04 Jun 2027 10:23:46.880   04 Jun 2027 10:23:50.178             3.298          1611.219
       127   04 Jun 2027 10:24:58.815   04 Jun 2027 10:25:05.139             6.324          1429.656
       128   04 Jun 2027 10:25:11.143   04 Jun 2027 10:25:12.352             1.209            62.031
       129   04 Jun 2027 10:25:25.805   04 Jun 2027 10:25:30.365             4.560           271.031
       130   04 Jun 2027 11:59:40.032   04 Jun 2027 11:59:47.436             7.404          2330.656
       131   05 Jun 2027 04:08:40.820   05 Jun 2027 04:09:40.256            59.436         29718.000
       132   05 Jun 2027 04:09:45.646   05 Jun 2027 04:10:11.048            25.402         12701.000
       133   05 Jun 2027 04:10:41.833   05 Jun 2027 04:10:50.032             8.199          4099.500
       134   05 Jun 2027 04:11:44.400   05 Jun 2027 04:11:57.146            12.746          6373.000
       135   05 Jun 2027 04:12:12.187   05 Jun 2027 04:12:13.825             1.638           819.000
       136   05 Jun 2027 05:43:49.568   05 Jun 2027 05:46:14.799           145.231         72615.500
       137   05 Jun 2027 05:46:54.290   05 Jun 2027 05:47:21.695            27.405         13702.500
       138   05 Jun 2027 05:48:41.988   05 Jun 2027 05:49:23.644            41.656         20828.000
       139   05 Jun 2027 05:50:30.818   05 Jun 2027 05:50:38.181             7.363          3681.500
       140   05 Jun 2027 07:20:09.518   05 Jun 2027 07:20:47.546            38.028         19001.000
       141   05 Jun 2027 07:21:38.093   05 Jun 2027 07:21:45.817             7.724           774.844
       142   05 Jun 2027 07:22:18.387   05 Jun 2027 07:22:20.395             2.008            76.687
       143   05 Jun 2027 07:23:48.677   05 Jun 2027 07:23:54.335             5.658          2758.813
       144   05 Jun 2027 07:25:23.928   05 Jun 2027 07:25:35.659            11.731          2799.781
       145   05 Jun 2027 07:25:53.069   05 Jun 2027 07:25:55.155             2.086           451.094
       146   05 Jun 2027 08:57:44.299   05 Jun 2027 08:58:08.602            24.303         11743.000
       147   05 Jun 2027 08:59:36.924   05 Jun 2027 08:59:41.300             4.376          2188.000
       148   05 Jun 2027 08:59:50.805   05 Jun 2027 08:59:54.510             3.705           621.125
       149   05 Jun 2027 09:00:53.557   05 Jun 2027 09:01:00.872             7.315          1709.125
       150   05 Jun 2027 09:01:35.192   05 Jun 2027 09:01:41.668             6.476          1012.156
       151   05 Jun 2027 09:01:42.120   05 Jun 2027 09:01:43.326             1.206            14.125
       152   05 Jun 2027 09:02:02.011   05 Jun 2027 09:02:04.807             2.796           250.375
       153   05 Jun 2027 10:33:46.915   05 Jun 2027 10:34:03.901            16.986          8463.344
       154   05 Jun 2027 10:34:20.966   05 Jun 2027 10:34:22.907             1.941           369.375
       155   05 Jun 2027 10:34:27.288   05 Jun 2027 10:34:30.606             3.318            71.563
       156   05 Jun 2027 10:35:29.255   05 Jun 2027 10:35:32.921             3.666          1815.187
       157   05 Jun 2027 10:35:45.726   05 Jun 2027 10:35:55.016             9.290           325.094
       158   05 Jun 2027 10:36:37.740   05 Jun 2027 10:36:44.250             6.510           472.656
       159   05 Jun 2027 10:36:58.683   05 Jun 2027 10:36:59.899             1.216           380.187
       160   05 Jun 2027 10:37:08.212   05 Jun 2027 10:37:11.622             3.410           159.875
       161   05 Jun 2027 10:37:44.290   05 Jun 2027 10:37:47.456             3.166           793.438
       162   05 Jun 2027 10:37:56.735   05 Jun 2027 10:37:58.199             1.464           108.750
       163   06 Jun 2027 04:20:51.307   06 Jun 2027 04:21:44.614            53.307         26653.500
       164   06 Jun 2027 04:22:58.607   06 Jun 2027 04:24:19.078            80.471         40235.500
       165   06 Jun 2027 05:56:01.207   06 Jun 2027 05:58:23.603           142.396         71198.000
       166   06 Jun 2027 05:58:37.721   06 Jun 2027 05:58:42.055             4.334          2167.000
       167   06 Jun 2027 06:01:10.161   06 Jun 2027 06:01:43.560            33.399         16699.500
       168   06 Jun 2027 06:02:09.552   06 Jun 2027 06:02:20.187            10.635          5278.375
       169   06 Jun 2027 06:02:23.638   06 Jun 2027 06:02:30.184             6.546           107.844
       170   06 Jun 2027 07:32:22.278   06 Jun 2027 07:32:52.537            30.259         14391.906
       171   06 Jun 2027 07:33:16.432   06 Jun 2027 07:33:16.926             0.494            29.375
       172   06 Jun 2027 07:34:33.903   06 Jun 2027 07:34:38.481             4.578          1848.875
       173   06 Jun 2027 07:35:54.516   06 Jun 2027 07:36:00.050             5.534          2143.500
       174   06 Jun 2027 07:37:01.446   06 Jun 2027 07:37:04.899             3.453          1672.437
       175   06 Jun 2027 07:37:55.545   06 Jun 2027 07:38:00.073             4.528          1561.625
       176   06 Jun 2027 09:09:39.226   06 Jun 2027 09:09:59.243            20.017          9808.844
       177   06 Jun 2027 09:10:34.391   06 Jun 2027 09:10:36.901             2.510          1092.437
       178   06 Jun 2027 09:10:41.054   06 Jun 2027 09:10:42.648             1.594           104.437
       179   06 Jun 2027 09:11:29.102   06 Jun 2027 09:11:34.552             5.450          1051.219
       180   06 Jun 2027 09:12:45.135   06 Jun 2027 09:12:52.287             7.152          2018.500
       181   06 Jun 2027 09:13:37.486   06 Jun 2027 09:13:39.717             2.231          1047.562
       182   06 Jun 2027 09:14:17.277   06 Jun 2027 09:14:19.891             2.614          1153.812
       183   06 Jun 2027 10:45:51.483   06 Jun 2027 10:46:05.670            14.187          6393.031
       184   06 Jun 2027 10:46:19.622   06 Jun 2027 10:46:24.343             4.721            26.969
       185   06 Jun 2027 10:47:02.218   06 Jun 2027 10:47:05.533             3.315          1183.594
       186   06 Jun 2027 10:47:43.139   06 Jun 2027 10:47:49.405             6.266          1175.188
       187   06 Jun 2027 10:48:20.529   06 Jun 2027 10:48:21.285             0.756           163.562
       188   06 Jun 2027 10:49:28.341   06 Jun 2027 10:49:41.188            12.847          1777.937
       189   06 Jun 2027 10:50:38.432   06 Jun 2027 10:50:41.839             3.407          1703.500
       190   07 Jun 2027 04:32:39.366   07 Jun 2027 04:36:00.076           200.710        100355.000
       191   07 Jun 2027 06:07:33.025   07 Jun 2027 06:08:13.728            40.703         20351.500
       192   07 Jun 2027 06:09:36.580   07 Jun 2027 06:10:45.696            69.116         34511.875
       193   07 Jun 2027 06:11:16.816   07 Jun 2027 06:11:18.486             1.670           835.000
       194   07 Jun 2027 06:12:08.652   07 Jun 2027 06:12:13.962             5.310          1705.187
       195   07 Jun 2027 06:13:17.056   07 Jun 2027 06:13:17.056             0.000             0.000
       196   07 Jun 2027 06:13:21.455   07 Jun 2027 06:13:22.638             1.183           591.500
       197   07 Jun 2027 06:13:42.213   07 Jun 2027 06:13:48.996             6.783          2087.156
       198   07 Jun 2027 06:13:54.483   07 Jun 2027 06:13:55.256             0.773           123.437
       199   07 Jun 2027 06:14:42.284   07 Jun 2027 06:14:46.072             3.788          1421.750
       200   07 Jun 2027 07:43:59.948   07 Jun 2027 07:44:35.358            35.410         16365.969
       201   07 Jun 2027 07:44:55.846   07 Jun 2027 07:45:02.728             6.882           172.406
       202   07 Jun 2027 07:45:20.599   07 Jun 2027 07:45:23.807             3.208            80.844
       203   07 Jun 2027 07:46:12.279   07 Jun 2027 07:46:14.312             2.033           894.938
       204   07 Jun 2027 07:46:31.034   07 Jun 2027 07:46:34.059             3.025           434.937
       205   07 Jun 2027 07:47:44.681   07 Jun 2027 07:47:53.278             8.597          2167.625
       206   07 Jun 2027 07:48:11.386   07 Jun 2027 07:48:13.992             2.606           565.875
       207   07 Jun 2027 07:49:05.151   07 Jun 2027 07:49:08.906             3.755          1581.656
       208   07 Jun 2027 07:49:15.657   07 Jun 2027 07:49:16.972             1.315           200.156
       209   07 Jun 2027 07:49:35.872   07 Jun 2027 07:49:40.605             4.733           590.625
       210   07 Jun 2027 07:50:22.447   07 Jun 2027 07:50:24.735             2.288          1144.000
       211   07 Jun 2027 09:22:18.362   07 Jun 2027 09:22:37.740            19.378          9620.281
       212   07 Jun 2027 09:23:41.087   07 Jun 2027 09:23:44.758             3.671          1409.281
       213   07 Jun 2027 09:24:20.220   07 Jun 2027 09:24:20.348             0.128            64.000
       214   07 Jun 2027 09:25:12.210   07 Jun 2027 09:25:19.999             7.789          2346.219
       215   07 Jun 2027 09:25:29.468   07 Jun 2027 09:25:31.470             2.002           293.062
       216   07 Jun 2027 10:57:44.894   07 Jun 2027 10:58:00.235            15.341          7567.875
       217   07 Jun 2027 10:58:34.358   07 Jun 2027 10:58:42.562             8.204          1033.781
       218   07 Jun 2027 10:59:18.309   07 Jun 2027 10:59:19.897             1.588           794.000
       219   07 Jun 2027 10:59:24.801   07 Jun 2027 10:59:27.010             2.209           188.219
       220   07 Jun 2027 10:59:52.510   07 Jun 2027 10:59:53.872             1.362           568.281
       221   07 Jun 2027 11:01:21.821   07 Jun 2027 11:01:25.894             4.073          1924.531
       222   07 Jun 2027 11:01:32.606   07 Jun 2027 11:01:36.234             3.628           209.750
       223   07 Jun 2027 11:02:46.323   07 Jun 2027 11:02:54.732             8.409          1950.406
       224   08 Jun 2027 03:07:23.302   08 Jun 2027 03:08:09.175            45.873         22936.500
       225   08 Jun 2027 03:10:53.163   08 Jun 2027 03:11:27.544            34.381         17190.500
       226   08 Jun 2027 03:11:35.693   08 Jun 2027 03:11:49.208            13.515          6757.500
       227   08 Jun 2027 04:42:55.650   08 Jun 2027 04:43:45.970            50.320         25160.000
       228   08 Jun 2027 04:44:24.031   08 Jun 2027 04:44:54.323            30.292         15146.000
       229   08 Jun 2027 04:45:03.313   08 Jun 2027 04:46:04.038            60.725         30362.500
       230   08 Jun 2027 04:46:19.864   08 Jun 2027 04:46:24.227             4.363          2181.500
       231   08 Jun 2027 04:48:28.317   08 Jun 2027 04:48:39.551            11.234          5617.000
       232   08 Jun 2027 04:48:46.647   08 Jun 2027 04:48:53.592             6.945          3472.500
       233   08 Jun 2027 06:19:13.708   08 Jun 2027 06:20:26.505            72.797         36398.500
       234   08 Jun 2027 06:20:39.359   08 Jun 2027 06:20:43.725             4.366          1009.187
       235   08 Jun 2027 06:22:26.353   08 Jun 2027 06:22:31.400             5.047          2229.000
       236   08 Jun 2027 06:24:16.760   08 Jun 2027 06:24:25.679             8.919          3189.813
       237   08 Jun 2027 06:24:53.030   08 Jun 2027 06:24:54.277             1.247           623.500
       238   08 Jun 2027 06:25:28.735   08 Jun 2027 06:25:32.393             3.658          1297.750
       239   08 Jun 2027 06:25:53.483   08 Jun 2027 06:25:56.764             3.281           469.844
       240   08 Jun 2027 06:26:46.775   08 Jun 2027 06:26:46.870             0.095            47.500
       241   08 Jun 2027 07:56:19.495   08 Jun 2027 07:56:51.752            32.257         15731.062
       242   08 Jun 2027 07:58:52.707   08 Jun 2027 07:59:02.065             9.358           916.438
       243   08 Jun 2027 07:59:05.792   08 Jun 2027 07:59:09.256             3.464           103.625
       244   08 Jun 2027 08:00:24.303   08 Jun 2027 08:00:26.543             2.240           676.281
       245   08 Jun 2027 08:00:39.514   08 Jun 2027 08:00:40.559             1.045           179.250
       246   08 Jun 2027 08:00:50.375   08 Jun 2027 08:00:50.946             0.571           110.375
       247   08 Jun 2027 08:01:57.927   08 Jun 2027 08:02:07.056             9.129          1648.531
       248   08 Jun 2027 09:34:16.633   08 Jun 2027 09:34:36.991            20.358          9511.750
       249   08 Jun 2027 09:35:28.808   08 Jun 2027 09:35:32.091             3.283          1001.687
       250   08 Jun 2027 09:36:25.971   08 Jun 2027 09:36:29.827             3.856           848.750
       251   08 Jun 2027 09:37:06.845   08 Jun 2027 09:37:10.003             3.158           367.906
       252   08 Jun 2027 09:37:36.521   08 Jun 2027 09:37:37.625             1.104           448.188
       253   08 Jun 2027 09:37:46.496   08 Jun 2027 09:37:47.610             1.114           277.219
       254   08 Jun 2027 09:38:02.728   08 Jun 2027 09:38:05.536             2.808           472.438
       255   08 Jun 2027 11:07:21.466   08 Jun 2027 11:07:38.971            17.505          6991.469
       256   08 Jun 2027 11:09:16.300   08 Jun 2027 11:09:21.826             5.526          1901.219
       257   08 Jun 2027 11:10:43.038   08 Jun 2027 11:10:50.426             7.388          2488.312
       258   08 Jun 2027 11:11:08.132   08 Jun 2027 11:11:10.174             2.042           553.312
       259   08 Jun 2027 11:11:45.445   08 Jun 2027 11:11:49.290             3.845           935.250
       260   08 Jun 2027 11:13:36.393   08 Jun 2027 11:13:41.644             5.251          2625.500
       261   08 Jun 2027 11:14:36.647   08 Jun 2027 11:14:42.856             6.209          1396.969
       262   08 Jun 2027 11:15:04.158   08 Jun 2027 11:15:07.862             3.704           381.625
       263   08 Jun 2027 11:15:09.973   08 Jun 2027 11:15:14.112             4.139            22.438
       264   09 Jun 2027 03:19:06.404   09 Jun 2027 03:20:07.875            61.471         30735.500
       265   09 Jun 2027 03:21:14.773   09 Jun 2027 03:21:24.237             9.464          4732.000
       266   09 Jun 2027 03:21:28.953   09 Jun 2027 03:21:40.425            11.472          5736.000
       267   09 Jun 2027 03:21:43.286   09 Jun 2027 03:22:01.961            18.675          9337.500
       268   09 Jun 2027 03:23:30.242   09 Jun 2027 03:23:30.242             0.000             0.000
       269   09 Jun 2027 03:23:36.977   09 Jun 2027 03:24:19.136            42.159         21079.500
       270   09 Jun 2027 04:54:04.484   09 Jun 2027 04:55:53.614           109.130         54565.000
       271   09 Jun 2027 04:56:30.280   09 Jun 2027 04:56:35.675             5.395          2697.500
       272   09 Jun 2027 04:57:01.032   09 Jun 2027 04:57:01.032             0.000             0.000
       273   09 Jun 2027 04:58:31.173   09 Jun 2027 04:58:34.693             3.520          1760.000
       274   09 Jun 2027 04:59:08.803   09 Jun 2027 04:59:14.545             5.742          2871.000
       275   09 Jun 2027 05:00:02.024   09 Jun 2027 05:00:13.951            11.927          5963.500
       276   09 Jun 2027 05:00:22.704   09 Jun 2027 05:00:26.717             4.013          2006.500
       277   09 Jun 2027 05:00:38.186   09 Jun 2027 05:00:41.298             3.112          1556.000
       278   09 Jun 2027 06:31:32.785   09 Jun 2027 06:32:16.116            43.331         21665.500
       279   09 Jun 2027 06:32:39.771   09 Jun 2027 06:32:42.445             2.674          1136.967
       280   09 Jun 2027 06:33:35.217   09 Jun 2027 06:33:37.544             2.327            22.000
       281   09 Jun 2027 06:34:16.590   09 Jun 2027 06:34:19.481             2.891           205.187
       282   09 Jun 2027 06:34:37.967   09 Jun 2027 06:34:38.682             0.715           347.062
       283   09 Jun 2027 06:34:48.821   09 Jun 2027 06:34:50.583             1.762           173.344
       284   09 Jun 2027 06:35:29.471   09 Jun 2027 06:35:33.903             4.432          1101.219
       285   09 Jun 2027 06:35:54.336   09 Jun 2027 06:35:55.714             1.378           556.688
       286   09 Jun 2027 06:36:29.988   09 Jun 2027 06:36:32.852             2.864           454.125
       287   09 Jun 2027 06:37:55.750   09 Jun 2027 06:38:03.641             7.891          2360.219
       288   09 Jun 2027 08:08:17.675   09 Jun 2027 08:08:51.350            33.675         15042.250
       289   09 Jun 2027 08:09:55.418   09 Jun 2027 08:09:58.200             2.782           777.500
       290   09 Jun 2027 08:10:32.007   09 Jun 2027 08:10:35.477             3.470           876.875
       291   09 Jun 2027 08:11:53.656   09 Jun 2027 08:12:00.035             6.379          2443.094
       292   09 Jun 2027 08:12:37.409   09 Jun 2027 08:12:39.289             1.880           733.469
       293   09 Jun 2027 08:12:59.402   09 Jun 2027 08:13:01.298             1.896           602.250
       294   09 Jun 2027 08:13:22.463   09 Jun 2027 08:13:25.859             3.396           535.938
       295   09 Jun 2027 08:13:54.476   09 Jun 2027 08:13:57.416             2.940           862.250
       296   09 Jun 2027 08:14:46.531   09 Jun 2027 08:14:49.911             3.380          1383.531
       297   09 Jun 2027 09:46:15.962   09 Jun 2027 09:46:33.278            17.316          8531.313
       298   09 Jun 2027 09:47:16.242   09 Jun 2027 09:47:22.796             6.554          1342.625
       299   09 Jun 2027 09:47:31.345   09 Jun 2027 09:47:32.284             0.939           224.031
       300   09 Jun 2027 09:48:00.438   09 Jun 2027 09:48:04.335             3.897           879.813
       301   09 Jun 2027 09:48:09.431   09 Jun 2027 09:48:09.431             0.000             0.000
       302   09 Jun 2027 09:48:50.016   09 Jun 2027 09:48:53.429             3.413          1427.531
       303   09 Jun 2027 09:50:03.048   09 Jun 2027 09:50:08.499             5.451          1952.375
       304   09 Jun 2027 09:50:22.673   09 Jun 2027 09:50:24.276             1.603           403.531
       305   09 Jun 2027 11:19:53.784   09 Jun 2027 11:20:00.163             6.379          2225.687
       306   09 Jun 2027 11:20:09.755   09 Jun 2027 11:20:10.257             0.502           175.500
       307   09 Jun 2027 11:21:21.429   09 Jun 2027 11:21:26.362             4.933          1992.406
       308   09 Jun 2027 11:22:15.095   09 Jun 2027 11:22:24.440             9.345          1468.156
       309   09 Jun 2027 11:22:58.839   09 Jun 2027 11:23:01.955             3.116           924.688
       310   09 Jun 2027 11:24:08.067   09 Jun 2027 11:24:14.461             6.394          1712.063
       311   09 Jun 2027 11:25:27.373   09 Jun 2027 11:25:34.024             6.651          2278.500
       312   09 Jun 2027 11:25:51.924   09 Jun 2027 11:25:55.366             3.442           559.375
       313   09 Jun 2027 11:26:35.046   09 Jun 2027 11:26:42.637             7.591           435.375
       314   09 Jun 2027 11:26:57.661   09 Jun 2027 11:26:57.714             0.053            26.500
       315   09 Jun 2027 11:27:01.151   09 Jun 2027 11:27:01.421             0.270           111.594
       316   10 Jun 2027 03:30:40.081   10 Jun 2027 03:31:58.976            78.895         39447.500
       317   10 Jun 2027 03:35:31.580   10 Jun 2027 03:35:38.516             6.936          3468.000
       318   10 Jun 2027 05:05:32.374   10 Jun 2027 05:08:48.844           196.470         98235.000
       319   10 Jun 2027 05:11:39.300   10 Jun 2027 05:11:45.203             5.903          2951.500
       320   10 Jun 2027 05:14:25.680   10 Jun 2027 05:14:53.780            28.100         14050.000
       321   10 Jun 2027 06:44:33.686   10 Jun 2027 06:45:21.178            47.492         23333.187
       322   10 Jun 2027 06:45:31.004   10 Jun 2027 06:45:31.004             0.000             0.000
       323   10 Jun 2027 06:46:06.731   10 Jun 2027 06:46:07.911             1.180           590.000
       324   10 Jun 2027 06:46:28.464   10 Jun 2027 06:46:35.390             6.926          1354.531
       325   10 Jun 2027 06:46:55.429   10 Jun 2027 06:46:55.429             0.000             0.000
       326   10 Jun 2027 06:47:04.311   10 Jun 2027 06:47:06.765             2.454           719.781
       327   10 Jun 2027 06:47:17.369   10 Jun 2027 06:47:21.794             4.425           331.375
       328   10 Jun 2027 06:47:34.859   10 Jun 2027 06:47:37.247             2.388           133.656
       329   10 Jun 2027 06:47:41.578   10 Jun 2027 06:47:42.087             0.509            46.781
       330   10 Jun 2027 06:47:49.864   10 Jun 2027 06:47:52.019             2.155           168.250
       331   10 Jun 2027 06:48:09.781   10 Jun 2027 06:48:10.947             1.166           180.312
       332   10 Jun 2027 06:48:32.608   10 Jun 2027 06:48:33.123             0.515           257.500
       333   10 Jun 2027 06:48:37.460   10 Jun 2027 06:48:39.000             1.540           480.469
       334   10 Jun 2027 06:49:17.632   10 Jun 2027 06:49:21.042             3.410           510.500
       335   10 Jun 2027 06:49:47.291   10 Jun 2027 06:49:51.335             4.044           162.500
       336   10 Jun 2027 06:50:08.144   10 Jun 2027 06:50:09.528             1.384           453.906
       337   10 Jun 2027 08:20:09.694   10 Jun 2027 08:20:35.101            25.407         12703.500
       338   10 Jun 2027 08:20:43.902   10 Jun 2027 08:20:53.274             9.372          3628.469
       339   10 Jun 2027 08:21:49.340   10 Jun 2027 08:21:55.607             6.267          1650.219
       340   10 Jun 2027 08:22:46.575   10 Jun 2027 08:22:59.217            12.642          1537.188
       341   10 Jun 2027 08:23:27.298   10 Jun 2027 08:23:31.183             3.885           741.313
       342   10 Jun 2027 08:23:44.004   10 Jun 2027 08:23:46.507             2.503           390.594
       343   10 Jun 2027 08:23:53.364   10 Jun 2027 08:23:54.086             0.722           214.281
       344   10 Jun 2027 08:24:51.045   10 Jun 2027 08:24:54.080             3.035          1397.750
       345   10 Jun 2027 08:25:04.293   10 Jun 2027 08:25:07.283             2.990           319.156
       346   10 Jun 2027 08:25:27.833   10 Jun 2027 08:25:28.108             0.275           137.500
       347   10 Jun 2027 08:25:43.629   10 Jun 2027 08:25:45.443             1.814           765.625
       348   10 Jun 2027 08:26:28.968   10 Jun 2027 08:26:32.292             3.324          1219.625
       349   10 Jun 2027 09:58:16.213   10 Jun 2027 09:58:34.959            18.746          9373.000
       350   10 Jun 2027 09:58:58.890   10 Jun 2027 09:59:03.525             4.635          1076.031
       351   10 Jun 2027 09:59:55.893   10 Jun 2027 09:59:57.466             1.573           786.500
       352   10 Jun 2027 10:00:13.896   10 Jun 2027 10:00:19.588             5.692          1363.438
       353   10 Jun 2027 10:01:06.420   10 Jun 2027 10:01:07.085             0.665           308.906
       354   10 Jun 2027 10:01:20.794   10 Jun 2027 10:01:20.917             0.123            61.500
       355   10 Jun 2027 10:01:50.065   10 Jun 2027 10:01:51.842             1.777           888.500
       356   10 Jun 2027 10:02:17.237   10 Jun 2027 10:02:20.264             3.027          1182.875
       357   10 Jun 2027 11:34:00.088   10 Jun 2027 11:34:03.190             3.102          1307.906
       358   10 Jun 2027 11:34:56.700   10 Jun 2027 11:35:00.111             3.411           848.187
       359   10 Jun 2027 11:35:48.312   10 Jun 2027 11:35:55.812             7.500          1148.250
       360   10 Jun 2027 11:36:10.891   10 Jun 2027 11:36:10.891             0.000             0.000
       361   10 Jun 2027 11:36:35.953   10 Jun 2027 11:36:45.230             9.277          1254.406
       362   10 Jun 2027 11:37:39.031   10 Jun 2027 11:37:42.526             3.495          1192.156
       363   10 Jun 2027 11:38:22.304   10 Jun 2027 11:38:23.638             1.334           667.000
       364   11 Jun 2027 03:44:37.167   11 Jun 2027 03:45:22.914            45.747         22873.500
       365   11 Jun 2027 03:45:34.300   11 Jun 2027 03:45:35.380             1.080           540.000
       366   11 Jun 2027 03:47:27.882   11 Jun 2027 03:47:53.817            25.935         12967.500
       367   11 Jun 2027 03:48:25.831   11 Jun 2027 03:48:29.562             3.731          1865.500
       368   11 Jun 2027 05:18:24.470   11 Jun 2027 05:22:13.140           228.670        114335.000
       369   11 Jun 2027 05:22:53.795   11 Jun 2027 05:22:53.795             0.000             0.000
       370   11 Jun 2027 05:24:30.083   11 Jun 2027 05:24:30.083             0.000             0.000
       371   11 Jun 2027 05:26:54.848   11 Jun 2027 05:26:55.009             0.161            80.500
       372   11 Jun 2027 06:55:33.260   11 Jun 2027 06:56:24.755            51.495         24418.218
       373   11 Jun 2027 06:57:25.031   11 Jun 2027 06:57:27.504             2.473          1147.594
       374   11 Jun 2027 06:58:39.877   11 Jun 2027 06:58:44.575             4.698          1977.875
       375   11 Jun 2027 06:59:42.868   11 Jun 2027 06:59:49.189             6.321          1821.656
       376   11 Jun 2027 07:01:53.283   11 Jun 2027 07:02:09.318            16.035          3803.969
       377   11 Jun 2027 07:02:34.724   11 Jun 2027 07:02:36.182             1.458           647.000
       378   11 Jun 2027 08:32:47.666   11 Jun 2027 08:33:15.948            28.282         14026.000
       379   11 Jun 2027 08:33:28.187   11 Jun 2027 08:33:29.424             1.237           143.937
       380   11 Jun 2027 08:33:35.364   11 Jun 2027 08:33:36.031             0.667           185.625
       381   11 Jun 2027 08:34:31.427   11 Jun 2027 08:34:33.030             1.603           707.313
       382   11 Jun 2027 08:35:32.869   11 Jun 2027 08:35:40.759             7.890          1844.469
       383   11 Jun 2027 08:36:12.281   11 Jun 2027 08:36:12.480             0.199            99.500
       384   11 Jun 2027 08:36:16.317   11 Jun 2027 08:36:21.133             4.816           507.469
       385   11 Jun 2027 08:36:28.349   11 Jun 2027 08:36:28.349             0.000             0.000
       386   11 Jun 2027 08:37:16.211   11 Jun 2027 08:37:19.570             3.359          1679.500
       387   11 Jun 2027 08:37:29.285   11 Jun 2027 08:37:29.684             0.399            41.688
       388   11 Jun 2027 08:37:49.236   11 Jun 2027 08:37:51.522             2.286           389.750
       389   11 Jun 2027 08:38:02.140   11 Jun 2027 08:38:04.912             2.772           331.812
       390   11 Jun 2027 08:38:34.161   11 Jun 2027 08:38:37.504             3.343           904.406
       391   11 Jun 2027 10:09:30.039   11 Jun 2027 10:09:46.335            16.296          7597.156
       392   11 Jun 2027 10:09:54.151   11 Jun 2027 10:09:57.155             3.004           191.750
       393   11 Jun 2027 10:10:48.842   11 Jun 2027 10:10:50.528             1.686           788.781
       394   11 Jun 2027 10:11:51.346   11 Jun 2027 10:11:55.798             4.452          1893.219
       395   11 Jun 2027 10:12:53.784   11 Jun 2027 10:12:58.236             4.452          1806.281
       396   11 Jun 2027 10:13:35.016   11 Jun 2027 10:13:36.033             1.017           491.375
       397   11 Jun 2027 10:13:42.870   11 Jun 2027 10:13:44.296             1.426            86.844
       398   11 Jun 2027 10:14:06.958   11 Jun 2027 10:14:09.455             2.497           553.094
       399   11 Jun 2027 11:46:16.123   11 Jun 2027 11:46:23.628             7.505          2792.062
       400   11 Jun 2027 11:46:58.218   11 Jun 2027 11:47:03.589             5.371           900.531
       401   11 Jun 2027 11:47:25.070   11 Jun 2027 11:47:27.439             2.369           666.938
       402   11 Jun 2027 11:48:28.360   11 Jun 2027 11:48:32.568             4.208          1388.063
       403   11 Jun 2027 11:48:51.115   11 Jun 2027 11:48:57.413             6.298           573.750
       404   12 Jun 2027 03:56:50.230   12 Jun 2027 03:58:13.971            83.741         41870.500
       405   12 Jun 2027 03:58:31.035   12 Jun 2027 03:58:34.026             2.991          1495.500
       406   12 Jun 2027 03:58:34.860   12 Jun 2027 03:58:45.505            10.645          5322.500
       407   12 Jun 2027 05:30:47.943   12 Jun 2027 05:31:02.618            14.675          7337.500
       408   12 Jun 2027 05:31:12.063   12 Jun 2027 05:34:31.432           199.369         99684.500
       409   12 Jun 2027 05:38:08.091   12 Jun 2027 05:38:08.091             0.000             0.000
       410   12 Jun 2027 05:38:50.845   12 Jun 2027 05:38:53.665             2.820          1410.000
       411   12 Jun 2027 07:07:58.660   12 Jun 2027 07:08:51.041            52.381         26138.187
       412   12 Jun 2027 07:09:22.793   12 Jun 2027 07:09:26.108             3.315           583.406
       413   12 Jun 2027 07:09:56.866   12 Jun 2027 07:10:00.731             3.865           961.094
       414   12 Jun 2027 07:10:43.607   12 Jun 2027 07:10:45.795             2.188           520.344
       415   12 Jun 2027 07:11:08.044   12 Jun 2027 07:11:12.803             4.759           625.500
       416   12 Jun 2027 07:11:43.870   12 Jun 2027 07:11:44.444             0.574           154.500
       417   12 Jun 2027 07:12:30.319   12 Jun 2027 07:12:32.454             2.135          1038.875
       418   12 Jun 2027 07:12:56.963   12 Jun 2027 07:12:57.828             0.865           432.500
       419   12 Jun 2027 07:13:06.161   12 Jun 2027 07:13:07.874             1.713           593.812
       420   12 Jun 2027 07:13:17.095   12 Jun 2027 07:13:17.095             0.000             0.000
       421   12 Jun 2027 07:13:41.202   12 Jun 2027 07:13:43.605             2.403           815.594
       422   12 Jun 2027 07:14:28.386   12 Jun 2027 07:14:36.202             7.816          1348.437
       423   12 Jun 2027 08:44:58.642   12 Jun 2027 08:45:25.255            26.613         11331.219
       424   12 Jun 2027 08:45:29.420   12 Jun 2027 08:45:34.205             4.785           115.125
       425   12 Jun 2027 08:46:16.673   12 Jun 2027 08:46:22.557             5.884           440.906
       426   12 Jun 2027 08:47:42.487   12 Jun 2027 08:47:56.114            13.627          2429.656
       427   12 Jun 2027 08:48:18.693   12 Jun 2027 08:48:21.183             2.490           705.594
       428   12 Jun 2027 08:48:48.985   12 Jun 2027 08:48:48.985             0.000             0.000
       429   12 Jun 2027 08:49:05.119   12 Jun 2027 08:49:07.813             2.694          1277.687
       430   12 Jun 2027 08:49:37.787   12 Jun 2027 08:49:39.888             2.101           839.281
       431   12 Jun 2027 08:49:49.517   12 Jun 2027 08:49:51.989             2.472           243.781
       432   12 Jun 2027 08:50:05.614   12 Jun 2027 08:50:07.758             2.144           425.781
       433   12 Jun 2027 10:21:44.866   12 Jun 2027 10:22:03.661            18.795          9012.500
       434   12 Jun 2027 10:22:36.573   12 Jun 2027 10:22:38.080             1.507           626.281
       435   12 Jun 2027 10:22:59.628   12 Jun 2027 10:23:01.634             2.006           673.375
       436   12 Jun 2027 10:23:45.962   12 Jun 2027 10:23:49.180             3.218          1385.250
       437   12 Jun 2027 10:24:01.777   12 Jun 2027 10:24:02.818             1.041           393.656
       438   12 Jun 2027 10:24:16.202   12 Jun 2027 10:24:17.738             1.536           193.094
       439   12 Jun 2027 10:24:26.854   12 Jun 2027 10:24:27.813             0.959           152.781
       440   12 Jun 2027 10:25:14.427   12 Jun 2027 10:25:20.005             5.578          1456.687
       441   12 Jun 2027 10:25:45.554   12 Jun 2027 10:25:49.378             3.824           669.094
       442   12 Jun 2027 10:25:50.101   12 Jun 2027 10:25:51.783             1.682            22.594
       443   12 Jun 2027 11:59:54.877   12 Jun 2027 12:00:00.000             5.123          2285.062
       444   13 Jun 2027 04:08:55.611   13 Jun 2027 04:09:54.890            59.279         29639.500
       445   13 Jun 2027 04:10:00.511   13 Jun 2027 04:10:45.788            45.277         22638.500
       446   13 Jun 2027 05:44:04.469   13 Jun 2027 05:45:37.558            93.089         46544.500
       447   13 Jun 2027 05:46:14.408   13 Jun 2027 05:46:30.959            16.551          8275.500
       448   13 Jun 2027 05:46:53.340   13 Jun 2027 05:47:09.277            15.937          7968.500
       449   13 Jun 2027 05:47:35.844   13 Jun 2027 05:47:48.993            13.149          6574.500
       450   13 Jun 2027 05:48:00.639   13 Jun 2027 05:48:30.143            29.504         14752.000
       451   13 Jun 2027 05:49:54.238   13 Jun 2027 05:50:01.875             7.637          3818.500
       452   13 Jun 2027 05:50:22.727   13 Jun 2027 05:50:34.436            11.709          5854.500
       453   13 Jun 2027 05:50:45.429   13 Jun 2027 05:50:53.080             7.651          3825.500
       454   13 Jun 2027 07:20:24.494   13 Jun 2027 07:20:46.402            21.908         10954.000
       455   13 Jun 2027 07:21:36.851   13 Jun 2027 07:22:13.912            37.061         17137.343
       456   13 Jun 2027 07:23:11.159   13 Jun 2027 07:23:15.850             4.691          1268.688
       457   13 Jun 2027 07:23:34.082   13 Jun 2027 07:23:35.920             1.838           231.969
       458   13 Jun 2027 07:24:03.925   13 Jun 2027 07:24:07.269             3.344           682.781
       459   13 Jun 2027 07:25:22.960   13 Jun 2027 07:25:30.287             7.327          2302.187
       460   13 Jun 2027 07:25:39.223   13 Jun 2027 07:25:40.274             1.051           279.250
       461   13 Jun 2027 07:26:11.541   13 Jun 2027 07:26:13.187             1.646           578.781
       462   13 Jun 2027 08:57:58.956   13 Jun 2027 08:58:21.026            22.070         11035.000
       463   13 Jun 2027 08:58:41.645   13 Jun 2027 08:58:45.058             3.413          1065.187
       464   13 Jun 2027 08:59:09.834   13 Jun 2027 08:59:11.615             1.781           774.250
       465   13 Jun 2027 08:59:39.440   13 Jun 2027 08:59:40.196             0.756           105.906
       466   13 Jun 2027 09:00:46.860   13 Jun 2027 09:00:50.793             3.933          1738.469
       467   13 Jun 2027 09:01:46.389   13 Jun 2027 09:01:50.435             4.046          1617.125
       468   13 Jun 2027 09:01:56.304   13 Jun 2027 09:01:57.801             1.497           183.406
       469   13 Jun 2027 10:34:01.811   13 Jun 2027 10:34:18.495            16.684          8117.438
       470   13 Jun 2027 10:34:35.950   13 Jun 2027 10:34:38.388             2.438           323.469
       471   13 Jun 2027 10:34:50.405   13 Jun 2027 10:34:56.480             6.075           333.594
       472   13 Jun 2027 10:35:44.860   13 Jun 2027 10:35:48.978             4.118          1490.125
       473   13 Jun 2027 10:36:00.344   13 Jun 2027 10:36:10.908            10.564           328.813
       474   13 Jun 2027 10:37:39.805   13 Jun 2027 10:37:45.826             6.021          2541.969
