uniorb/output/strategy_2/Camera/Camera_KinoSat_111105.txt

KinoSat_111105
-------------------------
    Access    *     Start Time (UTCG)     *     Stop Time (UTCG)  *   Duration (s) *   Data (Mbytes)
         1   01 Jun 2027 03:24:34.793   01 Jun 2027 03:24:54.235            19.442          9721.000
         2   01 Jun 2027 03:35:34.213   01 Jun 2027 03:39:01.673           207.460        103730.000
         3   01 Jun 2027 04:58:52.652   01 Jun 2027 04:59:45.748            53.096         26548.000
         4   01 Jun 2027 05:00:38.530   01 Jun 2027 05:00:51.928            13.398          6699.000
         5   01 Jun 2027 05:01:43.595   01 Jun 2027 05:01:57.716            14.121          7060.500
         6   01 Jun 2027 06:35:15.281   01 Jun 2027 06:36:25.716            70.435         35217.500
         7   01 Jun 2027 06:36:39.063   01 Jun 2027 06:37:58.030            78.967         39483.500
         8   01 Jun 2027 08:10:00.552   01 Jun 2027 08:13:07.082           186.530         93265.000
         9   01 Jun 2027 08:13:47.763   01 Jun 2027 08:14:04.854            17.091          8545.500
        10   01 Jun 2027 08:16:53.151   01 Jun 2027 08:17:10.491            17.340          8670.000
        11   01 Jun 2027 09:46:49.914   01 Jun 2027 09:49:18.767           148.853         74426.500
        12   01 Jun 2027 09:49:32.953   01 Jun 2027 09:49:40.130             7.177          3588.500
        13   01 Jun 2027 11:25:00.701   01 Jun 2027 11:26:30.009            89.308         44654.000
        14   01 Jun 2027 11:27:28.737   01 Jun 2027 11:27:34.432             5.695          2847.500
        15   01 Jun 2027 11:28:51.780   01 Jun 2027 11:28:56.624             4.844          2422.000
        16   02 Jun 2027 03:35:54.359   02 Jun 2027 03:36:56.203            61.844         30922.000
        17   02 Jun 2027 03:37:05.064   02 Jun 2027 03:37:05.064             0.000             0.000
        18   02 Jun 2027 03:47:34.967   02 Jun 2027 03:48:59.075            84.108         42054.000
        19   02 Jun 2027 05:09:50.889   02 Jun 2027 05:11:06.538            75.649         37824.500
        20   02 Jun 2027 05:11:47.689   02 Jun 2027 05:12:13.283            25.594         12797.000
        21   02 Jun 2027 05:12:30.294   02 Jun 2027 05:12:40.202             9.908          4954.000
        22   02 Jun 2027 06:45:03.483   02 Jun 2027 06:46:28.020            84.537         42268.500
        23   02 Jun 2027 06:46:59.229   02 Jun 2027 06:48:45.117           105.888         52944.000
        24   02 Jun 2027 06:49:03.415   02 Jun 2027 06:49:03.415             0.000             0.000
        25   02 Jun 2027 06:50:57.978   02 Jun 2027 06:51:03.772             5.794          2897.000
        26   02 Jun 2027 06:51:21.856   02 Jun 2027 06:51:29.126             7.270          3635.000
        27   02 Jun 2027 08:22:07.748   02 Jun 2027 08:23:39.138            91.390         45695.000
        28   02 Jun 2027 08:25:33.998   02 Jun 2027 08:25:46.364            12.366          5840.687
        29   02 Jun 2027 08:26:36.062   02 Jun 2027 08:26:39.147             3.085           678.312
        30   02 Jun 2027 08:28:12.481   02 Jun 2027 08:28:14.410             1.929           964.500
        31   02 Jun 2027 08:28:31.853   02 Jun 2027 08:28:37.251             5.398          2035.500
        32   02 Jun 2027 09:59:05.773   02 Jun 2027 09:59:28.231            22.458          8840.188
        33   02 Jun 2027 10:00:54.813   02 Jun 2027 10:00:59.889             5.076          2028.656
        34   02 Jun 2027 10:01:24.492   02 Jun 2027 10:01:27.199             2.707           648.625
        35   02 Jun 2027 10:01:39.921   02 Jun 2027 10:01:39.942             0.021             5.062
        36   02 Jun 2027 10:02:21.665   02 Jun 2027 10:02:28.354             6.689          1282.656
        37   02 Jun 2027 10:03:15.190   02 Jun 2027 10:03:18.478             3.288          1413.187
        38   02 Jun 2027 10:04:18.373   02 Jun 2027 10:04:29.907            11.534          1871.719
        39   02 Jun 2027 11:37:02.186   02 Jun 2027 11:37:21.709            19.523          7293.094
        40   02 Jun 2027 11:37:36.688   02 Jun 2027 11:37:43.858             7.170           392.219
        41   02 Jun 2027 11:38:40.587   02 Jun 2027 11:38:45.266             4.679          1772.781
        42   02 Jun 2027 11:40:09.434   02 Jun 2027 11:40:17.033             7.599          2558.250
        43   02 Jun 2027 11:40:25.225   02 Jun 2027 11:40:28.935             3.710           256.000
        44   03 Jun 2027 03:47:16.595   03 Jun 2027 03:48:09.128            52.533         26266.500
        45   03 Jun 2027 03:48:12.048   03 Jun 2027 03:48:37.292            25.244         12622.000
        46   03 Jun 2027 03:49:32.214   03 Jun 2027 03:49:33.125             0.911           455.500
        47   03 Jun 2027 03:59:32.142   03 Jun 2027 04:00:27.216            55.074         27537.000
        48   03 Jun 2027 05:21:31.659   03 Jun 2027 05:22:53.763            82.104         41052.000
        49   03 Jun 2027 05:23:37.984   03 Jun 2027 05:24:41.902            63.918         31959.000
        50   03 Jun 2027 06:56:31.029   03 Jun 2027 06:57:08.754            37.725         18862.500
        51   03 Jun 2027 06:58:26.845   03 Jun 2027 06:58:35.954             9.109          2473.187
        52   03 Jun 2027 07:00:35.056   03 Jun 2027 07:00:37.239             2.183          1091.500
        53   03 Jun 2027 07:01:14.917   03 Jun 2027 07:01:18.669             3.752          1876.000
        54   03 Jun 2027 07:01:53.880   03 Jun 2027 07:01:58.911             5.031          2439.937
        55   03 Jun 2027 07:02:18.771   03 Jun 2027 07:02:20.063             1.292           620.625
        56   03 Jun 2027 07:02:42.477   03 Jun 2027 07:02:42.944             0.467           173.594
        57   03 Jun 2027 07:03:41.895   03 Jun 2027 07:03:47.139             5.244          1842.219
        58   03 Jun 2027 07:04:59.866   03 Jun 2027 07:05:04.804             4.938          2233.688
        59   03 Jun 2027 08:34:09.797   03 Jun 2027 08:34:21.752            11.955          5809.594
        60   03 Jun 2027 08:35:02.735   03 Jun 2027 08:35:05.646             2.911           959.906
        61   03 Jun 2027 08:35:13.690   03 Jun 2027 08:35:17.838             4.148           251.375
        62   03 Jun 2027 08:35:37.451   03 Jun 2027 08:35:40.570             3.119           584.500
        63   03 Jun 2027 08:36:06.880   03 Jun 2027 08:36:09.874             2.994           429.687
        64   03 Jun 2027 08:37:06.041   03 Jun 2027 08:37:10.699             4.658          1755.219
        65   03 Jun 2027 08:37:58.295   03 Jun 2027 08:38:03.103             4.808          1445.531
        66   03 Jun 2027 08:38:28.663   03 Jun 2027 08:38:32.095             3.432           683.594
        67   03 Jun 2027 08:39:20.382   03 Jun 2027 08:39:21.631             1.249           624.500
        68   03 Jun 2027 08:39:44.135   03 Jun 2027 08:39:48.798             4.663          1587.719
        69   03 Jun 2027 08:40:42.764   03 Jun 2027 08:40:48.148             5.384          1520.406
        70   03 Jun 2027 08:41:03.380   03 Jun 2027 08:41:08.141             4.761           284.750
        71   03 Jun 2027 10:10:56.269   03 Jun 2027 10:11:16.845            20.576          8183.469
        72   03 Jun 2027 10:11:46.789   03 Jun 2027 10:11:58.290            11.501           471.781
        73   03 Jun 2027 10:12:05.683   03 Jun 2027 10:12:12.814             7.131           231.031
        74   03 Jun 2027 10:13:10.781   03 Jun 2027 10:13:11.506             0.725           362.500
        75   03 Jun 2027 10:13:38.664   03 Jun 2027 10:13:47.655             8.991          2016.938
        76   03 Jun 2027 10:14:37.178   03 Jun 2027 10:14:48.444            11.266          1547.594
        77   03 Jun 2027 10:14:52.813   03 Jun 2027 10:14:53.154             0.341           136.531
        78   03 Jun 2027 10:15:21.367   03 Jun 2027 10:15:23.399             2.032           881.656
        79   03 Jun 2027 10:15:28.738   03 Jun 2027 10:15:30.128             1.390           166.844
        80   03 Jun 2027 10:15:48.993   03 Jun 2027 10:15:52.815             3.822           589.531
        81   03 Jun 2027 10:16:42.665   03 Jun 2027 10:16:47.062             4.397          1432.219
        82   03 Jun 2027 10:17:12.185   03 Jun 2027 10:17:15.524             3.339           503.781
        83   03 Jun 2027 10:17:36.350   03 Jun 2027 10:17:39.160             2.810           650.813
        84   03 Jun 2027 11:48:59.945   03 Jun 2027 11:49:17.428            17.483          7379.156
        85   03 Jun 2027 11:49:56.876   03 Jun 2027 11:50:00.882             4.006           844.219
        86   03 Jun 2027 11:50:25.668   03 Jun 2027 11:50:27.934             2.266           727.656
        87   03 Jun 2027 11:50:44.117   03 Jun 2027 11:50:47.439             3.322           454.688
        88   03 Jun 2027 11:51:14.734   03 Jun 2027 11:51:14.734             0.000             0.000
        89   03 Jun 2027 11:51:22.826   03 Jun 2027 11:51:27.350             4.524          1105.844
        90   03 Jun 2027 11:51:57.719   03 Jun 2027 11:51:59.671             1.952           949.031
        91   03 Jun 2027 11:52:03.277   03 Jun 2027 11:52:05.816             2.539           112.687
        92   03 Jun 2027 11:52:30.899   03 Jun 2027 11:52:32.807             1.908           682.406
        93   04 Jun 2027 03:59:23.690   04 Jun 2027 04:00:38.520            74.830         37415.000
        94   04 Jun 2027 04:01:22.482   04 Jun 2027 04:01:23.142             0.660           330.000
        95   04 Jun 2027 04:11:57.165   04 Jun 2027 04:11:58.404             1.239           619.500
        96   04 Jun 2027 05:33:12.371   04 Jun 2027 05:36:15.157           182.786         91393.000
        97   04 Jun 2027 05:37:11.587   04 Jun 2027 05:37:14.135             2.548          1274.000
        98   04 Jun 2027 05:38:15.836   04 Jun 2027 05:38:22.947             7.111          3555.500
        99   04 Jun 2027 05:38:48.183   04 Jun 2027 05:39:12.877            24.694         12347.000
       100   04 Jun 2027 07:08:04.817   04 Jun 2027 07:08:32.722            27.905         13707.812
       101   04 Jun 2027 07:09:04.940   04 Jun 2027 07:09:08.086             3.146          1006.813
       102   04 Jun 2027 07:10:14.599   04 Jun 2027 07:10:28.375            13.776          1661.125
       103   04 Jun 2027 07:11:09.957   04 Jun 2027 07:11:12.166             2.209           887.781
       104   04 Jun 2027 07:11:28.977   04 Jun 2027 07:11:35.204             6.227           149.812
       105   04 Jun 2027 07:11:48.411   04 Jun 2027 07:11:48.905             0.494           210.938
       106   04 Jun 2027 07:11:55.482   04 Jun 2027 07:11:55.962             0.480           144.844
       107   04 Jun 2027 07:12:20.552   04 Jun 2027 07:12:22.635             2.083           273.906
       108   04 Jun 2027 07:13:58.560   04 Jun 2027 07:14:11.245            12.685          2937.625
       109   04 Jun 2027 07:14:50.045   04 Jun 2027 07:14:53.368             3.323           883.031
       110   04 Jun 2027 07:15:25.921   04 Jun 2027 07:15:27.394             1.473           651.219
       111   04 Jun 2027 07:15:38.747   04 Jun 2027 07:15:40.007             1.260            23.438
       112   04 Jun 2027 07:16:05.532   04 Jun 2027 07:16:11.562             6.030           780.937
       113   04 Jun 2027 07:16:12.249   04 Jun 2027 07:16:13.484             1.235            21.469
       114   04 Jun 2027 07:16:40.796   04 Jun 2027 07:16:42.163             1.367           683.500
       115   04 Jun 2027 08:46:11.399   04 Jun 2027 08:46:28.133            16.734          7961.937
       116   04 Jun 2027 08:47:09.033   04 Jun 2027 08:47:15.763             6.730           738.969
       117   04 Jun 2027 08:48:12.391   04 Jun 2027 08:48:13.196             0.805           366.344
       118   04 Jun 2027 08:48:39.176   04 Jun 2027 08:48:49.195            10.019           811.875
       119   04 Jun 2027 08:49:22.459   04 Jun 2027 08:49:24.145             1.686           823.063
       120   04 Jun 2027 08:50:27.018   04 Jun 2027 08:50:32.608             5.590          1954.906
       121   04 Jun 2027 08:50:55.348   04 Jun 2027 08:50:58.181             2.833            20.187
       122   04 Jun 2027 08:51:25.288   04 Jun 2027 08:51:28.864             3.576           654.969
       123   04 Jun 2027 08:51:52.755   04 Jun 2027 08:51:55.956             3.201           746.594
       124   04 Jun 2027 08:53:06.523   04 Jun 2027 08:53:10.186             3.663          1729.969
       125   04 Jun 2027 10:23:06.372   04 Jun 2027 10:23:23.564            17.192          6828.906
       126   04 Jun 2027 10:23:36.978   04 Jun 2027 10:23:38.712             1.734           378.281
       127   04 Jun 2027 10:24:01.873   04 Jun 2027 10:24:03.354             1.481           466.750
       128   04 Jun 2027 10:25:36.218   04 Jun 2027 10:25:40.289             4.071          2035.500
       129   04 Jun 2027 10:26:40.976   04 Jun 2027 10:26:45.725             4.749          1936.313
       130   04 Jun 2027 10:27:04.966   04 Jun 2027 10:27:07.009             2.043           318.844
       131   04 Jun 2027 10:27:57.914   04 Jun 2027 10:28:01.705             3.791          1590.781
       132   04 Jun 2027 10:29:10.611   04 Jun 2027 10:29:18.130             7.519          2153.313
       133   05 Jun 2027 04:11:19.112   05 Jun 2027 04:12:53.662            94.550         47275.000
       134   05 Jun 2027 04:13:15.332   05 Jun 2027 04:13:15.338             0.006             3.000
       135   05 Jun 2027 05:47:33.804   05 Jun 2027 05:50:30.818           177.014         88507.000
       136   05 Jun 2027 07:21:06.085   05 Jun 2027 07:21:51.869            45.784         22787.469
       137   05 Jun 2027 07:22:33.323   05 Jun 2027 07:22:36.473             3.150           570.844
       138   05 Jun 2027 07:23:25.226   05 Jun 2027 07:23:26.665             1.439           397.000
       139   05 Jun 2027 07:23:48.541   05 Jun 2027 07:23:54.335             5.794           654.000
       140   05 Jun 2027 07:24:34.544   05 Jun 2027 07:24:37.063             2.519          1077.844
       141   05 Jun 2027 07:25:36.761   05 Jun 2027 07:25:37.708             0.947           473.500
       142   05 Jun 2027 07:26:45.429   05 Jun 2027 07:26:56.567            11.138          3206.281
       143   05 Jun 2027 07:27:13.168   05 Jun 2027 07:27:14.470             1.302           409.188
       144   05 Jun 2027 07:28:56.791   05 Jun 2027 07:29:05.146             8.355          2927.531
       145   05 Jun 2027 07:29:19.135   05 Jun 2027 07:29:21.194             2.059           437.156
       146   05 Jun 2027 08:58:38.651   05 Jun 2027 08:58:54.670            16.019          6135.781
       147   05 Jun 2027 08:59:22.944   05 Jun 2027 08:59:25.068             2.124           695.531
       148   05 Jun 2027 09:01:03.951   05 Jun 2027 09:01:08.434             4.483          1137.875
       149   05 Jun 2027 09:01:41.668   05 Jun 2027 09:01:42.120             0.452           202.375
       150   05 Jun 2027 09:02:23.046   05 Jun 2027 09:02:30.361             7.315          1278.937
       151   05 Jun 2027 09:03:01.918   05 Jun 2027 09:03:04.141             2.223           451.938
       152   05 Jun 2027 09:03:27.163   05 Jun 2027 09:03:30.487             3.324           719.438
       153   05 Jun 2027 09:04:03.299   05 Jun 2027 09:04:09.619             6.320           969.312
       154   05 Jun 2027 10:35:33.459   05 Jun 2027 10:35:55.016            21.557          7551.031
       155   05 Jun 2027 10:37:00.686   05 Jun 2027 10:37:03.096             2.410          1187.031
       156   05 Jun 2027 10:37:08.212   05 Jun 2027 10:37:11.622             3.410           159.875
       157   05 Jun 2027 10:37:37.721   05 Jun 2027 10:37:44.290             6.569           441.844
       158   05 Jun 2027 10:37:56.735   05 Jun 2027 10:37:58.199             1.464           108.750
       159   05 Jun 2027 10:38:48.982   05 Jun 2027 10:38:56.513             7.531          1513.875
       160   05 Jun 2027 10:39:26.239   05 Jun 2027 10:39:29.343             3.104           928.938
       161   05 Jun 2027 10:40:07.526   05 Jun 2027 10:40:07.732             0.206           103.000
       162   05 Jun 2027 10:40:38.130   05 Jun 2027 10:40:41.953             3.823          1911.500
       163   05 Jun 2027 10:41:08.612   05 Jun 2027 10:41:12.051             3.439           837.469
       164   05 Jun 2027 10:41:15.075   05 Jun 2027 10:41:23.971             8.896             0.969
       165   06 Jun 2027 03:00:09.311   06 Jun 2027 03:00:31.087            21.776         10888.000
       166   06 Jun 2027 03:00:59.154   06 Jun 2027 03:01:07.234             8.080          4040.000
       167   06 Jun 2027 03:01:21.411   06 Jun 2027 03:01:23.068             1.657           828.500
       168   06 Jun 2027 03:01:31.669   06 Jun 2027 03:01:41.394             9.725          4862.500
       169   06 Jun 2027 03:01:47.754   06 Jun 2027 03:01:52.346             4.592          2296.000
       170   06 Jun 2027 03:02:10.210   06 Jun 2027 03:02:28.489            18.279          9139.500
       171   06 Jun 2027 03:02:35.584   06 Jun 2027 03:03:10.118            34.534         17267.000
       172   06 Jun 2027 03:03:19.900   06 Jun 2027 03:03:19.900             0.000             0.000
       173   06 Jun 2027 03:03:22.700   06 Jun 2027 03:03:22.700             0.000             0.000
       174   06 Jun 2027 03:03:54.210   06 Jun 2027 03:03:54.210             0.000             0.000
       175   06 Jun 2027 04:23:10.702   06 Jun 2027 04:24:19.997            69.295         34647.500
       176   06 Jun 2027 05:59:37.925   06 Jun 2027 06:02:09.552           151.627         75813.500
       177   06 Jun 2027 06:02:20.187   06 Jun 2027 06:02:32.437            12.250          5396.563
       178   06 Jun 2027 07:31:45.780   06 Jun 2027 07:31:56.377            10.597          5298.500
       179   06 Jun 2027 07:33:44.847   06 Jun 2027 07:33:49.119             4.272          1168.844
       180   06 Jun 2027 07:35:25.373   06 Jun 2027 07:35:26.671             1.298           465.125
       181   06 Jun 2027 07:35:43.709   06 Jun 2027 07:35:47.971             4.262           199.938
       182   06 Jun 2027 07:36:18.586   06 Jun 2027 07:36:21.348             2.762           939.812
       183   06 Jun 2027 07:36:57.285   06 Jun 2027 07:36:59.183             1.898           949.000
       184   06 Jun 2027 07:37:07.107   06 Jun 2027 07:37:10.699             3.592           331.625
       185   06 Jun 2027 07:38:24.451   06 Jun 2027 07:38:27.401             2.950          1475.000
       186   06 Jun 2027 07:38:55.553   06 Jun 2027 07:39:00.631             5.078          1579.062
       187   06 Jun 2027 07:39:31.133   06 Jun 2027 07:39:35.207             4.074            23.531
       188   06 Jun 2027 07:40:02.083   06 Jun 2027 07:40:07.475             5.392           341.344
       189   06 Jun 2027 07:40:18.220   06 Jun 2027 07:40:20.602             2.382           335.781
       190   06 Jun 2027 07:41:06.974   06 Jun 2027 07:41:09.914             2.940          1446.656
       191   06 Jun 2027 09:10:43.312   06 Jun 2027 09:10:57.302            13.990          6148.125
       192   06 Jun 2027 09:11:58.274   06 Jun 2027 09:11:59.147             0.873           408.156
       193   06 Jun 2027 09:12:25.853   06 Jun 2027 09:12:29.474             3.621           816.031
       194   06 Jun 2027 09:14:25.145   06 Jun 2027 09:14:29.141             3.996          1060.344
       195   06 Jun 2027 09:15:07.848   06 Jun 2027 09:15:08.049             0.201           100.500
       196   06 Jun 2027 09:15:14.815   06 Jun 2027 09:15:17.095             2.280          1048.219
       197   06 Jun 2027 09:15:55.237   06 Jun 2027 09:15:57.757             2.520          1093.594
       198   06 Jun 2027 09:16:58.485   06 Jun 2027 09:17:02.478             3.993          1817.344
       199   06 Jun 2027 09:17:24.159   06 Jun 2027 09:17:27.978             3.819           494.125
       200   06 Jun 2027 10:48:13.540   06 Jun 2027 10:48:31.265            17.725          8236.844
       201   06 Jun 2027 10:49:02.722   06 Jun 2027 10:49:03.892             1.170           585.000
       202   06 Jun 2027 10:49:19.741   06 Jun 2027 10:49:24.090             4.349           730.625
       203   06 Jun 2027 10:49:28.082   06 Jun 2027 10:49:28.341             0.259           124.750
       204   06 Jun 2027 10:50:01.223   06 Jun 2027 10:50:05.713             4.490           352.438
       205   06 Jun 2027 10:50:43.780   06 Jun 2027 10:50:45.817             2.037           350.375
       206   06 Jun 2027 10:50:55.951   06 Jun 2027 10:50:58.029             2.078           316.688
       207   06 Jun 2027 10:51:26.224   06 Jun 2027 10:51:28.377             2.153           869.594
       208   06 Jun 2027 10:51:48.641   06 Jun 2027 10:51:49.986             1.345           211.688
       209   06 Jun 2027 10:52:37.640   06 Jun 2027 10:52:44.556             6.916          1193.531
       210   06 Jun 2027 10:52:50.066   06 Jun 2027 10:52:50.718             0.652           172.188
       211   07 Jun 2027 03:12:02.103   07 Jun 2027 03:14:25.808           143.705         71852.500
       212   07 Jun 2027 03:15:03.252   07 Jun 2027 03:15:07.548             4.296          2148.000
       213   07 Jun 2027 03:15:14.462   07 Jun 2027 03:15:32.075            17.613          8806.500
       214   07 Jun 2027 03:15:41.274   07 Jun 2027 03:15:41.274             0.000             0.000
       215   07 Jun 2027 04:35:18.852   07 Jun 2027 04:36:15.778            56.926         28463.000
       216   07 Jun 2027 04:36:48.776   07 Jun 2027 04:36:48.776             0.000             0.000
       217   07 Jun 2027 04:37:06.456   07 Jun 2027 04:37:14.915             8.459          4229.500
       218   07 Jun 2027 04:37:20.901   07 Jun 2027 04:37:47.008            26.107         13053.500
       219   07 Jun 2027 04:38:19.586   07 Jun 2027 04:38:22.931             3.345          1672.500
       220   07 Jun 2027 06:11:47.858   07 Jun 2027 06:12:48.205            60.347         30173.500
       221   07 Jun 2027 06:13:06.975   07 Jun 2027 06:13:11.491             4.516          1302.688
       222   07 Jun 2027 06:14:30.676   07 Jun 2027 06:14:35.824             5.148          2300.625
       223   07 Jun 2027 07:46:58.910   07 Jun 2027 07:47:15.398            16.488          4221.094
       224   07 Jun 2027 07:47:26.970   07 Jun 2027 07:47:28.572             1.602           230.469
       225   07 Jun 2027 07:48:53.236   07 Jun 2027 07:48:59.159             5.923          1674.406
       226   07 Jun 2027 07:49:28.066   07 Jun 2027 07:49:34.428             6.362           803.688
       227   07 Jun 2027 07:50:00.172   07 Jun 2027 07:50:02.798             2.626           222.469
       228   07 Jun 2027 07:51:23.782   07 Jun 2027 07:51:27.452             3.670          1797.031
       229   07 Jun 2027 07:51:32.248   07 Jun 2027 07:51:37.213             4.965           149.875
       230   07 Jun 2027 07:52:54.260   07 Jun 2027 07:52:58.575             4.315          1535.906
       231   07 Jun 2027 07:53:33.587   07 Jun 2027 07:53:35.873             2.286          1005.469
       232   07 Jun 2027 09:23:17.906   07 Jun 2027 09:23:35.727            17.821          8570.281
       233   07 Jun 2027 09:23:56.606   07 Jun 2027 09:23:57.713             1.107           112.188
       234   07 Jun 2027 09:24:54.103   07 Jun 2027 09:24:55.697             1.594           723.750
       235   07 Jun 2027 09:25:26.155   07 Jun 2027 09:25:29.273             3.118           386.562
       236   07 Jun 2027 09:25:33.359   07 Jun 2027 09:25:35.968             2.609           121.594
       237   07 Jun 2027 09:26:00.984   07 Jun 2027 09:26:02.836             1.852           721.688
       238   07 Jun 2027 09:26:30.446   07 Jun 2027 09:26:31.950             1.504           663.563
       239   07 Jun 2027 09:26:55.395   07 Jun 2027 09:26:55.395             0.000             0.000
       240   07 Jun 2027 09:27:15.638   07 Jun 2027 09:27:18.759             3.121          1298.375
       241   07 Jun 2027 09:27:31.913   07 Jun 2027 09:27:33.631             1.718            28.312
       242   07 Jun 2027 09:27:48.256   07 Jun 2027 09:27:52.231             3.975           234.562
       243   07 Jun 2027 09:28:32.869   07 Jun 2027 09:28:35.611             2.742          1101.938
       244   07 Jun 2027 09:29:33.918   07 Jun 2027 09:29:34.146             0.228           114.000
       245   07 Jun 2027 11:00:40.980   07 Jun 2027 11:00:57.045            16.065          7080.938
       246   07 Jun 2027 11:01:07.480   07 Jun 2027 11:01:08.062             0.582           132.156
       247   07 Jun 2027 11:01:37.643   07 Jun 2027 11:01:43.502             5.859           570.469
       248   07 Jun 2027 11:02:04.309   07 Jun 2027 11:02:06.127             1.818           650.219
       249   07 Jun 2027 11:02:41.718   07 Jun 2027 11:02:45.555             3.837           988.188
       250   07 Jun 2027 11:02:59.278   07 Jun 2027 11:03:00.373             1.095           404.844
       251   07 Jun 2027 11:03:24.502   07 Jun 2027 11:03:26.055             1.553           458.344
       252   07 Jun 2027 11:03:52.168   07 Jun 2027 11:03:56.938             4.770           606.094
       253   07 Jun 2027 11:05:09.582   07 Jun 2027 11:05:13.386             3.804          1902.000
       254   08 Jun 2027 03:23:53.961   08 Jun 2027 03:24:30.318            36.357         18178.500
       255   08 Jun 2027 03:24:58.899   08 Jun 2027 03:27:24.952           146.053         73026.500
       256   08 Jun 2027 04:48:01.401   08 Jun 2027 04:48:28.317            26.916         13458.000
       257   08 Jun 2027 04:48:53.592   08 Jun 2027 04:49:02.386             8.794          4397.000
       258   08 Jun 2027 04:49:12.769   08 Jun 2027 04:49:19.054             6.285          3142.500
       259   08 Jun 2027 06:23:45.443   08 Jun 2027 06:24:49.460            64.017         32008.500
       260   08 Jun 2027 06:25:15.610   08 Jun 2027 06:25:19.326             3.716          1858.000
       261   08 Jun 2027 06:25:44.029   08 Jun 2027 06:25:46.309             2.280           858.437
       262   08 Jun 2027 06:25:52.237   08 Jun 2027 06:25:52.828             0.591            78.094
       263   08 Jun 2027 06:26:20.267   08 Jun 2027 06:26:21.714             1.447           645.375
       264   08 Jun 2027 07:58:49.625   08 Jun 2027 07:59:02.065            12.440          5107.469
       265   08 Jun 2027 08:00:02.662   08 Jun 2027 08:00:06.597             3.935          1879.625
       266   08 Jun 2027 08:00:31.365   08 Jun 2027 08:00:33.778             2.413           150.687
       267   08 Jun 2027 08:01:49.192   08 Jun 2027 08:01:49.192             0.000             0.000
       268   08 Jun 2027 08:02:32.257   08 Jun 2027 08:02:38.225             5.968          2277.469
       269   08 Jun 2027 08:02:41.885   08 Jun 2027 08:02:44.850             2.965           104.375
       270   08 Jun 2027 08:03:22.992   08 Jun 2027 08:03:25.069             2.077           910.219
       271   08 Jun 2027 08:03:33.553   08 Jun 2027 08:03:34.591             1.038           265.125
       272   08 Jun 2027 08:04:19.228   08 Jun 2027 08:04:24.386             5.158          1394.906
       273   08 Jun 2027 08:04:55.351   08 Jun 2027 08:04:57.189             1.838           919.000
       274   08 Jun 2027 09:34:55.189   08 Jun 2027 09:35:17.701            22.512          9382.656
       275   08 Jun 2027 09:35:26.542   08 Jun 2027 09:35:28.808             2.266           130.094
       276   08 Jun 2027 09:37:36.011   08 Jun 2027 09:37:36.796             0.785           392.500
       277   08 Jun 2027 09:37:38.275   08 Jun 2027 09:37:45.576             7.301           681.344
       278   08 Jun 2027 09:38:18.373   08 Jun 2027 09:38:20.061             1.688           725.812
       279   08 Jun 2027 09:39:18.040   08 Jun 2027 09:39:24.489             6.449          1783.062
       280   08 Jun 2027 09:39:41.388   08 Jun 2027 09:39:45.141             3.753           420.563
       281   08 Jun 2027 09:40:34.395   08 Jun 2027 09:40:38.083             3.688          1297.156
       282   08 Jun 2027 09:41:13.533   08 Jun 2027 09:41:15.410             1.877           474.719
       283   08 Jun 2027 11:12:53.698   08 Jun 2027 11:13:06.746            13.048          6504.813
       284   08 Jun 2027 11:13:38.615   08 Jun 2027 11:13:40.889             2.274           968.625
       285   08 Jun 2027 11:14:05.205   08 Jun 2027 11:14:07.499             2.294           491.188
       286   08 Jun 2027 11:14:15.041   08 Jun 2027 11:14:22.335             7.294           235.688
       287   08 Jun 2027 11:14:51.946   08 Jun 2027 11:14:55.321             3.375           478.094
       288   08 Jun 2027 11:15:09.255   08 Jun 2027 11:15:14.112             4.857           359.531
       289   08 Jun 2027 11:15:26.543   08 Jun 2027 11:15:28.246             1.703           388.469
       290   08 Jun 2027 11:16:19.741   08 Jun 2027 11:16:23.669             3.928          1584.531
       291   08 Jun 2027 11:16:51.570   08 Jun 2027 11:16:56.566             4.996           815.937
       292   08 Jun 2027 11:17:00.603   08 Jun 2027 11:17:02.016             1.413           126.156
       293   08 Jun 2027 11:17:09.921   08 Jun 2027 11:17:10.429             0.508           247.031
       294   09 Jun 2027 03:24:48.853   09 Jun 2027 03:25:22.770            33.917         16958.500
       295   09 Jun 2027 03:35:49.521   09 Jun 2027 03:39:15.943           206.422        103211.000
       296   09 Jun 2027 04:59:07.569   09 Jun 2027 04:59:29.224            21.655         10827.500
       297   09 Jun 2027 05:00:41.298   09 Jun 2027 05:00:55.214            13.916          6958.000
       298   09 Jun 2027 06:35:30.167   09 Jun 2027 06:36:26.138            55.971         27030.626
       299   09 Jun 2027 06:36:42.848   09 Jun 2027 06:36:44.798             1.950           401.875
       300   09 Jun 2027 06:38:17.033   09 Jun 2027 06:38:23.630             6.597          2704.531
       301   09 Jun 2027 06:38:44.054   09 Jun 2027 06:38:44.054             0.000             0.000
       302   09 Jun 2027 06:39:05.976   09 Jun 2027 06:39:08.673             2.697          1127.406
       303   09 Jun 2027 06:39:50.225   09 Jun 2027 06:39:52.686             2.461           940.500
       304   09 Jun 2027 08:10:16.002   09 Jun 2027 08:10:24.087             8.085          3970.438
       305   09 Jun 2027 08:11:30.330   09 Jun 2027 08:11:34.668             4.338          1393.594
       306   09 Jun 2027 08:12:50.659   09 Jun 2027 08:12:53.404             2.745           803.625
       307   09 Jun 2027 08:13:16.129   09 Jun 2027 08:13:19.644             3.515           538.000
       308   09 Jun 2027 08:13:33.245   09 Jun 2027 08:13:34.819             1.574           380.094
       309   09 Jun 2027 08:13:43.640   09 Jun 2027 08:13:43.903             0.263           131.500
       310   09 Jun 2027 08:14:21.935   09 Jun 2027 08:14:21.935             0.000             0.000
       311   09 Jun 2027 08:14:34.321   09 Jun 2027 08:14:38.680             4.359          1719.719
       312   09 Jun 2027 08:15:01.575   09 Jun 2027 08:15:04.010             2.435           520.688
       313   09 Jun 2027 08:16:06.568   09 Jun 2027 08:16:12.842             6.274          1954.937
       314   09 Jun 2027 08:16:34.908   09 Jun 2027 08:16:37.917             3.009           585.063
       315   09 Jun 2027 08:16:45.041   09 Jun 2027 08:16:47.336             2.295           202.156
       316   09 Jun 2027 08:17:07.677   09 Jun 2027 08:17:10.207             2.530           635.656
       317   09 Jun 2027 08:17:31.886   09 Jun 2027 08:17:32.481             0.595           208.312
       318   09 Jun 2027 09:47:05.606   09 Jun 2027 09:47:22.796            17.190          8440.875
       319   09 Jun 2027 09:48:05.720   09 Jun 2027 09:48:08.062             2.342           512.250
       320   09 Jun 2027 09:49:12.998   09 Jun 2027 09:49:17.004             4.006           755.562
       321   09 Jun 2027 09:49:38.146   09 Jun 2027 09:49:39.029             0.883           216.063
       322   09 Jun 2027 09:50:09.760   09 Jun 2027 09:50:15.931             6.171           807.812
       323   09 Jun 2027 09:50:40.074   09 Jun 2027 09:50:43.314             3.240           543.781
       324   09 Jun 2027 09:51:19.702   09 Jun 2027 09:51:22.375             2.673          1015.063
       325   09 Jun 2027 09:51:58.871   09 Jun 2027 09:52:01.693             2.822          1140.500
       326   09 Jun 2027 09:52:26.985   09 Jun 2027 09:52:28.828             1.843           541.375
       327   09 Jun 2027 09:53:15.841   09 Jun 2027 09:53:22.182             6.341           373.344
       328   09 Jun 2027 11:25:15.982   09 Jun 2027 11:25:34.024            18.042          7173.188
       329   09 Jun 2027 11:25:51.924   09 Jun 2027 11:25:55.366             3.442           559.375
       330   09 Jun 2027 11:27:22.581   09 Jun 2027 11:27:27.205             4.624          2217.281
       331   09 Jun 2027 11:27:28.470   09 Jun 2027 11:27:28.470             0.000             0.000
       332   09 Jun 2027 11:27:49.448   09 Jun 2027 11:27:55.686             6.238           691.469
       333   09 Jun 2027 11:29:07.654   09 Jun 2027 11:29:11.484             3.830          1915.000
       334   10 Jun 2027 03:36:09.317   10 Jun 2027 03:36:51.191            41.874         20937.000
       335   10 Jun 2027 03:47:50.471   10 Jun 2027 03:49:13.918            83.447         41723.500
       336   10 Jun 2027 05:10:05.746   10 Jun 2027 05:11:21.409            75.663         37831.500
       337   10 Jun 2027 05:12:03.161   10 Jun 2027 05:12:28.532            25.371         12685.500
       338   10 Jun 2027 05:12:45.304   10 Jun 2027 05:13:10.443            25.139         12569.500
       339   10 Jun 2027 05:13:20.951   10 Jun 2027 05:14:02.910            41.959         20872.844
       340   10 Jun 2027 06:45:18.098   10 Jun 2027 06:45:49.514            31.416         14852.875
       341   10 Jun 2027 06:47:14.305   10 Jun 2027 06:47:21.794             7.489          2351.156
       342   10 Jun 2027 06:48:51.232   10 Jun 2027 06:48:59.295             8.063          2113.656
       343   10 Jun 2027 06:50:14.280   10 Jun 2027 06:50:17.322             3.042          1521.000
       344   10 Jun 2027 06:50:37.118   10 Jun 2027 06:50:42.215             5.097          1440.906
       345   10 Jun 2027 06:51:03.715   10 Jun 2027 06:51:04.735             1.020           261.094
       346   10 Jun 2027 06:51:05.572   10 Jun 2027 06:51:08.303             2.731            26.156
       347   10 Jun 2027 06:51:19.704   10 Jun 2027 06:51:19.704             0.000             0.000
       348   10 Jun 2027 06:51:48.611   10 Jun 2027 06:51:53.782             5.171          1091.750
       349   10 Jun 2027 06:51:57.345   10 Jun 2027 06:51:57.364             0.019             9.500
       350   10 Jun 2027 08:22:22.885   10 Jun 2027 08:22:35.996            13.111          6014.812
       351   10 Jun 2027 08:23:03.576   10 Jun 2027 08:23:11.029             7.453           531.281
       352   10 Jun 2027 08:24:27.027   10 Jun 2027 08:24:31.938             4.911          2207.156
       353   10 Jun 2027 08:25:29.182   10 Jun 2027 08:25:33.305             4.123          1788.875
       354   10 Jun 2027 08:25:36.797   10 Jun 2027 08:25:37.993             1.196            22.938
       355   10 Jun 2027 08:25:54.700   10 Jun 2027 08:25:59.049             4.349            95.188
       356   10 Jun 2027 08:26:09.324   10 Jun 2027 08:26:11.707             2.383           261.594
       357   10 Jun 2027 08:26:51.210   10 Jun 2027 08:26:53.779             2.569           695.063
       358   10 Jun 2027 08:28:04.852   10 Jun 2027 08:28:08.839             3.987          1670.719
       359   10 Jun 2027 08:28:40.009   10 Jun 2027 08:28:42.787             2.778           955.531
       360   10 Jun 2027 09:59:21.058   10 Jun 2027 09:59:32.347            11.289          5644.500
       361   10 Jun 2027 09:59:59.377   10 Jun 2027 10:00:05.800             6.423          2191.812
       362   10 Jun 2027 10:00:43.067   10 Jun 2027 10:00:47.191             4.124          1008.031
       363   10 Jun 2027 10:01:55.586   10 Jun 2027 10:02:01.792             6.206          2115.750
       364   10 Jun 2027 10:02:37.475   10 Jun 2027 10:02:44.506             7.031           632.438
       365   10 Jun 2027 10:03:21.145   10 Jun 2027 10:03:26.221             5.076          1140.750
       366   10 Jun 2027 10:04:10.613   10 Jun 2027 10:04:17.631             7.018          1253.719
       367   10 Jun 2027 11:37:17.344   10 Jun 2027 11:37:30.116            12.772          6347.937
       368   10 Jun 2027 11:37:39.031   10 Jun 2027 11:37:39.031             0.000             0.000
       369   10 Jun 2027 11:37:51.531   10 Jun 2027 11:37:59.942             8.411           669.219
       370   10 Jun 2027 11:38:56.025   10 Jun 2027 11:39:02.919             6.894          1752.594
       371   10 Jun 2027 11:40:24.193   10 Jun 2027 11:40:30.315             6.122          2539.813
       372   10 Jun 2027 11:41:04.864   10 Jun 2027 11:41:10.652             5.788          1079.656
       373   11 Jun 2027 03:47:33.501   11 Jun 2027 03:48:52.524            79.023         39511.500
       374   11 Jun 2027 03:49:42.040   11 Jun 2027 03:49:47.884             5.844          2922.000
       375   11 Jun 2027 03:59:47.576   11 Jun 2027 04:00:34.999            47.423         23711.500
       376   11 Jun 2027 05:21:48.195   11 Jun 2027 05:23:08.139            79.944         39972.000
       377   11 Jun 2027 05:23:53.234   11 Jun 2027 05:24:58.582            65.348         32674.000
       378   11 Jun 2027 06:56:45.552   11 Jun 2027 06:57:30.517            44.965         21888.093
       379   11 Jun 2027 06:58:29.729   11 Jun 2027 06:58:30.492             0.763           381.500
       380   11 Jun 2027 06:59:12.491   11 Jun 2027 06:59:19.400             6.909          2054.437
       381   11 Jun 2027 07:00:26.733   11 Jun 2027 07:00:30.308             3.575          1370.781
       382   11 Jun 2027 07:00:36.906   11 Jun 2027 07:00:37.389             0.483           206.187
       383   11 Jun 2027 07:02:09.318   11 Jun 2027 07:02:14.598             5.280          2427.625
       384   11 Jun 2027 07:02:36.182   11 Jun 2027 07:02:37.595             1.413           674.500
       385   11 Jun 2027 07:03:00.054   11 Jun 2027 07:03:01.805             1.751           184.375
       386   11 Jun 2027 07:03:36.536   11 Jun 2027 07:03:39.430             2.894           317.344
       387   11 Jun 2027 07:03:46.225   11 Jun 2027 07:03:48.087             1.862            68.781
       388   11 Jun 2027 07:03:50.203   11 Jun 2027 07:03:53.607             3.404            66.125
       389   11 Jun 2027 07:04:26.000   11 Jun 2027 07:04:28.868             2.868           858.937
       390   11 Jun 2027 08:34:25.023   11 Jun 2027 08:34:41.679            16.656          7497.000
       391   11 Jun 2027 08:35:20.823   11 Jun 2027 08:35:27.038             6.215           649.375
       392   11 Jun 2027 08:37:06.135   11 Jun 2027 08:37:13.735             7.600          1682.937
       393   11 Jun 2027 08:37:16.649   11 Jun 2027 08:37:17.095             0.446            91.062
       394   11 Jun 2027 08:37:33.202   11 Jun 2027 08:37:36.531             3.329           503.344
       395   11 Jun 2027 08:38:21.367   11 Jun 2027 08:38:24.500             3.133           812.031
       396   11 Jun 2027 08:39:20.848   11 Jun 2027 08:39:24.428             3.580          1458.969
       397   11 Jun 2027 08:39:34.285   11 Jun 2027 08:39:36.696             2.411           308.031
       398   11 Jun 2027 08:39:59.128   11 Jun 2027 08:40:00.468             1.340           670.000
       399   11 Jun 2027 08:40:12.954   11 Jun 2027 08:40:19.244             6.290           421.188
       400   11 Jun 2027 08:40:31.225   11 Jun 2027 08:40:31.836             0.611           220.094
       401   11 Jun 2027 08:40:47.656   11 Jun 2027 08:40:49.726             2.070           447.625
       402   11 Jun 2027 08:41:09.502   11 Jun 2027 08:41:18.250             8.748           537.156
       403   11 Jun 2027 08:41:38.819   11 Jun 2027 08:41:40.864             2.045           642.781
       404   11 Jun 2027 08:41:50.658   11 Jun 2027 08:41:51.756             1.098           301.906
       405   11 Jun 2027 10:11:12.080   11 Jun 2027 10:11:32.382            20.302          8318.938
       406   11 Jun 2027 10:11:48.382   11 Jun 2027 10:11:49.300             0.918           357.625
       407   11 Jun 2027 10:12:28.214   11 Jun 2027 10:12:30.282             2.068          1000.062
       408   11 Jun 2027 10:13:40.699   11 Jun 2027 10:13:45.549             4.850          1994.250
       409   11 Jun 2027 10:14:05.391   11 Jun 2027 10:14:06.463             1.072           347.156
       410   11 Jun 2027 10:15:09.205   11 Jun 2027 10:15:12.978             3.773          1262.875
       411   11 Jun 2027 10:15:26.096   11 Jun 2027 10:15:28.135             2.039           114.969
       412   11 Jun 2027 10:15:28.389   11 Jun 2027 10:15:29.601             1.212             7.937
       413   11 Jun 2027 10:16:11.491   11 Jun 2027 10:16:15.066             3.575          1214.781
       414   11 Jun 2027 10:16:21.699   11 Jun 2027 10:16:25.000             3.301           207.281
       415   11 Jun 2027 10:17:06.882   11 Jun 2027 10:17:08.429             1.547           773.500
       416   11 Jun 2027 10:17:27.462   11 Jun 2027 10:17:28.865             1.403           505.218
       417   11 Jun 2027 10:17:52.041   11 Jun 2027 10:17:55.057             3.016           675.563
       418   11 Jun 2027 11:49:14.425   11 Jun 2027 11:49:32.910            18.485          7984.031
       419   11 Jun 2027 11:49:46.885   11 Jun 2027 11:49:47.111             0.226            63.750
       420   11 Jun 2027 11:50:00.601   11 Jun 2027 11:50:03.196             2.595           250.469
       421   11 Jun 2027 11:50:40.469   11 Jun 2027 11:50:42.252             1.783           751.719
       422   11 Jun 2027 11:50:55.750   11 Jun 2027 11:50:57.914             2.164           334.719
       423   11 Jun 2027 11:51:02.213   11 Jun 2027 11:51:04.684             2.471            55.312
       424   11 Jun 2027 11:51:07.607   11 Jun 2027 11:51:07.913             0.306            91.094
       425   11 Jun 2027 11:51:29.368   11 Jun 2027 11:51:29.384             0.016             8.000
       426   11 Jun 2027 11:51:55.522   11 Jun 2027 11:52:05.799            10.277           947.906
       427   11 Jun 2027 11:53:03.162   11 Jun 2027 11:53:07.273             4.111          1706.063
       428   12 Jun 2027 03:59:39.078   12 Jun 2027 04:00:53.746            74.668         37334.000
       429   12 Jun 2027 04:01:38.448   12 Jun 2027 04:01:39.707             1.259           629.500
       430   12 Jun 2027 05:33:27.016   12 Jun 2027 05:36:37.646           190.630         95315.000
       431   12 Jun 2027 05:37:30.779   12 Jun 2027 05:38:08.091            37.312         18656.000
       432   12 Jun 2027 07:08:19.633   12 Jun 2027 07:08:58.698            39.065         16759.688
       433   12 Jun 2027 07:10:30.605   12 Jun 2027 07:10:35.744             5.139          1710.188
       434   12 Jun 2027 07:11:26.192   12 Jun 2027 07:11:28.189             1.997           896.000
       435   12 Jun 2027 07:12:05.896   12 Jun 2027 07:12:07.627             1.731           185.719
       436   12 Jun 2027 07:12:30.042   12 Jun 2027 07:12:30.319             0.277           138.500
       437   12 Jun 2027 07:13:03.935   12 Jun 2027 07:13:06.973             3.038          1503.781
       438   12 Jun 2027 07:14:05.767   12 Jun 2027 07:14:09.850             4.083          1179.844
       439   12 Jun 2027 07:14:39.187   12 Jun 2027 07:14:40.778             1.591           780.188
       440   12 Jun 2027 07:15:26.044   12 Jun 2027 07:15:28.239             2.195           765.500
       441   12 Jun 2027 07:16:15.088   12 Jun 2027 07:16:20.260             5.172          1225.812
       442   12 Jun 2027 07:16:58.566   12 Jun 2027 07:16:58.647             0.081            40.500
       443   12 Jun 2027 07:17:17.124   12 Jun 2027 07:17:17.197             0.073            36.500
       444   12 Jun 2027 07:17:39.306   12 Jun 2027 07:17:47.699             8.393          2337.844
       445   12 Jun 2027 08:46:27.413   12 Jun 2027 08:46:43.065            15.652          7075.406
       446   12 Jun 2027 08:47:08.385   12 Jun 2027 08:47:09.039             0.654           211.813
       447   12 Jun 2027 08:47:43.159   12 Jun 2027 08:47:56.114            12.955          1066.250
       448   12 Jun 2027 08:48:14.491   12 Jun 2027 08:48:15.522             1.031           165.281
       449   12 Jun 2027 08:48:28.029   12 Jun 2027 08:48:29.491             1.462           390.844
       450   12 Jun 2027 08:49:19.738   12 Jun 2027 08:49:31.973            12.235          1303.125
       451   12 Jun 2027 08:50:01.733   12 Jun 2027 08:50:02.586             0.853           172.906
       452   12 Jun 2027 08:50:22.727   12 Jun 2027 08:50:31.724             8.997           358.937
       453   12 Jun 2027 08:51:20.303   12 Jun 2027 08:51:25.224             4.921          1385.156
       454   12 Jun 2027 08:51:58.891   12 Jun 2027 08:52:02.968             4.077          1043.719
       455   12 Jun 2027 08:52:28.233   12 Jun 2027 08:52:35.514             7.281           641.469
       456   12 Jun 2027 08:53:10.734   12 Jun 2027 08:53:17.213             6.479           224.281
       457   12 Jun 2027 08:53:20.160   12 Jun 2027 08:53:21.260             1.100            92.094
       458   12 Jun 2027 08:53:24.412   12 Jun 2027 08:53:26.207             1.795            98.500
       459   12 Jun 2027 10:23:22.573   12 Jun 2027 10:23:41.041            18.468          8070.187
       460   12 Jun 2027 10:23:51.711   12 Jun 2027 10:23:54.764             3.053           333.437
       461   12 Jun 2027 10:24:18.645   12 Jun 2027 10:24:21.965             3.320           494.594
       462   12 Jun 2027 10:25:45.554   12 Jun 2027 10:25:49.378             3.824           475.875
       463   12 Jun 2027 10:26:27.738   12 Jun 2027 10:26:28.209             0.471           235.500
       464   12 Jun 2027 10:27:22.352   12 Jun 2027 10:27:32.476            10.124          2632.625
       465   12 Jun 2027 10:27:33.976   12 Jun 2027 10:27:34.285             0.309            46.875
       466   12 Jun 2027 10:28:12.572   12 Jun 2027 10:28:12.572             0.000             0.000
       467   12 Jun 2027 10:28:46.521   12 Jun 2027 10:28:50.483             3.962          1981.000
       468   12 Jun 2027 10:29:23.393   12 Jun 2027 10:29:26.505             3.112          1304.812
       469   12 Jun 2027 10:29:33.065   12 Jun 2027 10:29:34.955             1.890           184.812
       470   13 Jun 2027 04:11:34.111   13 Jun 2027 04:13:06.114            92.003         46001.500
       471   13 Jun 2027 04:13:28.194   13 Jun 2027 04:13:29.018             0.824           412.000
       472   13 Jun 2027 05:47:49.322   13 Jun 2027 05:50:38.748           169.426         84713.000
       473   13 Jun 2027 05:51:07.218   13 Jun 2027 05:51:21.350            14.132          7066.000
       474   13 Jun 2027 07:21:21.769   13 Jun 2027 07:22:00.229            38.460         18979.593
       475   13 Jun 2027 07:22:51.035   13 Jun 2027 07:22:55.358             4.323           624.969
       476   13 Jun 2027 07:23:47.875   13 Jun 2027 07:23:49.884             2.009           601.719
       477   13 Jun 2027 07:24:33.428   13 Jun 2027 07:24:38.054             4.626          1360.750
       478   13 Jun 2027 07:25:56.599   13 Jun 2027 07:26:01.533             4.934          2418.125
       479   13 Jun 2027 07:26:42.056   13 Jun 2027 07:26:45.949             3.893           902.156
       480   13 Jun 2027 07:27:27.813   13 Jun 2027 07:27:31.815             4.002          1258.406
       481   13 Jun 2027 07:27:49.711   13 Jun 2027 07:27:54.753             5.042           144.656
       482   13 Jun 2027 07:28:27.258   13 Jun 2027 07:28:28.664             1.406           703.000
       483   13 Jun 2027 07:29:06.474   13 Jun 2027 07:29:09.247             2.773          1386.500
       484   13 Jun 2027 07:29:15.511   13 Jun 2027 07:29:19.516             4.005           284.750
       485   13 Jun 2027 07:29:34.859   13 Jun 2027 07:29:36.514             1.655           479.469
       486   13 Jun 2027 07:29:54.204   13 Jun 2027 07:29:54.737             0.533           153.844
       487   13 Jun 2027 08:58:54.354   13 Jun 2027 08:59:09.834            15.480          6021.438
       488   13 Jun 2027 09:00:45.182   13 Jun 2027 09:00:49.300             4.118           906.906
       489   13 Jun 2027 09:02:44.144   13 Jun 2027 09:02:56.858            12.714          3356.344
       490   13 Jun 2027 09:03:17.878   13 Jun 2027 09:03:20.130             2.252           497.219
       491   13 Jun 2027 09:03:36.732   13 Jun 2027 09:03:38.909             2.177           273.937
       492   13 Jun 2027 09:03:47.936   13 Jun 2027 09:03:50.588             2.652           282.094
       493   13 Jun 2027 09:04:05.140   13 Jun 2027 09:04:06.790             1.650           382.187
       494   13 Jun 2027 09:04:24.322   13 Jun 2027 09:04:24.844             0.522           261.000
       495   13 Jun 2027 09:05:18.670   13 Jun 2027 09:05:24.276             5.606          1839.594
       496   13 Jun 2027 10:35:48.978   13 Jun 2027 10:36:10.908            21.930          6796.312
       497   13 Jun 2027 10:37:16.177   13 Jun 2027 10:37:17.220             1.043           521.500
       498   13 Jun 2027 10:37:38.518   13 Jun 2027 10:37:41.198             2.680          1340.000
       499   13 Jun 2027 10:38:08.484   13 Jun 2027 10:38:12.529             4.045           887.344
       500   13 Jun 2027 10:38:29.292   13 Jun 2027 10:38:32.462             3.170            74.375
       501   13 Jun 2027 10:39:12.572   13 Jun 2027 10:39:15.768             3.196          1097.188
       502   13 Jun 2027 10:39:24.258   13 Jun 2027 10:39:25.422             1.164           157.250
       503   13 Jun 2027 10:39:34.836   13 Jun 2027 10:39:35.950             1.114           294.188
       504   13 Jun 2027 10:40:13.737   13 Jun 2027 10:40:17.985             4.248          1180.844
       505   13 Jun 2027 10:41:09.107   13 Jun 2027 10:41:15.570             6.463          1509.406
