uniorb/output/strategy_2/Camera/Camera_KinoSat_111703.txt

KinoSat_111703
-------------------------
    Access    *     Start Time (UTCG)     *     Stop Time (UTCG)  *   Duration (s) *   Data (Mbytes)
         1   01 Jun 2027 03:29:17.118   01 Jun 2027 03:30:57.952           100.834         50417.000
         2   01 Jun 2027 03:31:18.342   01 Jun 2027 03:32:47.321            88.979         44489.500
         3   01 Jun 2027 03:33:17.340   01 Jun 2027 03:33:53.962            36.622         18311.000
         4   01 Jun 2027 03:34:24.290   01 Jun 2027 03:34:35.341            11.051          5525.500
         5   01 Jun 2027 03:34:48.067   01 Jun 2027 03:34:48.067             0.000             0.000
         6   01 Jun 2027 05:07:39.840   01 Jun 2027 05:08:56.710            76.870         38435.000
         7   01 Jun 2027 05:09:24.593   01 Jun 2027 05:09:43.447            18.854          9427.000
         8   01 Jun 2027 05:11:18.015   01 Jun 2027 05:12:43.927            85.912         42956.000
         9   01 Jun 2027 06:31:42.547   01 Jun 2027 06:32:07.888            25.341         12670.500
        10   01 Jun 2027 06:33:44.924   01 Jun 2027 06:33:46.789             1.865           932.500
        11   01 Jun 2027 08:07:40.157   01 Jun 2027 08:10:38.801           178.644         89322.000
        12   01 Jun 2027 09:41:29.389   01 Jun 2027 09:43:15.036           105.647         52823.500
        13   01 Jun 2027 09:43:35.876   01 Jun 2027 09:43:55.723            19.847          9923.500
        14   01 Jun 2027 11:18:34.583   01 Jun 2027 11:19:23.426            48.843         24421.500
        15   01 Jun 2027 11:22:31.939   01 Jun 2027 11:22:31.939             0.000             0.000
        16   01 Jun 2027 11:23:56.460   01 Jun 2027 11:25:31.432            94.972         47486.000
        17   02 Jun 2027 03:41:54.648   02 Jun 2027 03:42:38.626            43.978         21989.000
        18   02 Jun 2027 03:42:45.432   02 Jun 2027 03:43:30.935            45.503         22751.500
        19   02 Jun 2027 03:43:32.766   02 Jun 2027 03:43:52.169            19.403          9701.500
        20   02 Jun 2027 03:44:28.270   02 Jun 2027 03:45:45.627            77.357         38678.500
        21   02 Jun 2027 03:46:12.850   02 Jun 2027 03:46:35.820            22.970         11485.000
        22   02 Jun 2027 03:46:41.187   02 Jun 2027 03:47:05.075            23.888         11944.000
        23   02 Jun 2027 05:20:14.641   02 Jun 2027 05:20:47.025            32.384         16192.000
        24   02 Jun 2027 05:20:53.481   02 Jun 2027 05:23:11.367           137.886         68943.000
        25   02 Jun 2027 06:43:36.738   02 Jun 2027 06:44:28.341            51.603         25801.500
        26   02 Jun 2027 08:19:59.409   02 Jun 2027 08:21:54.175           114.766         56915.969
        27   02 Jun 2027 08:22:59.043   02 Jun 2027 08:23:10.210            11.167          1548.031
        28   02 Jun 2027 09:53:27.755   02 Jun 2027 09:53:44.750            16.995          7323.844
        29   02 Jun 2027 09:55:52.420   02 Jun 2027 09:55:57.404             4.984          2470.188
        30   02 Jun 2027 09:56:58.593   02 Jun 2027 09:57:02.435             3.842          1912.156
        31   02 Jun 2027 09:57:37.026   02 Jun 2027 09:57:42.215             5.189          1044.125
        32   02 Jun 2027 09:57:50.417   02 Jun 2027 09:57:50.934             0.517            87.625
        33   02 Jun 2027 09:58:18.277   02 Jun 2027 09:58:19.534             1.257           628.500
        34   02 Jun 2027 10:00:15.071   02 Jun 2027 10:00:20.635             5.564          2782.000
        35   02 Jun 2027 10:00:52.319   02 Jun 2027 10:00:57.335             5.016          1938.437
        36   02 Jun 2027 11:31:01.511   02 Jun 2027 11:31:18.015            16.504          7712.469
        37   02 Jun 2027 11:31:52.419   02 Jun 2027 11:31:58.464             6.045           676.844
        38   02 Jun 2027 11:33:14.634   02 Jun 2027 11:33:22.549             7.915          2004.344
        39   02 Jun 2027 11:33:38.602   02 Jun 2027 11:33:40.291             1.689           501.656
        40   02 Jun 2027 11:34:55.200   02 Jun 2027 11:35:02.288             7.088          2140.344
        41   02 Jun 2027 11:35:21.602   02 Jun 2027 11:35:22.483             0.881           292.313
        42   02 Jun 2027 11:35:24.493   02 Jun 2027 11:35:24.779             0.286            50.250
        43   02 Jun 2027 11:35:55.734   02 Jun 2027 11:35:56.967             1.233           522.687
        44   02 Jun 2027 11:35:57.867   02 Jun 2027 11:36:03.737             5.870            28.125
        45   02 Jun 2027 11:36:44.865   02 Jun 2027 11:36:46.126             1.261           630.500
        46   02 Jun 2027 11:37:14.007   02 Jun 2027 11:37:16.735             2.728          1250.125
        47   02 Jun 2027 11:37:35.932   02 Jun 2027 11:37:43.858             7.926           444.469
        48   03 Jun 2027 03:53:48.208   03 Jun 2027 03:53:53.548             5.340          2670.000
        49   03 Jun 2027 03:54:18.194   03 Jun 2027 03:55:55.587            97.393         48696.500
        50   03 Jun 2027 03:56:00.847   03 Jun 2027 03:56:50.949            50.102         25051.000
        51   03 Jun 2027 03:57:20.614   03 Jun 2027 03:58:57.840            97.226         48613.000
        52   03 Jun 2027 05:32:29.412   03 Jun 2027 05:32:38.310             8.898          4449.000
        53   03 Jun 2027 05:33:25.863   03 Jun 2027 05:34:30.569            64.706         32353.000
        54   03 Jun 2027 05:35:23.939   03 Jun 2027 05:35:31.199             7.260          3510.813
        55   03 Jun 2027 06:55:26.445   03 Jun 2027 06:55:43.440            16.995          7560.687
        56   03 Jun 2027 06:57:31.627   03 Jun 2027 06:57:32.911             1.284           642.000
        57   03 Jun 2027 08:32:01.241   03 Jun 2027 08:32:09.692             8.451          4105.156
        58   03 Jun 2027 08:33:40.664   03 Jun 2027 08:33:45.471             4.807          2247.875
        59   03 Jun 2027 08:35:02.735   03 Jun 2027 08:35:07.590             4.855          2367.344
        60   03 Jun 2027 10:08:01.750   03 Jun 2027 10:08:12.275            10.525          5262.500
        61   03 Jun 2027 10:09:05.736   03 Jun 2027 10:09:15.275             9.539          4015.562
        62   03 Jun 2027 10:11:00.991   03 Jun 2027 10:11:00.991             0.000             0.000
        63   03 Jun 2027 10:12:16.151   03 Jun 2027 10:12:29.227            13.076          4974.438
        64   03 Jun 2027 10:13:10.714   03 Jun 2027 10:13:10.781             0.067            33.500
        65   03 Jun 2027 10:13:25.482   03 Jun 2027 10:13:25.611             0.129            64.500
        66   03 Jun 2027 10:13:27.914   03 Jun 2027 10:13:34.658             6.744          1341.562
        67   03 Jun 2027 10:13:53.091   03 Jun 2027 10:13:53.779             0.688           344.000
        68   03 Jun 2027 11:43:08.098   03 Jun 2027 11:43:22.813            14.715          6657.531
        69   03 Jun 2027 11:44:00.903   03 Jun 2027 11:44:02.564             1.661           830.500
        70   03 Jun 2027 11:45:09.329   03 Jun 2027 11:45:10.655             1.326           663.000
        71   03 Jun 2027 11:45:41.626   03 Jun 2027 11:45:47.778             6.152          2514.344
        72   03 Jun 2027 11:46:23.738   03 Jun 2027 11:46:26.543             2.805          1077.031
        73   03 Jun 2027 11:47:45.747   03 Jun 2027 11:47:50.499             4.752          1865.313
        74   03 Jun 2027 11:48:56.498   03 Jun 2027 11:49:05.357             8.859          2062.469
        75   03 Jun 2027 11:49:41.974   03 Jun 2027 11:49:45.175             3.201           988.656
        76   04 Jun 2027 04:05:57.037   04 Jun 2027 04:06:59.089            62.052         31026.000
        77   04 Jun 2027 04:07:06.065   04 Jun 2027 04:08:57.485           111.420         55710.000
        78   04 Jun 2027 04:09:32.065   04 Jun 2027 04:10:43.431            71.366         35683.000
        79   04 Jun 2027 04:11:13.743   04 Jun 2027 04:11:14.079             0.336           168.000
        80   04 Jun 2027 04:11:20.688   04 Jun 2027 04:11:32.528            11.840          5920.000
        81   04 Jun 2027 05:44:15.722   04 Jun 2027 05:44:46.827            31.105         15552.500
        82   04 Jun 2027 05:45:05.263   04 Jun 2027 05:45:21.121            15.858          7929.000
        83   04 Jun 2027 05:45:22.426   04 Jun 2027 05:46:00.153            37.727         17804.094
        84   04 Jun 2027 05:46:25.343   04 Jun 2027 05:46:26.834             1.491           698.156
        85   04 Jun 2027 05:47:34.738   04 Jun 2027 05:47:38.204             3.466          1350.156
        86   04 Jun 2027 05:47:56.743   04 Jun 2027 05:48:04.054             7.311           502.187
        87   04 Jun 2027 07:07:38.384   04 Jun 2027 07:07:57.195            18.811          7441.000
        88   04 Jun 2027 07:08:32.722   04 Jun 2027 07:08:32.722             0.000             0.000
        89   04 Jun 2027 07:09:04.940   04 Jun 2027 07:09:10.556             5.616          1755.906
        90   04 Jun 2027 07:10:14.599   04 Jun 2027 07:10:17.289             2.690          1345.000
        91   04 Jun 2027 07:10:31.934   04 Jun 2027 07:10:31.934             0.000             0.000
        92   04 Jun 2027 08:44:10.249   04 Jun 2027 08:44:20.826            10.577          3455.656
        93   04 Jun 2027 08:45:04.088   04 Jun 2027 08:45:09.047             4.959          1266.625
        94   04 Jun 2027 08:47:42.423   04 Jun 2027 08:47:43.898             1.475           737.500
        95   04 Jun 2027 10:20:35.710   04 Jun 2027 10:20:44.413             8.703          4351.500
        96   04 Jun 2027 10:21:15.631   04 Jun 2027 10:21:24.579             8.948          4176.437
        97   04 Jun 2027 10:22:51.951   04 Jun 2027 10:22:56.550             4.599          1741.031
        98   04 Jun 2027 10:23:09.151   04 Jun 2027 10:23:09.344             0.193            96.500
        99   04 Jun 2027 10:23:19.240   04 Jun 2027 10:23:23.564             4.324           601.563
       100   04 Jun 2027 10:24:50.407   04 Jun 2027 10:24:55.639             5.232          2066.844
       101   04 Jun 2027 10:25:18.351   04 Jun 2027 10:25:25.805             7.454           615.063
       102   04 Jun 2027 10:25:40.289   04 Jun 2027 10:25:45.539             5.250           452.625
       103   04 Jun 2027 10:25:46.829   04 Jun 2027 10:25:48.467             1.638            40.312
       104   04 Jun 2027 11:55:44.476   04 Jun 2027 11:55:59.180            14.704          5931.125
       105   04 Jun 2027 11:57:22.197   04 Jun 2027 11:57:25.774             3.577          1788.500
       106   04 Jun 2027 11:57:53.318   04 Jun 2027 11:57:58.001             4.683          1367.031
       107   04 Jun 2027 11:59:22.599   04 Jun 2027 11:59:30.810             8.211          2152.188
       108   05 Jun 2027 04:18:08.111   05 Jun 2027 04:18:08.841             0.730           365.000
       109   05 Jun 2027 04:19:03.804   05 Jun 2027 04:22:14.695           190.891         95445.500
       110   05 Jun 2027 04:22:50.146   05 Jun 2027 04:23:17.701            27.555         13777.500
       111   05 Jun 2027 04:25:51.040   05 Jun 2027 04:25:51.814             0.774           387.000
       112   05 Jun 2027 05:56:12.733   05 Jun 2027 05:56:51.573            38.840         19420.000
       113   05 Jun 2027 05:57:14.017   05 Jun 2027 05:58:18.966            64.949         30416.312
       114   05 Jun 2027 05:58:51.253   05 Jun 2027 05:59:00.027             8.774          1008.969
       115   05 Jun 2027 05:59:05.959   05 Jun 2027 05:59:05.959             0.000             0.000
       116   05 Jun 2027 07:20:14.740   05 Jun 2027 07:20:35.436            20.696          7989.656
       117   05 Jun 2027 07:21:03.484   05 Jun 2027 07:21:06.085             2.601           841.906
       118   05 Jun 2027 07:22:37.657   05 Jun 2027 07:22:47.603             9.946          2181.937
       119   05 Jun 2027 08:56:03.284   05 Jun 2027 08:56:13.901            10.617          4441.844
       120   05 Jun 2027 08:58:06.028   05 Jun 2027 08:58:16.537            10.509          3428.625
       121   05 Jun 2027 08:59:18.042   05 Jun 2027 08:59:18.042             0.000             0.000
       122   05 Jun 2027 10:31:00.197   05 Jun 2027 10:31:14.774            14.577          6174.063
       123   05 Jun 2027 10:31:26.872   05 Jun 2027 10:31:27.657             0.785           199.094
       124   05 Jun 2027 10:32:29.946   05 Jun 2027 10:32:31.245             1.299           437.281
       125   05 Jun 2027 10:33:27.417   05 Jun 2027 10:33:31.240             3.823          1325.875
       126   05 Jun 2027 10:34:03.146   05 Jun 2027 10:34:03.146             0.000             0.000
       127   05 Jun 2027 10:36:16.786   05 Jun 2027 10:36:25.338             8.552          4276.000
       128   05 Jun 2027 10:36:37.740   05 Jun 2027 10:36:44.250             6.510          1166.313
       129   05 Jun 2027 10:36:58.683   05 Jun 2027 10:36:59.899             1.216           380.187
       130   05 Jun 2027 10:37:18.900   05 Jun 2027 10:37:22.880             3.980           569.187
       131   05 Jun 2027 10:37:25.372   05 Jun 2027 10:37:27.495             2.123            77.875
       132   05 Jun 2027 10:37:34.815   05 Jun 2027 10:37:37.228             2.413            76.156
       133   06 Jun 2027 04:31:07.573   06 Jun 2027 04:34:53.147           225.574        112787.000
       134   06 Jun 2027 04:35:24.518   06 Jun 2027 04:35:24.518             0.000             0.000
       135   06 Jun 2027 04:38:08.159   06 Jun 2027 04:38:40.639            32.480         16240.000
       136   06 Jun 2027 05:57:00.759   06 Jun 2027 05:57:43.483            42.724         21362.000
       137   06 Jun 2027 06:08:08.732   06 Jun 2027 06:08:46.055            37.323         15692.219
       138   06 Jun 2027 06:09:21.185   06 Jun 2027 06:09:24.831             3.646           887.625
       139   06 Jun 2027 06:09:38.228   06 Jun 2027 06:09:40.878             2.650           418.656
       140   06 Jun 2027 06:10:40.603   06 Jun 2027 06:10:44.266             3.663          1713.625
       141   06 Jun 2027 06:11:02.987   06 Jun 2027 06:11:04.884             1.897           585.031
       142   06 Jun 2027 07:31:05.976   06 Jun 2027 07:31:19.209            13.233          5662.187
       143   06 Jun 2027 07:31:35.497   06 Jun 2027 07:31:36.628             1.131           458.469
       144   06 Jun 2027 07:32:54.343   06 Jun 2027 07:32:54.343             0.000             0.000
       145   06 Jun 2027 07:33:28.064   06 Jun 2027 07:33:34.739             6.675          2910.312
       146   06 Jun 2027 07:35:17.136   06 Jun 2027 07:35:21.714             4.578          2206.312
       147   06 Jun 2027 09:06:22.296   06 Jun 2027 09:06:34.935            12.639          3904.156
       148   06 Jun 2027 09:09:51.591   06 Jun 2027 09:10:04.056            12.465          6034.469
       149   06 Jun 2027 09:10:40.853   06 Jun 2027 09:10:40.853             0.000             0.000
       150   06 Jun 2027 10:42:33.370   06 Jun 2027 10:42:48.143            14.773          7369.875
       151   06 Jun 2027 10:43:39.765   06 Jun 2027 10:43:47.281             7.516          1505.656
       152   06 Jun 2027 10:45:34.872   06 Jun 2027 10:45:34.872             0.000             0.000
       153   06 Jun 2027 10:45:44.283   06 Jun 2027 10:45:51.483             7.200          2701.844
       154   06 Jun 2027 10:46:07.734   06 Jun 2027 10:46:10.464             2.730           442.438
       155   06 Jun 2027 10:47:12.353   06 Jun 2027 10:47:17.721             5.368          1815.375
       156   06 Jun 2027 10:47:23.865   06 Jun 2027 10:47:27.700             3.835           154.844
       157   06 Jun 2027 10:47:53.983   06 Jun 2027 10:47:57.833             3.850           696.969
       158   06 Jun 2027 10:48:21.285   06 Jun 2027 10:48:25.105             3.820           456.437
       159   06 Jun 2027 10:49:24.090   06 Jun 2027 10:49:28.082             3.992          1843.281
       160   07 Jun 2027 03:04:31.130   07 Jun 2027 03:06:15.648           104.518         52259.000
       161   07 Jun 2027 03:06:56.369   07 Jun 2027 03:07:14.488            18.119          9059.500
       162   07 Jun 2027 03:08:51.048   07 Jun 2027 03:08:52.031             0.983           491.500
       163   07 Jun 2027 03:09:22.523   07 Jun 2027 03:09:24.900             2.377          1188.500
       164   07 Jun 2027 03:09:33.840   07 Jun 2027 03:09:52.019            18.179          9089.500
       165   07 Jun 2027 03:10:08.846   07 Jun 2027 03:10:13.005             4.159          2079.500
       166   07 Jun 2027 03:10:24.274   07 Jun 2027 03:10:40.209            15.935          7967.500
       167   07 Jun 2027 04:43:37.147   07 Jun 2027 04:45:57.764           140.617         70308.500
       168   07 Jun 2027 04:46:12.522   07 Jun 2027 04:46:15.112             2.590          1295.000
       169   07 Jun 2027 04:46:54.614   07 Jun 2027 04:47:07.222            12.608          5371.437
       170   07 Jun 2027 04:47:41.548   07 Jun 2027 04:47:41.548             0.000             0.000
       171   07 Jun 2027 04:49:23.327   07 Jun 2027 04:49:29.522             6.195          3097.500
       172   07 Jun 2027 04:49:44.486   07 Jun 2027 04:49:47.857             3.371          1470.375
       173   07 Jun 2027 06:08:29.207   07 Jun 2027 06:08:46.048            16.841          7699.750
       174   07 Jun 2027 06:20:11.410   07 Jun 2027 06:20:23.090            11.680          5825.750
       175   07 Jun 2027 06:21:02.080   07 Jun 2027 06:21:07.444             5.364           967.031
       176   07 Jun 2027 07:42:24.922   07 Jun 2027 07:42:39.468            14.546          6627.563
       177   07 Jun 2027 07:43:05.532   07 Jun 2027 07:43:10.532             5.000           702.188
       178   07 Jun 2027 07:44:25.837   07 Jun 2027 07:44:28.673             2.836           930.156
       179   07 Jun 2027 07:45:07.927   07 Jun 2027 07:45:11.552             3.625          1017.781
       180   07 Jun 2027 07:45:58.378   07 Jun 2027 07:46:04.142             5.764           879.750
       181   07 Jun 2027 07:46:50.780   07 Jun 2027 07:46:50.780             0.000             0.000
       182   07 Jun 2027 07:47:19.595   07 Jun 2027 07:47:26.970             7.375          2040.094
       183   07 Jun 2027 09:17:29.341   07 Jun 2027 09:17:37.850             8.509          3580.094
       184   07 Jun 2027 09:18:21.813   07 Jun 2027 09:18:25.184             3.371           865.469
       185   07 Jun 2027 09:19:32.488   07 Jun 2027 09:19:35.506             3.018          1319.813
       186   07 Jun 2027 09:20:26.406   07 Jun 2027 09:20:30.145             3.739          1282.156
       187   07 Jun 2027 09:23:41.552   07 Jun 2027 09:23:41.552             0.000             0.000
       188   07 Jun 2027 09:25:29.273   07 Jun 2027 09:25:35.968             6.695          3347.500
       189   07 Jun 2027 10:57:58.202   07 Jun 2027 10:58:11.772            13.570          6785.000
       190   07 Jun 2027 11:00:14.742   07 Jun 2027 11:00:22.868             8.126          4063.000
       191   07 Jun 2027 11:01:10.872   07 Jun 2027 11:01:20.841             9.969          4965.062
       192   07 Jun 2027 11:01:43.502   07 Jun 2027 11:01:43.910             0.408           204.000
       193   07 Jun 2027 11:01:56.834   07 Jun 2027 11:01:59.791             2.957           908.031
       194   07 Jun 2027 11:02:06.127   07 Jun 2027 11:02:07.503             1.376            56.812
       195   08 Jun 2027 03:16:50.442   08 Jun 2027 03:18:00.158            69.716         34858.000
       196   08 Jun 2027 03:18:01.850   08 Jun 2027 03:19:01.812            59.962         29981.000
       197   08 Jun 2027 03:19:03.669   08 Jun 2027 03:20:05.444            61.775         30887.500
       198   08 Jun 2027 03:20:46.066   08 Jun 2027 03:20:58.030            11.964          5982.000
       199   08 Jun 2027 03:22:24.719   08 Jun 2027 03:22:24.719             0.000             0.000
       200   08 Jun 2027 04:55:38.280   08 Jun 2027 04:55:46.156             7.876          3938.000
       201   08 Jun 2027 04:55:53.539   08 Jun 2027 04:57:24.671            91.132         45566.000
       202   08 Jun 2027 04:57:40.082   08 Jun 2027 04:57:40.082             0.000             0.000
       203   08 Jun 2027 04:57:41.308   08 Jun 2027 04:57:43.952             2.644          1073.250
       204   08 Jun 2027 04:58:17.772   08 Jun 2027 04:58:21.016             3.244          1046.312
       205   08 Jun 2027 04:58:54.608   08 Jun 2027 04:58:54.608             0.000             0.000
       206   08 Jun 2027 04:59:43.622   08 Jun 2027 04:59:52.652             9.030          1894.906
       207   08 Jun 2027 05:01:38.760   08 Jun 2027 05:01:38.760             0.000             0.000
       208   08 Jun 2027 05:02:32.697   08 Jun 2027 05:02:41.394             8.697          4348.500
       209   08 Jun 2027 06:19:59.197   08 Jun 2027 06:20:13.771            14.574          6216.094
       210   08 Jun 2027 06:21:05.492   08 Jun 2027 06:21:09.168             3.676          1463.406
       211   08 Jun 2027 06:21:49.618   08 Jun 2027 06:21:51.277             1.659           534.375
       212   08 Jun 2027 06:22:10.401   08 Jun 2027 06:22:10.401             0.000             0.000
       213   08 Jun 2027 06:32:13.285   08 Jun 2027 06:32:18.257             4.972          2342.438
       214   08 Jun 2027 07:54:09.471   08 Jun 2027 07:54:26.262            16.791          7328.375
       215   08 Jun 2027 07:56:12.233   08 Jun 2027 07:56:16.993             4.760          1521.000
       216   08 Jun 2027 07:57:34.393   08 Jun 2027 07:57:40.624             6.231          2340.219
       217   08 Jun 2027 07:59:02.065   08 Jun 2027 07:59:09.256             7.191          2347.938
       218   08 Jun 2027 07:59:16.133   08 Jun 2027 07:59:17.372             1.239            99.063
       219   08 Jun 2027 09:28:57.583   08 Jun 2027 09:29:09.128            11.545          4222.125
       220   08 Jun 2027 09:30:44.485   08 Jun 2027 09:30:49.138             4.653          1886.094
       221   08 Jun 2027 09:31:40.860   08 Jun 2027 09:31:49.883             9.023          1609.125
       222   08 Jun 2027 09:32:08.028   08 Jun 2027 09:32:11.020             2.992           205.375
       223   08 Jun 2027 09:32:21.729   08 Jun 2027 09:32:23.546             1.817            28.781
       224   08 Jun 2027 09:32:44.149   08 Jun 2027 09:32:49.305             5.156           643.844
       225   08 Jun 2027 09:34:38.075   08 Jun 2027 09:34:55.189            17.114          2747.563
       226   08 Jun 2027 11:06:46.476   08 Jun 2027 11:06:56.356             9.880          4940.000
       227   08 Jun 2027 11:07:39.456   08 Jun 2027 11:07:44.439             4.983          1500.500
       228   08 Jun 2027 11:08:05.324   08 Jun 2027 11:08:08.829             3.505           652.656
       229   08 Jun 2027 11:08:53.022   08 Jun 2027 11:08:56.885             3.863          1326.531
       230   08 Jun 2027 11:09:23.032   08 Jun 2027 11:09:27.157             4.125           800.375
       231   08 Jun 2027 11:09:45.502   08 Jun 2027 11:09:48.071             2.569           351.688
       232   08 Jun 2027 11:12:47.692   08 Jun 2027 11:12:59.015            11.323          5613.156
       233   08 Jun 2027 11:13:07.619   08 Jun 2027 11:13:08.485             0.866           161.844
       234   08 Jun 2027 11:13:51.382   08 Jun 2027 11:13:53.714             2.332          1166.000
       235   09 Jun 2027 03:29:34.778   09 Jun 2027 03:31:13.777            98.999         49499.500
       236   09 Jun 2027 03:31:37.000   09 Jun 2027 03:33:32.142           115.142         57571.000
       237   09 Jun 2027 03:34:49.876   09 Jun 2027 03:34:54.554             4.678          2339.000
       238   09 Jun 2027 03:35:02.799   09 Jun 2027 03:35:07.558             4.759          2379.500
       239   09 Jun 2027 05:08:00.069   09 Jun 2027 05:09:13.675            73.606         36803.000
       240   09 Jun 2027 05:09:39.125   09 Jun 2027 05:09:48.401             9.276          4190.656
       241   09 Jun 2027 05:10:34.030   09 Jun 2027 05:10:37.597             3.567          1063.406
       242   09 Jun 2027 05:10:53.183   09 Jun 2027 05:10:53.183             0.000             0.000
       243   09 Jun 2027 05:11:08.336   09 Jun 2027 05:11:09.806             1.470           618.031
       244   09 Jun 2027 05:11:51.329   09 Jun 2027 05:11:53.911             2.582          1149.094
       245   09 Jun 2027 06:31:58.811   09 Jun 2027 06:32:11.404            12.593          5284.406
       246   09 Jun 2027 06:32:54.044   09 Jun 2027 06:32:54.044             0.000             0.000
       247   09 Jun 2027 06:32:56.699   09 Jun 2027 06:33:01.709             5.010          1049.219
       248   09 Jun 2027 06:33:59.707   09 Jun 2027 06:33:59.707             0.000             0.000
       249   09 Jun 2027 08:07:55.787   09 Jun 2027 08:08:12.700            16.913          8456.500
       250   09 Jun 2027 08:08:15.027   09 Jun 2027 08:08:17.675             2.648           781.531
       251   09 Jun 2027 08:09:30.224   09 Jun 2027 08:09:35.718             5.494          1712.094
       252   09 Jun 2027 09:41:46.362   09 Jun 2027 09:41:56.763            10.401          5111.563
       253   09 Jun 2027 09:43:12.618   09 Jun 2027 09:43:18.353             5.735           692.344
       254   09 Jun 2027 09:43:54.555   09 Jun 2027 09:43:58.814             4.259           635.406
       255   09 Jun 2027 09:45:12.327   09 Jun 2027 09:45:16.998             4.671          1961.406
       256   09 Jun 2027 09:45:48.161   09 Jun 2027 09:45:53.344             5.183           946.312
       257   09 Jun 2027 09:46:10.952   09 Jun 2027 09:46:13.299             2.347           452.969
       258   09 Jun 2027 09:46:20.839   09 Jun 2027 09:46:22.232             1.393             9.250
       259   09 Jun 2027 09:48:38.680   09 Jun 2027 09:48:38.680             0.000             0.000
       260   09 Jun 2027 09:49:35.503   09 Jun 2027 09:49:47.945            12.442          5955.594
       261   09 Jun 2027 09:49:53.330   09 Jun 2027 09:49:55.841             2.511           168.281
       262   09 Jun 2027 11:18:53.197   09 Jun 2027 11:19:06.312            13.115          6164.875
       263   09 Jun 2027 11:19:28.390   09 Jun 2027 11:19:28.903             0.513           256.500
       264   09 Jun 2027 11:20:10.257   09 Jun 2027 11:20:17.672             7.415          1293.438
       265   09 Jun 2027 11:21:32.603   09 Jun 2027 11:21:34.162             1.559           779.500
       266   09 Jun 2027 11:24:09.759   09 Jun 2027 11:24:23.768            14.009          6337.750
       267   09 Jun 2027 11:25:19.679   09 Jun 2027 11:25:20.275             0.596           298.000
       268   09 Jun 2027 11:25:35.613   09 Jun 2027 11:25:39.699             4.086          1286.563
       269   09 Jun 2027 11:25:47.369   09 Jun 2027 11:25:48.241             0.872           209.125
       270   09 Jun 2027 11:25:51.066   09 Jun 2027 11:25:51.924             0.858            88.281
       271   10 Jun 2027 03:42:12.703   10 Jun 2027 03:42:52.227            39.524         19762.000
       272   10 Jun 2027 03:42:59.414   10 Jun 2027 03:43:47.410            47.996         23998.000
       273   10 Jun 2027 03:43:49.933   10 Jun 2027 03:46:01.691           131.758         65879.000
       274   10 Jun 2027 03:46:28.124   10 Jun 2027 03:46:37.976             9.852          4926.000
       275   10 Jun 2027 05:20:30.794   10 Jun 2027 05:21:01.711            30.917         15458.500
       276   10 Jun 2027 05:21:12.070   10 Jun 2027 05:22:07.136            55.066         26585.188
       277   10 Jun 2027 05:22:50.403   10 Jun 2027 05:22:50.589             0.186            87.688
       278   10 Jun 2027 05:24:25.364   10 Jun 2027 05:24:30.038             4.674          2244.219
       279   10 Jun 2027 05:25:05.339   10 Jun 2027 05:25:05.339             0.000             0.000
       280   10 Jun 2027 06:43:53.387   10 Jun 2027 06:44:11.604            18.217          7840.000
       281   10 Jun 2027 06:45:08.388   10 Jun 2027 06:45:08.388             0.000             0.000
       282   10 Jun 2027 06:45:21.235   10 Jun 2027 06:45:25.059             3.824          1912.000
       283   10 Jun 2027 06:45:31.004   10 Jun 2027 06:45:34.025             3.021           284.844
       284   10 Jun 2027 06:45:55.437   10 Jun 2027 06:45:57.147             1.710           669.125
       285   10 Jun 2027 08:20:17.555   10 Jun 2027 08:20:36.919            19.364          9275.531
       286   10 Jun 2027 08:20:45.561   10 Jun 2027 08:20:46.301             0.740           270.062
       287   10 Jun 2027 08:20:53.274   10 Jun 2027 08:20:53.956             0.682           132.969
       288   10 Jun 2027 08:21:49.031   10 Jun 2027 08:21:55.607             6.576          1721.094
       289   10 Jun 2027 08:22:07.321   10 Jun 2027 08:22:07.602             0.281           116.156
       290   10 Jun 2027 08:22:47.410   10 Jun 2027 08:22:59.217            11.807           742.375
       291   10 Jun 2027 09:53:58.622   10 Jun 2027 09:54:11.753            13.131          4487.094
       292   10 Jun 2027 09:54:23.374   10 Jun 2027 09:54:28.677             5.303           120.062
       293   10 Jun 2027 09:54:51.089   10 Jun 2027 09:54:52.021             0.932           261.031
       294   10 Jun 2027 09:57:17.058   10 Jun 2027 09:57:23.030             5.972          2895.250
       295   10 Jun 2027 09:57:25.859   10 Jun 2027 09:57:28.541             2.682            88.406
       296   10 Jun 2027 09:58:05.207   10 Jun 2027 09:58:06.075             0.868            52.750
       297   10 Jun 2027 09:58:20.771   10 Jun 2027 09:58:22.881             2.110           374.281
       298   10 Jun 2027 09:59:32.199   10 Jun 2027 09:59:36.418             4.219          1729.688
       299   10 Jun 2027 10:01:06.500   10 Jun 2027 10:01:10.311             3.811          1884.250
       300   10 Jun 2027 10:01:28.183   10 Jun 2027 10:01:28.637             0.454            43.781
       301   10 Jun 2027 10:02:14.510   10 Jun 2027 10:02:16.332             1.822           911.000
       302   10 Jun 2027 11:31:19.564   10 Jun 2027 11:31:34.710            15.146          7573.000
       303   10 Jun 2027 11:31:48.628   10 Jun 2027 11:31:49.457             0.829           414.500
       304   10 Jun 2027 11:31:54.070   10 Jun 2027 11:31:56.290             2.220           225.031
       305   10 Jun 2027 11:32:39.372   10 Jun 2027 11:32:41.554             2.182           945.781
       306   10 Jun 2027 11:33:20.503   10 Jun 2027 11:33:25.001             4.498          1217.156
       307   10 Jun 2027 11:33:39.827   10 Jun 2027 11:33:44.795             4.968           439.250
       308   10 Jun 2027 11:35:10.843   10 Jun 2027 11:35:15.684             4.841          2097.781
       309   10 Jun 2027 11:35:39.329   10 Jun 2027 11:35:40.568             1.239           377.906
       310   10 Jun 2027 11:36:01.956   10 Jun 2027 11:36:02.293             0.337           168.500
       311   10 Jun 2027 11:36:37.770   10 Jun 2027 11:36:45.230             7.460          1548.594
       312   10 Jun 2027 11:37:10.508   10 Jun 2027 11:37:16.222             5.714           789.938
       313   10 Jun 2027 11:37:48.125   10 Jun 2027 11:37:50.853             2.728           785.719
       314   10 Jun 2027 11:37:59.942   10 Jun 2027 11:38:01.209             1.267           262.844
       315   11 Jun 2027 03:54:05.726   11 Jun 2027 03:54:10.207             4.481          2240.500
       316   11 Jun 2027 03:54:35.123   11 Jun 2027 03:56:09.287            94.164         47082.000
       317   11 Jun 2027 03:56:16.047   11 Jun 2027 03:57:04.969            48.922         24461.000
       318   11 Jun 2027 03:57:31.816   11 Jun 2027 03:59:28.885           117.069         58534.500
       319   11 Jun 2027 04:00:07.665   11 Jun 2027 04:00:13.513             5.848          2924.000
       320   11 Jun 2027 05:32:46.541   11 Jun 2027 05:33:48.616            62.075         31037.500
       321   11 Jun 2027 05:34:46.345   11 Jun 2027 05:34:51.217             4.872          1819.157
       322   11 Jun 2027 05:35:14.969   11 Jun 2027 05:35:17.247             2.278           125.281
       323   11 Jun 2027 06:55:40.881   11 Jun 2027 06:55:52.542            11.661          5830.500
       324   11 Jun 2027 06:57:09.550   11 Jun 2027 06:57:21.820            12.270          3192.313
       325   11 Jun 2027 08:32:19.397   11 Jun 2027 08:32:28.633             9.236          4437.281
       326   11 Jun 2027 08:33:51.956   11 Jun 2027 08:33:54.445             2.489          1244.500
       327   11 Jun 2027 08:34:02.691   11 Jun 2027 08:34:06.151             3.460          1097.062
       328   11 Jun 2027 08:35:20.279   11 Jun 2027 08:35:20.279             0.000             0.000
       329   11 Jun 2027 10:08:21.329   11 Jun 2027 10:08:31.499            10.170          5085.000
       330   11 Jun 2027 10:10:35.048   11 Jun 2027 10:10:46.220            11.172          5044.375
       331   11 Jun 2027 10:10:58.585   11 Jun 2027 10:11:00.197             1.612           251.781
       332   11 Jun 2027 10:11:35.162   11 Jun 2027 10:11:36.938             1.776           659.250
       333   11 Jun 2027 10:11:56.212   11 Jun 2027 10:12:01.856             5.644           244.688
       334   11 Jun 2027 10:13:13.952   11 Jun 2027 10:13:18.771             4.819          2123.312
       335   11 Jun 2027 10:14:09.824   11 Jun 2027 10:14:11.611             1.787           893.500
       336   11 Jun 2027 11:43:27.387   11 Jun 2027 11:43:38.464            11.077          5345.500
       337   11 Jun 2027 11:43:55.874   11 Jun 2027 11:43:57.694             1.820           331.938
       338   11 Jun 2027 11:45:21.195   11 Jun 2027 11:45:25.926             4.731          1984.875
       339   11 Jun 2027 11:46:31.756   11 Jun 2027 11:46:39.603             7.847          2057.188
       340   11 Jun 2027 11:48:02.070   11 Jun 2027 11:48:09.014             6.944          1827.531
       341   11 Jun 2027 11:48:12.405   11 Jun 2027 11:48:13.565             1.160           105.969
       342   11 Jun 2027 11:49:06.393   11 Jun 2027 11:49:09.653             3.260          1260.563
       343   11 Jun 2027 11:49:26.841   11 Jun 2027 11:49:27.343             0.502           251.000
       344   11 Jun 2027 11:49:58.970   11 Jun 2027 11:50:03.196             4.226          1274.469
       345   12 Jun 2027 04:06:14.472   12 Jun 2027 04:07:16.454            61.982         30991.000
       346   12 Jun 2027 04:07:22.907   12 Jun 2027 04:08:55.938            93.031         46515.500
       347   12 Jun 2027 04:09:39.621   12 Jun 2027 04:10:15.759            36.138         18069.000
       348   12 Jun 2027 04:10:39.103   12 Jun 2027 04:11:31.958            52.855         26427.500
       349   12 Jun 2027 04:11:53.301   12 Jun 2027 04:11:53.301             0.000             0.000
       350   12 Jun 2027 05:44:32.880   12 Jun 2027 05:45:05.068            32.188         16094.000
       351   12 Jun 2027 05:45:22.104   12 Jun 2027 05:46:21.209            59.105         28003.813
       352   12 Jun 2027 05:47:16.252   12 Jun 2027 05:47:19.641             3.389          1330.656
       353   12 Jun 2027 05:48:13.028   12 Jun 2027 05:48:18.879             5.851           547.250
       354   12 Jun 2027 07:07:55.412   12 Jun 2027 07:08:11.777            16.365          7758.531
       355   12 Jun 2027 07:09:21.360   12 Jun 2027 07:09:26.108             4.748          1789.063
       356   12 Jun 2027 07:10:30.605   12 Jun 2027 07:10:35.744             5.139          1710.188
       357   12 Jun 2027 07:10:57.520   12 Jun 2027 07:11:02.720             5.200           302.500
       358   12 Jun 2027 08:44:39.970   12 Jun 2027 08:44:54.274            14.304          5528.781
       359   12 Jun 2027 08:46:12.651   12 Jun 2027 08:46:16.306             3.655          1627.437
       360   12 Jun 2027 08:47:26.780   12 Jun 2027 08:47:32.477             5.697          1100.219
       361   12 Jun 2027 10:19:55.839   12 Jun 2027 10:20:08.177            12.338          5250.469
       362   12 Jun 2027 10:21:08.651   12 Jun 2027 10:21:11.984             3.333          1254.219
       363   12 Jun 2027 10:22:53.582   12 Jun 2027 10:22:53.582             0.000             0.000
       364   12 Jun 2027 10:24:34.678   12 Jun 2027 10:24:46.203            11.525          5626.969
       365   12 Jun 2027 10:25:51.783   12 Jun 2027 10:25:52.852             1.069           534.500
       366   12 Jun 2027 10:26:03.409   12 Jun 2027 10:26:08.264             4.855          1844.781
       367   12 Jun 2027 11:56:01.385   12 Jun 2027 11:56:12.949            11.564          5771.937
       368   12 Jun 2027 11:57:59.617   12 Jun 2027 11:58:05.639             6.022          2941.531
       369   12 Jun 2027 11:58:33.988   12 Jun 2027 11:58:44.375            10.387           885.906
       370   12 Jun 2027 11:59:32.556   12 Jun 2027 11:59:32.556             0.000             0.000
       371   12 Jun 2027 11:59:51.534   12 Jun 2027 11:59:54.135             2.601          1300.500
       372   13 Jun 2027 04:19:21.040   13 Jun 2027 04:23:06.295           225.255        112627.500
       373   13 Jun 2027 04:26:09.542   13 Jun 2027 04:26:26.454            16.912          8456.000
       374   13 Jun 2027 05:56:29.414   13 Jun 2027 05:57:08.905            39.491         19745.500
       375   13 Jun 2027 05:57:29.312   13 Jun 2027 05:58:07.046            37.734         18831.844
       376   13 Jun 2027 05:59:18.158   13 Jun 2027 05:59:21.613             3.455          1727.500
       377   13 Jun 2027 05:59:54.060   13 Jun 2027 05:59:59.371             5.311          1486.656
       378   13 Jun 2027 07:20:25.500   13 Jun 2027 07:20:39.886            14.386          6564.125
       379   13 Jun 2027 07:21:09.568   13 Jun 2027 07:21:11.020             1.452           499.312
       380   13 Jun 2027 07:21:45.683   13 Jun 2027 07:21:45.683             0.000             0.000
       381   13 Jun 2027 07:22:28.122   13 Jun 2027 07:22:34.856             6.734          2409.438
       382   13 Jun 2027 08:56:20.249   13 Jun 2027 08:56:28.768             8.519          3425.688
       383   13 Jun 2027 08:56:52.214   13 Jun 2027 08:56:54.673             2.459           649.219
       384   13 Jun 2027 08:58:09.632   13 Jun 2027 08:58:14.020             4.388          2156.969
       385   13 Jun 2027 08:58:53.186   13 Jun 2027 08:58:58.570             5.384          1157.750
       386   13 Jun 2027 08:59:40.719   13 Jun 2027 08:59:40.719             0.000             0.000
       387   13 Jun 2027 10:31:16.211   13 Jun 2027 10:31:33.774            17.563          8182.625
       388   13 Jun 2027 10:33:22.959   13 Jun 2027 10:33:29.415             6.456          3164.500
       389   13 Jun 2027 10:34:16.685   13 Jun 2027 10:34:18.780             2.095           906.094
       390   13 Jun 2027 10:37:54.727   13 Jun 2027 10:38:08.484            13.757          6454.719
