uniorb/output/strategy_2/Camera/Camera_KinoSat_110410.txt

KinoSat_110410
-------------------------
    Access    *     Start Time (UTCG)     *     Stop Time (UTCG)  *   Duration (s) *   Data (Mbytes)
         1   01 Jun 2027 03:02:42.110   01 Jun 2027 03:02:47.840             5.730          2865.000
         2   01 Jun 2027 03:03:27.938   01 Jun 2027 03:03:28.455             0.517           258.500
         3   01 Jun 2027 03:03:34.709   01 Jun 2027 03:03:48.677            13.968          6984.000
         4   01 Jun 2027 03:04:39.513   01 Jun 2027 03:04:44.483             4.970          2485.000
         5   01 Jun 2027 03:05:12.593   01 Jun 2027 03:05:15.437             2.844          1422.000
         6   01 Jun 2027 03:05:39.257   01 Jun 2027 03:05:47.471             8.214          4107.000
         7   01 Jun 2027 03:06:29.407   01 Jun 2027 03:06:38.440             9.033          4516.500
         8   01 Jun 2027 03:07:17.143   01 Jun 2027 03:07:19.043             1.900           950.000
         9   01 Jun 2027 03:07:34.505   01 Jun 2027 03:07:42.902             8.397          4198.500
        10   01 Jun 2027 03:08:35.747   01 Jun 2027 03:08:41.671             5.924          2962.000
        11   01 Jun 2027 03:08:56.296   01 Jun 2027 03:08:56.296             0.000             0.000
        12   01 Jun 2027 03:09:22.146   01 Jun 2027 03:09:22.741             0.595           297.500
        13   01 Jun 2027 04:39:41.056   01 Jun 2027 04:39:44.796             3.740          1870.000
        14   01 Jun 2027 04:40:27.388   01 Jun 2027 04:40:32.174             4.786          2393.000
        15   01 Jun 2027 04:41:21.550   01 Jun 2027 04:41:28.289             6.739          3369.500
        16   01 Jun 2027 04:42:21.012   01 Jun 2027 04:42:22.501             1.489           744.500
        17   01 Jun 2027 04:42:33.816   01 Jun 2027 04:42:44.381            10.565          5282.500
        18   01 Jun 2027 04:43:37.438   01 Jun 2027 04:43:42.966             5.528          2764.000
        19   01 Jun 2027 04:44:06.881   01 Jun 2027 04:44:09.502             2.621          1310.500
        20   01 Jun 2027 04:46:45.440   01 Jun 2027 04:46:52.521             7.081          3540.500
        21   01 Jun 2027 06:16:39.082   01 Jun 2027 06:16:39.829             0.747           373.500
        22   01 Jun 2027 06:17:21.470   01 Jun 2027 06:17:26.981             5.511          2755.500
        23   01 Jun 2027 06:17:52.109   01 Jun 2027 06:17:55.478             3.369          1684.500
        24   01 Jun 2027 06:18:19.058   01 Jun 2027 06:18:23.186             4.128          2064.000
        25   01 Jun 2027 06:19:00.836   01 Jun 2027 06:19:07.149             6.313          3156.500
        26   01 Jun 2027 06:19:56.583   01 Jun 2027 06:19:59.950             3.367          1683.500
        27   01 Jun 2027 06:20:23.046   01 Jun 2027 06:20:23.563             0.517           258.500
        28   01 Jun 2027 06:20:29.536   01 Jun 2027 06:20:30.395             0.859           429.500
        29   01 Jun 2027 06:21:03.230   01 Jun 2027 06:21:03.843             0.613           306.500
        30   01 Jun 2027 06:21:51.031   01 Jun 2027 06:21:57.066             6.035          3017.500
        31   01 Jun 2027 06:22:32.041   01 Jun 2027 06:22:33.013             0.972           486.000
        32   01 Jun 2027 07:54:35.063   01 Jun 2027 07:54:35.753             0.690           345.000
        33   01 Jun 2027 07:55:16.702   01 Jun 2027 07:55:20.321             3.619          1809.500
        34   01 Jun 2027 07:55:55.622   01 Jun 2027 07:55:55.681             0.059            29.500
        35   01 Jun 2027 07:56:13.750   01 Jun 2027 07:56:22.469             8.719          4359.500
        36   01 Jun 2027 07:57:50.428   01 Jun 2027 07:57:52.237             1.809           904.500
        37   01 Jun 2027 09:27:54.903   01 Jun 2027 09:28:14.126            19.223          9611.500
        38   01 Jun 2027 09:29:36.020   01 Jun 2027 09:29:45.872             9.852          4926.000
        39   01 Jun 2027 09:30:53.981   01 Jun 2027 09:30:54.557             0.576           288.000
        40   01 Jun 2027 09:31:58.992   01 Jun 2027 09:32:03.362             4.370          2185.000
        41   01 Jun 2027 09:32:21.030   01 Jun 2027 09:32:29.118             8.088          4044.000
        42   01 Jun 2027 09:33:15.706   01 Jun 2027 09:33:30.008            14.302          7151.000
        43   01 Jun 2027 09:34:37.688   01 Jun 2027 09:34:45.420             7.732          3866.000
        44   01 Jun 2027 09:35:25.410   01 Jun 2027 09:35:26.124             0.714           357.000
        45   02 Jun 2027 03:14:05.620   02 Jun 2027 03:14:09.449             3.829          1914.500
        46   02 Jun 2027 03:14:28.251   02 Jun 2027 03:14:35.440             7.189          3594.500
        47   02 Jun 2027 03:16:11.423   02 Jun 2027 03:16:16.672             5.249          2624.500
        48   02 Jun 2027 03:17:24.732   02 Jun 2027 03:17:38.639            13.907          6953.500
        49   02 Jun 2027 03:18:44.378   02 Jun 2027 03:18:50.972             6.594          3297.000
        50   02 Jun 2027 03:19:31.291   02 Jun 2027 03:19:38.284             6.993          3496.500
        51   02 Jun 2027 03:20:41.743   02 Jun 2027 03:20:44.053             2.310          1155.000
        52   02 Jun 2027 03:20:59.045   02 Jun 2027 03:21:15.632            16.587          8293.500
        53   02 Jun 2027 04:51:42.903   02 Jun 2027 04:51:48.774             5.871          2935.500
        54   02 Jun 2027 04:52:10.937   02 Jun 2027 04:52:13.729             2.792          1396.000
        55   02 Jun 2027 04:52:29.790   02 Jun 2027 04:52:36.428             6.638          3319.000
        56   02 Jun 2027 04:53:36.753   02 Jun 2027 04:53:41.781             5.028          2514.000
        57   02 Jun 2027 04:54:11.401   02 Jun 2027 04:54:13.806             2.405          1202.500
        58   02 Jun 2027 04:54:40.362   02 Jun 2027 04:54:41.219             0.857           428.500
        59   02 Jun 2027 04:55:03.217   02 Jun 2027 04:55:04.817             1.600           800.000
        60   02 Jun 2027 04:55:24.852   02 Jun 2027 04:55:33.346             8.494          4247.000
        61   02 Jun 2027 04:56:16.654   02 Jun 2027 04:56:18.678             2.024          1012.000
        62   02 Jun 2027 04:56:42.465   02 Jun 2027 04:56:43.684             1.219           609.500
        63   02 Jun 2027 04:56:55.826   02 Jun 2027 04:57:01.613             5.787          2893.500
        64   02 Jun 2027 04:57:50.572   02 Jun 2027 04:57:55.688             5.116          2558.000
        65   02 Jun 2027 04:58:23.751   02 Jun 2027 04:58:29.744             5.993          2996.500
        66   02 Jun 2027 06:28:28.931   02 Jun 2027 06:28:28.940             0.009             4.500
        67   02 Jun 2027 06:28:44.515   02 Jun 2027 06:28:54.945            10.430          5215.000
        68   02 Jun 2027 06:30:35.425   02 Jun 2027 06:30:52.432            17.007          8503.500
        69   02 Jun 2027 06:32:03.609   02 Jun 2027 06:32:08.067             4.458          2229.000
        70   02 Jun 2027 06:32:36.322   02 Jun 2027 06:32:36.838             0.516           258.000
        71   02 Jun 2027 06:33:00.291   02 Jun 2027 06:33:07.983             7.692          3846.000
        72   02 Jun 2027 06:34:01.460   02 Jun 2027 06:34:01.563             0.103            51.500
        73   02 Jun 2027 06:34:09.057   02 Jun 2027 06:34:23.769            14.712          7356.000
        74   02 Jun 2027 06:34:49.586   02 Jun 2027 06:34:51.353             1.767           883.500
        75   02 Jun 2027 08:06:34.011   02 Jun 2027 08:06:34.715             0.704           352.000
        76   02 Jun 2027 08:06:38.015   02 Jun 2027 08:06:47.336             9.321          4660.500
        77   02 Jun 2027 08:07:58.318   02 Jun 2027 08:07:58.758             0.440           220.000
        78   02 Jun 2027 08:08:03.736   02 Jun 2027 08:08:10.230             6.494          3247.000
        79   02 Jun 2027 08:08:28.350   02 Jun 2027 08:08:31.826             3.476          1738.000
        80   02 Jun 2027 08:09:02.619   02 Jun 2027 08:09:09.385             6.766          3383.000
        81   02 Jun 2027 08:09:40.515   02 Jun 2027 08:09:42.491             1.976           988.000
        82   02 Jun 2027 08:09:58.006   02 Jun 2027 08:10:00.002             1.996           998.000
        83   02 Jun 2027 08:10:41.654   02 Jun 2027 08:10:42.662             1.008           504.000
        84   02 Jun 2027 09:40:21.880   02 Jun 2027 09:40:35.799            13.919          6959.500
        85   02 Jun 2027 09:41:44.895   02 Jun 2027 09:41:53.814             8.919          4459.500
        86   02 Jun 2027 09:42:38.344   02 Jun 2027 09:42:43.913             5.569          2784.500
        87   02 Jun 2027 09:43:12.530   02 Jun 2027 09:43:28.789            16.259          8129.500
        88   02 Jun 2027 09:44:45.957   02 Jun 2027 09:44:53.955             7.998          3999.000
        89   02 Jun 2027 09:45:36.957   02 Jun 2027 09:45:37.814             0.857           428.500
        90   02 Jun 2027 09:45:49.276   02 Jun 2027 09:45:50.557             1.281           640.500
        91   02 Jun 2027 09:46:15.205   02 Jun 2027 09:46:23.456             8.251          4125.500
        92   03 Jun 2027 03:25:37.949   03 Jun 2027 03:25:38.520             0.571           285.500
        93   03 Jun 2027 03:25:41.255   03 Jun 2027 03:26:06.846            25.591         12795.500
        94   03 Jun 2027 03:27:48.660   03 Jun 2027 03:27:48.660             0.000             0.000
        95   03 Jun 2027 03:27:50.375   03 Jun 2027 03:28:08.104            17.729          8864.500
        96   03 Jun 2027 03:28:45.491   03 Jun 2027 03:28:47.060             1.569           784.500
        97   03 Jun 2027 03:29:31.160   03 Jun 2027 03:29:38.480             7.320          3660.000
        98   03 Jun 2027 03:30:13.548   03 Jun 2027 03:30:17.373             3.825          1912.500
        99   03 Jun 2027 03:30:42.449   03 Jun 2027 03:30:43.150             0.701           350.500
       100   03 Jun 2027 03:30:51.580   03 Jun 2027 03:30:53.283             1.703           851.500
       101   03 Jun 2027 03:31:13.736   03 Jun 2027 03:31:16.616             2.880          1440.000
       102   03 Jun 2027 03:31:29.358   03 Jun 2027 03:31:35.761             6.403          3201.500
       103   03 Jun 2027 03:32:24.219   03 Jun 2027 03:32:31.883             7.664          3832.000
       104   03 Jun 2027 03:33:20.494   03 Jun 2027 03:33:20.548             0.054            27.000
       105   03 Jun 2027 03:33:25.210   03 Jun 2027 03:33:40.835            15.625          7812.500
       106   03 Jun 2027 05:03:43.602   03 Jun 2027 05:03:58.853            15.251          7625.500
       107   03 Jun 2027 05:04:52.331   03 Jun 2027 05:04:58.468             6.137          3068.500
       108   03 Jun 2027 05:05:44.210   03 Jun 2027 05:06:04.224            20.014         10007.000
       109   03 Jun 2027 05:07:29.352   03 Jun 2027 05:07:32.345             2.993          1496.500
       110   03 Jun 2027 05:07:47.745   03 Jun 2027 05:07:48.066             0.321           160.500
       111   03 Jun 2027 05:08:24.916   03 Jun 2027 05:08:25.688             0.772           386.000
       112   03 Jun 2027 05:09:13.529   03 Jun 2027 05:09:15.694             2.165          1082.500
       113   03 Jun 2027 05:10:36.960   03 Jun 2027 05:10:40.277             3.317          1658.500
       114   03 Jun 2027 06:40:37.939   03 Jun 2027 06:40:40.162             2.223          1111.500
       115   03 Jun 2027 06:40:50.105   03 Jun 2027 06:40:53.913             3.808          1904.000
       116   03 Jun 2027 06:41:55.261   03 Jun 2027 06:42:19.866            24.605         12302.500
       117   03 Jun 2027 06:44:03.097   03 Jun 2027 06:44:06.453             3.356          1678.000
       118   03 Jun 2027 06:44:38.345   03 Jun 2027 06:44:38.468             0.123            61.500
       119   03 Jun 2027 06:44:40.365   03 Jun 2027 06:44:42.846             2.481          1240.500
       120   03 Jun 2027 06:45:14.390   03 Jun 2027 06:45:17.851             3.461          1730.500
       121   03 Jun 2027 06:46:06.347   03 Jun 2027 06:46:09.331             2.984          1492.000
       122   03 Jun 2027 06:46:43.137   03 Jun 2027 06:46:47.879             4.742          2371.000
       123   03 Jun 2027 08:17:46.840   03 Jun 2027 08:17:51.777             4.937          2468.500
       124   03 Jun 2027 08:18:29.181   03 Jun 2027 08:18:30.274             1.093           546.500
       125   03 Jun 2027 08:18:46.836   03 Jun 2027 08:18:56.249             9.413          4706.500
       126   03 Jun 2027 08:19:51.705   03 Jun 2027 08:19:56.698             4.993          2496.500
       127   03 Jun 2027 08:20:34.678   03 Jun 2027 08:20:36.068             1.390           695.000
       128   03 Jun 2027 08:20:58.374   03 Jun 2027 08:21:06.690             8.316          4158.000
       129   03 Jun 2027 08:21:43.304   03 Jun 2027 08:21:43.780             0.476           238.000
       130   03 Jun 2027 08:22:18.400   03 Jun 2027 08:22:20.944             2.544          1272.000
       131   03 Jun 2027 08:22:33.335   03 Jun 2027 08:22:40.932             7.597          3798.500
       132   03 Jun 2027 09:52:36.915   03 Jun 2027 09:52:37.202             0.287           143.500
       133   03 Jun 2027 09:53:08.464   03 Jun 2027 09:53:09.639             1.175           587.500
       134   03 Jun 2027 09:54:28.791   03 Jun 2027 09:54:31.255             2.464          1232.000
       135   03 Jun 2027 09:56:15.138   03 Jun 2027 09:56:45.860            30.722         15361.000
       136   03 Jun 2027 09:57:20.843   03 Jun 2027 09:57:23.181             2.338          1169.000
       137   04 Jun 2027 03:38:38.333   04 Jun 2027 03:38:55.453            17.120          8560.000
       138   04 Jun 2027 03:40:06.003   04 Jun 2027 03:40:21.817            15.814          7907.000
       139   04 Jun 2027 03:41:34.028   04 Jun 2027 03:41:38.718             4.690          2345.000
       140   04 Jun 2027 03:42:13.413   04 Jun 2027 03:42:15.636             2.223          1111.500
       141   04 Jun 2027 03:42:28.436   04 Jun 2027 03:42:31.082             2.646          1323.000
       142   04 Jun 2027 03:42:44.692   04 Jun 2027 03:42:45.821             1.129           564.500
       143   04 Jun 2027 03:42:51.044   04 Jun 2027 03:42:52.449             1.405           702.500
       144   04 Jun 2027 03:43:15.140   04 Jun 2027 03:43:16.803             1.663           831.500
       145   04 Jun 2027 03:43:26.218   04 Jun 2027 03:43:42.981            16.763          8381.500
       146   04 Jun 2027 03:44:52.491   04 Jun 2027 03:45:04.347            11.856          5928.000
       147   04 Jun 2027 03:45:53.799   04 Jun 2027 03:45:58.081             4.282          2141.000
       148   04 Jun 2027 03:46:10.098   04 Jun 2027 03:46:19.901             9.803          4901.500
       149   04 Jun 2027 05:16:09.379   04 Jun 2027 05:16:12.235             2.856          1428.000
       150   04 Jun 2027 05:16:35.915   04 Jun 2027 05:16:53.417            17.502          8751.000
       151   04 Jun 2027 05:17:14.955   04 Jun 2027 05:17:19.152             4.197          2098.500
       152   04 Jun 2027 05:18:35.241   04 Jun 2027 05:18:35.375             0.134            67.000
       153   04 Jun 2027 05:18:40.448   04 Jun 2027 05:18:42.005             1.557           778.500
       154   04 Jun 2027 05:19:15.862   04 Jun 2027 05:19:20.261             4.399          2199.500
       155   04 Jun 2027 05:19:45.439   04 Jun 2027 05:19:47.405             1.966           983.000
       156   04 Jun 2027 05:20:06.191   04 Jun 2027 05:20:08.000             1.809           904.500
       157   04 Jun 2027 05:20:12.307   04 Jun 2027 05:20:24.224            11.917          5958.500
       158   04 Jun 2027 05:21:15.739   04 Jun 2027 05:21:25.975            10.236          5118.000
       159   04 Jun 2027 05:22:21.414   04 Jun 2027 05:22:32.224            10.810          5405.000
       160   04 Jun 2027 06:53:05.620   04 Jun 2027 06:53:09.627             4.007          2003.500
       161   04 Jun 2027 06:53:43.034   04 Jun 2027 06:54:16.564            33.530         16765.000
       162   04 Jun 2027 06:56:37.053   04 Jun 2027 06:56:37.055             0.002             1.000
       163   04 Jun 2027 06:56:40.530   04 Jun 2027 06:56:47.329             6.799          3399.500
       164   04 Jun 2027 06:57:21.621   04 Jun 2027 06:57:25.195             3.574          1787.000
       165   04 Jun 2027 06:57:40.489   04 Jun 2027 06:57:43.967             3.478          1739.000
       166   04 Jun 2027 06:57:57.944   04 Jun 2027 06:57:58.230             0.286           143.000
       167   04 Jun 2027 06:58:30.241   04 Jun 2027 06:58:41.986            11.745          5872.500
       168   04 Jun 2027 08:29:59.620   04 Jun 2027 08:30:04.795             5.175          2587.500
       169   04 Jun 2027 08:30:26.697   04 Jun 2027 08:30:27.003             0.306           153.000
       170   04 Jun 2027 08:30:44.983   04 Jun 2027 08:30:52.076             7.093          3546.500
       171   04 Jun 2027 08:31:47.739   04 Jun 2027 08:31:53.536             5.797          2898.500
       172   04 Jun 2027 08:32:55.780   04 Jun 2027 08:32:56.118             0.338           169.000
       173   04 Jun 2027 08:33:04.532   04 Jun 2027 08:33:11.713             7.181          3590.500
       174   04 Jun 2027 08:33:42.183   04 Jun 2027 08:33:44.669             2.486          1243.000
       175   04 Jun 2027 08:34:00.175   04 Jun 2027 08:34:13.569            13.394          6697.000
       176   04 Jun 2027 10:07:09.791   04 Jun 2027 10:07:17.308             7.517          3758.500
       177   04 Jun 2027 10:07:57.794   04 Jun 2027 10:08:04.404             6.610          3305.000
       178   04 Jun 2027 10:08:47.213   04 Jun 2027 10:09:08.348            21.135         10567.500
       179   04 Jun 2027 10:09:35.617   04 Jun 2027 10:09:37.221             1.604           802.000
       180   05 Jun 2027 03:49:18.858   05 Jun 2027 03:49:18.924             0.066            33.000
       181   05 Jun 2027 03:51:17.109   05 Jun 2027 03:51:29.725            12.616          6308.000
       182   05 Jun 2027 03:52:26.979   05 Jun 2027 03:52:30.312             3.333          1666.500
       183   05 Jun 2027 03:52:58.523   05 Jun 2027 03:53:00.886             2.363          1181.500
       184   05 Jun 2027 03:53:20.111   05 Jun 2027 03:53:30.163            10.052          5026.000
       185   05 Jun 2027 03:54:27.103   05 Jun 2027 03:54:28.503             1.400           700.000
       186   05 Jun 2027 03:54:36.249   05 Jun 2027 03:54:43.815             7.566          3783.000
       187   05 Jun 2027 03:55:14.185   05 Jun 2027 03:55:14.284             0.099            49.500
       188   05 Jun 2027 03:55:45.689   05 Jun 2027 03:55:49.541             3.852          1926.000
       189   05 Jun 2027 03:57:19.511   05 Jun 2027 03:57:29.637            10.126          5063.000
       190   05 Jun 2027 03:58:14.908   05 Jun 2027 03:58:17.815             2.907          1453.500
       191   05 Jun 2027 03:58:28.761   05 Jun 2027 03:58:33.935             5.174          2587.000
       192   05 Jun 2027 03:58:51.101   05 Jun 2027 03:58:52.787             1.686           843.000
       193   05 Jun 2027 03:59:05.889   05 Jun 2027 03:59:06.157             0.268           134.000
       194   05 Jun 2027 05:28:16.007   05 Jun 2027 05:28:30.567            14.560          7280.000
       195   05 Jun 2027 05:29:25.295   05 Jun 2027 05:29:49.333            24.038         12019.000
       196   05 Jun 2027 05:31:43.964   05 Jun 2027 05:31:46.236             2.272          1136.000
       197   05 Jun 2027 05:31:48.511   05 Jun 2027 05:31:55.059             6.548          3274.000
       198   05 Jun 2027 05:33:17.659   05 Jun 2027 05:33:19.565             1.906           953.000
       199   05 Jun 2027 05:33:28.859   05 Jun 2027 05:33:46.972            18.113          9056.500
       200   05 Jun 2027 07:05:38.692   05 Jun 2027 07:05:49.986            11.294          5647.000
       201   05 Jun 2027 07:07:15.931   05 Jun 2027 07:07:17.962             2.031          1015.500
       202   05 Jun 2027 07:07:42.101   05 Jun 2027 07:07:44.331             2.230          1115.000
       203   05 Jun 2027 07:08:20.275   05 Jun 2027 07:08:25.164             4.889          2444.500
       204   05 Jun 2027 07:09:08.048   05 Jun 2027 07:09:24.909            16.861          8430.500
       205   05 Jun 2027 07:10:17.718   05 Jun 2027 07:10:18.576             0.858           429.000
       206   05 Jun 2027 08:42:01.582   05 Jun 2027 08:42:10.826             9.244          4622.000
       207   05 Jun 2027 08:43:23.395   05 Jun 2027 08:43:27.858             4.463          2231.500
       208   05 Jun 2027 08:44:01.399   05 Jun 2027 08:44:07.978             6.579          3289.500
       209   05 Jun 2027 08:44:55.036   05 Jun 2027 08:45:00.659             5.623          2811.500
       210   05 Jun 2027 08:46:17.122   05 Jun 2027 08:46:20.131             3.009          1504.500
       211   05 Jun 2027 10:20:18.178   05 Jun 2027 10:20:48.175            29.997         14998.500
       212   06 Jun 2027 04:04:31.029   06 Jun 2027 04:04:32.714             1.685           842.500
       213   06 Jun 2027 04:04:47.641   06 Jun 2027 04:04:50.892             3.251          1625.500
       214   06 Jun 2027 04:05:50.038   06 Jun 2027 04:05:50.706             0.668           334.000
       215   06 Jun 2027 04:05:56.309   06 Jun 2027 04:05:57.222             0.913           456.500
       216   06 Jun 2027 04:06:04.029   06 Jun 2027 04:06:10.720             6.691          3345.500
       217   06 Jun 2027 04:06:45.996   06 Jun 2027 04:06:47.895             1.899           949.500
       218   06 Jun 2027 04:07:11.347   06 Jun 2027 04:07:14.332             2.985          1492.500
       219   06 Jun 2027 04:07:33.209   06 Jun 2027 04:07:50.432            17.223          8611.500
       220   06 Jun 2027 04:09:05.217   06 Jun 2027 04:09:09.213             3.996          1998.000
       221   06 Jun 2027 04:09:42.999   06 Jun 2027 04:09:44.917             1.918           959.000
       222   06 Jun 2027 04:10:54.212   06 Jun 2027 04:10:55.006             0.794           397.000
       223   06 Jun 2027 05:40:49.583   06 Jun 2027 05:41:00.207            10.624          5312.000
       224   06 Jun 2027 05:41:37.472   06 Jun 2027 05:41:45.306             7.834          3917.000
       225   06 Jun 2027 05:42:43.715   06 Jun 2027 05:42:52.721             9.006          4503.000
       226   06 Jun 2027 05:43:44.109   06 Jun 2027 05:43:46.137             2.028          1014.000
       227   06 Jun 2027 05:44:01.480   06 Jun 2027 05:44:02.296             0.816           408.000
       228   06 Jun 2027 05:45:06.462   06 Jun 2027 05:45:12.088             5.626          2813.000
       229   06 Jun 2027 05:45:57.015   06 Jun 2027 05:46:02.959             5.944          2972.000
       230   06 Jun 2027 05:47:05.639   06 Jun 2027 05:47:06.220             0.581           290.500
       231   06 Jun 2027 07:18:12.465   06 Jun 2027 07:18:13.156             0.691           345.500
       232   06 Jun 2027 07:18:46.215   06 Jun 2027 07:18:50.300             4.085          2042.500
       233   06 Jun 2027 07:19:33.641   06 Jun 2027 07:19:35.843             2.202          1101.000
       234   06 Jun 2027 07:20:20.774   06 Jun 2027 07:20:27.440             6.666          3333.000
       235   06 Jun 2027 07:21:09.427   06 Jun 2027 07:21:20.258            10.831          5415.500
       236   06 Jun 2027 07:22:05.096   06 Jun 2027 07:22:12.352             7.256          3628.000
       237   06 Jun 2027 07:22:44.681   06 Jun 2027 07:22:45.248             0.567           283.500
       238   06 Jun 2027 08:54:22.910   06 Jun 2027 08:54:24.531             1.621           810.500
       239   06 Jun 2027 08:54:39.402   06 Jun 2027 08:54:55.016            15.614          7807.000
       240   06 Jun 2027 08:56:27.807   06 Jun 2027 08:56:29.388             1.581           790.500
       241   06 Jun 2027 08:57:12.374   06 Jun 2027 08:57:15.101             2.727          1363.500
       242   06 Jun 2027 08:58:00.181   06 Jun 2027 08:58:04.976             4.795          2397.500
       243   06 Jun 2027 08:58:25.705   06 Jun 2027 08:58:27.434             1.729           864.500
       244   07 Jun 2027 04:16:32.240   07 Jun 2027 04:16:36.864             4.624          2312.000
       245   07 Jun 2027 04:16:59.435   07 Jun 2027 04:17:04.395             4.960          2480.000
       246   07 Jun 2027 04:17:36.467   07 Jun 2027 04:17:47.507            11.040          5520.000
       247   07 Jun 2027 04:18:38.708   07 Jun 2027 04:18:43.900             5.192          2596.000
       248   07 Jun 2027 04:19:10.278   07 Jun 2027 04:19:16.097             5.819          2909.500
       249   07 Jun 2027 04:19:57.477   07 Jun 2027 04:20:07.368             9.891          4945.500
       250   07 Jun 2027 04:20:16.543   07 Jun 2027 04:20:18.812             2.269          1134.500
       251   07 Jun 2027 04:21:25.154   07 Jun 2027 04:21:27.222             2.068          1034.000
       252   07 Jun 2027 04:21:50.437   07 Jun 2027 04:21:55.165             4.728          2364.000
       253   07 Jun 2027 04:22:40.619   07 Jun 2027 04:22:43.007             2.388          1194.000
       254   07 Jun 2027 05:52:28.082   07 Jun 2027 05:52:36.005             7.923          3961.500
       255   07 Jun 2027 05:53:28.467   07 Jun 2027 05:53:46.970            18.503          9251.500
       256   07 Jun 2027 05:55:20.980   07 Jun 2027 05:55:24.391             3.411          1705.500
       257   07 Jun 2027 05:56:04.844   07 Jun 2027 05:56:05.876             1.032           516.000
       258   07 Jun 2027 05:56:24.310   07 Jun 2027 05:56:27.097             2.787          1393.500
       259   07 Jun 2027 05:56:47.555   07 Jun 2027 05:56:55.973             8.418          4209.000
       260   07 Jun 2027 05:57:28.225   07 Jun 2027 05:57:28.320             0.095            47.500
       261   07 Jun 2027 05:57:32.582   07 Jun 2027 05:57:39.202             6.620          3310.000
       262   07 Jun 2027 07:30:26.422   07 Jun 2027 07:30:26.850             0.428           214.000
       263   07 Jun 2027 07:30:38.540   07 Jun 2027 07:30:43.651             5.111          2555.500
       264   07 Jun 2027 07:31:28.690   07 Jun 2027 07:31:33.832             5.142          2571.000
       265   07 Jun 2027 07:32:50.913   07 Jun 2027 07:32:51.679             0.766           383.000
       266   07 Jun 2027 07:33:10.384   07 Jun 2027 07:33:22.360            11.976          5988.000
       267   07 Jun 2027 07:34:03.452   07 Jun 2027 07:34:04.835             1.383           691.500
       268   07 Jun 2027 07:34:31.952   07 Jun 2027 07:34:41.788             9.836          4918.000
       269   07 Jun 2027 09:06:18.006   07 Jun 2027 09:06:19.140             1.134           567.000
       270   07 Jun 2027 09:06:43.732   07 Jun 2027 09:06:58.335            14.603          7301.500
       271   07 Jun 2027 09:09:00.221   07 Jun 2027 09:09:00.866             0.645           322.500
       272   07 Jun 2027 09:09:34.201   07 Jun 2027 09:09:40.361             6.160          3080.000
       273   07 Jun 2027 09:10:06.740   07 Jun 2027 09:10:09.122             2.382          1191.000
       274   07 Jun 2027 09:10:37.682   07 Jun 2027 09:10:43.546             5.864          2932.000
       275   07 Jun 2027 09:11:06.292   07 Jun 2027 09:11:09.862             3.570          1785.000
       276   07 Jun 2027 09:11:16.501   07 Jun 2027 09:11:16.526             0.025            12.500
       277   08 Jun 2027 04:27:47.854   08 Jun 2027 04:27:57.676             9.822          4911.000
       278   08 Jun 2027 04:29:07.872   08 Jun 2027 04:29:12.035             4.163          2081.500
       279   08 Jun 2027 04:29:28.913   08 Jun 2027 04:29:39.333            10.420          5210.000
       280   08 Jun 2027 04:29:49.907   08 Jun 2027 04:29:59.140             9.233          4616.500
       281   08 Jun 2027 04:31:10.479   08 Jun 2027 04:31:16.070             5.591          2795.500
       282   08 Jun 2027 04:31:41.925   08 Jun 2027 04:31:43.100             1.175           587.500
       283   08 Jun 2027 04:31:59.663   08 Jun 2027 04:32:00.099             0.436           218.000
       284   08 Jun 2027 04:32:25.171   08 Jun 2027 04:32:34.703             9.532          4766.000
       285   08 Jun 2027 04:33:15.014   08 Jun 2027 04:33:16.802             1.788           894.000
       286   08 Jun 2027 04:33:20.888   08 Jun 2027 04:33:21.447             0.559           279.500
       287   08 Jun 2027 04:33:40.658   08 Jun 2027 04:33:50.690            10.032          5016.000
       288   08 Jun 2027 04:34:39.947   08 Jun 2027 04:34:42.631             2.684          1342.000
       289   08 Jun 2027 04:35:18.110   08 Jun 2027 04:35:20.882             2.772          1386.000
       290   08 Jun 2027 06:04:37.614   08 Jun 2027 06:04:50.226            12.612          6306.000
       291   08 Jun 2027 06:05:58.424   08 Jun 2027 06:05:58.657             0.233           116.500
       292   08 Jun 2027 06:06:00.940   08 Jun 2027 06:06:12.348            11.408          5704.000
       293   08 Jun 2027 06:07:09.549   08 Jun 2027 06:07:21.257            11.708          5854.000
       294   08 Jun 2027 06:08:16.374   08 Jun 2027 06:08:17.151             0.777           388.500
       295   08 Jun 2027 06:08:22.617   08 Jun 2027 06:08:23.382             0.765           382.500
       296   08 Jun 2027 06:08:28.006   08 Jun 2027 06:08:31.391             3.385          1692.500
       297   08 Jun 2027 06:08:48.529   08 Jun 2027 06:08:49.787             1.258           629.000
       298   08 Jun 2027 06:09:08.707   08 Jun 2027 06:09:19.894            11.187          5593.500
       299   08 Jun 2027 06:10:27.597   08 Jun 2027 06:10:35.846             8.249          4124.500
       300   08 Jun 2027 07:42:48.984   08 Jun 2027 07:42:58.524             9.540          4770.000
       301   08 Jun 2027 07:44:20.309   08 Jun 2027 07:44:22.530             2.221          1110.500
       302   08 Jun 2027 07:44:42.551   08 Jun 2027 07:44:51.966             9.415          4707.500
       303   08 Jun 2027 07:45:17.152   08 Jun 2027 07:45:17.894             0.742           371.000
       304   08 Jun 2027 07:46:12.584   08 Jun 2027 07:46:19.465             6.881          3440.500
       305   08 Jun 2027 09:16:06.849   08 Jun 2027 09:16:30.958            24.109         12054.500
       306   08 Jun 2027 09:18:08.337   08 Jun 2027 09:18:08.925             0.588           294.000
       307   08 Jun 2027 09:18:11.351   08 Jun 2027 09:18:15.846             4.495          2247.500
       308   08 Jun 2027 09:19:04.994   08 Jun 2027 09:19:07.202             2.208          1104.000
       309   08 Jun 2027 09:19:24.088   08 Jun 2027 09:19:24.490             0.402           201.000
       310   08 Jun 2027 09:19:43.284   08 Jun 2027 09:19:50.487             7.203          3601.500
       311   08 Jun 2027 09:20:58.761   08 Jun 2027 09:21:00.451             1.690           845.000
       312   08 Jun 2027 09:21:38.686   08 Jun 2027 09:21:43.055             4.369          2184.500
       313   08 Jun 2027 09:22:11.272   08 Jun 2027 09:22:13.914             2.642          1321.000
       314   08 Jun 2027 09:22:46.949   08 Jun 2027 09:22:49.056             2.107          1053.500
       315   08 Jun 2027 09:23:06.433   08 Jun 2027 09:23:08.619             2.186          1093.000
       316   08 Jun 2027 09:23:23.756   08 Jun 2027 09:23:39.798            16.042          8021.000
       317   09 Jun 2027 03:02:55.966   09 Jun 2027 03:02:56.493             0.527           263.500
       318   09 Jun 2027 03:03:06.362   09 Jun 2027 03:03:17.083            10.721          5360.500
       319   09 Jun 2027 03:04:06.820   09 Jun 2027 03:04:15.881             9.061          4530.500
       320   09 Jun 2027 03:05:29.764   09 Jun 2027 03:05:34.285             4.521          2260.500
       321   09 Jun 2027 03:05:55.809   09 Jun 2027 03:06:02.755             6.946          3473.000
       322   09 Jun 2027 03:06:31.823   09 Jun 2027 03:06:35.654             3.831          1915.500
       323   09 Jun 2027 03:07:09.249   09 Jun 2027 03:07:11.605             2.356          1178.000
       324   09 Jun 2027 03:07:29.864   09 Jun 2027 03:07:31.742             1.878           939.000
       325   09 Jun 2027 03:07:57.661   09 Jun 2027 03:08:04.348             6.687          3343.500
       326   09 Jun 2027 03:09:35.936   09 Jun 2027 03:09:37.082             1.146           573.000
       327   09 Jun 2027 04:39:55.595   09 Jun 2027 04:39:58.719             3.124          1562.000
       328   09 Jun 2027 04:40:42.385   09 Jun 2027 04:40:46.553             4.168          2084.000
       329   09 Jun 2027 04:41:35.549   09 Jun 2027 04:41:45.095             9.546          4773.000
       330   09 Jun 2027 04:42:35.553   09 Jun 2027 04:42:35.920             0.367           183.500
       331   09 Jun 2027 04:42:38.651   09 Jun 2027 04:42:40.225             1.574           787.000
       332   09 Jun 2027 04:42:48.452   09 Jun 2027 04:42:55.699             7.247          3623.500
       333   09 Jun 2027 04:43:51.202   09 Jun 2027 04:43:52.150             0.948           474.000
       334   09 Jun 2027 04:44:12.981   09 Jun 2027 04:44:22.047             9.066          4533.000
       335   09 Jun 2027 04:45:08.481   09 Jun 2027 04:45:11.039             2.558          1279.000
       336   09 Jun 2027 04:45:13.256   09 Jun 2027 04:45:15.155             1.899           949.500
       337   09 Jun 2027 04:45:53.860   09 Jun 2027 04:46:00.593             6.733          3366.500
       338   09 Jun 2027 04:46:25.779   09 Jun 2027 04:46:44.697            18.918          9459.000
       339   09 Jun 2027 06:16:53.586   09 Jun 2027 06:16:54.365             0.779           389.500
       340   09 Jun 2027 06:17:35.616   09 Jun 2027 06:17:41.436             5.820          2910.000
       341   09 Jun 2027 06:18:06.286   09 Jun 2027 06:18:12.860             6.574          3287.000
       342   09 Jun 2027 06:18:42.133   09 Jun 2027 06:18:43.567             1.434           717.000
       343   09 Jun 2027 06:19:21.803   09 Jun 2027 06:19:28.500             6.697          3348.500
       344   09 Jun 2027 06:20:00.253   09 Jun 2027 06:20:01.268             1.015           507.500
       345   09 Jun 2027 06:20:27.553   09 Jun 2027 06:20:32.440             4.887          2443.500
       346   09 Jun 2027 06:20:52.008   09 Jun 2027 06:21:03.451            11.443          5721.500
       347   09 Jun 2027 06:22:05.896   09 Jun 2027 06:22:18.355            12.459          6229.500
       348   09 Jun 2027 07:54:49.910   09 Jun 2027 07:54:50.984             1.074           537.000
       349   09 Jun 2027 07:55:31.519   09 Jun 2027 07:55:34.803             3.284          1642.000
       350   09 Jun 2027 07:56:10.467   09 Jun 2027 07:56:13.532             3.065          1532.500
       351   09 Jun 2027 07:56:28.381   09 Jun 2027 07:56:32.861             4.480          2240.000
       352   09 Jun 2027 07:56:55.663   09 Jun 2027 07:57:02.718             7.055          3527.500
       353   09 Jun 2027 07:57:44.831   09 Jun 2027 07:57:49.991             5.160          2580.000
       354   09 Jun 2027 07:58:26.715   09 Jun 2027 07:58:29.219             2.504          1252.000
       355   09 Jun 2027 07:58:43.031   09 Jun 2027 07:58:48.414             5.383          2691.500
       356   09 Jun 2027 09:28:09.919   09 Jun 2027 09:28:28.909            18.990          9495.000
       357   09 Jun 2027 09:29:51.056   09 Jun 2027 09:30:00.436             9.380          4690.000
       358   09 Jun 2027 09:31:10.998   09 Jun 2027 09:31:13.980             2.982          1491.000
       359   09 Jun 2027 09:32:06.379   09 Jun 2027 09:32:08.139             1.760           880.000
       360   09 Jun 2027 09:32:18.018   09 Jun 2027 09:32:21.339             3.321          1660.500
       361   09 Jun 2027 09:32:56.303   09 Jun 2027 09:32:59.402             3.099          1549.500
       362   09 Jun 2027 09:33:26.629   09 Jun 2027 09:33:32.545             5.916          2958.000
       363   09 Jun 2027 09:34:07.398   09 Jun 2027 09:34:18.917            11.519          5759.500
       364   09 Jun 2027 09:35:08.218   09 Jun 2027 09:35:12.929             4.711          2355.500
       365   09 Jun 2027 09:35:39.314   09 Jun 2027 09:35:40.025             0.711           355.500
       366   10 Jun 2027 03:14:19.463   10 Jun 2027 03:14:24.461             4.998          2499.000
       367   10 Jun 2027 03:14:53.531   10 Jun 2027 03:15:07.618            14.087          7043.500
       368   10 Jun 2027 03:15:45.922   10 Jun 2027 03:15:45.922             0.000             0.000
       369   10 Jun 2027 03:15:55.907   10 Jun 2027 03:16:02.353             6.446          3223.000
       370   10 Jun 2027 03:16:52.142   10 Jun 2027 03:17:00.620             8.478          4239.000
       371   10 Jun 2027 03:18:20.822   10 Jun 2027 03:18:22.295             1.473           736.500
       372   10 Jun 2027 03:19:01.436   10 Jun 2027 03:19:05.531             4.095          2047.500
       373   10 Jun 2027 03:19:31.052   10 Jun 2027 03:19:31.640             0.588           294.000
       374   10 Jun 2027 03:19:47.555   10 Jun 2027 03:19:52.865             5.310          2655.000
       375   10 Jun 2027 03:20:58.123   10 Jun 2027 03:20:58.715             0.592           296.000
       376   10 Jun 2027 03:21:04.398   10 Jun 2027 03:21:06.999             2.601          1300.500
       377   10 Jun 2027 03:21:14.118   10 Jun 2027 03:21:14.118             0.000             0.000
       378   10 Jun 2027 03:21:36.957   10 Jun 2027 03:21:39.055             2.098          1049.000
       379   10 Jun 2027 03:22:31.855   10 Jun 2027 03:22:32.152             0.297           148.500
       380   10 Jun 2027 03:22:49.684   10 Jun 2027 03:22:49.838             0.154            77.000
       381   10 Jun 2027 04:51:57.465   10 Jun 2027 04:52:04.684             7.219          3609.500
       382   10 Jun 2027 04:52:33.724   10 Jun 2027 04:52:44.685            10.961          5480.500
       383   10 Jun 2027 04:53:32.016   10 Jun 2027 04:53:34.234             2.218          1109.000
       384   10 Jun 2027 04:53:56.809   10 Jun 2027 04:54:14.990            18.181          9090.500
       385   10 Jun 2027 04:55:48.490   10 Jun 2027 04:55:48.504             0.014             7.000
       386   10 Jun 2027 04:56:04.408   10 Jun 2027 04:56:05.446             1.038           519.000
       387   10 Jun 2027 04:57:00.150   10 Jun 2027 04:57:01.008             0.858           429.000
       388   10 Jun 2027 04:57:10.195   10 Jun 2027 04:57:13.453             3.258          1629.000
       389   10 Jun 2027 04:58:04.901   10 Jun 2027 04:58:10.201             5.300          2650.000
       390   10 Jun 2027 04:58:43.305   10 Jun 2027 04:58:46.770             3.465          1732.500
       391   10 Jun 2027 06:28:43.696   10 Jun 2027 06:28:58.781            15.085          7542.500
       392   10 Jun 2027 06:30:47.405   10 Jun 2027 06:30:51.136             3.731          1865.500
       393   10 Jun 2027 06:31:21.569   10 Jun 2027 06:31:22.605             1.036           518.000
       394   10 Jun 2027 06:32:02.134   10 Jun 2027 06:32:10.642             8.508          4254.000
       395   10 Jun 2027 06:32:18.273   10 Jun 2027 06:32:22.871             4.598          2299.000
       396   10 Jun 2027 06:33:58.996   10 Jun 2027 06:34:00.474             1.478           739.000
       397   10 Jun 2027 06:34:18.712   10 Jun 2027 06:34:18.957             0.245           122.500
       398   10 Jun 2027 06:35:03.708   10 Jun 2027 06:35:05.906             2.198          1099.000
       399   10 Jun 2027 06:35:20.419   10 Jun 2027 06:35:21.078             0.659           329.500
       400   10 Jun 2027 06:35:24.473   10 Jun 2027 06:35:26.418             1.945           972.500
       401   10 Jun 2027 08:06:48.747   10 Jun 2027 08:06:52.540             3.793          1896.500
       402   10 Jun 2027 08:07:12.685   10 Jun 2027 08:07:20.199             7.514          3757.000
       403   10 Jun 2027 08:08:15.442   10 Jun 2027 08:08:17.658             2.216          1108.000
       404   10 Jun 2027 08:09:11.128   10 Jun 2027 08:09:12.085             0.957           478.500
       405   10 Jun 2027 08:09:21.619   10 Jun 2027 08:09:21.917             0.298           149.000
       406   10 Jun 2027 08:09:43.425   10 Jun 2027 08:09:48.983             5.558          2779.000
       407   10 Jun 2027 08:10:25.063   10 Jun 2027 08:10:36.285            11.222          5611.000
       408   10 Jun 2027 09:40:37.155   10 Jun 2027 09:40:50.459            13.304          6652.000
       409   10 Jun 2027 09:41:59.900   10 Jun 2027 09:42:07.852             7.952          3976.000
       410   10 Jun 2027 09:42:52.860   10 Jun 2027 09:43:00.858             7.998          3999.000
       411   10 Jun 2027 09:43:44.540   10 Jun 2027 09:43:51.278             6.738          3369.000
       412   10 Jun 2027 09:44:19.440   10 Jun 2027 09:44:30.033            10.593          5296.500
       413   10 Jun 2027 09:45:33.051   10 Jun 2027 09:45:51.615            18.564          9282.000
       414   10 Jun 2027 09:47:07.209   10 Jun 2027 09:47:13.918             6.709          3354.500
       415   11 Jun 2027 03:25:52.461   11 Jun 2027 03:25:53.687             1.226           613.000
       416   11 Jun 2027 03:26:21.379   11 Jun 2027 03:26:27.721             6.342          3171.000
       417   11 Jun 2027 03:27:17.301   11 Jun 2027 03:27:31.408            14.107          7053.500
       418   11 Jun 2027 03:28:37.133   11 Jun 2027 03:28:40.374             3.241          1620.500
       419   11 Jun 2027 03:29:41.400   11 Jun 2027 03:29:41.676             0.276           138.000
       420   11 Jun 2027 03:30:14.981   11 Jun 2027 03:30:18.604             3.623          1811.500
       421   11 Jun 2027 03:30:35.311   11 Jun 2027 03:30:38.508             3.197          1598.500
       422   11 Jun 2027 03:30:58.986   11 Jun 2027 03:30:59.104             0.118            59.000
       423   11 Jun 2027 03:31:06.193   11 Jun 2027 03:31:08.940             2.747          1373.500
       424   11 Jun 2027 03:31:29.933   11 Jun 2027 03:31:32.375             2.442          1221.000
       425   11 Jun 2027 03:31:44.443   11 Jun 2027 03:31:44.568             0.125            62.500
       426   11 Jun 2027 03:32:01.739   11 Jun 2027 03:32:03.861             2.122          1061.000
       427   11 Jun 2027 03:32:15.845   11 Jun 2027 03:32:20.004             4.159          2079.500
       428   11 Jun 2027 03:32:47.504   11 Jun 2027 03:32:49.388             1.884           942.000
       429   11 Jun 2027 03:33:36.836   11 Jun 2027 03:33:36.883             0.047            23.500
       430   11 Jun 2027 03:33:40.229   11 Jun 2027 03:33:46.352             6.123          3061.500
       431   11 Jun 2027 03:34:37.486   11 Jun 2027 03:34:41.419             3.933          1966.500
       432   11 Jun 2027 05:03:58.239   11 Jun 2027 05:04:00.074             1.835           917.500
       433   11 Jun 2027 05:04:49.963   11 Jun 2027 05:04:55.184             5.221          2610.500
       434   11 Jun 2027 05:05:18.525   11 Jun 2027 05:05:23.363             4.838          2419.000
       435   11 Jun 2027 05:05:47.781   11 Jun 2027 05:05:53.368             5.587          2793.500
       436   11 Jun 2027 05:06:37.454   11 Jun 2027 05:06:40.404             2.950          1475.000
       437   11 Jun 2027 05:07:07.446   11 Jun 2027 05:07:07.934             0.488           244.000
       438   11 Jun 2027 05:07:37.904   11 Jun 2027 05:07:39.474             1.570           785.000
       439   11 Jun 2027 05:08:05.195   11 Jun 2027 05:08:41.905            36.710         18355.000
       440   11 Jun 2027 06:40:52.872   11 Jun 2027 06:40:58.691             5.819          2909.500
       441   11 Jun 2027 06:42:07.371   11 Jun 2027 06:42:35.205            27.834         13917.000
       442   11 Jun 2027 06:44:28.852   11 Jun 2027 06:44:32.100             3.248          1624.000
       443   11 Jun 2027 06:44:53.093   11 Jun 2027 06:44:54.958             1.865           932.500
       444   11 Jun 2027 06:45:56.258   11 Jun 2027 06:45:59.257             2.999          1499.500
       445   11 Jun 2027 06:46:10.747   11 Jun 2027 06:46:15.444             4.697          2348.500
       446   11 Jun 2027 06:46:55.002   11 Jun 2027 06:47:02.337             7.335          3667.500
       447   11 Jun 2027 08:18:01.476   11 Jun 2027 08:18:05.686             4.210          2105.000
       448   11 Jun 2027 08:18:26.083   11 Jun 2027 08:18:34.364             8.281          4140.500
       449   11 Jun 2027 08:20:26.276   11 Jun 2027 08:20:26.619             0.343           171.500
       450   11 Jun 2027 08:20:32.975   11 Jun 2027 08:20:50.260            17.285          8642.500
       451   11 Jun 2027 09:52:52.125   11 Jun 2027 09:53:01.964             9.839          4919.500
       452   11 Jun 2027 09:53:47.354   11 Jun 2027 09:53:49.726             2.372          1186.000
       453   11 Jun 2027 09:54:43.390   11 Jun 2027 09:54:45.802             2.412          1206.000
       454   11 Jun 2027 09:56:29.808   11 Jun 2027 09:57:00.273            30.465         15232.500
       455   11 Jun 2027 09:57:30.882   11 Jun 2027 09:57:36.837             5.955          2977.500
       456   11 Jun 2027 09:57:54.403   11 Jun 2027 09:57:55.718             1.315           657.500
       457   12 Jun 2027 03:38:53.002   12 Jun 2027 03:39:11.585            18.583          9291.500
       458   12 Jun 2027 03:40:45.059   12 Jun 2027 03:41:16.725            31.666         15833.000
       459   12 Jun 2027 03:43:36.255   12 Jun 2027 03:43:59.794            23.539         11769.500
       460   12 Jun 2027 03:45:53.629   12 Jun 2027 03:45:59.915             6.286          3143.000
       461   12 Jun 2027 03:46:24.330   12 Jun 2027 03:46:26.373             2.043          1021.500
       462   12 Jun 2027 03:46:37.080   12 Jun 2027 03:46:38.900             1.820           910.000
       463   12 Jun 2027 03:46:55.456   12 Jun 2027 03:46:59.580             4.124          2062.000
       464   12 Jun 2027 03:47:25.084   12 Jun 2027 03:47:26.494             1.410           705.000
       465   12 Jun 2027 05:16:24.531   12 Jun 2027 05:16:29.172             4.641          2320.500
       466   12 Jun 2027 05:16:50.452   12 Jun 2027 05:17:07.987            17.535          8767.500
       467   12 Jun 2027 05:17:33.134   12 Jun 2027 05:17:33.820             0.686           343.000
       468   12 Jun 2027 05:18:28.217   12 Jun 2027 05:18:36.941             8.724          4362.000
       469   12 Jun 2027 05:18:56.156   12 Jun 2027 05:19:08.414            12.258          6129.000
       470   12 Jun 2027 05:20:22.990   12 Jun 2027 05:20:37.405            14.415          7207.500
       471   12 Jun 2027 05:21:30.573   12 Jun 2027 05:21:41.453            10.880          5440.000
       472   12 Jun 2027 05:22:36.173   12 Jun 2027 05:22:46.647            10.474          5237.000
       473   12 Jun 2027 06:53:20.652   12 Jun 2027 06:53:28.021             7.369          3684.500
       474   12 Jun 2027 06:54:55.599   12 Jun 2027 06:54:56.105             0.506           253.000
       475   12 Jun 2027 06:55:00.889   12 Jun 2027 06:55:01.489             0.600           300.000
       476   12 Jun 2027 06:55:42.184   12 Jun 2027 06:55:45.411             3.227          1613.500
       477   12 Jun 2027 06:56:25.605   12 Jun 2027 06:56:31.335             5.730          2865.000
       478   12 Jun 2027 06:56:51.656   12 Jun 2027 06:56:51.656             0.000             0.000
       479   12 Jun 2027 06:56:58.396   12 Jun 2027 06:57:03.555             5.159          2579.500
       480   12 Jun 2027 06:57:39.892   12 Jun 2027 06:57:50.041            10.149          5074.500
       481   12 Jun 2027 06:58:12.606   12 Jun 2027 06:58:15.169             2.563          1281.500
       482   12 Jun 2027 06:59:02.565   12 Jun 2027 06:59:03.743             1.178           589.000
       483   12 Jun 2027 08:30:14.499   12 Jun 2027 08:30:19.567             5.068          2534.000
       484   12 Jun 2027 08:30:41.847   12 Jun 2027 08:30:44.025             2.178          1089.000
       485   12 Jun 2027 08:30:59.483   12 Jun 2027 08:31:06.942             7.459          3729.500
       486   12 Jun 2027 08:32:05.218   12 Jun 2027 08:32:08.104             2.886          1443.000
       487   12 Jun 2027 08:33:13.062   12 Jun 2027 08:33:14.555             1.493           746.500
       488   12 Jun 2027 08:34:28.598   12 Jun 2027 08:34:28.662             0.064            32.000
       489   12 Jun 2027 10:07:24.600   12 Jun 2027 10:07:24.944             0.344           172.000
       490   12 Jun 2027 10:07:31.986   12 Jun 2027 10:08:10.765            38.779         19389.500
       491   13 Jun 2027 03:49:33.097   13 Jun 2027 03:49:35.819             2.722          1361.000
       492   13 Jun 2027 03:51:31.654   13 Jun 2027 03:51:43.613            11.959          5979.500
       493   13 Jun 2027 03:52:40.955   13 Jun 2027 03:52:45.045             4.090          2045.000
       494   13 Jun 2027 03:53:17.602   13 Jun 2027 03:53:17.797             0.195            97.500
       495   13 Jun 2027 03:54:15.192   13 Jun 2027 03:54:17.705             2.513          1256.500
       496   13 Jun 2027 03:54:29.552   13 Jun 2027 03:54:34.606             5.054          2527.000
       497   13 Jun 2027 03:54:59.162   13 Jun 2027 03:55:04.453             5.291          2645.500
       498   13 Jun 2027 03:55:29.542   13 Jun 2027 03:55:30.280             0.738           369.000
       499   13 Jun 2027 03:55:35.872   13 Jun 2027 03:55:39.314             3.442          1721.000
       500   13 Jun 2027 03:56:06.641   13 Jun 2027 03:56:07.167             0.526           263.000
       501   13 Jun 2027 03:56:13.809   13 Jun 2027 03:56:13.960             0.151            75.500
       502   13 Jun 2027 03:56:30.827   13 Jun 2027 03:56:33.976             3.149          1574.500
       503   13 Jun 2027 03:56:56.119   13 Jun 2027 03:56:57.543             1.424           712.000
       504   13 Jun 2027 03:57:02.781   13 Jun 2027 03:57:02.781             0.000             0.000
       505   13 Jun 2027 03:57:14.603   13 Jun 2027 03:57:21.906             7.303          3651.500
       506   13 Jun 2027 03:58:15.591   13 Jun 2027 03:58:16.818             1.227           613.500
       507   13 Jun 2027 03:58:29.589   13 Jun 2027 03:58:33.490             3.901          1950.500
       508   13 Jun 2027 03:59:04.925   13 Jun 2027 03:59:09.741             4.816          2408.000
       509   13 Jun 2027 03:59:20.461   13 Jun 2027 03:59:20.791             0.330           165.000
       510   13 Jun 2027 05:28:30.425   13 Jun 2027 05:28:42.733            12.308          6154.000
       511   13 Jun 2027 05:29:41.143   13 Jun 2027 05:29:43.592             2.449          1224.500
       512   13 Jun 2027 05:30:03.107   13 Jun 2027 05:30:22.952            19.845          9922.500
       513   13 Jun 2027 05:31:46.470   13 Jun 2027 05:31:57.860            11.390          5695.000
       514   13 Jun 2027 05:32:44.390   13 Jun 2027 05:32:47.189             2.799          1399.500
       515   13 Jun 2027 05:33:01.113   13 Jun 2027 05:33:11.060             9.947          4973.500
       516   13 Jun 2027 05:34:02.526   13 Jun 2027 05:34:19.101            16.575          8287.500
       517   13 Jun 2027 07:05:54.855   13 Jun 2027 07:06:04.162             9.307          4653.500
       518   13 Jun 2027 07:06:38.194   13 Jun 2027 07:06:38.954             0.760           380.000
       519   13 Jun 2027 07:07:02.583   13 Jun 2027 07:07:06.613             4.030          2015.000
       520   13 Jun 2027 07:07:51.683   13 Jun 2027 07:07:57.333             5.650          2825.000
       521   13 Jun 2027 07:08:22.233   13 Jun 2027 07:08:22.828             0.595           297.500
       522   13 Jun 2027 07:08:28.741   13 Jun 2027 07:08:30.135             1.394           697.000
       523   13 Jun 2027 07:08:48.932   13 Jun 2027 07:08:56.777             7.845          3922.500
       524   13 Jun 2027 07:10:02.989   13 Jun 2027 07:10:03.260             0.271           135.500
       525   13 Jun 2027 07:10:35.329   13 Jun 2027 07:10:35.428             0.099            49.500
       526   13 Jun 2027 08:42:16.767   13 Jun 2027 08:42:25.477             8.710          4355.000
       527   13 Jun 2027 08:42:52.387   13 Jun 2027 08:42:55.083             2.696          1348.000
       528   13 Jun 2027 08:43:25.826   13 Jun 2027 08:43:38.188            12.362          6181.000
       529   13 Jun 2027 08:45:15.380   13 Jun 2027 08:45:17.498             2.118          1059.000
       530   13 Jun 2027 08:46:19.119   13 Jun 2027 08:46:32.198            13.079          6539.500
       531   13 Jun 2027 10:20:34.525   13 Jun 2027 10:21:02.831            28.306         14153.000
