uniorb/output/strategy_2/Camera/Camera_KinoSat_111305.txt

KinoSat_111305
-------------------------
    Access    *     Start Time (UTCG)     *     Stop Time (UTCG)  *   Duration (s) *   Data (Mbytes)
         1   01 Jun 2027 03:27:29.954   01 Jun 2027 03:30:47.189           197.235         98617.500
         2   01 Jun 2027 03:32:47.321   01 Jun 2027 03:33:17.340            30.019         15009.500
         3   01 Jun 2027 03:33:28.789   01 Jun 2027 03:33:31.381             2.592          1296.000
         4   01 Jun 2027 04:51:36.975   01 Jun 2027 04:52:21.077            44.102         22051.000
         5   01 Jun 2027 06:25:23.993   01 Jun 2027 06:28:04.534           160.541         80270.500
         6   01 Jun 2027 06:30:34.197   01 Jun 2027 06:30:43.196             8.999          4499.500
         7   01 Jun 2027 08:00:16.193   01 Jun 2027 08:02:45.864           149.671         74835.500
         8   01 Jun 2027 08:03:30.888   01 Jun 2027 08:03:54.909            24.021         12010.500
         9   01 Jun 2027 08:06:04.357   01 Jun 2027 08:06:16.758            12.401          6200.500
        10   01 Jun 2027 08:07:20.660   01 Jun 2027 08:07:27.630             6.970          3485.000
        11   01 Jun 2027 08:07:55.694   01 Jun 2027 08:08:14.499            18.805          9402.500
        12   01 Jun 2027 08:09:14.863   01 Jun 2027 08:09:16.662             1.799           899.500
        13   01 Jun 2027 08:09:49.376   01 Jun 2027 08:09:53.475             4.099          2049.500
        14   01 Jun 2027 09:38:25.949   01 Jun 2027 09:39:20.672            54.723         27361.500
        15   01 Jun 2027 09:40:28.386   01 Jun 2027 09:41:15.136            46.750         23375.000
        16   01 Jun 2027 09:43:35.876   01 Jun 2027 09:44:08.198            32.322         16161.000
        17   01 Jun 2027 09:45:03.162   01 Jun 2027 09:45:21.766            18.604          9302.000
        18   01 Jun 2027 11:15:20.798   01 Jun 2027 11:17:12.389           111.591         55795.500
        19   01 Jun 2027 11:19:16.121   01 Jun 2027 11:19:19.824             3.703          1851.500
        20   01 Jun 2027 11:20:56.820   01 Jun 2027 11:20:56.820             0.000             0.000
        21   02 Jun 2027 03:40:06.664   02 Jun 2027 03:43:09.938           183.274         91637.000
        22   02 Jun 2027 03:43:24.374   02 Jun 2027 03:43:30.164             5.790          2895.000
        23   02 Jun 2027 05:03:31.887   02 Jun 2027 05:04:31.976            60.089         30044.500
        24   02 Jun 2027 06:39:48.164   02 Jun 2027 06:42:41.554           173.390         86695.000
        25   02 Jun 2027 08:13:20.060   02 Jun 2027 08:15:16.545           116.485         58242.500
        26   02 Jun 2027 08:16:43.121   02 Jun 2027 08:16:44.417             1.296           648.000
        27   02 Jun 2027 08:17:08.399   02 Jun 2027 08:17:13.683             5.284          2642.000
        28   02 Jun 2027 08:18:15.725   02 Jun 2027 08:18:15.725             0.000             0.000
        29   02 Jun 2027 08:18:35.997   02 Jun 2027 08:18:45.949             9.952          3342.469
        30   02 Jun 2027 08:19:18.109   02 Jun 2027 08:19:21.369             3.260           736.656
        31   02 Jun 2027 08:20:35.455   02 Jun 2027 08:20:40.994             5.539          1633.844
        32   02 Jun 2027 08:20:49.463   02 Jun 2027 08:20:50.204             0.741           264.656
        33   02 Jun 2027 09:50:52.482   02 Jun 2027 09:51:09.759            17.277          7903.687
        34   02 Jun 2027 09:52:03.883   02 Jun 2027 09:52:05.741             1.858           611.375
        35   02 Jun 2027 09:54:33.374   02 Jun 2027 09:54:33.374             0.000             0.000
        36   02 Jun 2027 09:54:36.864   02 Jun 2027 09:54:45.022             8.158          2941.438
        37   02 Jun 2027 09:55:24.933   02 Jun 2027 09:55:28.309             3.376           324.250
        38   02 Jun 2027 09:55:54.670   02 Jun 2027 09:55:57.404             2.734           780.719
        39   02 Jun 2027 09:56:38.022   02 Jun 2027 09:56:41.567             3.545          1203.750
        40   02 Jun 2027 09:57:07.306   02 Jun 2027 09:57:08.893             1.587           700.281
        41   02 Jun 2027 09:57:31.115   02 Jun 2027 09:57:34.317             3.202           694.438
        42   02 Jun 2027 11:27:47.714   02 Jun 2027 11:28:09.551            21.837          8233.969
        43   02 Jun 2027 11:29:46.411   02 Jun 2027 11:29:49.684             3.273          1544.469
        44   02 Jun 2027 11:30:27.452   02 Jun 2027 11:30:36.012             8.560          1174.781
        45   02 Jun 2027 11:30:59.668   02 Jun 2027 11:31:00.294             0.626           242.812
        46   02 Jun 2027 11:32:10.495   02 Jun 2027 11:32:13.438             2.943          1471.500
        47   02 Jun 2027 11:32:32.508   02 Jun 2027 11:32:36.182             3.674          1186.281
        48   02 Jun 2027 11:33:29.706   02 Jun 2027 11:33:34.612             4.906          1041.625
        49   03 Jun 2027 03:51:45.326   03 Jun 2027 03:55:26.286           220.960        110480.000
        50   03 Jun 2027 05:15:23.652   03 Jun 2027 05:16:26.507            62.855         31427.500
        51   03 Jun 2027 05:17:02.852   03 Jun 2027 05:17:03.769             0.917           458.500
        52   03 Jun 2027 06:51:51.808   03 Jun 2027 06:52:23.466            31.658         15096.062
        53   03 Jun 2027 06:52:32.956   03 Jun 2027 06:52:36.651             3.695           296.562
        54   03 Jun 2027 06:53:30.005   03 Jun 2027 06:53:41.822            11.817          1499.187
        55   03 Jun 2027 06:53:53.927   03 Jun 2027 06:53:54.567             0.640           266.437
        56   03 Jun 2027 08:25:59.736   03 Jun 2027 08:26:12.657            12.921          3995.000
        57   03 Jun 2027 08:27:36.434   03 Jun 2027 08:27:45.253             8.819          1886.406
        58   03 Jun 2027 08:27:52.183   03 Jun 2027 08:27:53.054             0.871           214.875
        59   03 Jun 2027 08:28:38.473   03 Jun 2027 08:28:43.471             4.998          1178.719
        60   03 Jun 2027 08:30:13.878   03 Jun 2027 08:30:19.945             6.067          2782.125
        61   03 Jun 2027 08:30:32.788   03 Jun 2027 08:30:34.107             1.319           401.344
        62   03 Jun 2027 08:31:00.179   03 Jun 2027 08:31:04.714             4.535           667.281
        63   03 Jun 2027 08:32:29.378   03 Jun 2027 08:32:34.450             5.072          2358.000
        64   03 Jun 2027 08:33:17.653   03 Jun 2027 08:33:22.800             5.147          1301.375
        65   03 Jun 2027 08:33:37.037   03 Jun 2027 08:33:37.037             0.000             0.000
        66   03 Jun 2027 08:33:46.980   03 Jun 2027 08:33:47.393             0.413           206.500
        67   03 Jun 2027 10:02:58.315   03 Jun 2027 10:03:12.983            14.668          6163.219
        68   03 Jun 2027 10:04:13.769   03 Jun 2027 10:04:19.400             5.631           933.844
        69   03 Jun 2027 10:04:32.475   03 Jun 2027 10:04:33.425             0.950           408.594
        70   03 Jun 2027 10:05:23.219   03 Jun 2027 10:05:24.215             0.996            64.063
        71   03 Jun 2027 10:05:53.907   03 Jun 2027 10:05:55.847             1.940           538.187
        72   03 Jun 2027 10:07:16.519   03 Jun 2027 10:07:22.100             5.581          2521.000
        73   03 Jun 2027 10:07:46.511   03 Jun 2027 10:07:49.921             3.410           611.312
        74   03 Jun 2027 10:08:05.820   03 Jun 2027 10:08:07.713             1.893           178.250
        75   03 Jun 2027 10:08:38.369   03 Jun 2027 10:08:41.393             3.024           958.000
        76   03 Jun 2027 10:08:50.658   03 Jun 2027 10:08:55.180             4.522           289.531
        77   03 Jun 2027 10:09:11.798   03 Jun 2027 10:09:13.144             1.346           519.312
        78   03 Jun 2027 10:09:32.857   03 Jun 2027 10:09:35.268             2.411           370.469
        79   03 Jun 2027 11:40:34.542   03 Jun 2027 11:40:51.989            17.447          8338.125
        80   03 Jun 2027 11:41:44.138   03 Jun 2027 11:41:49.312             5.174          1212.250
        81   03 Jun 2027 11:42:09.287   03 Jun 2027 11:42:13.839             4.552           527.156
        82   03 Jun 2027 11:42:42.850   03 Jun 2027 11:42:44.251             1.401           700.500
        83   03 Jun 2027 11:44:05.696   03 Jun 2027 11:44:10.176             4.480          2240.000
        84   03 Jun 2027 11:45:02.881   03 Jun 2027 11:45:05.152             2.271          1135.500
        85   04 Jun 2027 04:04:13.245   04 Jun 2027 04:04:35.813            22.568         11284.000
        86   04 Jun 2027 04:04:58.524   04 Jun 2027 04:08:08.354           189.830         94915.000
        87   04 Jun 2027 05:27:32.307   04 Jun 2027 05:28:29.039            56.732         28366.000
        88   04 Jun 2027 05:30:26.548   04 Jun 2027 05:30:26.548             0.000             0.000
        89   04 Jun 2027 07:04:02.477   04 Jun 2027 07:04:45.818            43.341         21486.031
        90   04 Jun 2027 07:05:13.154   04 Jun 2027 07:05:14.179             1.025           131.063
        91   04 Jun 2027 07:05:36.361   04 Jun 2027 07:05:36.361             0.000             0.000
        92   04 Jun 2027 07:05:49.842   04 Jun 2027 07:05:52.131             2.289           560.250
        93   04 Jun 2027 07:06:05.366   04 Jun 2027 07:06:05.366             0.000             0.000
        94   04 Jun 2027 07:06:29.968   04 Jun 2027 07:06:33.966             3.998           961.688
        95   04 Jun 2027 07:07:01.350   04 Jun 2027 07:07:04.386             3.036           833.937
        96   04 Jun 2027 07:07:24.467   04 Jun 2027 07:07:27.654             3.187           606.281
        97   04 Jun 2027 08:39:12.730   04 Jun 2027 08:39:23.147            10.417          4994.281
        98   04 Jun 2027 08:40:06.064   04 Jun 2027 08:40:09.637             3.573          1341.156
        99   04 Jun 2027 08:40:33.772   04 Jun 2027 08:40:36.198             2.426           152.125
       100   04 Jun 2027 08:41:31.965   04 Jun 2027 08:41:34.842             2.877          1429.563
       101   04 Jun 2027 08:42:11.338   04 Jun 2027 08:42:16.485             5.147           688.000
       102   04 Jun 2027 08:43:12.189   04 Jun 2027 08:43:14.140             1.951           975.500
       103   04 Jun 2027 08:44:29.632   04 Jun 2027 08:44:39.577             9.945          3032.500
       104   04 Jun 2027 08:45:09.047   04 Jun 2027 08:45:11.106             2.059           920.938
       105   04 Jun 2027 08:45:13.708   04 Jun 2027 08:45:14.058             0.350            81.313
       106   04 Jun 2027 08:45:25.575   04 Jun 2027 08:45:25.575             0.000             0.000
       107   04 Jun 2027 08:45:40.799   04 Jun 2027 08:45:45.811             5.012           637.937
       108   04 Jun 2027 10:15:34.561   04 Jun 2027 10:15:48.223            13.662          6660.313
       109   04 Jun 2027 10:16:14.882   04 Jun 2027 10:16:14.972             0.090            45.000
       110   04 Jun 2027 10:16:24.202   04 Jun 2027 10:16:26.254             2.052           588.500
       111   04 Jun 2027 10:17:19.068   04 Jun 2027 10:17:22.452             3.384          1234.156
       112   04 Jun 2027 10:17:39.978   04 Jun 2027 10:17:42.460             2.482           457.406
       113   04 Jun 2027 10:18:12.340   04 Jun 2027 10:18:14.413             2.073           933.750
       114   04 Jun 2027 10:19:32.336   04 Jun 2027 10:19:39.811             7.475          2435.094
       115   04 Jun 2027 10:20:11.288   04 Jun 2027 10:20:15.777             4.489           941.406
       116   04 Jun 2027 10:21:18.271   04 Jun 2027 10:21:21.758             3.487          1415.625
       117   04 Jun 2027 11:52:52.949   04 Jun 2027 11:53:05.227            12.278          6015.312
       118   04 Jun 2027 11:53:23.566   04 Jun 2027 11:53:29.153             5.587           360.406
       119   04 Jun 2027 11:53:53.999   04 Jun 2027 11:53:55.862             1.863           776.437
       120   04 Jun 2027 11:54:19.704   04 Jun 2027 11:54:21.686             1.982           504.563
       121   04 Jun 2027 11:54:58.520   04 Jun 2027 11:55:05.634             7.114          1151.062
       122   04 Jun 2027 11:55:25.010   04 Jun 2027 11:55:25.856             0.846           391.000
       123   04 Jun 2027 11:56:12.997   04 Jun 2027 11:56:18.147             5.150          1473.156
       124   04 Jun 2027 11:57:00.930   04 Jun 2027 11:57:05.212             4.282          1163.469
       125   05 Jun 2027 04:16:06.829   05 Jun 2027 04:16:43.807            36.978         18489.000
       126   05 Jun 2027 04:17:12.855   05 Jun 2027 04:19:39.757           146.902         73451.000
       127   05 Jun 2027 05:40:12.460   05 Jun 2027 05:41:40.655            88.195         44097.500
       128   05 Jun 2027 07:15:58.086   05 Jun 2027 07:16:47.319            49.233         23758.500
       129   05 Jun 2027 07:17:11.764   05 Jun 2027 07:17:15.931             4.167           738.969
       130   05 Jun 2027 07:18:10.589   05 Jun 2027 07:18:13.733             3.144          1282.594
       131   05 Jun 2027 07:18:45.007   05 Jun 2027 07:18:46.636             1.629           774.656
       132   05 Jun 2027 07:19:09.687   05 Jun 2027 07:19:13.018             3.331           720.344
       133   05 Jun 2027 08:50:55.633   05 Jun 2027 08:51:06.540            10.907          4191.281
       134   05 Jun 2027 08:52:47.184   05 Jun 2027 08:52:55.554             8.370          2668.906
       135   05 Jun 2027 08:53:23.015   05 Jun 2027 08:53:26.094             3.079           858.156
       136   05 Jun 2027 08:54:00.945   05 Jun 2027 08:54:02.271             1.326           485.281
       137   05 Jun 2027 08:54:43.868   05 Jun 2027 08:54:47.579             3.711          1150.562
       138   05 Jun 2027 08:57:18.234   05 Jun 2027 08:57:27.177             8.943          3793.063
       139   05 Jun 2027 10:27:07.794   05 Jun 2027 10:27:23.608            15.814          7267.500
       140   05 Jun 2027 10:27:51.297   05 Jun 2027 10:27:52.724             1.427           227.312
       141   05 Jun 2027 10:28:36.388   05 Jun 2027 10:28:37.548             1.160           479.000
       142   05 Jun 2027 10:31:34.309   05 Jun 2027 10:31:43.104             8.795          4165.906
       143   05 Jun 2027 10:31:57.392   05 Jun 2027 10:31:58.572             1.180           241.750
       144   05 Jun 2027 10:32:28.776   05 Jun 2027 10:32:31.245             2.469           943.875
       145   05 Jun 2027 10:32:44.989   05 Jun 2027 10:32:48.839             3.850           398.063
       146   06 Jun 2027 04:16:59.902   06 Jun 2027 04:17:38.305            38.403         19201.500
       147   06 Jun 2027 04:28:02.718   06 Jun 2027 04:29:46.368           103.650         51825.000
       148   06 Jun 2027 04:29:55.840   06 Jun 2027 04:31:01.753            65.913         32956.500
       149   06 Jun 2027 05:51:02.161   06 Jun 2027 05:52:01.670            59.509         29754.500
       150   06 Jun 2027 05:52:28.054   06 Jun 2027 05:52:29.152             1.098           549.000
       151   06 Jun 2027 05:53:41.280   06 Jun 2027 05:53:53.491            12.211          6105.500
       152   06 Jun 2027 07:26:34.093   06 Jun 2027 07:26:40.173             6.080          3040.000
       153   06 Jun 2027 07:27:43.762   06 Jun 2027 07:28:20.978            37.216         17314.219
       154   06 Jun 2027 07:29:25.014   06 Jun 2027 07:29:33.346             8.332          1943.219
       155   06 Jun 2027 07:30:32.527   06 Jun 2027 07:30:32.527             0.000             0.000
       156   06 Jun 2027 07:30:35.007   06 Jun 2027 07:30:41.380             6.373          1857.531
       157   06 Jun 2027 07:31:20.826   06 Jun 2027 07:31:24.923             4.097          1232.687
       158   06 Jun 2027 09:02:29.346   06 Jun 2027 09:02:37.081             7.735          3828.656
       159   06 Jun 2027 09:03:02.848   06 Jun 2027 09:03:02.848             0.000             0.000
       160   06 Jun 2027 09:04:47.675   06 Jun 2027 09:04:55.787             8.112          3707.469
       161   06 Jun 2027 09:06:46.019   06 Jun 2027 09:06:54.906             8.887          2484.031
       162   06 Jun 2027 09:07:40.990   06 Jun 2027 09:07:43.741             2.751           834.188
       163   06 Jun 2027 09:08:06.857   06 Jun 2027 09:08:10.468             3.611           722.375
       164   06 Jun 2027 09:08:56.179   06 Jun 2027 09:09:00.868             4.689          1428.469
       165   06 Jun 2027 09:09:49.293   06 Jun 2027 09:09:55.689             6.396          1224.219
       166   06 Jun 2027 10:39:29.160   06 Jun 2027 10:39:44.740            15.580          6560.969
       167   06 Jun 2027 10:41:04.732   06 Jun 2027 10:41:13.339             8.607          2313.344
       168   06 Jun 2027 10:41:18.321   06 Jun 2027 10:41:21.180             2.859           155.687
       169   06 Jun 2027 10:41:51.956   06 Jun 2027 10:41:55.734             3.778           920.937
       170   06 Jun 2027 10:42:14.362   06 Jun 2027 10:42:19.583             5.221           455.000
       171   06 Jun 2027 10:42:51.303   06 Jun 2027 10:42:56.420             5.117           991.250
       172   06 Jun 2027 10:43:34.145   06 Jun 2027 10:43:36.675             2.530           892.094
       173   06 Jun 2027 10:43:41.557   06 Jun 2027 10:43:42.175             0.618            56.000
       174   06 Jun 2027 10:44:24.830   06 Jun 2027 10:44:31.489             6.659          1173.406
       175   06 Jun 2027 10:45:10.078   06 Jun 2027 10:45:12.409             2.331           875.875
       176   07 Jun 2027 03:03:23.415   07 Jun 2027 03:04:49.978            86.563         43281.500
       177   07 Jun 2027 03:05:40.690   07 Jun 2027 03:05:46.009             5.319          2659.500
       178   07 Jun 2027 03:05:46.567   07 Jun 2027 03:05:52.314             5.747          2873.500
       179   07 Jun 2027 03:07:18.162   07 Jun 2027 03:07:18.162             0.000             0.000
       180   07 Jun 2027 03:07:34.826   07 Jun 2027 03:08:01.255            26.429         13214.500
       181   07 Jun 2027 03:08:52.031   07 Jun 2027 03:08:59.245             7.214          3607.000
       182   07 Jun 2027 03:09:07.034   07 Jun 2027 03:09:33.703            26.669         13334.500
       183   07 Jun 2027 03:10:13.236   07 Jun 2027 03:10:38.071            24.835         12417.500
       184   07 Jun 2027 04:28:22.349   07 Jun 2027 04:28:50.049            27.700         13850.000
       185   07 Jun 2027 04:29:38.774   07 Jun 2027 04:29:41.043             2.269          1134.500
       186   07 Jun 2027 04:40:04.129   07 Jun 2027 04:41:24.560            80.431         40215.500
       187   07 Jun 2027 06:02:18.382   07 Jun 2027 06:03:12.743            54.361         27180.500
       188   07 Jun 2027 06:04:48.172   07 Jun 2027 06:04:53.987             5.815          2907.500
       189   07 Jun 2027 06:05:08.207   07 Jun 2027 06:05:17.799             9.592          4120.000
       190   07 Jun 2027 07:37:26.081   07 Jun 2027 07:37:39.601            13.520          6032.844
       191   07 Jun 2027 07:38:38.516   07 Jun 2027 07:38:43.151             4.635          1470.906
       192   07 Jun 2027 07:38:50.195   07 Jun 2027 07:38:51.605             1.410           159.344
       193   07 Jun 2027 07:40:20.868   07 Jun 2027 07:40:30.060             9.192          2560.656
       194   07 Jun 2027 07:40:53.662   07 Jun 2027 07:40:55.071             1.409           510.750
       195   07 Jun 2027 07:42:32.512   07 Jun 2027 07:42:33.203             0.691           345.500
       196   07 Jun 2027 07:42:44.672   07 Jun 2027 07:42:51.328             6.656          2525.187
       197   07 Jun 2027 07:43:34.917   07 Jun 2027 07:43:37.033             2.116           982.594
       198   07 Jun 2027 07:45:23.807   07 Jun 2027 07:45:26.278             2.471          1235.500
       199   07 Jun 2027 09:14:37.480   07 Jun 2027 09:14:47.283             9.803          3650.531
       200   07 Jun 2027 09:16:47.610   07 Jun 2027 09:16:55.015             7.405          3624.688
       201   07 Jun 2027 09:18:09.528   07 Jun 2027 09:18:13.950             4.422          1200.656
       202   07 Jun 2027 09:18:47.872   07 Jun 2027 09:18:57.168             9.296           814.344
       203   07 Jun 2027 09:19:28.079   07 Jun 2027 09:19:30.106             2.027           744.500
       204   07 Jun 2027 09:19:45.377   07 Jun 2027 09:19:47.549             2.172           477.219
       205   07 Jun 2027 09:19:58.933   07 Jun 2027 09:20:00.328             1.395           215.719
       206   07 Jun 2027 09:20:22.284   07 Jun 2027 09:20:26.083             3.799           680.531
       207   07 Jun 2027 09:21:06.027   07 Jun 2027 09:21:10.087             4.060          1238.156
       208   07 Jun 2027 09:21:15.470   07 Jun 2027 09:21:17.515             2.045            38.562
       209   07 Jun 2027 09:21:49.273   07 Jun 2027 09:21:51.506             2.233           950.594
       210   07 Jun 2027 10:51:34.815   07 Jun 2027 10:51:49.238            14.423          6281.281
       211   07 Jun 2027 10:52:32.400   07 Jun 2027 10:52:35.780             3.380          1290.406
       212   07 Jun 2027 10:53:16.123   07 Jun 2027 10:53:22.730             6.607           701.000
       213   07 Jun 2027 10:53:51.935   07 Jun 2027 10:53:55.209             3.274           860.719
       214   07 Jun 2027 10:54:54.647   07 Jun 2027 10:54:59.035             4.388          1451.156
       215   07 Jun 2027 10:55:18.495   07 Jun 2027 10:55:20.028             1.533           177.375
       216   07 Jun 2027 10:55:53.124   07 Jun 2027 10:56:01.004             7.880           928.750
       217   07 Jun 2027 10:56:20.145   07 Jun 2027 10:56:21.984             1.839           516.969
       218   07 Jun 2027 10:56:51.245   07 Jun 2027 10:56:53.271             2.026           883.562
       219   07 Jun 2027 10:57:36.659   07 Jun 2027 10:57:40.060             3.401           740.719
       220   08 Jun 2027 03:15:41.756   08 Jun 2027 03:18:10.456           148.700         74350.000
       221   08 Jun 2027 03:19:01.573   08 Jun 2027 03:19:17.271            15.698          7849.000
       222   08 Jun 2027 03:19:36.659   08 Jun 2027 03:20:06.574            29.915         14957.500
       223   08 Jun 2027 03:21:12.543   08 Jun 2027 03:21:30.986            18.443          9221.500
       224   08 Jun 2027 03:22:21.014   08 Jun 2027 03:22:24.719             3.705          1852.500
       225   08 Jun 2027 03:22:26.608   08 Jun 2027 03:22:41.150            14.542          7271.000
       226   08 Jun 2027 04:39:48.822   08 Jun 2027 04:40:34.058            45.236         22618.000
       227   08 Jun 2027 04:52:01.059   08 Jun 2027 04:52:40.466            39.407         19703.500
       228   08 Jun 2027 06:14:03.311   08 Jun 2027 06:14:34.454            31.143         15480.594
       229   08 Jun 2027 06:15:14.139   08 Jun 2027 06:15:14.139             0.000             0.000
       230   08 Jun 2027 06:16:06.568   08 Jun 2027 06:16:10.935             4.367          2072.125
       231   08 Jun 2027 06:17:48.418   08 Jun 2027 06:17:55.318             6.900          2975.000
       232   08 Jun 2027 06:18:10.988   08 Jun 2027 06:18:13.349             2.361           401.250
       233   08 Jun 2027 07:48:55.629   08 Jun 2027 07:49:05.749            10.120          4069.000
       234   08 Jun 2027 07:49:12.687   08 Jun 2027 07:49:13.333             0.646           215.844
       235   08 Jun 2027 07:49:49.990   08 Jun 2027 07:49:50.362             0.372           174.719
       236   08 Jun 2027 07:50:59.557   08 Jun 2027 07:51:03.641             4.084          1044.875
       237   08 Jun 2027 07:52:17.934   08 Jun 2027 07:52:17.934             0.000             0.000
       238   08 Jun 2027 07:52:48.427   08 Jun 2027 07:52:56.113             7.686          3217.281
       239   08 Jun 2027 07:53:23.035   08 Jun 2027 07:53:27.555             4.520           839.875
       240   08 Jun 2027 07:53:57.981   08 Jun 2027 07:53:58.619             0.638           170.750
       241   08 Jun 2027 07:54:31.134   08 Jun 2027 07:54:32.376             1.242           479.625
       242   08 Jun 2027 07:54:47.880   08 Jun 2027 07:54:50.213             2.333           453.000
       243   08 Jun 2027 07:54:57.026   08 Jun 2027 07:55:02.073             5.047           212.906
       244   08 Jun 2027 07:55:20.928   08 Jun 2027 07:55:21.621             0.693           274.594
       245   08 Jun 2027 07:55:32.445   08 Jun 2027 07:55:33.321             0.876           142.063
       246   08 Jun 2027 07:56:42.887   08 Jun 2027 07:56:45.017             2.130          1065.000
       247   08 Jun 2027 07:57:10.825   08 Jun 2027 07:57:13.034             2.209          1080.938
       248   08 Jun 2027 09:26:39.024   08 Jun 2027 09:26:50.988            11.964          5350.812
       249   08 Jun 2027 09:27:32.327   08 Jun 2027 09:27:32.327             0.000             0.000
       250   08 Jun 2027 09:28:46.892   08 Jun 2027 09:28:54.935             8.043          3529.125
       251   08 Jun 2027 09:29:56.877   08 Jun 2027 09:30:03.374             6.497          1935.688
       252   08 Jun 2027 09:30:14.931   08 Jun 2027 09:30:15.664             0.733           313.594
       253   08 Jun 2027 09:30:57.292   08 Jun 2027 09:31:00.310             3.018           588.937
       254   08 Jun 2027 09:32:01.456   08 Jun 2027 09:32:08.028             6.572          1875.938
       255   08 Jun 2027 09:33:19.989   08 Jun 2027 09:33:24.901             4.912          2248.781
       256   08 Jun 2027 09:33:37.388   08 Jun 2027 09:33:39.143             1.755           390.219
       257   08 Jun 2027 09:33:58.441   08 Jun 2027 09:33:59.283             0.842           411.781
       258   08 Jun 2027 11:03:27.212   08 Jun 2027 11:03:46.743            19.531          8777.656
       259   08 Jun 2027 11:04:09.385   08 Jun 2027 11:04:16.156             6.771           706.188
       260   08 Jun 2027 11:04:36.626   08 Jun 2027 11:04:37.065             0.439           148.250
       261   08 Jun 2027 11:05:24.018   08 Jun 2027 11:05:31.842             7.824          1257.969
       262   08 Jun 2027 11:05:53.556   08 Jun 2027 11:05:55.783             2.227           489.406
       263   08 Jun 2027 11:06:27.801   08 Jun 2027 11:06:31.832             4.031          1000.562
       264   08 Jun 2027 11:07:18.179   08 Jun 2027 11:07:19.242             1.063           531.500
       265   08 Jun 2027 11:07:30.937   08 Jun 2027 11:07:35.220             4.283          1121.281
       266   08 Jun 2027 11:07:51.067   08 Jun 2027 11:07:52.713             1.646           495.219
       267   08 Jun 2027 11:08:10.573   08 Jun 2027 11:08:13.752             3.179           429.875
       268   08 Jun 2027 11:08:54.537   08 Jun 2027 11:08:55.510             0.973           486.500
       269   08 Jun 2027 11:09:10.110   08 Jun 2027 11:09:12.423             2.313          1103.719
       270   08 Jun 2027 11:10:04.713   08 Jun 2027 11:10:09.552             4.839          1634.063
       271   09 Jun 2027 03:27:46.445   09 Jun 2027 03:30:42.991           176.546         88273.000
       272   09 Jun 2027 03:31:01.665   09 Jun 2027 03:31:15.007            13.342          6671.000
       273   09 Jun 2027 03:33:01.829   09 Jun 2027 03:33:01.829             0.000             0.000
       274   09 Jun 2027 03:33:32.142   09 Jun 2027 03:33:47.962            15.820          7910.000
       275   09 Jun 2027 04:51:52.789   09 Jun 2027 04:52:36.119            43.330         21665.000
       276   09 Jun 2027 06:25:38.862   09 Jun 2027 06:26:31.395            52.533         25393.375
       277   09 Jun 2027 06:28:19.611   09 Jun 2027 06:28:28.611             9.000          3048.000
       278   09 Jun 2027 06:28:45.410   09 Jun 2027 06:28:46.802             1.392           524.969
       279   09 Jun 2027 06:28:53.057   09 Jun 2027 06:28:53.354             0.297           128.594
       280   09 Jun 2027 06:29:55.072   09 Jun 2027 06:29:57.284             2.212          1052.531
       281   09 Jun 2027 06:30:05.941   09 Jun 2027 06:30:06.852             0.911           195.906
       282   09 Jun 2027 06:30:40.807   09 Jun 2027 06:30:42.768             1.961           960.250
       283   09 Jun 2027 08:01:39.666   09 Jun 2027 08:01:52.009            12.343          4479.625
       284   09 Jun 2027 08:03:02.680   09 Jun 2027 08:03:03.639             0.959           322.969
       285   09 Jun 2027 08:04:03.527   09 Jun 2027 08:04:11.099             7.572          1495.313
       286   09 Jun 2027 08:05:25.739   09 Jun 2027 08:05:31.221             5.482          2332.500
       287   09 Jun 2027 08:07:37.638   09 Jun 2027 08:07:42.573             4.935          2020.313
       288   09 Jun 2027 08:08:12.700   09 Jun 2027 08:08:15.027             2.327           937.031
       289   09 Jun 2027 08:09:22.758   09 Jun 2027 08:09:28.538             5.780          2116.594
       290   09 Jun 2027 08:09:55.243   09 Jun 2027 08:09:58.200             2.957           834.531
       291   09 Jun 2027 09:38:42.525   09 Jun 2027 09:38:56.027            13.502          6637.688
       292   09 Jun 2027 09:40:45.389   09 Jun 2027 09:40:50.104             4.715          2357.500
       293   09 Jun 2027 09:41:01.352   09 Jun 2027 09:41:03.618             2.266           521.000
       294   09 Jun 2027 09:41:56.887   09 Jun 2027 09:42:01.143             4.256          1560.281
       295   09 Jun 2027 09:42:38.188   09 Jun 2027 09:42:39.394             1.206           582.813
       296   09 Jun 2027 09:42:55.019   09 Jun 2027 09:42:56.400             1.381           373.062
       297   09 Jun 2027 09:43:34.222   09 Jun 2027 09:43:38.667             4.445           675.125
       298   09 Jun 2027 09:43:51.985   09 Jun 2027 09:43:54.555             2.570           416.188
       299   09 Jun 2027 09:44:09.562   09 Jun 2027 09:44:14.789             5.227           468.969
       300   09 Jun 2027 09:44:21.337   09 Jun 2027 09:44:22.075             0.738           204.625
       301   09 Jun 2027 09:45:06.192   09 Jun 2027 09:45:09.315             3.123          1277.031
       302   09 Jun 2027 09:45:40.868   09 Jun 2027 09:45:43.363             2.495           986.031
       303   09 Jun 2027 11:15:37.408   09 Jun 2027 11:15:56.875            19.467          6465.500
       304   09 Jun 2027 11:16:10.347   09 Jun 2027 11:16:11.328             0.981           421.000
       305   09 Jun 2027 11:16:40.069   09 Jun 2027 11:16:41.893             1.824           827.281
       306   09 Jun 2027 11:18:10.015   09 Jun 2027 11:18:15.184             5.169          1900.875
       307   09 Jun 2027 11:19:35.677   09 Jun 2027 11:19:45.812            10.135          2339.719
       308   09 Jun 2027 11:20:02.171   09 Jun 2027 11:20:04.139             1.968           399.406
       309   09 Jun 2027 11:20:17.672   09 Jun 2027 11:20:19.213             1.541           247.406
       310   09 Jun 2027 11:20:20.448   09 Jun 2027 11:20:24.831             4.383            38.594
       311   09 Jun 2027 11:21:39.038   09 Jun 2027 11:21:50.416            11.378          2257.812
       312   10 Jun 2027 03:40:22.829   10 Jun 2027 03:43:48.457           205.628        102814.000
       313   10 Jun 2027 05:03:47.662   10 Jun 2027 05:04:49.375            61.713         30856.500
       314   10 Jun 2027 05:05:23.069   10 Jun 2027 05:05:23.069             0.000             0.000
       315   10 Jun 2027 05:05:24.805   10 Jun 2027 05:05:24.805             0.000             0.000
       316   10 Jun 2027 06:40:07.200   10 Jun 2027 06:40:46.562            39.362         19587.719
       317   10 Jun 2027 06:40:58.128   10 Jun 2027 06:41:00.302             2.174           361.437
       318   10 Jun 2027 06:41:34.072   10 Jun 2027 06:41:41.189             7.117           590.063
       319   10 Jun 2027 06:42:09.569   10 Jun 2027 06:42:12.654             3.085           217.281
       320   10 Jun 2027 06:42:27.263   10 Jun 2027 06:42:27.263             0.000             0.000
       321   10 Jun 2027 06:42:33.226   10 Jun 2027 06:42:36.867             3.641           642.875
       322   10 Jun 2027 06:42:46.004   10 Jun 2027 06:42:46.004             0.000             0.000
       323   10 Jun 2027 08:13:37.222   10 Jun 2027 08:13:47.199             9.977          4020.125
       324   10 Jun 2027 08:14:55.184   10 Jun 2027 08:14:55.392             0.208            76.063
       325   10 Jun 2027 08:15:35.945   10 Jun 2027 08:15:38.991             3.046           590.156
       326   10 Jun 2027 08:15:44.942   10 Jun 2027 08:15:45.859             0.917           102.313
       327   10 Jun 2027 08:16:10.569   10 Jun 2027 08:16:12.305             1.736           597.938
       328   10 Jun 2027 08:16:38.726   10 Jun 2027 08:16:40.860             2.134           603.219
       329   10 Jun 2027 08:17:02.036   10 Jun 2027 08:17:11.890             9.854            50.187
       330   10 Jun 2027 08:18:10.082   10 Jun 2027 08:18:15.431             5.349          1818.500
       331   10 Jun 2027 08:18:53.955   10 Jun 2027 08:18:56.339             2.384           688.969
       332   10 Jun 2027 08:19:11.497   10 Jun 2027 08:19:14.467             2.970            66.688
       333   10 Jun 2027 08:20:27.005   10 Jun 2027 08:20:32.020             5.015          2257.781
       334   10 Jun 2027 08:20:45.561   10 Jun 2027 08:20:46.301             0.740           270.062
       335   10 Jun 2027 08:20:53.956   10 Jun 2027 08:20:55.712             1.756           154.281
       336   10 Jun 2027 08:21:05.351   10 Jun 2027 08:21:08.325             2.974           301.219
       337   10 Jun 2027 08:21:29.787   10 Jun 2027 08:21:30.608             0.821           226.000
       338   10 Jun 2027 08:22:03.604   10 Jun 2027 08:22:07.321             3.717           914.156
       339   10 Jun 2027 09:51:08.414   10 Jun 2027 09:51:24.507            16.093          5502.125
       340   10 Jun 2027 09:52:44.191   10 Jun 2027 09:52:49.521             5.330            96.031
       341   10 Jun 2027 09:53:48.770   10 Jun 2027 09:53:51.356             2.586          1239.781
       342   10 Jun 2027 09:54:00.637   10 Jun 2027 09:54:06.530             5.893            93.562
       343   10 Jun 2027 09:55:22.697   10 Jun 2027 09:55:26.931             4.234          2106.313
       344   10 Jun 2027 09:55:34.693   10 Jun 2027 09:55:37.633             2.940           242.562
       345   10 Jun 2027 09:56:01.891   10 Jun 2027 09:56:04.893             3.002           758.062
       346   10 Jun 2027 09:56:26.998   10 Jun 2027 09:56:29.413             2.415           507.469
       347   10 Jun 2027 09:56:59.509   10 Jun 2027 09:57:04.314             4.805           882.375
       348   10 Jun 2027 09:57:19.372   10 Jun 2027 09:57:20.037             0.665           185.250
       349   10 Jun 2027 09:57:23.030   10 Jun 2027 09:57:24.792             1.762            93.531
       350   10 Jun 2027 09:57:49.578   10 Jun 2027 09:57:52.631             3.053           774.563
       351   10 Jun 2027 11:28:04.885   10 Jun 2027 11:28:26.164            21.279          7695.813
       352   10 Jun 2027 11:29:14.321   10 Jun 2027 11:29:18.501             4.180           987.250
       353   10 Jun 2027 11:30:52.093   10 Jun 2027 11:30:59.345             7.252          2742.469
       354   10 Jun 2027 11:31:14.869   10 Jun 2027 11:31:19.564             4.695           485.125
       355   10 Jun 2027 11:32:27.377   10 Jun 2027 11:32:31.101             3.724          1862.000
       356   10 Jun 2027 11:32:36.359   10 Jun 2027 11:32:37.810             1.451           197.875
       357   10 Jun 2027 11:33:19.182   10 Jun 2027 11:33:20.503             1.321           660.500
       358   10 Jun 2027 11:33:30.126   10 Jun 2027 11:33:32.324             2.198           884.281
       359   11 Jun 2027 03:52:01.370   11 Jun 2027 03:55:42.360           220.990        110495.000
       360   11 Jun 2027 03:56:38.582   11 Jun 2027 03:56:38.582             0.000             0.000
       361   11 Jun 2027 05:15:38.406   11 Jun 2027 05:16:42.318            63.912         31956.000
       362   11 Jun 2027 06:52:09.512   11 Jun 2027 06:52:45.270            35.758         17127.719
       363   11 Jun 2027 06:53:07.216   11 Jun 2027 06:53:09.668             2.452           536.594
       364   11 Jun 2027 06:54:14.965   11 Jun 2027 06:54:21.573             6.608          1569.625
       365   11 Jun 2027 06:54:44.568   11 Jun 2027 06:54:48.389             3.821           718.594
       366   11 Jun 2027 06:55:11.870   11 Jun 2027 06:55:11.870             0.000             0.000
       367   11 Jun 2027 08:26:16.955   11 Jun 2027 08:26:27.433            10.478          4063.531
       368   11 Jun 2027 08:27:53.534   11 Jun 2027 08:27:59.427             5.893          1723.156
       369   11 Jun 2027 08:28:09.390   11 Jun 2027 08:28:10.051             0.661           273.469
       370   11 Jun 2027 08:28:34.113   11 Jun 2027 08:28:35.396             1.283           543.281
       371   11 Jun 2027 08:29:38.942   11 Jun 2027 08:29:38.942             0.000             0.000
       372   11 Jun 2027 08:30:30.016   11 Jun 2027 08:30:34.937             4.921          2460.500
       373   11 Jun 2027 08:30:48.718   11 Jun 2027 08:30:54.083             5.365           716.625
       374   11 Jun 2027 08:31:14.968   11 Jun 2027 08:31:15.654             0.686           343.000
       375   11 Jun 2027 08:31:55.845   11 Jun 2027 08:32:00.048             4.203          1481.906
       376   11 Jun 2027 08:32:36.762   11 Jun 2027 08:32:40.248             3.486          1118.906
       377   11 Jun 2027 08:33:26.904   11 Jun 2027 08:33:32.523             5.619          1269.531
       378   11 Jun 2027 10:03:14.971   11 Jun 2027 10:03:29.613            14.642          6089.656
       379   11 Jun 2027 10:04:05.495   11 Jun 2027 10:04:07.632             2.137           548.094
       380   11 Jun 2027 10:04:25.009   11 Jun 2027 10:04:29.229             4.220           125.937
       381   11 Jun 2027 10:04:35.674   11 Jun 2027 10:04:39.195             3.521           201.406
       382   11 Jun 2027 10:05:07.777   11 Jun 2027 10:05:13.569             5.792           302.875
       383   11 Jun 2027 10:05:37.226   11 Jun 2027 10:05:38.858             1.632           163.094
       384   11 Jun 2027 10:06:01.453   11 Jun 2027 10:06:05.345             3.892           596.719
       385   11 Jun 2027 10:06:26.441   11 Jun 2027 10:06:31.486             5.045           616.250
       386   11 Jun 2027 10:07:52.650   11 Jun 2027 10:07:54.054             1.404           335.812
       387   11 Jun 2027 10:08:23.377   11 Jun 2027 10:08:26.969             3.592           916.344
       388   11 Jun 2027 10:09:36.138   11 Jun 2027 10:09:36.138             0.000             0.000
       389   11 Jun 2027 10:09:48.387   11 Jun 2027 10:09:52.565             4.178          1730.938
       390   11 Jun 2027 10:09:57.155   11 Jun 2027 10:09:57.833             0.678            99.906
       391   11 Jun 2027 11:40:55.587   11 Jun 2027 11:41:08.138            12.551          6181.281
       392   11 Jun 2027 11:41:30.609   11 Jun 2027 11:41:31.490             0.881           346.937
       393   11 Jun 2027 11:41:52.074   11 Jun 2027 11:41:54.129             2.055           605.156
       394   11 Jun 2027 11:42:20.570   11 Jun 2027 11:42:23.491             2.921           826.281
       395   11 Jun 2027 11:42:32.704   11 Jun 2027 11:42:35.353             2.649           216.406
       396   11 Jun 2027 11:43:05.745   11 Jun 2027 11:43:10.933             5.188           569.656
       397   11 Jun 2027 11:44:20.423   11 Jun 2027 11:44:26.984             6.561          2171.563
       398   11 Jun 2027 11:45:18.211   11 Jun 2027 11:45:22.514             4.303          1600.844
       399   12 Jun 2027 04:04:28.336   12 Jun 2027 04:04:52.632            24.296         12148.000
       400   12 Jun 2027 04:05:14.617   12 Jun 2027 04:07:03.058           108.441         54220.500
       401   12 Jun 2027 04:07:44.228   12 Jun 2027 04:08:26.359            42.131         21065.500
       402   12 Jun 2027 05:27:48.105   12 Jun 2027 05:29:07.476            79.371         39685.500
       403   12 Jun 2027 05:29:58.633   12 Jun 2027 05:30:13.032            14.399          7199.500
       404   12 Jun 2027 05:30:43.002   12 Jun 2027 05:30:47.987             4.985          2492.500
       405   12 Jun 2027 07:04:18.897   12 Jun 2027 07:05:04.532            45.635         22591.250
       406   12 Jun 2027 07:07:40.260   12 Jun 2027 07:07:48.957             8.697          4336.031
       407   12 Jun 2027 08:39:28.871   12 Jun 2027 08:39:42.311            13.440          6051.750
       408   12 Jun 2027 08:39:59.693   12 Jun 2027 08:40:01.065             1.372           468.344
       409   12 Jun 2027 08:40:51.240   12 Jun 2027 08:40:55.286             4.046           148.187
       410   12 Jun 2027 08:41:49.661   12 Jun 2027 08:41:57.922             8.261          1443.594
       411   12 Jun 2027 08:42:34.397   12 Jun 2027 08:42:42.140             7.743           930.625
       412   12 Jun 2027 08:42:59.833   12 Jun 2027 08:43:01.468             1.635           313.719
       413   12 Jun 2027 08:44:46.494   12 Jun 2027 08:44:54.274             7.780          2337.156
       414   12 Jun 2027 08:45:25.255   12 Jun 2027 08:45:27.307             2.052           913.875
       415   12 Jun 2027 10:15:51.197   12 Jun 2027 10:16:05.837            14.640          6664.688
       416   12 Jun 2027 10:17:09.916   12 Jun 2027 10:17:18.671             8.755          1986.906
       417   12 Jun 2027 10:18:03.684   12 Jun 2027 10:18:07.868             4.184           892.656
       418   12 Jun 2027 10:18:24.286   12 Jun 2027 10:18:28.716             4.430           501.250
       419   12 Jun 2027 10:18:33.663   12 Jun 2027 10:18:36.406             2.743           154.594
       420   12 Jun 2027 10:18:58.712   12 Jun 2027 10:18:59.486             0.774            54.406
       421   12 Jun 2027 10:19:25.095   12 Jun 2027 10:19:32.030             6.935            85.000
       422   12 Jun 2027 10:19:42.571   12 Jun 2027 10:19:42.715             0.144            72.000
       423   12 Jun 2027 10:19:58.650   12 Jun 2027 10:20:00.247             1.597           701.375
       424   12 Jun 2027 10:20:57.831   12 Jun 2027 10:21:02.050             4.219          1799.500
       425   12 Jun 2027 10:21:11.984   12 Jun 2027 10:21:14.022             2.038           105.406
       426   12 Jun 2027 10:21:31.240   12 Jun 2027 10:21:32.488             1.248           263.344
       427   12 Jun 2027 10:21:48.279   12 Jun 2027 10:21:50.817             2.538           337.500
       428   12 Jun 2027 11:53:07.349   12 Jun 2027 11:53:24.562            17.213          7674.844
       429   12 Jun 2027 11:53:30.540   12 Jun 2027 11:53:34.018             3.478           116.875
       430   12 Jun 2027 11:54:38.073   12 Jun 2027 11:54:42.271             4.198          2001.719
       431   12 Jun 2027 11:54:57.284   12 Jun 2027 11:55:05.516             8.232            34.563
       432   12 Jun 2027 11:55:07.568   12 Jun 2027 11:55:12.326             4.758            64.125
       433   12 Jun 2027 11:56:25.488   12 Jun 2027 11:56:29.766             4.278          2139.000
       434   12 Jun 2027 11:57:23.130   12 Jun 2027 11:57:27.029             3.899          1700.719
       435   13 Jun 2027 04:16:22.405   13 Jun 2027 04:16:59.965            37.560         18780.000
       436   13 Jun 2027 04:17:29.974   13 Jun 2027 04:19:56.999           147.025         73512.500
       437   13 Jun 2027 05:40:28.099   13 Jun 2027 05:41:57.510            89.411         44705.500
       438   13 Jun 2027 07:16:13.561   13 Jun 2027 07:17:01.228            47.667         22073.062
       439   13 Jun 2027 07:17:57.409   13 Jun 2027 07:17:59.399             1.990           934.250
       440   13 Jun 2027 07:18:26.759   13 Jun 2027 07:18:29.540             2.781           715.531
       441   13 Jun 2027 07:19:01.645   13 Jun 2027 07:19:02.617             0.972           486.000
       442   13 Jun 2027 07:19:26.115   13 Jun 2027 07:19:31.131             5.016          1070.719
       443   13 Jun 2027 08:51:10.873   13 Jun 2027 08:51:20.118             9.245          4622.500
       444   13 Jun 2027 08:52:12.856   13 Jun 2027 08:52:17.699             4.843          1776.719
       445   13 Jun 2027 08:53:13.366   13 Jun 2027 08:53:15.067             1.701           280.344
       446   13 Jun 2027 08:54:03.316   13 Jun 2027 08:54:06.010             2.694           702.375
       447   13 Jun 2027 08:54:32.786   13 Jun 2027 08:54:42.628             9.842           624.594
       448   13 Jun 2027 08:55:42.719   13 Jun 2027 08:55:47.926             5.207          1848.000
       449   13 Jun 2027 08:56:33.169   13 Jun 2027 08:56:35.279             2.110           861.469
       450   13 Jun 2027 08:57:07.988   13 Jun 2027 08:57:11.138             3.150          1022.156
       451   13 Jun 2027 08:57:21.685   13 Jun 2027 08:57:24.962             3.277           201.156
       452   13 Jun 2027 08:58:00.840   13 Jun 2027 08:58:06.751             5.911          1121.188
       453   13 Jun 2027 10:27:23.481   13 Jun 2027 10:27:37.552            14.071          6615.469
       454   13 Jun 2027 10:28:45.764   13 Jun 2027 10:28:49.083             3.319           909.000
       455   13 Jun 2027 10:28:53.514   13 Jun 2027 10:28:54.630             1.116            49.156
       456   13 Jun 2027 10:29:44.242   13 Jun 2027 10:29:45.889             1.647           322.375
       457   13 Jun 2027 10:29:58.570   13 Jun 2027 10:30:00.085             1.515            52.375
       458   13 Jun 2027 10:30:08.955   13 Jun 2027 10:30:10.362             1.407           106.813
       459   13 Jun 2027 10:30:58.581   13 Jun 2027 10:31:03.528             4.947          1506.844
       460   13 Jun 2027 10:31:13.753   13 Jun 2027 10:31:13.753             0.000             0.000
       461   13 Jun 2027 10:31:31.953   13 Jun 2027 10:31:33.774             1.821           697.500
       462   13 Jun 2027 10:31:43.516   13 Jun 2027 10:31:44.605             1.089           242.938
       463   13 Jun 2027 10:32:06.498   13 Jun 2027 10:32:07.767             1.269           532.219
       464   13 Jun 2027 10:33:03.855   13 Jun 2027 10:33:07.231             3.376          1525.781
       465   13 Jun 2027 10:33:29.163   13 Jun 2027 10:33:31.254             2.091           139.344
