uniorb/output/strategy_2/Camera/Camera_KinoSat_111807.txt

KinoSat_111807
-------------------------
    Access    *     Start Time (UTCG)     *     Stop Time (UTCG)  *   Duration (s) *   Data (Mbytes)
         1   01 Jun 2027 04:23:42.737   01 Jun 2027 04:23:51.245             8.508          4254.000
         2   01 Jun 2027 04:23:58.120   01 Jun 2027 04:24:32.409            34.289         17144.500
         3   01 Jun 2027 04:25:19.003   01 Jun 2027 04:28:14.098           175.095         87547.500
         4   01 Jun 2027 04:28:23.880   01 Jun 2027 04:28:53.686            29.806         14903.000
         5   01 Jun 2027 04:29:42.022   01 Jun 2027 04:29:51.893             9.871          4935.500
         6   01 Jun 2027 06:02:44.657   01 Jun 2027 06:04:12.839            88.182         44091.000
         7   01 Jun 2027 06:04:49.334   01 Jun 2027 06:04:49.334             0.000             0.000
         8   01 Jun 2027 06:04:57.432   01 Jun 2027 06:05:40.351            42.919         21459.500
         9   01 Jun 2027 06:05:44.419   01 Jun 2027 06:06:04.995            20.576         10288.000
        10   01 Jun 2027 07:25:16.135   01 Jun 2027 07:26:36.813            80.678         40339.000
        11   01 Jun 2027 09:01:42.040   01 Jun 2027 09:04:23.310           161.270         80635.000
        12   01 Jun 2027 09:05:03.913   01 Jun 2027 09:05:15.028            11.115          5557.500
        13   01 Jun 2027 10:36:50.354   01 Jun 2027 10:37:30.150            39.796         19898.000
        14   01 Jun 2027 10:42:34.793   01 Jun 2027 10:42:35.311             0.518           259.000
        15   01 Jun 2027 10:42:37.380   01 Jun 2027 10:43:37.683            60.303         30151.500
        16   02 Jun 2027 03:00:00.000   02 Jun 2027 03:00:23.434            23.434         11717.000
        17   02 Jun 2027 03:00:43.884   02 Jun 2027 03:00:59.101            15.217          7608.500
        18   02 Jun 2027 03:01:36.049   02 Jun 2027 03:01:39.095             3.046          1523.000
        19   02 Jun 2027 03:02:01.732   02 Jun 2027 03:02:28.932            27.200         13600.000
        20   02 Jun 2027 03:03:37.542   02 Jun 2027 03:04:03.427            25.885         12942.500
        21   02 Jun 2027 03:04:12.926   02 Jun 2027 03:04:31.450            18.524          9262.000
        22   02 Jun 2027 04:35:40.363   02 Jun 2027 04:36:29.051            48.688         24344.000
        23   02 Jun 2027 04:36:46.906   02 Jun 2027 04:37:29.703            42.797         21398.500
        24   02 Jun 2027 04:37:39.709   02 Jun 2027 04:37:44.443             4.734          2367.000
        25   02 Jun 2027 04:38:32.707   02 Jun 2027 04:39:17.829            45.122         22561.000
        26   02 Jun 2027 04:39:50.613   02 Jun 2027 04:39:51.148             0.535           267.500
        27   02 Jun 2027 04:41:17.702   02 Jun 2027 04:41:41.929            24.227         12113.500
        28   02 Jun 2027 06:14:41.966   02 Jun 2027 06:16:32.467           110.501         55250.500
        29   02 Jun 2027 06:16:46.012   02 Jun 2027 06:16:48.719             2.707          1353.500
        30   02 Jun 2027 06:17:36.592   02 Jun 2027 06:17:40.566             3.974          1987.000
        31   02 Jun 2027 07:37:16.011   02 Jun 2027 07:38:37.671            81.660         40830.000
        32   02 Jun 2027 09:13:52.583   02 Jun 2027 09:15:20.927            88.344         44172.000
        33   02 Jun 2027 10:49:02.627   02 Jun 2027 10:49:18.763            16.136          8068.000
        34   02 Jun 2027 10:50:21.237   02 Jun 2027 10:51:13.014            51.777         25555.781
        35   02 Jun 2027 10:51:32.767   02 Jun 2027 10:51:34.860             2.093           403.344
        36   02 Jun 2027 10:53:48.158   02 Jun 2027 10:53:57.416             9.258          3988.625
        37   02 Jun 2027 10:54:39.081   02 Jun 2027 10:54:42.313             3.232          1200.781
        38   03 Jun 2027 03:09:28.256   03 Jun 2027 03:12:27.134           178.878         89439.000
        39   03 Jun 2027 03:13:47.480   03 Jun 2027 03:13:54.115             6.635          3317.500
        40   03 Jun 2027 03:14:17.771   03 Jun 2027 03:14:17.771             0.000             0.000
        41   03 Jun 2027 03:14:55.944   03 Jun 2027 03:14:55.944             0.000             0.000
        42   03 Jun 2027 03:16:21.179   03 Jun 2027 03:16:24.340             3.161          1580.500
        43   03 Jun 2027 04:48:45.866   03 Jun 2027 04:50:37.567           111.701         55850.500
        44   03 Jun 2027 04:51:59.593   03 Jun 2027 04:52:16.087            16.494          7742.562
        45   03 Jun 2027 04:55:03.056   03 Jun 2027 04:55:09.294             6.238          3119.000
        46   03 Jun 2027 04:55:10.910   03 Jun 2027 04:55:12.939             2.029           662.688
        47   03 Jun 2027 04:56:20.580   03 Jun 2027 04:56:25.024             4.444          1818.656
        48   03 Jun 2027 06:15:08.840   03 Jun 2027 06:15:12.508             3.668          1834.000
        49   03 Jun 2027 06:25:51.826   03 Jun 2027 06:26:01.750             9.924          4962.000
        50   03 Jun 2027 06:26:01.840   03 Jun 2027 06:26:03.441             1.601            81.031
        51   03 Jun 2027 06:26:05.589   03 Jun 2027 06:26:09.197             3.608            67.125
        52   03 Jun 2027 06:26:58.650   03 Jun 2027 06:27:02.308             3.658          1446.687
        53   03 Jun 2027 06:27:33.764   03 Jun 2027 06:27:39.105             5.341           983.000
        54   03 Jun 2027 06:28:40.489   03 Jun 2027 06:28:42.834             2.345           200.594
        55   03 Jun 2027 06:29:15.424   03 Jun 2027 06:29:15.424             0.000             0.000
        56   03 Jun 2027 06:29:18.948   03 Jun 2027 06:29:21.217             2.269           956.000
        57   03 Jun 2027 07:49:52.105   03 Jun 2027 07:50:08.834            16.729          8327.625
        58   03 Jun 2027 07:50:48.633   03 Jun 2027 07:50:56.442             7.809           855.437
        59   03 Jun 2027 07:52:03.030   03 Jun 2027 07:52:07.425             4.395           808.219
        60   03 Jun 2027 09:25:36.925   03 Jun 2027 09:25:52.674            15.749          6049.281
        61   03 Jun 2027 09:28:06.927   03 Jun 2027 09:28:21.246            14.319          4068.125
        62   03 Jun 2027 11:00:30.470   03 Jun 2027 11:00:52.054            21.584         10265.594
        63   03 Jun 2027 11:01:12.358   03 Jun 2027 11:01:14.261             1.903           479.813
        64   03 Jun 2027 11:01:24.337   03 Jun 2027 11:01:25.147             0.810           314.875
        65   03 Jun 2027 11:03:42.345   03 Jun 2027 11:03:42.345             0.000             0.000
        66   03 Jun 2027 11:07:16.458   03 Jun 2027 11:07:38.668            22.210          8332.000
        67   04 Jun 2027 03:22:08.918   04 Jun 2027 03:24:48.223           159.305         79652.500
        68   04 Jun 2027 03:25:49.199   04 Jun 2027 03:26:26.710            37.511         18755.500
        69   04 Jun 2027 03:26:51.153   04 Jun 2027 03:26:55.699             4.546          2273.000
        70   04 Jun 2027 03:27:14.508   04 Jun 2027 03:27:22.464             7.956          3978.000
        71   04 Jun 2027 03:27:56.836   04 Jun 2027 03:28:11.350            14.514          7257.000
        72   04 Jun 2027 05:01:06.524   04 Jun 2027 05:02:32.851            86.327         42740.312
        73   04 Jun 2027 05:03:21.980   04 Jun 2027 05:03:25.105             3.125          1229.344
        74   04 Jun 2027 05:04:09.386   04 Jun 2027 05:04:11.750             2.364           394.156
        75   04 Jun 2027 05:04:58.247   04 Jun 2027 05:05:02.176             3.929           780.438
        76   04 Jun 2027 05:05:58.444   04 Jun 2027 05:06:02.801             4.357          1148.469
        77   04 Jun 2027 05:06:32.901   04 Jun 2027 05:06:34.768             1.867           848.687
        78   04 Jun 2027 05:06:55.922   04 Jun 2027 05:06:57.070             1.148           325.000
        79   04 Jun 2027 05:07:07.597   04 Jun 2027 05:07:08.429             0.832           274.875
        80   04 Jun 2027 05:07:20.493   04 Jun 2027 05:07:23.827             3.334           377.000
        81   04 Jun 2027 06:26:26.346   04 Jun 2027 06:26:34.253             7.907          3851.469
        82   04 Jun 2027 06:27:19.147   04 Jun 2027 06:27:21.783             2.636          1015.250
        83   04 Jun 2027 06:37:50.345   04 Jun 2027 06:37:56.074             5.729          2864.500
        84   04 Jun 2027 06:38:06.377   04 Jun 2027 06:38:07.626             1.249           624.500
        85   04 Jun 2027 06:38:16.702   04 Jun 2027 06:38:17.886             1.184           432.312
        86   04 Jun 2027 08:00:27.880   04 Jun 2027 08:00:39.648            11.768          5339.187
        87   04 Jun 2027 08:00:44.961   04 Jun 2027 08:00:46.598             1.637            44.406
        88   04 Jun 2027 08:02:23.589   04 Jun 2027 08:02:29.267             5.678          2272.500
        89   04 Jun 2027 08:03:48.286   04 Jun 2027 08:03:53.455             5.169          2188.469
        90   04 Jun 2027 08:04:15.592   04 Jun 2027 08:04:16.706             1.114           506.719
        91   04 Jun 2027 09:35:51.205   04 Jun 2027 09:36:04.255            13.050          5132.250
        92   04 Jun 2027 09:36:32.632   04 Jun 2027 09:36:32.632             0.000             0.000
        93   04 Jun 2027 09:40:04.963   04 Jun 2027 09:40:15.618            10.655          5327.500
        94   04 Jun 2027 09:40:31.514   04 Jun 2027 09:40:36.443             4.929          2432.156
        95   04 Jun 2027 09:41:45.671   04 Jun 2027 09:41:45.671             0.000             0.000
        96   04 Jun 2027 11:15:30.315   04 Jun 2027 11:15:42.401            12.086          6043.000
        97   04 Jun 2027 11:19:03.632   04 Jun 2027 11:19:27.402            23.770         10471.656
        98   04 Jun 2027 11:19:32.255   04 Jun 2027 11:19:36.350             4.095           151.656
        99   05 Jun 2027 03:34:16.772   05 Jun 2027 03:35:51.226            94.454         47227.000
       100   05 Jun 2027 03:35:52.012   05 Jun 2027 03:36:30.037            38.025         19012.500
       101   05 Jun 2027 03:36:35.802   05 Jun 2027 03:37:20.005            44.203         22101.500
       102   05 Jun 2027 03:37:46.093   05 Jun 2027 03:38:31.516            45.423         22711.500
       103   05 Jun 2027 03:39:15.898   05 Jun 2027 03:39:15.918             0.020            10.000
       104   05 Jun 2027 05:13:21.323   05 Jun 2027 05:14:48.921            87.598         43703.625
       105   05 Jun 2027 05:15:46.920   05 Jun 2027 05:15:51.167             4.247          1812.469
       106   05 Jun 2027 05:16:39.301   05 Jun 2027 05:16:42.105             2.804           445.594
       107   05 Jun 2027 05:17:46.178   05 Jun 2027 05:17:51.074             4.896          1588.625
       108   05 Jun 2027 05:19:09.437   05 Jun 2027 05:19:16.957             7.520          2448.844
       109   05 Jun 2027 05:20:09.855   05 Jun 2027 05:20:11.517             1.662            88.500
       110   05 Jun 2027 06:37:59.583   05 Jun 2027 06:38:10.044            10.461          5230.500
       111   05 Jun 2027 06:38:36.592   05 Jun 2027 06:38:43.126             6.534          1250.718
       112   05 Jun 2027 06:49:49.720   05 Jun 2027 06:49:56.721             7.001          2989.344
       113   05 Jun 2027 08:12:06.775   05 Jun 2027 08:12:21.296            14.521          7258.562
       114   05 Jun 2027 08:14:37.807   05 Jun 2027 08:14:49.932            12.125          3541.063
       115   05 Jun 2027 08:15:58.471   05 Jun 2027 08:16:03.563             5.092          1971.969
       116   05 Jun 2027 08:16:59.687   05 Jun 2027 08:17:02.687             3.000          1284.094
       117   05 Jun 2027 09:48:05.548   05 Jun 2027 09:48:22.615            17.067          6768.344
       118   05 Jun 2027 09:50:12.778   05 Jun 2027 09:50:20.862             8.084          3442.594
       119   05 Jun 2027 09:53:39.325   05 Jun 2027 09:53:53.212            13.887          5711.313
       120   05 Jun 2027 09:54:07.651   05 Jun 2027 09:54:10.126             2.475            81.313
       121   05 Jun 2027 09:55:07.100   05 Jun 2027 09:55:09.977             2.877          1033.625
       122   05 Jun 2027 11:27:15.920   05 Jun 2027 11:27:21.415             5.495          2747.500
       123   05 Jun 2027 11:28:01.564   05 Jun 2027 11:28:29.209            27.645          9406.531
       124   05 Jun 2027 11:28:38.539   05 Jun 2027 11:28:40.279             1.740           248.750
       125   05 Jun 2027 11:28:49.566   05 Jun 2027 11:28:55.942             6.376           156.594
       126   05 Jun 2027 11:29:00.303   05 Jun 2027 11:29:00.677             0.374           136.281
       127   05 Jun 2027 11:30:40.197   05 Jun 2027 11:30:45.313             5.116          2081.500
       128   05 Jun 2027 11:31:05.181   05 Jun 2027 11:31:11.827             6.646           620.875
       129   05 Jun 2027 11:31:43.845   05 Jun 2027 11:31:53.027             9.182           755.125
       130   06 Jun 2027 03:46:43.882   06 Jun 2027 03:47:01.171            17.289          8644.500
       131   06 Jun 2027 03:47:09.592   06 Jun 2027 03:47:38.975            29.383         14691.500
       132   06 Jun 2027 03:47:43.773   06 Jun 2027 03:48:37.823            54.050         27025.000
       133   06 Jun 2027 03:48:40.032   06 Jun 2027 03:48:42.371             2.339          1169.500
       134   06 Jun 2027 03:50:29.474   06 Jun 2027 03:52:34.751           125.277         62638.500
       135   06 Jun 2027 05:25:26.632   06 Jun 2027 05:26:48.098            81.466         40733.000
       136   06 Jun 2027 05:27:26.042   06 Jun 2027 05:27:34.287             8.245          3756.188
       137   06 Jun 2027 05:28:01.042   06 Jun 2027 05:28:03.897             2.855           808.781
       138   06 Jun 2027 05:28:57.708   06 Jun 2027 05:29:02.631             4.923          1639.687
       139   06 Jun 2027 05:30:01.851   06 Jun 2027 05:30:09.669             7.818          1800.844
       140   06 Jun 2027 05:30:21.429   06 Jun 2027 05:30:26.405             4.976           323.844
       141   06 Jun 2027 05:31:56.525   06 Jun 2027 05:32:04.423             7.898          2599.125
       142   06 Jun 2027 06:49:43.504   06 Jun 2027 06:49:58.324            14.820          7199.406
       143   06 Jun 2027 06:50:50.056   06 Jun 2027 06:50:53.394             3.338          1360.281
       144   06 Jun 2027 06:51:11.739   06 Jun 2027 06:51:12.730             0.991           184.750
       145   06 Jun 2027 07:02:05.872   06 Jun 2027 07:02:13.799             7.927          3861.188
       146   06 Jun 2027 08:23:36.885   06 Jun 2027 08:23:57.312            20.427          9455.719
       147   06 Jun 2027 08:24:22.827   06 Jun 2027 08:24:26.390             3.563           127.250
       148   06 Jun 2027 08:26:02.179   06 Jun 2027 08:26:11.428             9.249          2351.750
       149   06 Jun 2027 08:27:02.656   06 Jun 2027 08:27:05.926             3.270          1100.281
       150   06 Jun 2027 08:28:40.855   06 Jun 2027 08:28:45.586             4.731          2346.344
       151   06 Jun 2027 08:28:57.099   06 Jun 2027 08:28:57.099             0.000             0.000
       152   06 Jun 2027 09:58:31.433   06 Jun 2027 09:58:39.880             8.447          4182.687
       153   06 Jun 2027 10:00:50.723   06 Jun 2027 10:00:53.834             3.111           832.438
       154   06 Jun 2027 10:00:59.429   06 Jun 2027 10:00:59.429             0.000             0.000
       155   06 Jun 2027 10:07:29.737   06 Jun 2027 10:07:56.357            26.620         12371.969
       156   06 Jun 2027 11:36:28.190   06 Jun 2027 11:36:37.600             9.410          4705.000
       157   06 Jun 2027 11:42:18.673   06 Jun 2027 11:42:44.307            25.634         11674.156
       158   06 Jun 2027 11:43:06.665   06 Jun 2027 11:43:08.196             1.531           603.813
       159   06 Jun 2027 11:43:31.477   06 Jun 2027 11:43:32.846             1.369           477.406
       160   07 Jun 2027 03:59:20.189   07 Jun 2027 03:59:31.917            11.728          5864.000
       161   07 Jun 2027 03:59:43.091   07 Jun 2027 04:00:30.060            46.969         23484.500
       162   07 Jun 2027 04:00:40.816   07 Jun 2027 04:00:43.884             3.068          1534.000
       163   07 Jun 2027 04:00:51.040   07 Jun 2027 04:01:21.176            30.136         15068.000
       164   07 Jun 2027 04:01:28.737   07 Jun 2027 04:03:12.977           104.240         52120.000
       165   07 Jun 2027 05:37:50.546   07 Jun 2027 05:38:10.229            19.683          9841.500
       166   07 Jun 2027 05:38:42.660   07 Jun 2027 05:40:16.406            93.746         46873.000
       167   07 Jun 2027 05:40:36.727   07 Jun 2027 05:40:46.848            10.121          3449.094
       168   07 Jun 2027 05:42:10.763   07 Jun 2027 05:42:14.016             3.253          1608.313
       169   07 Jun 2027 05:42:31.816   07 Jun 2027 05:42:36.732             4.916           556.250
       170   07 Jun 2027 07:01:39.774   07 Jun 2027 07:02:01.601            21.827          7247.813
       171   07 Jun 2027 07:02:45.538   07 Jun 2027 07:02:48.316             2.778          1373.031
       172   07 Jun 2027 07:03:50.812   07 Jun 2027 07:03:50.812             0.000             0.000
       173   07 Jun 2027 08:37:39.125   07 Jun 2027 08:37:52.378            13.253          6558.656
       174   07 Jun 2027 08:39:05.888   07 Jun 2027 08:39:05.888             0.000             0.000
       175   07 Jun 2027 08:40:41.493   07 Jun 2027 08:40:52.616            11.123          5281.000
       176   07 Jun 2027 10:11:25.811   07 Jun 2027 10:11:35.265             9.454          4428.094
       177   07 Jun 2027 10:13:09.034   07 Jun 2027 10:13:12.044             3.010          1371.625
       178   07 Jun 2027 10:13:46.475   07 Jun 2027 10:13:53.646             7.171           824.687
       179   07 Jun 2027 10:19:09.243   07 Jun 2027 10:19:29.488            20.245          9862.406
       180   07 Jun 2027 10:19:41.623   07 Jun 2027 10:19:42.760             1.137           329.000
       181   07 Jun 2027 11:48:47.819   07 Jun 2027 11:49:03.178            15.359          7293.219
       182   07 Jun 2027 11:49:18.841   07 Jun 2027 11:49:25.168             6.327           449.438
       183   07 Jun 2027 11:51:00.776   07 Jun 2027 11:51:05.972             5.196          2197.000
       184   07 Jun 2027 11:51:20.361   07 Jun 2027 11:51:22.060             1.699           449.656
       185   07 Jun 2027 11:53:30.286   07 Jun 2027 11:53:40.739            10.453          3863.406
       186   07 Jun 2027 11:54:49.297   07 Jun 2027 11:54:53.103             3.806          1801.969
       187   07 Jun 2027 11:55:17.426   07 Jun 2027 11:55:19.834             2.408           558.500
       188   08 Jun 2027 04:11:52.496   08 Jun 2027 04:12:18.741            26.245         13122.500
       189   08 Jun 2027 04:12:26.344   08 Jun 2027 04:15:01.714           155.370         77685.000
       190   08 Jun 2027 04:15:23.675   08 Jun 2027 04:15:41.049            17.374          8687.000
       191   08 Jun 2027 04:16:35.986   08 Jun 2027 04:16:40.284             4.298          2149.000
       192   08 Jun 2027 04:17:10.440   08 Jun 2027 04:17:24.462            14.022          7011.000
       193   08 Jun 2027 04:17:55.922   08 Jun 2027 04:18:02.436             6.514          3257.000
       194   08 Jun 2027 05:50:16.338   08 Jun 2027 05:52:01.538           105.200         52600.000
       195   08 Jun 2027 05:52:38.983   08 Jun 2027 05:52:45.902             6.919          3189.469
       196   08 Jun 2027 05:54:07.621   08 Jun 2027 05:54:07.799             0.178            89.000
       197   08 Jun 2027 07:13:31.596   08 Jun 2027 07:13:44.114            12.518          6120.406
       198   08 Jun 2027 07:14:52.926   08 Jun 2027 07:14:58.022             5.096          1817.094
       199   08 Jun 2027 07:15:13.312   08 Jun 2027 07:15:14.577             1.265           477.813
       200   08 Jun 2027 07:16:06.089   08 Jun 2027 07:16:06.915             0.826           413.000
       201   08 Jun 2027 08:49:53.824   08 Jun 2027 08:50:14.901            21.077          8118.187
       202   08 Jun 2027 08:51:03.168   08 Jun 2027 08:51:06.161             2.993          1206.937
       203   08 Jun 2027 08:51:50.369   08 Jun 2027 08:51:52.494             2.125           773.156
       204   08 Jun 2027 08:52:56.110   08 Jun 2027 08:52:59.201             3.091          1164.156
       205   08 Jun 2027 10:22:10.672   08 Jun 2027 10:22:21.734            11.062          4765.969
       206   08 Jun 2027 10:23:57.885   08 Jun 2027 10:24:02.798             4.913           703.000
       207   08 Jun 2027 10:25:55.122   08 Jun 2027 10:25:55.122             0.000             0.000
       208   08 Jun 2027 10:28:15.065   08 Jun 2027 10:28:31.049            15.984          7167.187
       209   08 Jun 2027 10:29:32.143   08 Jun 2027 10:29:37.417             5.274           713.125
       210   08 Jun 2027 10:30:16.585   08 Jun 2027 10:30:25.329             8.744           582.125
       211   08 Jun 2027 10:31:38.080   08 Jun 2027 10:31:42.313             4.233          2069.000
       212   08 Jun 2027 10:31:54.134   08 Jun 2027 10:31:54.207             0.073            36.500
       213   09 Jun 2027 04:23:58.614   09 Jun 2027 04:24:47.344            48.730         24365.000
       214   09 Jun 2027 04:25:33.463   09 Jun 2027 04:28:14.265           160.802         80401.000
       215   09 Jun 2027 04:28:43.159   09 Jun 2027 04:29:13.775            30.616         15308.000
       216   09 Jun 2027 04:29:25.832   09 Jun 2027 04:29:28.432             2.600          1300.000
       217   09 Jun 2027 04:29:41.757   09 Jun 2027 04:30:02.914            21.157         10578.500
       218   09 Jun 2027 06:03:03.418   09 Jun 2027 06:04:13.289            69.871         34684.781
       219   09 Jun 2027 06:05:32.432   09 Jun 2027 06:05:38.762             6.330          1986.875
       220   09 Jun 2027 06:06:33.128   09 Jun 2027 06:06:35.852             2.724          1217.344
       221   09 Jun 2027 07:25:35.288   09 Jun 2027 07:25:45.323            10.035          5017.500
       222   09 Jun 2027 07:26:54.043   09 Jun 2027 07:27:03.891             9.848          3095.500
       223   09 Jun 2027 07:27:20.493   09 Jun 2027 07:27:21.707             1.214           378.594
       224   09 Jun 2027 07:28:19.214   09 Jun 2027 07:28:21.347             2.133          1025.781
       225   09 Jun 2027 09:02:27.585   09 Jun 2027 09:02:39.057            11.472          5736.000
       226   09 Jun 2027 09:03:03.162   09 Jun 2027 09:03:06.252             3.090          1296.532
       227   09 Jun 2027 09:03:34.596   09 Jun 2027 09:03:38.418             3.822           701.844
       228   09 Jun 2027 09:03:45.155   09 Jun 2027 09:03:46.709             1.554           110.281
       229   09 Jun 2027 09:04:28.759   09 Jun 2027 09:04:37.278             8.519          1104.250
       230   09 Jun 2027 10:37:09.528   09 Jun 2027 10:37:27.366            17.838          6051.844
       231   09 Jun 2027 10:40:13.048   09 Jun 2027 10:40:13.048             0.000             0.000
       232   09 Jun 2027 10:43:12.200   09 Jun 2027 10:43:32.684            20.484         10176.844
       233   09 Jun 2027 10:43:49.561   09 Jun 2027 10:43:50.476             0.915           411.375
       234   10 Jun 2027 03:01:24.847   10 Jun 2027 03:02:05.481            40.634         20317.000
       235   10 Jun 2027 03:02:18.689   10 Jun 2027 03:02:23.164             4.475          2237.500
       236   10 Jun 2027 03:03:17.432   10 Jun 2027 03:03:56.679            39.247         19623.500
       237   10 Jun 2027 03:04:00.668   10 Jun 2027 03:04:17.744            17.076          8538.000
       238   10 Jun 2027 03:04:31.788   10 Jun 2027 03:04:38.192             6.404          3202.000
       239   10 Jun 2027 04:35:58.661   10 Jun 2027 04:36:42.743            44.082         22041.000
       240   10 Jun 2027 04:37:04.330   10 Jun 2027 04:38:58.134           113.804         56902.000
       241   10 Jun 2027 04:39:15.997   10 Jun 2027 04:39:34.857            18.860          9430.000
       242   10 Jun 2027 06:14:11.375   10 Jun 2027 06:14:49.410            38.035         19017.500
       243   10 Jun 2027 06:15:01.831   10 Jun 2027 06:15:15.326            13.495          6538.281
       244   10 Jun 2027 06:15:32.983   10 Jun 2027 06:15:34.121             1.138           121.937
       245   10 Jun 2027 06:17:04.987   10 Jun 2027 06:17:05.341             0.354           177.000
       246   10 Jun 2027 07:37:32.157   10 Jun 2027 07:37:45.730            13.573          6748.844
       247   10 Jun 2027 07:38:22.923   10 Jun 2027 07:38:22.923             0.000             0.000
       248   10 Jun 2027 07:39:02.808   10 Jun 2027 07:39:08.140             5.332          1851.187
       249   10 Jun 2027 07:40:15.765   10 Jun 2027 07:40:18.565             2.800           801.281
       250   10 Jun 2027 07:40:44.450   10 Jun 2027 07:40:46.747             2.297           786.625
       251   10 Jun 2027 09:14:09.927   10 Jun 2027 09:14:20.572            10.645          3434.344
       252   10 Jun 2027 10:49:19.951   10 Jun 2027 10:49:34.880            14.929          7464.500
       253   10 Jun 2027 10:50:41.286   10 Jun 2027 10:50:48.249             6.963          3290.781
       254   10 Jun 2027 10:51:24.390   10 Jun 2027 10:51:28.769             4.379           652.375
       255   10 Jun 2027 10:51:34.941   10 Jun 2027 10:51:38.721             3.780             7.656
       256   10 Jun 2027 10:51:56.758   10 Jun 2027 10:51:58.167             1.409           176.719
       257   10 Jun 2027 10:52:25.599   10 Jun 2027 10:52:25.599             0.000             0.000
       258   10 Jun 2027 10:52:35.487   10 Jun 2027 10:52:37.904             2.417           797.719
       259   10 Jun 2027 10:53:02.447   10 Jun 2027 10:53:06.094             3.647           152.844
       260   10 Jun 2027 10:53:11.825   10 Jun 2027 10:53:14.510             2.685           179.094
       261   10 Jun 2027 10:53:19.066   10 Jun 2027 10:53:22.651             3.585            31.187
       262   10 Jun 2027 10:53:49.848   10 Jun 2027 10:53:54.048             4.200           704.813
       263   10 Jun 2027 10:54:45.658   10 Jun 2027 10:54:50.183             4.525           954.812
       264   10 Jun 2027 10:55:19.418   10 Jun 2027 10:55:21.580             2.162           767.688
       265   10 Jun 2027 10:55:21.824   10 Jun 2027 10:55:26.353             4.529             7.625
       266   10 Jun 2027 10:55:54.564   10 Jun 2027 10:55:55.218             0.654           327.000
       267   11 Jun 2027 03:09:46.076   11 Jun 2027 03:10:00.506            14.430          7215.000
       268   11 Jun 2027 03:10:07.618   11 Jun 2027 03:10:08.237             0.619           309.500
       269   11 Jun 2027 03:10:10.938   11 Jun 2027 03:12:34.753           143.815         71907.500
       270   11 Jun 2027 03:13:26.561   11 Jun 2027 03:13:29.206             2.645          1322.500
       271   11 Jun 2027 03:13:33.864   11 Jun 2027 03:13:40.408             6.544          3272.000
       272   11 Jun 2027 03:14:33.842   11 Jun 2027 03:14:33.842             0.000             0.000
       273   11 Jun 2027 03:15:10.558   11 Jun 2027 03:15:10.558             0.000             0.000
       274   11 Jun 2027 03:15:16.743   11 Jun 2027 03:15:40.552            23.809         11904.500
       275   11 Jun 2027 03:16:44.180   11 Jun 2027 03:16:45.518             1.338           669.000
       276   11 Jun 2027 04:49:03.722   11 Jun 2027 04:50:32.349            88.627         44313.500
       277   11 Jun 2027 04:50:43.811   11 Jun 2027 04:51:07.223            23.412         11706.000
       278   11 Jun 2027 04:51:16.531   11 Jun 2027 04:51:16.531             0.000             0.000
       279   11 Jun 2027 04:51:36.932   11 Jun 2027 04:51:45.937             9.005          4175.656
       280   11 Jun 2027 04:52:52.507   11 Jun 2027 04:52:59.361             6.854          1774.656
       281   11 Jun 2027 04:53:58.810   11 Jun 2027 04:54:03.050             4.240          1686.031
       282   11 Jun 2027 04:55:57.879   11 Jun 2027 04:56:04.549             6.670          2749.781
       283   11 Jun 2027 06:15:23.145   11 Jun 2027 06:15:30.230             7.085          3542.500
       284   11 Jun 2027 06:26:09.234   11 Jun 2027 06:26:16.912             7.678          3839.000
       285   11 Jun 2027 06:27:07.736   11 Jun 2027 06:27:10.116             2.380          1190.000
       286   11 Jun 2027 06:28:16.216   11 Jun 2027 06:28:23.514             7.298          3336.594
       287   11 Jun 2027 06:29:04.283   11 Jun 2027 06:29:08.883             4.600           171.500
       288   11 Jun 2027 06:29:36.550   11 Jun 2027 06:29:36.550             0.000             0.000
       289   11 Jun 2027 07:50:08.517   11 Jun 2027 07:50:29.692            21.175          8492.906
       290   11 Jun 2027 07:51:05.572   11 Jun 2027 07:51:10.957             5.385           896.562
       291   11 Jun 2027 09:25:53.696   11 Jun 2027 09:26:08.557            14.861          6049.406
       292   11 Jun 2027 09:26:33.399   11 Jun 2027 09:26:38.277             4.878           755.156
       293   11 Jun 2027 09:27:48.172   11 Jun 2027 09:27:53.744             5.572          2184.219
       294   11 Jun 2027 09:28:38.714   11 Jun 2027 09:28:38.714             0.000             0.000
       295   11 Jun 2027 11:03:10.259   11 Jun 2027 11:03:35.735            25.476         12738.000
       296   11 Jun 2027 11:07:32.953   11 Jun 2027 11:07:54.445            21.492          8339.844
       297   12 Jun 2027 03:22:26.632   12 Jun 2027 03:23:48.018            81.386         40693.000
       298   12 Jun 2027 03:24:27.832   12 Jun 2027 03:26:42.713           134.881         67440.500
       299   12 Jun 2027 03:28:46.046   12 Jun 2027 03:28:53.010             6.964          3482.000
       300   12 Jun 2027 05:01:24.529   12 Jun 2027 05:01:43.715            19.186          9593.000
       301   12 Jun 2027 05:02:16.295   12 Jun 2027 05:03:29.840            73.545         36449.438
       302   12 Jun 2027 05:03:43.571   12 Jun 2027 05:03:45.245             1.674           142.750
       303   12 Jun 2027 05:04:42.715   12 Jun 2027 05:04:46.540             3.825          1771.125
       304   12 Jun 2027 05:05:15.649   12 Jun 2027 05:05:18.209             2.560           809.719
       305   12 Jun 2027 05:06:13.669   12 Jun 2027 05:06:20.492             6.823          1733.125
       306   12 Jun 2027 05:07:01.162   12 Jun 2027 05:07:05.146             3.984          1270.937
       307   12 Jun 2027 05:07:24.290   12 Jun 2027 05:07:25.794             1.504           339.281
       308   12 Jun 2027 05:07:30.430   12 Jun 2027 05:07:33.532             3.102            63.625
       309   12 Jun 2027 06:26:39.745   12 Jun 2027 06:26:52.298            12.553          5128.969
       310   12 Jun 2027 06:38:08.309   12 Jun 2027 06:38:14.977             6.668          3269.937
       311   12 Jun 2027 06:39:11.004   12 Jun 2027 06:39:14.086             3.082          1522.625
       312   12 Jun 2027 08:00:47.128   12 Jun 2027 08:00:59.528            12.400          6163.562
       313   12 Jun 2027 08:02:40.922   12 Jun 2027 08:02:47.525             6.603          3037.563
       314   12 Jun 2027 08:04:04.098   12 Jun 2027 08:04:08.737             4.639          2147.313
       315   12 Jun 2027 08:04:33.563   12 Jun 2027 08:04:35.977             2.414           561.062
       316   12 Jun 2027 09:36:28.314   12 Jun 2027 09:36:38.874            10.560          5280.000
       317   12 Jun 2027 09:36:52.291   12 Jun 2027 09:37:02.030             9.739           917.219
       318   12 Jun 2027 09:40:33.384   12 Jun 2027 09:40:35.967             2.583          1291.500
       319   12 Jun 2027 09:42:05.759   12 Jun 2027 09:42:05.759             0.000             0.000
       320   12 Jun 2027 11:12:37.928   12 Jun 2027 11:12:55.160            17.232          8616.000
       321   12 Jun 2027 11:15:44.919   12 Jun 2027 11:15:44.919             0.000             0.000
       322   12 Jun 2027 11:19:19.776   12 Jun 2027 11:19:51.342            31.566         14794.062
       323   13 Jun 2027 03:34:35.153   13 Jun 2027 03:36:07.502            92.349         46174.500
       324   13 Jun 2027 03:36:09.786   13 Jun 2027 03:37:04.722            54.936         27468.000
       325   13 Jun 2027 03:37:36.392   13 Jun 2027 03:38:49.846            73.454         36727.000
       326   13 Jun 2027 03:39:25.554   13 Jun 2027 03:39:30.258             4.704          2352.000
       327   13 Jun 2027 03:39:52.726   13 Jun 2027 03:40:12.049            19.323          9661.500
       328   13 Jun 2027 05:13:40.396   13 Jun 2027 05:14:00.264            19.868          9934.000
       329   13 Jun 2027 05:14:21.733   13 Jun 2027 05:15:15.045            53.312         26028.219
       330   13 Jun 2027 05:16:39.536   13 Jun 2027 05:16:39.536             0.000             0.000
       331   13 Jun 2027 05:16:55.582   13 Jun 2027 05:17:00.856             5.274          2546.469
       332   13 Jun 2027 05:18:01.277   13 Jun 2027 05:18:05.036             3.759          1513.563
       333   13 Jun 2027 05:18:18.479   13 Jun 2027 05:18:22.168             3.689           381.719
       334   13 Jun 2027 05:19:08.878   13 Jun 2027 05:19:11.489             2.611           866.625
       335   13 Jun 2027 05:19:47.381   13 Jun 2027 05:19:51.769             4.388           725.781
       336   13 Jun 2027 05:20:28.373   13 Jun 2027 05:20:30.250             1.877           214.313
       337   13 Jun 2027 06:37:54.961   13 Jun 2027 06:38:11.867            16.906          5570.625
       338   13 Jun 2027 06:38:38.611   13 Jun 2027 06:38:44.759             6.148           530.906
       339   13 Jun 2027 06:39:44.959   13 Jun 2027 06:39:49.156             4.197          1703.437
       340   13 Jun 2027 06:50:07.464   13 Jun 2027 06:50:14.527             7.063          3464.094
       341   13 Jun 2027 08:12:23.155   13 Jun 2027 08:12:39.826            16.671          7882.688
       342   13 Jun 2027 08:14:18.884   13 Jun 2027 08:14:24.252             5.368          1995.437
       343   13 Jun 2027 08:14:42.974   13 Jun 2027 08:14:44.453             1.479           390.406
       344   13 Jun 2027 08:15:54.632   13 Jun 2027 08:15:58.533             3.901          1866.906
       345   13 Jun 2027 08:16:36.552   13 Jun 2027 08:16:36.552             0.000             0.000
       346   13 Jun 2027 08:17:15.636   13 Jun 2027 08:17:19.954             4.318          1905.437
       347   13 Jun 2027 09:47:51.633   13 Jun 2027 09:48:03.486            11.853          5639.656
       348   13 Jun 2027 09:48:33.722   13 Jun 2027 09:48:33.722             0.000             0.000
       349   13 Jun 2027 09:48:40.674   13 Jun 2027 09:48:46.128             5.454           500.219
       350   13 Jun 2027 09:51:48.185   13 Jun 2027 09:51:48.185             0.000             0.000
       351   13 Jun 2027 09:53:01.502   13 Jun 2027 09:53:18.883            17.381          7980.438
       352   13 Jun 2027 11:26:23.738   13 Jun 2027 11:26:41.735            17.997          8923.937
       353   13 Jun 2027 11:28:12.327   13 Jun 2027 11:28:17.709             5.382          2387.094
       354   13 Jun 2027 11:31:01.219   13 Jun 2027 11:31:12.660            11.441          4945.625
       355   13 Jun 2027 11:31:36.858   13 Jun 2027 11:31:41.042             4.184           756.188
       356   13 Jun 2027 11:31:44.024   13 Jun 2027 11:31:44.384             0.360            35.781
