uniorb/output/strategy_2/Camera/Camera_KinoSat_111906.txt

KinoSat_111906
-------------------------
    Access    *     Start Time (UTCG)     *     Stop Time (UTCG)  *   Duration (s) *   Data (Mbytes)
         1   01 Jun 2027 04:28:53.006   01 Jun 2027 04:28:55.270             2.264          1132.000
         2   01 Jun 2027 04:29:14.628   01 Jun 2027 04:30:14.047            59.419         29709.500
         3   01 Jun 2027 04:30:19.239   01 Jun 2027 04:32:18.998           119.759         59879.500
         4   01 Jun 2027 04:32:21.543   01 Jun 2027 04:32:45.499            23.956         11978.000
         5   01 Jun 2027 04:33:54.845   01 Jun 2027 04:34:08.098            13.253          6626.500
         6   01 Jun 2027 06:07:40.115   01 Jun 2027 06:10:58.123           198.008         99004.000
         7   01 Jun 2027 06:11:39.638   01 Jun 2027 06:12:05.664            26.026         13013.000
         8   01 Jun 2027 07:31:09.025   01 Jun 2027 07:32:24.966            75.941         37970.500
         9   01 Jun 2027 09:07:09.826   01 Jun 2027 09:07:35.025            25.199         12599.500
        10   01 Jun 2027 09:08:07.106   01 Jun 2027 09:08:32.210            25.104         12552.000
        11   01 Jun 2027 09:09:07.707   01 Jun 2027 09:10:07.132            59.425         29712.500
        12   01 Jun 2027 10:40:53.667   01 Jun 2027 10:42:34.793           101.126         50563.000
        13   01 Jun 2027 10:45:41.650   01 Jun 2027 10:45:43.287             1.637           818.500
        14   01 Jun 2027 10:48:32.920   01 Jun 2027 10:49:28.398            55.478         27739.000
        15   02 Jun 2027 03:03:12.638   02 Jun 2027 03:03:33.309            20.671         10335.500
        16   02 Jun 2027 03:03:51.792   02 Jun 2027 03:04:05.196            13.404          6702.000
        17   02 Jun 2027 03:04:52.448   02 Jun 2027 03:04:52.448             0.000             0.000
        18   02 Jun 2027 03:05:00.578   02 Jun 2027 03:06:23.726            83.148         41574.000
        19   02 Jun 2027 03:06:40.545   02 Jun 2027 03:06:51.704            11.159          5579.500
        20   02 Jun 2027 03:07:18.081   02 Jun 2027 03:07:29.567            11.486          5743.000
        21   02 Jun 2027 03:08:47.694   02 Jun 2027 03:08:56.906             9.212          4606.000
        22   02 Jun 2027 04:41:17.178   02 Jun 2027 04:41:45.274            28.096         14048.000
        23   02 Jun 2027 04:41:49.229   02 Jun 2027 04:42:36.120            46.891         23445.500
        24   02 Jun 2027 04:42:53.722   02 Jun 2027 04:43:53.930            60.208         30104.000
        25   02 Jun 2027 04:44:08.866   02 Jun 2027 04:44:16.439             7.573          3786.500
        26   02 Jun 2027 04:45:47.150   02 Jun 2027 04:45:55.091             7.941          3970.500
        27   02 Jun 2027 06:19:19.763   02 Jun 2027 06:21:28.916           129.153         64576.500
        28   02 Jun 2027 06:21:39.097   02 Jun 2027 06:21:57.069            17.972          8986.000
        29   02 Jun 2027 06:22:08.695   02 Jun 2027 06:22:08.695             0.000             0.000
        30   02 Jun 2027 06:23:00.353   02 Jun 2027 06:23:13.362            13.009          6504.500
        31   02 Jun 2027 06:23:38.432   02 Jun 2027 06:24:11.331            32.899         16449.500
        32   02 Jun 2027 07:42:59.428   02 Jun 2027 07:44:04.222            64.794         32397.000
        33   02 Jun 2027 07:44:20.905   02 Jun 2027 07:44:20.905             0.000             0.000
        34   02 Jun 2027 09:19:26.378   02 Jun 2027 09:20:59.638            93.260         46630.000
        35   02 Jun 2027 10:51:35.386   02 Jun 2027 10:51:45.277             9.891          4945.500
        36   02 Jun 2027 10:55:23.427   02 Jun 2027 10:56:07.286            43.859         21907.344
        37   02 Jun 2027 10:56:50.956   02 Jun 2027 10:56:55.833             4.877           344.750
        38   02 Jun 2027 10:58:41.032   02 Jun 2027 10:58:41.032             0.000             0.000
        39   02 Jun 2027 11:01:04.313   02 Jun 2027 11:01:11.262             6.949          3474.500
        40   02 Jun 2027 11:01:23.581   02 Jun 2027 11:01:26.268             2.687          1343.500
        41   03 Jun 2027 03:15:15.520   03 Jun 2027 03:16:22.238            66.718         33359.000
        42   03 Jun 2027 03:16:28.647   03 Jun 2027 03:18:41.890           133.243         66621.500
        43   03 Jun 2027 03:19:07.351   03 Jun 2027 03:19:38.535            31.184         15592.000
        44   03 Jun 2027 03:19:42.522   03 Jun 2027 03:19:45.333             2.811          1405.500
        45   03 Jun 2027 03:20:15.088   03 Jun 2027 03:20:20.969             5.881          2940.500
        46   03 Jun 2027 03:22:05.185   03 Jun 2027 03:22:15.384            10.199          5099.500
        47   03 Jun 2027 04:53:24.994   03 Jun 2027 04:54:25.543            60.549         30274.500
        48   03 Jun 2027 04:54:34.096   03 Jun 2027 04:54:51.908            17.812          8906.000
        49   03 Jun 2027 04:55:05.395   03 Jun 2027 04:55:17.273            11.878          5939.000
        50   03 Jun 2027 04:55:34.264   03 Jun 2027 04:55:36.303             2.039           957.937
        51   03 Jun 2027 04:56:01.362   03 Jun 2027 04:56:05.327             3.965           697.656
        52   03 Jun 2027 04:58:22.803   03 Jun 2027 04:58:26.113             3.310          1421.844
        53   03 Jun 2027 04:59:04.969   03 Jun 2027 04:59:09.431             4.462           850.563
        54   03 Jun 2027 06:32:33.083   03 Jun 2027 06:32:46.664            13.581          5359.781
        55   03 Jun 2027 06:34:03.643   03 Jun 2027 06:34:08.319             4.676          2337.844
        56   03 Jun 2027 06:34:33.402   03 Jun 2027 06:34:36.824             3.422           783.844
        57   03 Jun 2027 06:35:32.086   03 Jun 2027 06:35:38.066             5.980          1668.500
        58   03 Jun 2027 07:55:07.449   03 Jun 2027 07:55:23.352            15.903          7056.500
        59   03 Jun 2027 07:56:07.115   03 Jun 2027 07:56:09.745             2.630           856.062
        60   03 Jun 2027 07:57:36.590   03 Jun 2027 07:57:46.421             9.831          2162.625
        61   03 Jun 2027 07:57:52.410   03 Jun 2027 07:57:55.342             2.932            82.719
        62   03 Jun 2027 09:31:35.554   03 Jun 2027 09:31:51.591            16.037          5624.656
        63   03 Jun 2027 09:32:29.080   03 Jun 2027 09:32:29.080             0.000             0.000
        64   03 Jun 2027 09:33:39.565   03 Jun 2027 09:33:51.717            12.152          3137.875
        65   03 Jun 2027 09:33:54.563   03 Jun 2027 09:33:59.369             4.806            80.469
        66   03 Jun 2027 11:06:46.542   03 Jun 2027 11:07:00.801            14.259          6991.000
        67   03 Jun 2027 11:07:10.099   03 Jun 2027 11:07:13.281             3.182           277.313
        68   03 Jun 2027 11:09:38.345   03 Jun 2027 11:09:48.224             9.879          4433.969
        69   03 Jun 2027 11:10:28.788   03 Jun 2027 11:10:32.031             3.243           964.687
        70   03 Jun 2027 11:10:47.713   03 Jun 2027 11:10:52.445             4.732           457.969
        71   03 Jun 2027 11:11:28.891   03 Jun 2027 11:11:38.514             9.623           568.969
        72   03 Jun 2027 11:12:08.157   03 Jun 2027 11:12:17.060             8.903           924.031
        73   03 Jun 2027 11:12:36.530   03 Jun 2027 11:12:37.287             0.757           367.375
        74   03 Jun 2027 11:12:52.898   03 Jun 2027 11:12:55.338             2.440           487.844
        75   03 Jun 2027 11:13:24.197   03 Jun 2027 11:13:27.538             3.341           847.812
        76   04 Jun 2027 03:27:13.130   04 Jun 2027 03:30:28.308           195.178         97589.000
        77   04 Jun 2027 03:30:31.322   04 Jun 2027 03:30:31.322             0.000             0.000
        78   04 Jun 2027 03:31:00.821   04 Jun 2027 03:31:03.183             2.362          1181.000
        79   04 Jun 2027 03:31:08.872   04 Jun 2027 03:31:42.488            33.616         16808.000
        80   04 Jun 2027 03:33:08.268   04 Jun 2027 03:33:15.256             6.988          3494.000
        81   04 Jun 2027 03:33:44.560   04 Jun 2027 03:33:56.476            11.916          5958.000
        82   04 Jun 2027 05:05:30.014   04 Jun 2027 05:05:49.012            18.998          9499.000
        83   04 Jun 2027 05:06:32.870   04 Jun 2027 05:07:24.757            51.887         25536.343
        84   04 Jun 2027 05:08:48.442   04 Jun 2027 05:08:54.701             6.259          2507.625
        85   04 Jun 2027 05:09:00.195   04 Jun 2027 05:09:00.237             0.042            21.000
        86   04 Jun 2027 05:10:47.625   04 Jun 2027 05:10:55.106             7.481          3506.562
        87   04 Jun 2027 05:11:04.164   04 Jun 2027 05:11:04.725             0.561           249.187
        88   04 Jun 2027 05:13:49.994   04 Jun 2027 05:13:55.632             5.638          2545.031
        89   04 Jun 2027 06:43:41.929   04 Jun 2027 06:43:53.946            12.017          5543.688
        90   04 Jun 2027 06:44:10.552   04 Jun 2027 06:44:12.648             2.096           518.938
        91   04 Jun 2027 06:44:47.282   04 Jun 2027 06:44:48.287             1.005           384.656
        92   04 Jun 2027 06:44:56.872   04 Jun 2027 06:45:02.736             5.864           268.281
        93   04 Jun 2027 06:45:57.428   04 Jun 2027 06:46:01.561             4.133          1516.500
        94   04 Jun 2027 06:46:29.620   04 Jun 2027 06:46:29.620             0.000             0.000
        95   04 Jun 2027 08:07:09.139   04 Jun 2027 08:07:24.055            14.916          7214.719
        96   04 Jun 2027 08:08:09.835   04 Jun 2027 08:08:13.063             3.228          1005.313
        97   04 Jun 2027 08:08:40.789   04 Jun 2027 08:08:40.789             0.000             0.000
        98   04 Jun 2027 08:09:53.035   04 Jun 2027 08:10:00.445             7.410          2747.531
        99   04 Jun 2027 09:43:36.942   04 Jun 2027 09:43:52.521            15.579          7789.500
       100   04 Jun 2027 11:18:49.281   04 Jun 2027 11:19:03.632            14.351          7175.500
       101   04 Jun 2027 11:20:57.886   04 Jun 2027 11:21:12.682            14.796          7090.750
       102   04 Jun 2027 11:21:26.872   04 Jun 2027 11:21:33.621             6.749           184.188
       103   04 Jun 2027 11:22:25.844   04 Jun 2027 11:22:34.927             9.083          1631.969
       104   04 Jun 2027 11:22:49.214   04 Jun 2027 11:22:57.043             7.829           443.906
       105   04 Jun 2027 11:23:41.611   04 Jun 2027 11:23:44.744             3.133          1153.687
       106   04 Jun 2027 11:25:08.506   04 Jun 2027 11:25:17.504             8.998          1772.313
       107   05 Jun 2027 03:39:19.402   05 Jun 2027 03:41:32.897           133.495         66747.500
       108   05 Jun 2027 03:42:13.056   05 Jun 2027 03:44:07.598           114.542         57271.000
       109   05 Jun 2027 03:46:23.252   05 Jun 2027 03:46:24.587             1.335           667.500
       110   05 Jun 2027 05:18:35.000   05 Jun 2027 05:19:54.913            79.913         35245.375
       111   05 Jun 2027 05:20:09.855   05 Jun 2027 05:20:09.855             0.000             0.000
       112   05 Jun 2027 05:20:17.559   05 Jun 2027 05:20:23.501             5.942           329.250
       113   05 Jun 2027 05:21:51.975   05 Jun 2027 05:21:56.897             4.922          2253.156
       114   05 Jun 2027 05:23:09.836   05 Jun 2027 05:23:16.029             6.193          1847.781
       115   05 Jun 2027 05:24:44.271   05 Jun 2027 05:24:54.269             9.998          2116.281
       116   05 Jun 2027 05:25:11.765   05 Jun 2027 05:25:14.659             2.894           369.375
       117   05 Jun 2027 06:44:43.993   05 Jun 2027 06:44:58.646            14.653          7077.562
       118   05 Jun 2027 06:55:37.875   05 Jun 2027 06:55:46.366             8.491          4117.125
       119   05 Jun 2027 06:56:43.181   05 Jun 2027 06:56:45.198             2.017           441.937
       120   05 Jun 2027 06:58:17.548   05 Jun 2027 06:58:23.392             5.844          2104.437
       121   05 Jun 2027 08:19:35.785   05 Jun 2027 08:19:58.250            22.465         10509.625
       122   05 Jun 2027 08:20:41.536   05 Jun 2027 08:20:47.197             5.661          1352.500
       123   05 Jun 2027 08:22:20.808   05 Jun 2027 08:22:20.808             0.000             0.000
       124   05 Jun 2027 09:57:23.499   05 Jun 2027 09:57:47.848            24.349         12004.312
       125   05 Jun 2027 09:58:08.618   05 Jun 2027 09:58:14.154             5.536           331.250
       126   05 Jun 2027 11:33:14.411   05 Jun 2027 11:33:30.559            16.148          8074.000
       127   05 Jun 2027 11:37:00.157   05 Jun 2027 11:37:28.734            28.577         12402.219
       128   05 Jun 2027 11:37:33.774   05 Jun 2027 11:37:37.178             3.404           157.500
       129   06 Jun 2027 03:51:57.598   06 Jun 2027 03:55:50.629           233.031        116515.500
       130   06 Jun 2027 03:56:20.895   06 Jun 2027 03:56:25.098             4.203          2101.500
       131   06 Jun 2027 03:56:25.321   06 Jun 2027 03:56:28.245             2.924          1462.000
       132   06 Jun 2027 03:56:28.728   06 Jun 2027 03:56:41.177            12.449          6224.500
       133   06 Jun 2027 03:57:26.115   06 Jun 2027 03:57:26.293             0.178            89.000
       134   06 Jun 2027 05:30:58.573   06 Jun 2027 05:32:28.536            89.963         44695.344
       135   06 Jun 2027 05:33:42.482   06 Jun 2027 05:33:46.752             4.270          1943.531
       136   06 Jun 2027 05:34:28.737   06 Jun 2027 05:34:32.537             3.800          1299.406
       137   06 Jun 2027 05:34:55.298   06 Jun 2027 05:34:55.298             0.000             0.000
       138   06 Jun 2027 05:35:43.696   06 Jun 2027 05:35:43.884             0.188            94.000
       139   06 Jun 2027 05:36:12.623   06 Jun 2027 05:36:25.790            13.167          3027.750
       140   06 Jun 2027 05:36:34.155   06 Jun 2027 05:36:34.642             0.487           192.250
       141   06 Jun 2027 05:37:47.596   06 Jun 2027 05:37:57.027             9.431          2279.812
       142   06 Jun 2027 06:55:59.833   06 Jun 2027 06:56:20.312            20.479          6003.344
       143   06 Jun 2027 06:57:14.877   06 Jun 2027 06:57:17.218             2.341          1165.469
       144   06 Jun 2027 07:07:39.425   06 Jun 2027 07:07:48.146             8.721          3572.969
       145   06 Jun 2027 07:08:02.110   06 Jun 2027 07:08:04.004             1.894           436.375
       146   06 Jun 2027 08:30:10.613   06 Jun 2027 08:30:30.132            19.519          9239.250
       147   06 Jun 2027 08:32:28.503   06 Jun 2027 08:32:37.623             9.120          3541.219
       148   06 Jun 2027 08:33:59.521   06 Jun 2027 08:33:59.521             0.000             0.000
       149   06 Jun 2027 08:34:49.961   06 Jun 2027 08:34:57.794             7.833          3911.437
       150   06 Jun 2027 10:05:34.120   06 Jun 2027 10:05:47.549            13.429          5788.625
       151   06 Jun 2027 10:08:01.134   06 Jun 2027 10:08:08.925             7.791          3895.500
       152   06 Jun 2027 10:09:03.860   06 Jun 2027 10:09:09.926             6.066          1866.156
       153   06 Jun 2027 10:11:14.389   06 Jun 2027 10:11:18.465             4.076          2038.000
       154   06 Jun 2027 11:48:45.978   06 Jun 2027 11:49:30.360            44.382         20416.844
       155   07 Jun 2027 04:04:15.638   07 Jun 2027 04:08:08.136           232.498        116249.000
       156   07 Jun 2027 04:08:26.937   07 Jun 2027 04:08:38.874            11.937          5968.500
       157   07 Jun 2027 05:43:17.126   07 Jun 2027 05:44:32.916            75.790         37895.000
       158   07 Jun 2027 05:45:17.257   07 Jun 2027 05:45:31.250            13.993          6996.500
       159   07 Jun 2027 05:45:49.954   07 Jun 2027 05:45:55.118             5.164          1903.000
       160   07 Jun 2027 05:47:08.471   07 Jun 2027 05:47:11.584             3.113          1556.500
       161   07 Jun 2027 05:47:36.012   07 Jun 2027 05:47:36.012             0.000             0.000
       162   07 Jun 2027 05:48:19.975   07 Jun 2027 05:48:19.975             0.000             0.000
       163   07 Jun 2027 05:48:52.338   07 Jun 2027 05:48:55.446             3.108          1554.000
       164   07 Jun 2027 07:07:21.027   07 Jun 2027 07:07:39.170            18.143          7481.375
       165   07 Jun 2027 07:08:39.349   07 Jun 2027 07:08:49.759            10.410          1880.594
       166   07 Jun 2027 07:09:28.456   07 Jun 2027 07:09:31.801             3.345          1209.281
       167   07 Jun 2027 07:19:36.607   07 Jun 2027 07:19:45.433             8.826          3842.156
       168   07 Jun 2027 08:41:35.929   07 Jun 2027 08:42:01.198            25.269         11756.781
       169   07 Jun 2027 08:43:43.869   07 Jun 2027 08:43:51.497             7.628          2252.250
       170   07 Jun 2027 08:44:50.641   07 Jun 2027 08:45:00.607             9.966          1170.781
       171   07 Jun 2027 08:45:39.377   07 Jun 2027 08:45:42.462             3.085          1010.906
       172   07 Jun 2027 08:46:02.538   07 Jun 2027 08:46:03.435             0.897           346.313
       173   07 Jun 2027 08:46:43.897   07 Jun 2027 08:46:45.507             1.610           637.937
       174   07 Jun 2027 10:16:36.509   07 Jun 2027 10:16:54.504            17.995          8156.281
       175   07 Jun 2027 10:19:58.594   07 Jun 2027 10:20:14.165            15.571          4814.656
       176   07 Jun 2027 10:21:59.850   07 Jun 2027 10:22:07.951             8.101          2934.594
       177   08 Jun 2027 04:16:40.259   08 Jun 2027 04:16:41.535             1.276           638.000
       178   08 Jun 2027 04:17:01.528   08 Jun 2027 04:18:07.912            66.384         33192.000
       179   08 Jun 2027 04:19:52.697   08 Jun 2027 04:20:40.876            48.179         24089.500
       180   08 Jun 2027 04:21:09.590   08 Jun 2027 04:21:34.854            25.264         12632.000
       181   08 Jun 2027 04:21:48.656   08 Jun 2027 04:22:04.177            15.521          7760.500
       182   08 Jun 2027 04:22:23.459   08 Jun 2027 04:22:30.931             7.472          3736.000
       183   08 Jun 2027 05:55:22.210   08 Jun 2027 05:57:37.627           135.417         67708.500
       184   08 Jun 2027 05:57:48.208   08 Jun 2027 05:58:08.178            19.970          9943.562
       185   08 Jun 2027 05:59:27.356   08 Jun 2027 05:59:27.356             0.000             0.000
       186   08 Jun 2027 06:01:15.736   08 Jun 2027 06:01:22.993             7.257          3628.500
       187   08 Jun 2027 07:19:29.160   08 Jun 2027 07:19:42.302            13.142          6188.875
       188   08 Jun 2027 07:20:13.391   08 Jun 2027 07:20:15.615             2.224           553.969
       189   08 Jun 2027 07:20:48.378   08 Jun 2027 07:20:50.931             2.553          1018.813
       190   08 Jun 2027 07:21:17.855   08 Jun 2027 07:21:18.865             1.010           418.594
       191   08 Jun 2027 08:53:18.323   08 Jun 2027 08:53:42.991            24.668         10699.156
       192   08 Jun 2027 08:55:25.161   08 Jun 2027 08:55:33.339             8.178          2646.406
       193   08 Jun 2027 08:57:49.404   08 Jun 2027 08:57:58.655             9.251          4252.031
       194   08 Jun 2027 08:58:44.015   08 Jun 2027 08:58:47.372             3.357          1206.844
       195   08 Jun 2027 10:28:10.295   08 Jun 2027 10:28:15.065             4.770          2385.000
       196   08 Jun 2027 10:29:11.442   08 Jun 2027 10:29:25.598            14.156          4670.188
       197   08 Jun 2027 10:31:08.352   08 Jun 2027 10:31:08.352             0.000             0.000
       198   08 Jun 2027 10:33:59.985   08 Jun 2027 10:34:14.753            14.768          6212.250
       199   08 Jun 2027 10:35:15.480   08 Jun 2027 10:35:19.335             3.855          1751.844
       200   09 Jun 2027 04:29:33.764   09 Jun 2027 04:30:27.232            53.468         26734.000
       201   09 Jun 2027 04:30:36.772   09 Jun 2027 04:31:18.518            41.746         20873.000
       202   09 Jun 2027 04:31:19.120   09 Jun 2027 04:33:40.013           140.893         70446.500
       203   09 Jun 2027 04:34:05.204   09 Jun 2027 04:34:24.886            19.682          9841.000
       204   09 Jun 2027 04:34:26.595   09 Jun 2027 04:34:30.846             4.251          2125.500
       205   09 Jun 2027 06:07:58.830   09 Jun 2027 06:08:57.927            59.097         29262.500
       206   09 Jun 2027 06:09:06.272   09 Jun 2027 06:09:08.883             2.611           260.781
       207   09 Jun 2027 06:10:03.136   09 Jun 2027 06:10:09.564             6.428          1310.250
       208   09 Jun 2027 06:10:36.823   09 Jun 2027 06:10:43.231             6.408           513.562
       209   09 Jun 2027 06:11:45.294   09 Jun 2027 06:11:54.377             9.083          1939.469
       210   09 Jun 2027 06:12:29.770   09 Jun 2027 06:12:33.348             3.578          1106.031
       211   09 Jun 2027 07:31:25.418   09 Jun 2027 07:31:46.226            20.808          9109.594
       212   09 Jun 2027 07:32:42.514   09 Jun 2027 07:32:48.323             5.809          1637.219
       213   09 Jun 2027 09:07:38.382   09 Jun 2027 09:07:54.592            16.210          8105.000
       214   09 Jun 2027 09:08:06.449   09 Jun 2027 09:08:06.449             0.000             0.000
       215   09 Jun 2027 09:08:24.292   09 Jun 2027 09:08:30.095             5.803          2901.500
       216   09 Jun 2027 09:09:26.002   09 Jun 2027 09:09:33.573             7.571          2521.187
       217   09 Jun 2027 09:10:03.749   09 Jun 2027 09:10:08.056             4.307           544.625
       218   09 Jun 2027 09:10:44.651   09 Jun 2027 09:10:44.651             0.000             0.000
       219   09 Jun 2027 10:41:35.495   09 Jun 2027 10:41:53.872            18.377          8619.750
       220   09 Jun 2027 10:42:50.935   09 Jun 2027 10:42:52.727             1.792           626.406
       221   09 Jun 2027 10:43:11.078   09 Jun 2027 10:43:12.200             1.122           512.312
       222   09 Jun 2027 10:45:59.470   09 Jun 2027 10:46:12.697            13.227          5227.188
       223   09 Jun 2027 10:47:06.481   09 Jun 2027 10:47:09.843             3.362          1645.437
       224   09 Jun 2027 10:47:47.760   09 Jun 2027 10:47:52.343             4.583          1170.094
       225   09 Jun 2027 10:48:16.048   09 Jun 2027 10:48:18.623             2.575           740.562
       226   09 Jun 2027 10:48:47.846   09 Jun 2027 10:48:51.726             3.880           893.594
       227   09 Jun 2027 10:49:02.879   09 Jun 2027 10:49:04.083             1.204           128.156
       228   09 Jun 2027 10:49:42.113   09 Jun 2027 10:49:44.942             2.829          1176.406
       229   10 Jun 2027 03:03:31.080   10 Jun 2027 03:04:21.433            50.353         25176.500
       230   10 Jun 2027 03:05:15.516   10 Jun 2027 03:06:32.896            77.380         38690.000
       231   10 Jun 2027 03:07:15.489   10 Jun 2027 03:07:15.489             0.000             0.000
       232   10 Jun 2027 03:07:52.983   10 Jun 2027 03:08:07.981            14.998          7499.000
       233   10 Jun 2027 03:08:26.155   10 Jun 2027 03:08:26.878             0.723           361.500
       234   10 Jun 2027 03:08:36.542   10 Jun 2027 03:08:39.027             2.485          1242.500
       235   10 Jun 2027 03:10:15.656   10 Jun 2027 03:10:34.501            18.845          9422.500
       236   10 Jun 2027 03:10:57.031   10 Jun 2027 03:11:03.469             6.438          3219.000
       237   10 Jun 2027 04:41:34.542   10 Jun 2027 04:42:02.698            28.156         14078.000
       238   10 Jun 2027 04:42:04.965   10 Jun 2027 04:43:44.810            99.845         49922.500
       239   10 Jun 2027 04:45:16.632   10 Jun 2027 04:45:24.074             7.442          3721.000
       240   10 Jun 2027 04:46:00.281   10 Jun 2027 04:46:04.429             4.148          2074.000
       241   10 Jun 2027 06:20:04.301   10 Jun 2027 06:21:10.489            66.188         32238.625
       242   10 Jun 2027 06:22:16.102   10 Jun 2027 06:22:16.102             0.000             0.000
       243   10 Jun 2027 06:22:25.009   10 Jun 2027 06:22:30.771             5.762          2210.500
       244   10 Jun 2027 06:22:49.134   10 Jun 2027 06:22:54.033             4.899           396.406
       245   10 Jun 2027 06:23:18.240   10 Jun 2027 06:23:18.240             0.000             0.000
       246   10 Jun 2027 06:23:27.940   10 Jun 2027 06:23:29.935             1.995           932.594
       247   10 Jun 2027 07:43:16.705   10 Jun 2027 07:43:28.661            11.956          5961.031
       248   10 Jun 2027 07:44:43.821   10 Jun 2027 07:44:48.977             5.156          1918.156
       249   10 Jun 2027 07:45:11.241   10 Jun 2027 07:45:14.779             3.538           248.750
       250   10 Jun 2027 09:19:55.009   10 Jun 2027 09:20:14.793            19.784          9877.875
       251   10 Jun 2027 09:20:40.385   10 Jun 2027 09:20:43.675             3.290           618.156
       252   10 Jun 2027 09:21:24.312   10 Jun 2027 09:21:26.086             1.774           519.750
       253   10 Jun 2027 09:22:10.495   10 Jun 2027 09:22:13.427             2.932           891.719
       254   10 Jun 2027 10:51:51.909   10 Jun 2027 10:52:02.319            10.410          5205.000
       255   10 Jun 2027 10:53:50.785   10 Jun 2027 10:53:54.048             3.263           801.437
       256   10 Jun 2027 10:56:29.566   10 Jun 2027 10:56:39.903            10.337          2116.938
       257   10 Jun 2027 10:57:23.033   10 Jun 2027 10:57:25.875             2.842           533.156
       258   10 Jun 2027 10:59:59.327   10 Jun 2027 11:00:17.359            18.032          4525.187
       259   10 Jun 2027 11:01:30.248   10 Jun 2027 11:01:37.277             7.029          2051.594
       260   11 Jun 2027 03:15:33.613   11 Jun 2027 03:16:37.840            64.227         32113.500
       261   11 Jun 2027 03:16:43.683   11 Jun 2027 03:17:49.718            66.035         33017.500
       262   11 Jun 2027 03:18:04.294   11 Jun 2027 03:18:56.408            52.114         26057.000
       263   11 Jun 2027 03:19:23.872   11 Jun 2027 03:19:29.933             6.061          3030.500
       264   11 Jun 2027 03:19:37.194   11 Jun 2027 03:19:53.461            16.267          8133.500
       265   11 Jun 2027 03:20:59.805   11 Jun 2027 03:21:06.113             6.308          3154.000
       266   11 Jun 2027 04:53:42.824   11 Jun 2027 04:54:43.146            60.322         30161.000
       267   11 Jun 2027 04:54:51.862   11 Jun 2027 04:55:55.403            63.541         30863.250
       268   11 Jun 2027 04:56:21.782   11 Jun 2027 04:56:26.658             4.876           746.969
       269   11 Jun 2027 04:57:26.132   11 Jun 2027 04:57:29.179             3.047          1308.562
       270   11 Jun 2027 04:57:42.593   11 Jun 2027 04:57:43.412             0.819            13.063
       271   11 Jun 2027 04:58:51.983   11 Jun 2027 04:58:55.751             3.768          1884.000
       272   11 Jun 2027 06:32:51.050   11 Jun 2027 06:33:03.408            12.358          5524.563
       273   11 Jun 2027 06:34:19.886   11 Jun 2027 06:34:25.542             5.656          2389.937
       274   11 Jun 2027 06:35:28.677   11 Jun 2027 06:35:35.650             6.973          1921.937
       275   11 Jun 2027 06:35:48.858   11 Jun 2027 06:35:53.139             4.281           404.625
       276   11 Jun 2027 07:55:25.248   11 Jun 2027 07:55:40.429            15.181          7060.656
       277   11 Jun 2027 07:56:18.927   11 Jun 2027 07:56:23.756             4.829           728.594
       278   11 Jun 2027 07:56:58.034   11 Jun 2027 07:57:01.498             3.464          1038.812
       279   11 Jun 2027 07:58:11.687   11 Jun 2027 07:58:16.692             5.005           516.500
       280   11 Jun 2027 09:31:53.934   11 Jun 2027 09:32:06.664            12.730          4628.688
       281   11 Jun 2027 09:34:38.984   11 Jun 2027 09:34:48.333             9.349          4465.500
       282   11 Jun 2027 11:07:05.089   11 Jun 2027 11:07:14.669             9.580          4299.656
       283   11 Jun 2027 11:07:27.357   11 Jun 2027 11:07:29.007             1.650           335.469
       284   11 Jun 2027 11:10:35.186   11 Jun 2027 11:10:48.545            13.359          5694.781
       285   11 Jun 2027 11:11:37.356   11 Jun 2027 11:11:43.427             6.071          1364.937
       286   11 Jun 2027 11:12:44.440   11 Jun 2027 11:12:49.373             4.933          1906.656
       287   11 Jun 2027 11:12:52.368   11 Jun 2027 11:12:52.634             0.266            78.031
       288   11 Jun 2027 11:13:07.556   11 Jun 2027 11:13:09.443             1.887           466.312
       289   11 Jun 2027 11:13:10.156   11 Jun 2027 11:13:10.676             0.520            22.281
       290   11 Jun 2027 11:13:35.114   11 Jun 2027 11:13:37.088             1.974           763.688
       291   12 Jun 2027 03:27:31.132   12 Jun 2027 03:31:15.626           224.494        112247.000
       292   12 Jun 2027 03:33:08.761   12 Jun 2027 03:33:08.761             0.000             0.000
       293   12 Jun 2027 03:33:32.495   12 Jun 2027 03:33:34.342             1.847           923.500
       294   12 Jun 2027 03:34:05.751   12 Jun 2027 03:34:28.990            23.239         11619.500
       295   12 Jun 2027 05:06:50.176   12 Jun 2027 05:08:14.130            83.954         41977.000
       296   12 Jun 2027 05:08:32.620   12 Jun 2027 05:08:34.407             1.787           742.531
       297   12 Jun 2027 05:08:47.538   12 Jun 2027 05:08:48.832             1.294           362.656
       298   12 Jun 2027 05:09:40.202   12 Jun 2027 05:09:43.362             3.160          1329.750
       299   12 Jun 2027 05:10:42.866   12 Jun 2027 05:10:44.448             1.582           791.000
       300   12 Jun 2027 05:11:23.323   12 Jun 2027 05:11:23.323             0.000             0.000
       301   12 Jun 2027 05:14:03.521   12 Jun 2027 05:14:13.767            10.246          3784.000
       302   12 Jun 2027 06:43:58.954   12 Jun 2027 06:44:11.267            12.313          4806.344
       303   12 Jun 2027 06:44:25.978   12 Jun 2027 06:44:29.908             3.930           459.719
       304   12 Jun 2027 06:45:06.622   12 Jun 2027 06:45:08.852             2.230           941.375
       305   12 Jun 2027 06:46:13.603   12 Jun 2027 06:46:16.696             3.093          1482.437
       306   12 Jun 2027 06:46:44.877   12 Jun 2027 06:46:47.493             2.616           264.187
       307   12 Jun 2027 06:47:19.710   12 Jun 2027 06:47:22.550             2.840           999.531
       308   12 Jun 2027 06:47:28.779   12 Jun 2027 06:47:30.028             1.249           194.656
       309   12 Jun 2027 08:08:07.944   12 Jun 2027 08:08:27.489            19.545          9069.375
       310   12 Jun 2027 08:08:39.694   12 Jun 2027 08:08:43.806             4.112           381.406
       311   12 Jun 2027 08:10:30.002   12 Jun 2027 08:10:36.395             6.393          3196.500
       312   12 Jun 2027 09:43:52.426   12 Jun 2027 09:44:09.261            16.835          8417.500
       313   12 Jun 2027 09:46:21.389   12 Jun 2027 09:46:21.389             0.000             0.000
       314   12 Jun 2027 11:18:56.209   12 Jun 2027 11:19:19.776            23.567         11783.500
       315   12 Jun 2027 11:22:37.149   12 Jun 2027 11:22:37.149             0.000             0.000
       316   12 Jun 2027 11:23:48.786   12 Jun 2027 11:24:14.016            25.230          8562.250
       317   12 Jun 2027 11:24:39.021   12 Jun 2027 11:24:42.552             3.531           781.406
       318   12 Jun 2027 11:25:27.326   12 Jun 2027 11:25:31.792             4.466          1371.844
       319   13 Jun 2027 03:40:05.877   13 Jun 2027 03:43:59.530           233.653        116826.500
       320   13 Jun 2027 03:44:35.358   13 Jun 2027 03:44:39.252             3.894          1947.000
       321   13 Jun 2027 03:45:10.567   13 Jun 2027 03:45:10.567             0.000             0.000
       322   13 Jun 2027 03:45:33.290   13 Jun 2027 03:45:35.124             1.834           917.000
       323   13 Jun 2027 05:18:53.192   13 Jun 2027 05:20:10.313            77.121         36698.563
       324   13 Jun 2027 05:21:05.140   13 Jun 2027 05:21:05.522             0.382           147.875
       325   13 Jun 2027 05:22:29.956   13 Jun 2027 05:22:33.467             3.511          1755.500
       326   13 Jun 2027 05:23:43.846   13 Jun 2027 05:23:52.214             8.368          2914.844
       327   13 Jun 2027 05:25:08.699   13 Jun 2027 05:25:13.251             4.552          2265.000
       328   13 Jun 2027 05:25:35.141   13 Jun 2027 05:25:36.736             1.595           590.594
       329   13 Jun 2027 06:44:58.007   13 Jun 2027 06:45:10.444            12.437          5387.406
       330   13 Jun 2027 06:55:55.279   13 Jun 2027 06:56:02.893             7.614          2454.969
       331   13 Jun 2027 06:56:56.866   13 Jun 2027 06:57:00.106             3.240           998.313
       332   13 Jun 2027 06:58:39.671   13 Jun 2027 06:58:41.537             1.866           933.000
       333   13 Jun 2027 06:59:10.981   13 Jun 2027 06:59:14.873             3.892          1946.000
       334   13 Jun 2027 08:19:14.834   13 Jun 2027 08:19:28.369            13.535          5308.844
       335   13 Jun 2027 08:22:02.034   13 Jun 2027 08:22:14.586            12.552          4729.875
       336   13 Jun 2027 09:54:31.133   13 Jun 2027 09:54:31.443             0.310           155.000
       337   13 Jun 2027 09:55:37.129   13 Jun 2027 09:55:46.224             9.095          4492.344
       338   13 Jun 2027 09:56:28.597   13 Jun 2027 09:56:31.489             2.892          1112.063
       339   13 Jun 2027 09:58:27.767   13 Jun 2027 09:58:34.597             6.830          2208.625
       340   13 Jun 2027 09:59:13.234   13 Jun 2027 09:59:13.234             0.000             0.000
       341   13 Jun 2027 09:59:58.016   13 Jun 2027 09:59:58.234             0.218           109.000
       342   13 Jun 2027 11:33:01.137   13 Jun 2027 11:33:27.683            26.546         12088.281
       343   13 Jun 2027 11:37:16.731   13 Jun 2027 11:37:32.077            15.346          7132.656
       344   13 Jun 2027 11:37:37.773   13 Jun 2027 11:37:44.932             7.159            36.750
       345   13 Jun 2027 11:37:48.435   13 Jun 2027 11:37:50.438             2.003           100.969
