uniorb/output/strategy_2/Camera/Camera_KinoSat_110203.txt

KinoSat_110203
-------------------------
    Access    *     Start Time (UTCG)     *     Stop Time (UTCG)  *   Duration (s) *   Data (Mbytes)
         1   01 Jun 2027 04:21:19.579   01 Jun 2027 04:21:32.252            12.673          6336.500
         2   01 Jun 2027 04:22:57.587   01 Jun 2027 04:22:59.999             2.412          1206.000
         3   01 Jun 2027 04:23:13.469   01 Jun 2027 04:23:19.911             6.442          3221.000
         4   01 Jun 2027 04:23:56.277   01 Jun 2027 04:23:57.716             1.439           719.500
         5   01 Jun 2027 04:24:16.006   01 Jun 2027 04:24:22.166             6.160          3080.000
         6   01 Jun 2027 04:24:50.438   01 Jun 2027 04:24:50.514             0.076            38.000
         7   01 Jun 2027 04:25:58.463   01 Jun 2027 04:26:00.820             2.357          1178.500
         8   01 Jun 2027 04:26:23.069   01 Jun 2027 04:26:30.757             7.688          3844.000
         9   01 Jun 2027 04:27:14.744   01 Jun 2027 04:27:15.797             1.053           526.500
        10   01 Jun 2027 05:58:42.997   01 Jun 2027 05:58:43.930             0.933           466.500
        11   01 Jun 2027 05:58:50.997   01 Jun 2027 05:58:51.345             0.348           174.000
        12   01 Jun 2027 05:59:07.032   01 Jun 2027 05:59:15.086             8.054          4027.000
        13   01 Jun 2027 06:00:15.253   01 Jun 2027 06:00:30.055            14.802          7401.000
        14   01 Jun 2027 06:01:38.553   01 Jun 2027 06:01:48.560            10.007          5003.500
        15   01 Jun 2027 06:02:41.693   01 Jun 2027 06:02:42.545             0.852           426.000
        16   01 Jun 2027 06:02:46.125   01 Jun 2027 06:02:48.702             2.577          1288.500
        17   01 Jun 2027 06:03:14.478   01 Jun 2027 06:03:15.143             0.665           332.500
        18   01 Jun 2027 07:34:54.284   01 Jun 2027 07:35:07.581            13.297          6648.500
        19   01 Jun 2027 07:36:11.742   01 Jun 2027 07:36:22.877            11.135          5567.500
        20   01 Jun 2027 07:37:37.299   01 Jun 2027 07:37:38.041             0.742           371.000
        21   01 Jun 2027 07:37:50.039   01 Jun 2027 07:38:06.758            16.719          8359.500
        22   02 Jun 2027 03:00:00.000   02 Jun 2027 03:00:19.390            19.390          9695.000
        23   02 Jun 2027 03:01:45.651   02 Jun 2027 03:01:48.221             2.570          1285.000
        24   02 Jun 2027 03:02:24.910   02 Jun 2027 03:02:32.596             7.686          3843.000
        25   02 Jun 2027 03:03:03.478   02 Jun 2027 03:03:04.934             1.456           728.000
        26   02 Jun 2027 03:03:12.605   02 Jun 2027 03:03:12.671             0.066            33.000
        27   02 Jun 2027 03:03:29.098   02 Jun 2027 03:03:41.146            12.048          6024.000
        28   02 Jun 2027 03:03:41.650   02 Jun 2027 03:03:43.813             2.163          1081.500
        29   02 Jun 2027 04:32:58.492   02 Jun 2027 04:33:01.803             3.311          1655.500
        30   02 Jun 2027 04:33:18.424   02 Jun 2027 04:33:35.476            17.052          8526.000
        31   02 Jun 2027 04:34:36.719   02 Jun 2027 04:34:36.911             0.192            96.000
        32   02 Jun 2027 04:34:47.585   02 Jun 2027 04:35:02.476            14.891          7445.500
        33   02 Jun 2027 04:36:12.959   02 Jun 2027 04:36:14.323             1.364           682.000
        34   02 Jun 2027 04:36:40.020   02 Jun 2027 04:36:40.673             0.653           326.500
        35   02 Jun 2027 04:37:06.469   02 Jun 2027 04:37:13.312             6.843          3421.500
        36   02 Jun 2027 04:37:45.145   02 Jun 2027 04:37:49.767             4.622          2311.000
        37   02 Jun 2027 04:38:18.624   02 Jun 2027 04:38:30.177            11.553          5776.500
        38   02 Jun 2027 06:10:57.695   02 Jun 2027 06:10:57.819             0.124            62.000
        39   02 Jun 2027 06:11:30.006   02 Jun 2027 06:11:34.269             4.263          2131.500
        40   02 Jun 2027 06:12:12.627   02 Jun 2027 06:12:20.812             8.185          4092.500
        41   02 Jun 2027 06:12:57.957   02 Jun 2027 06:12:59.582             1.625           812.500
        42   02 Jun 2027 06:13:13.088   02 Jun 2027 06:13:16.918             3.830          1915.000
        43   02 Jun 2027 06:13:43.019   02 Jun 2027 06:13:52.186             9.167          4583.500
        44   02 Jun 2027 06:14:38.281   02 Jun 2027 06:14:45.816             7.535          3767.500
        45   02 Jun 2027 06:15:16.012   02 Jun 2027 06:15:21.837             5.825          2912.500
        46   02 Jun 2027 07:46:49.147   02 Jun 2027 07:46:49.343             0.196            98.000
        47   02 Jun 2027 07:47:14.202   02 Jun 2027 07:47:19.250             5.048          2524.000
        48   02 Jun 2027 07:48:13.378   02 Jun 2027 07:48:18.741             5.363          2681.500
        49   02 Jun 2027 07:48:41.220   02 Jun 2027 07:48:45.913             4.693          2346.500
        50   02 Jun 2027 07:49:05.122   02 Jun 2027 07:49:25.890            20.768         10384.000
        51   02 Jun 2027 07:50:52.887   02 Jun 2027 07:51:02.252             9.365          4682.500
        52   02 Jun 2027 07:51:47.128   02 Jun 2027 07:51:49.985             2.857          1428.500
        53   03 Jun 2027 03:08:18.201   03 Jun 2027 03:08:19.872             1.671           835.500
        54   03 Jun 2027 03:08:41.354   03 Jun 2027 03:08:48.595             7.241          3620.500
        55   03 Jun 2027 03:09:33.361   03 Jun 2027 03:09:39.149             5.788          2894.000
        56   03 Jun 2027 03:10:45.928   03 Jun 2027 03:10:54.069             8.141          4070.500
        57   03 Jun 2027 03:11:34.504   03 Jun 2027 03:11:41.824             7.320          3660.000
        58   03 Jun 2027 03:12:27.134   03 Jun 2027 03:12:34.736             7.602          3801.000
        59   03 Jun 2027 03:13:32.848   03 Jun 2027 03:13:32.892             0.044            22.000
        60   03 Jun 2027 03:13:34.552   03 Jun 2027 03:13:40.393             5.841          2920.500
        61   03 Jun 2027 03:14:13.550   03 Jun 2027 03:14:17.771             4.221          2110.500
        62   03 Jun 2027 03:14:55.627   03 Jun 2027 03:14:55.944             0.317           158.500
        63   03 Jun 2027 03:15:02.120   03 Jun 2027 03:15:05.536             3.416          1708.000
        64   03 Jun 2027 03:15:12.888   03 Jun 2027 03:15:16.543             3.655          1827.500
        65   03 Jun 2027 03:15:31.806   03 Jun 2027 03:15:32.678             0.872           436.000
        66   03 Jun 2027 04:45:07.313   03 Jun 2027 04:45:15.397             8.084          4042.000
        67   03 Jun 2027 04:45:55.019   03 Jun 2027 04:46:05.089            10.070          5035.000
        68   03 Jun 2027 04:46:18.514   03 Jun 2027 04:46:18.881             0.367           183.500
        69   03 Jun 2027 04:47:16.681   03 Jun 2027 04:47:20.999             4.318          2159.000
        70   03 Jun 2027 04:48:31.443   03 Jun 2027 04:48:37.790             6.347          3173.500
        71   03 Jun 2027 04:49:29.288   03 Jun 2027 04:49:39.166             9.878          4939.000
        72   03 Jun 2027 04:50:28.212   03 Jun 2027 04:50:52.715            24.503         12251.500
        73   03 Jun 2027 06:23:20.227   03 Jun 2027 06:23:22.940             2.713          1356.500
        74   03 Jun 2027 06:24:25.370   03 Jun 2027 06:24:26.694             1.324           662.000
        75   03 Jun 2027 06:25:07.114   03 Jun 2027 06:25:10.832             3.718          1859.000
        76   03 Jun 2027 06:25:44.651   03 Jun 2027 06:25:49.643             4.992          2496.000
        77   03 Jun 2027 06:26:39.691   03 Jun 2027 06:26:50.258            10.567          5283.500
        78   03 Jun 2027 06:27:14.515   03 Jun 2027 06:27:16.185             1.670           835.000
        79   03 Jun 2027 07:56:37.963   03 Jun 2027 07:56:45.634             7.671          3835.500
        80   03 Jun 2027 07:57:01.441   03 Jun 2027 07:57:08.270             6.829          3414.500
        81   03 Jun 2027 07:57:16.306   03 Jun 2027 07:57:22.003             5.697          2848.500
        82   03 Jun 2027 07:58:37.431   03 Jun 2027 07:58:41.632             4.201          2100.500
        83   03 Jun 2027 07:59:39.360   03 Jun 2027 07:59:45.531             6.171          3085.500
        84   03 Jun 2027 08:00:50.454   03 Jun 2027 08:00:51.088             0.634           317.000
        85   03 Jun 2027 08:01:29.096   03 Jun 2027 08:01:45.874            16.778          8389.000
        86   03 Jun 2027 08:02:53.112   03 Jun 2027 08:02:59.321             6.209          3104.500
        87   03 Jun 2027 08:03:42.677   03 Jun 2027 08:03:48.884             6.207          3103.500
        88   04 Jun 2027 03:20:26.305   04 Jun 2027 03:20:26.626             0.321           160.500
        89   04 Jun 2027 03:20:48.520   04 Jun 2027 03:20:52.130             3.610          1805.000
        90   04 Jun 2027 03:21:27.264   04 Jun 2027 03:21:36.353             9.089          4544.500
        91   04 Jun 2027 03:22:27.580   04 Jun 2027 03:22:37.777            10.197          5098.500
        92   04 Jun 2027 03:23:29.867   04 Jun 2027 03:23:32.797             2.930          1465.000
        93   04 Jun 2027 03:23:44.334   04 Jun 2027 03:23:44.334             0.000             0.000
        94   04 Jun 2027 03:23:50.662   04 Jun 2027 03:23:53.094             2.432          1216.000
        95   04 Jun 2027 03:24:18.036   04 Jun 2027 03:24:26.406             8.370          4185.000
        96   04 Jun 2027 03:25:27.380   04 Jun 2027 03:25:28.588             1.208           604.000
        97   04 Jun 2027 03:26:02.027   04 Jun 2027 03:26:26.710            24.683         12341.500
        98   04 Jun 2027 04:57:24.417   04 Jun 2027 04:57:37.517            13.100          6550.000
        99   04 Jun 2027 04:58:12.018   04 Jun 2027 04:58:30.227            18.209          9104.500
       100   04 Jun 2027 05:00:15.092   04 Jun 2027 05:00:16.158             1.066           533.000
       101   04 Jun 2027 05:00:50.525   04 Jun 2027 05:00:52.089             1.564           782.000
       102   04 Jun 2027 05:01:27.354   04 Jun 2027 05:01:29.830             2.476          1238.000
       103   04 Jun 2027 05:02:24.921   04 Jun 2027 05:02:27.331             2.410          1205.000
       104   04 Jun 2027 05:02:42.641   04 Jun 2027 05:02:42.956             0.315           157.500
       105   04 Jun 2027 05:02:49.883   04 Jun 2027 05:03:00.058            10.175          5087.500
       106   04 Jun 2027 05:03:05.319   04 Jun 2027 05:03:17.606            12.287          6143.500
       107   04 Jun 2027 06:35:19.582   04 Jun 2027 06:35:20.868             1.286           643.000
       108   04 Jun 2027 06:35:59.266   04 Jun 2027 06:36:01.410             2.144          1072.000
       109   04 Jun 2027 06:36:16.961   04 Jun 2027 06:36:28.114            11.153          5576.500
       110   04 Jun 2027 06:37:28.766   04 Jun 2027 06:37:31.567             2.801          1400.500
       111   04 Jun 2027 06:37:56.074   04 Jun 2027 06:38:06.377            10.303          5151.500
       112   04 Jun 2027 06:38:54.858   04 Jun 2027 06:38:55.856             0.998           499.000
       113   04 Jun 2027 08:08:39.076   04 Jun 2027 08:09:14.123            35.047         17523.500
       114   04 Jun 2027 08:11:29.718   04 Jun 2027 08:11:32.629             2.911          1455.500
       115   04 Jun 2027 08:12:10.805   04 Jun 2027 08:12:21.778            10.973          5486.500
       116   04 Jun 2027 08:13:07.996   04 Jun 2027 08:13:14.994             6.998          3499.000
       117   04 Jun 2027 08:13:44.529   04 Jun 2027 08:13:47.818             3.289          1644.500
       118   04 Jun 2027 08:14:01.183   04 Jun 2027 08:14:04.106             2.923          1461.500
       119   04 Jun 2027 08:14:09.488   04 Jun 2027 08:14:14.789             5.301          2650.500
       120   04 Jun 2027 08:15:11.842   04 Jun 2027 08:15:12.001             0.159            79.500
       121   04 Jun 2027 08:15:24.480   04 Jun 2027 08:15:27.865             3.385          1692.500
       122   05 Jun 2027 03:32:28.422   05 Jun 2027 03:32:34.646             6.224          3112.000
       123   05 Jun 2027 03:32:59.271   05 Jun 2027 03:33:04.200             4.929          2464.500
       124   05 Jun 2027 03:33:50.810   05 Jun 2027 03:33:51.379             0.569           284.500
       125   05 Jun 2027 03:34:31.167   05 Jun 2027 03:34:31.926             0.759           379.500
       126   05 Jun 2027 03:34:47.945   05 Jun 2027 03:34:48.449             0.504           252.000
       127   05 Jun 2027 03:35:02.310   05 Jun 2027 03:35:11.610             9.300          4650.000
       128   05 Jun 2027 03:36:21.829   05 Jun 2027 03:36:23.611             1.782           891.000
       129   05 Jun 2027 03:36:36.504   05 Jun 2027 03:36:37.007             0.503           251.500
       130   05 Jun 2027 03:36:47.352   05 Jun 2027 03:36:54.061             6.709          3354.500
       131   05 Jun 2027 03:37:20.817   05 Jun 2027 03:37:25.320             4.503          2251.500
       132   05 Jun 2027 03:38:19.830   05 Jun 2027 03:38:30.862            11.032          5516.000
       133   05 Jun 2027 03:39:15.918   05 Jun 2027 03:39:25.775             9.857          4928.500
       134   05 Jun 2027 05:09:14.041   05 Jun 2027 05:09:25.198            11.157          5578.500
       135   05 Jun 2027 05:10:14.334   05 Jun 2027 05:10:18.899             4.565          2282.500
       136   05 Jun 2027 05:11:04.965   05 Jun 2027 05:11:14.151             9.186          4593.000
       137   05 Jun 2027 05:11:25.807   05 Jun 2027 05:11:27.231             1.424           712.000
       138   05 Jun 2027 05:12:27.467   05 Jun 2027 05:12:32.310             4.843          2421.500
       139   05 Jun 2027 05:13:09.441   05 Jun 2027 05:13:14.593             5.152          2576.000
       140   05 Jun 2027 05:13:36.755   05 Jun 2027 05:13:40.146             3.391          1695.500
       141   05 Jun 2027 05:14:05.577   05 Jun 2027 05:14:11.954             6.377          3188.500
       142   05 Jun 2027 05:14:34.641   05 Jun 2027 05:14:36.873             2.232          1116.000
       143   05 Jun 2027 05:15:33.937   05 Jun 2027 05:15:43.636             9.699          4849.500
       144   05 Jun 2027 06:47:18.899   05 Jun 2027 06:47:22.710             3.811          1905.500
       145   05 Jun 2027 06:47:54.611   05 Jun 2027 06:48:00.363             5.752          2876.000
       146   05 Jun 2027 06:48:50.414   05 Jun 2027 06:48:52.768             2.354          1177.000
       147   05 Jun 2027 06:49:06.863   05 Jun 2027 06:49:13.124             6.261          3130.500
       148   05 Jun 2027 06:49:40.105   05 Jun 2027 06:49:45.973             5.868          2934.000
       149   05 Jun 2027 06:50:07.073   05 Jun 2027 06:50:10.425             3.352          1676.000
       150   05 Jun 2027 06:50:59.953   05 Jun 2027 06:51:10.668            10.715          5357.500
       151   05 Jun 2027 08:21:05.502   05 Jun 2027 08:21:19.343            13.841          6920.500
       152   05 Jun 2027 08:22:27.917   05 Jun 2027 08:22:43.457            15.540          7770.000
       153   05 Jun 2027 08:23:47.430   05 Jun 2027 08:24:28.458            41.028         20514.000
       154   05 Jun 2027 08:27:29.505   05 Jun 2027 08:27:30.283             0.778           389.000
       155   06 Jun 2027 03:44:28.859   06 Jun 2027 03:44:30.389             1.530           765.000
       156   06 Jun 2027 03:44:53.745   06 Jun 2027 03:44:56.874             3.129          1564.500
       157   06 Jun 2027 03:44:58.981   06 Jun 2027 03:44:58.981             0.000             0.000
       158   06 Jun 2027 03:45:20.995   06 Jun 2027 03:45:34.914            13.919          6959.500
       159   06 Jun 2027 03:46:12.169   06 Jun 2027 03:46:20.488             8.319          4159.500
       160   06 Jun 2027 03:47:19.653   06 Jun 2027 03:47:25.656             6.003          3001.500
       161   06 Jun 2027 03:48:08.385   06 Jun 2027 03:48:10.957             2.572          1286.000
       162   06 Jun 2027 03:48:30.005   06 Jun 2027 03:48:32.353             2.348          1174.000
       163   06 Jun 2027 03:48:48.538   06 Jun 2027 03:48:48.811             0.273           136.500
       164   06 Jun 2027 03:49:10.214   06 Jun 2027 03:49:12.467             2.253          1126.500
       165   06 Jun 2027 03:49:38.907   06 Jun 2027 03:49:44.297             5.390          2695.000
       166   06 Jun 2027 03:50:29.504   06 Jun 2027 03:50:31.155             1.651           825.500
       167   06 Jun 2027 03:50:39.430   06 Jun 2027 03:50:47.891             8.461          4230.500
       168   06 Jun 2027 03:51:36.333   06 Jun 2027 03:51:45.720             9.387          4693.500
       169   06 Jun 2027 05:21:22.515   06 Jun 2027 05:21:38.412            15.897          7948.500
       170   06 Jun 2027 05:23:06.813   06 Jun 2027 05:23:07.499             0.686           343.000
       171   06 Jun 2027 05:23:13.517   06 Jun 2027 05:23:15.040             1.523           761.500
       172   06 Jun 2027 05:23:29.558   06 Jun 2027 05:23:33.333             3.775          1887.500
       173   06 Jun 2027 05:24:00.772   06 Jun 2027 05:24:03.709             2.937          1468.500
       174   06 Jun 2027 05:24:35.474   06 Jun 2027 05:24:37.678             2.204          1102.000
       175   06 Jun 2027 05:24:48.802   06 Jun 2027 05:24:51.302             2.500          1250.000
       176   06 Jun 2027 05:25:09.416   06 Jun 2027 05:25:23.306            13.890          6945.000
       177   06 Jun 2027 05:26:00.520   06 Jun 2027 05:26:07.130             6.610          3305.000
       178   06 Jun 2027 05:27:16.417   06 Jun 2027 05:27:21.745             5.328          2664.000
       179   06 Jun 2027 06:58:31.954   06 Jun 2027 06:58:48.260            16.306          8153.000
       180   06 Jun 2027 07:00:14.157   06 Jun 2027 07:00:29.458            15.301          7650.500
       181   06 Jun 2027 07:01:41.755   06 Jun 2027 07:01:47.629             5.874          2937.000
       182   06 Jun 2027 07:02:14.004   06 Jun 2027 07:02:18.230             4.226          2113.000
       183   06 Jun 2027 07:02:34.920   06 Jun 2027 07:02:41.639             6.719          3359.500
       184   06 Jun 2027 07:03:17.294   06 Jun 2027 07:03:19.264             1.970           985.000
       185   06 Jun 2027 08:33:20.598   06 Jun 2027 08:33:22.289             1.691           845.500
       186   06 Jun 2027 08:33:34.439   06 Jun 2027 08:33:48.992            14.553          7276.500
       187   06 Jun 2027 08:35:17.706   06 Jun 2027 08:35:31.559            13.853          6926.500
       188   06 Jun 2027 08:36:37.291   06 Jun 2027 08:36:51.399            14.108          7054.000
       189   06 Jun 2027 08:37:49.053   06 Jun 2027 08:37:54.735             5.682          2841.000
       190   07 Jun 2027 03:56:52.085   07 Jun 2027 03:56:57.961             5.876          2938.000
       191   07 Jun 2027 03:57:26.243   07 Jun 2027 03:57:28.446             2.203          1101.500
       192   07 Jun 2027 03:57:44.556   07 Jun 2027 03:57:48.393             3.837          1918.500
       193   07 Jun 2027 03:58:28.652   07 Jun 2027 03:58:39.379            10.727          5363.500
       194   07 Jun 2027 03:59:01.865   07 Jun 2027 03:59:06.871             5.006          2503.000
       195   07 Jun 2027 03:59:52.616   07 Jun 2027 03:59:53.581             0.965           482.500
       196   07 Jun 2027 04:00:04.208   07 Jun 2027 04:00:18.305            14.097          7048.500
       197   07 Jun 2027 04:01:25.091   07 Jun 2027 04:01:27.518             2.427          1213.500
       198   07 Jun 2027 04:02:23.766   07 Jun 2027 04:02:29.685             5.919          2959.500
       199   07 Jun 2027 04:03:17.991   07 Jun 2027 04:03:19.388             1.397           698.500
       200   07 Jun 2027 05:33:50.496   07 Jun 2027 05:34:12.455            21.959         10979.500
       201   07 Jun 2027 05:35:12.444   07 Jun 2027 05:35:14.653             2.209          1104.500
       202   07 Jun 2027 05:35:59.091   07 Jun 2027 05:36:12.128            13.037          6518.500
       203   07 Jun 2027 05:37:19.248   07 Jun 2027 05:37:21.167             1.919           959.500
       204   07 Jun 2027 05:37:35.647   07 Jun 2027 05:37:41.848             6.201          3100.500
       205   07 Jun 2027 05:38:11.766   07 Jun 2027 05:38:16.692             4.926          2463.000
       206   07 Jun 2027 05:38:55.447   07 Jun 2027 05:38:55.800             0.353           176.500
       207   07 Jun 2027 05:38:58.267   07 Jun 2027 05:38:59.673             1.406           703.000
       208   07 Jun 2027 05:39:19.909   07 Jun 2027 05:39:25.192             5.283          2641.500
       209   07 Jun 2027 07:10:44.539   07 Jun 2027 07:11:01.218            16.679          8339.500
       210   07 Jun 2027 07:12:26.708   07 Jun 2027 07:12:28.114             1.406           703.000
       211   07 Jun 2027 07:12:58.137   07 Jun 2027 07:12:58.496             0.359           179.500
       212   07 Jun 2027 07:13:00.264   07 Jun 2027 07:13:03.330             3.066          1533.000
       213   07 Jun 2027 07:13:21.435   07 Jun 2027 07:13:24.307             2.872          1436.000
       214   07 Jun 2027 07:14:35.272   07 Jun 2027 07:14:43.166             7.894          3947.000
       215   07 Jun 2027 08:47:54.361   07 Jun 2027 08:48:02.283             7.922          3961.000
       216   07 Jun 2027 08:48:50.417   07 Jun 2027 08:48:53.031             2.614          1307.000
       217   07 Jun 2027 08:49:05.108   07 Jun 2027 08:49:16.363            11.255          5627.500
       218   07 Jun 2027 08:50:05.311   07 Jun 2027 08:50:22.728            17.417          8708.500
       219   08 Jun 2027 04:09:00.792   08 Jun 2027 04:09:28.463            27.671         13835.500
       220   08 Jun 2027 04:11:21.500   08 Jun 2027 04:11:22.849             1.349           674.500
       221   08 Jun 2027 04:11:35.277   08 Jun 2027 04:11:40.243             4.966          2483.000
       222   08 Jun 2027 04:12:19.948   08 Jun 2027 04:12:24.876             4.928          2464.000
       223   08 Jun 2027 04:12:46.928   08 Jun 2027 04:13:03.163            16.235          8117.500
       224   08 Jun 2027 04:13:08.698   08 Jun 2027 04:13:16.367             7.669          3834.500
       225   08 Jun 2027 04:15:18.594   08 Jun 2027 04:15:23.675             5.081          2540.500
       226   08 Jun 2027 05:46:20.919   08 Jun 2027 05:46:27.774             6.855          3427.500
       227   08 Jun 2027 05:46:58.249   08 Jun 2027 05:47:05.691             7.442          3721.000
       228   08 Jun 2027 05:47:10.886   08 Jun 2027 05:47:15.446             4.560          2280.000
       229   08 Jun 2027 05:47:59.237   08 Jun 2027 05:48:00.761             1.524           762.000
       230   08 Jun 2027 05:48:12.918   08 Jun 2027 05:48:28.201            15.283          7641.500
       231   08 Jun 2027 05:49:52.803   08 Jun 2027 05:49:59.893             7.090          3545.000
       232   08 Jun 2027 05:50:42.921   08 Jun 2027 05:50:47.165             4.244          2122.000
       233   08 Jun 2027 07:22:45.983   08 Jun 2027 07:22:59.714            13.731          6865.500
       234   08 Jun 2027 07:23:48.183   08 Jun 2027 07:23:48.183             0.000             0.000
       235   08 Jun 2027 07:23:56.271   08 Jun 2027 07:24:04.683             8.412          4206.000
       236   08 Jun 2027 07:25:12.019   08 Jun 2027 07:25:16.987             4.968          2484.000
       237   08 Jun 2027 07:25:27.586   08 Jun 2027 07:25:36.541             8.955          4477.500
       238   08 Jun 2027 07:26:29.633   08 Jun 2027 07:26:36.191             6.558          3279.000
       239   08 Jun 2027 07:27:50.293   08 Jun 2027 07:27:52.078             1.785           892.500
       240   08 Jun 2027 09:01:02.430   08 Jun 2027 09:01:05.420             2.990          1495.000
       241   08 Jun 2027 09:01:23.842   08 Jun 2027 09:01:24.470             0.628           314.000
       242   09 Jun 2027 04:21:34.549   09 Jun 2027 04:21:35.641             1.092           546.000
       243   09 Jun 2027 04:21:50.146   09 Jun 2027 04:21:56.413             6.267          3133.500
       244   09 Jun 2027 04:23:11.983   09 Jun 2027 04:23:14.752             2.769          1384.500
       245   09 Jun 2027 04:23:28.164   09 Jun 2027 04:23:30.660             2.496          1248.000
       246   09 Jun 2027 04:24:12.341   09 Jun 2027 04:24:12.496             0.155            77.500
       247   09 Jun 2027 04:24:13.533   09 Jun 2027 04:24:14.323             0.790           395.000
       248   09 Jun 2027 04:24:47.344   09 Jun 2027 04:24:49.421             2.077          1038.500
       249   09 Jun 2027 04:25:01.777   09 Jun 2027 04:25:05.555             3.778          1889.000
       250   09 Jun 2027 04:26:15.555   09 Jun 2027 04:26:21.952             6.397          3198.500
       251   09 Jun 2027 04:26:48.361   09 Jun 2027 04:27:09.466            21.105         10552.500
       252   09 Jun 2027 05:58:57.644   09 Jun 2027 05:58:58.574             0.930           465.000
       253   09 Jun 2027 05:59:08.229   09 Jun 2027 05:59:08.813             0.584           292.000
       254   09 Jun 2027 05:59:21.895   09 Jun 2027 05:59:30.187             8.292          4146.000
       255   09 Jun 2027 06:00:30.153   09 Jun 2027 06:00:44.786            14.633          7316.500
       256   09 Jun 2027 06:01:52.884   09 Jun 2027 06:02:03.122            10.238          5119.000
       257   09 Jun 2027 06:03:06.137   09 Jun 2027 06:03:07.864             1.727           863.500
       258   09 Jun 2027 07:35:08.392   09 Jun 2027 07:35:17.944             9.552          4776.000
       259   09 Jun 2027 07:36:06.378   09 Jun 2027 07:36:16.340             9.962          4981.000
       260   09 Jun 2027 07:37:12.877   09 Jun 2027 07:37:13.372             0.495           247.500
       261   09 Jun 2027 07:37:37.785   09 Jun 2027 07:37:38.105             0.320           160.000
       262   09 Jun 2027 07:38:24.696   09 Jun 2027 07:38:27.091             2.395          1197.500
       263   09 Jun 2027 07:38:49.110   09 Jun 2027 07:38:49.728             0.618           309.000
       264   09 Jun 2027 07:38:57.850   09 Jun 2027 07:39:00.720             2.870          1435.000
       265   09 Jun 2027 07:39:17.932   09 Jun 2027 07:39:21.461             3.529          1764.500
       266   10 Jun 2027 03:00:00.000   10 Jun 2027 03:00:00.483             0.483           241.500
       267   10 Jun 2027 03:00:00.599   10 Jun 2027 03:00:07.901             7.302          3651.000
       268   10 Jun 2027 03:01:01.019   10 Jun 2027 03:01:06.612             5.593          2796.500
       269   10 Jun 2027 03:02:04.116   10 Jun 2027 03:02:17.445            13.329          6664.500
       270   10 Jun 2027 03:03:08.703   10 Jun 2027 03:03:17.432             8.729          4364.500
       271   10 Jun 2027 04:33:13.194   10 Jun 2027 04:33:13.754             0.560           280.000
       272   10 Jun 2027 04:33:27.318   10 Jun 2027 04:33:33.385             6.067          3033.500
       273   10 Jun 2027 04:34:51.350   10 Jun 2027 04:35:00.827             9.477          4738.500
       274   10 Jun 2027 04:35:17.214   10 Jun 2027 04:35:24.140             6.926          3463.000
       275   10 Jun 2027 04:36:28.479   10 Jun 2027 04:36:28.948             0.469           234.500
       276   10 Jun 2027 04:36:33.909   10 Jun 2027 04:36:36.124             2.215          1107.500
       277   10 Jun 2027 04:36:51.390   10 Jun 2027 04:36:52.682             1.292           646.000
       278   10 Jun 2027 04:37:27.274   10 Jun 2027 04:37:29.692             2.418          1209.000
       279   10 Jun 2027 04:37:43.960   10 Jun 2027 04:37:44.812             0.852           426.000
       280   10 Jun 2027 04:37:59.850   10 Jun 2027 04:38:11.924            12.074          6037.000
       281   10 Jun 2027 04:38:37.657   10 Jun 2027 04:38:45.829             8.172          4086.000
       282   10 Jun 2027 06:11:12.121   10 Jun 2027 06:11:12.789             0.668           334.000
       283   10 Jun 2027 06:11:15.733   10 Jun 2027 06:11:23.786             8.053          4026.500
       284   10 Jun 2027 06:12:12.076   10 Jun 2027 06:12:23.209            11.133          5566.500
       285   10 Jun 2027 06:13:09.770   10 Jun 2027 06:13:10.054             0.284           142.000
       286   10 Jun 2027 06:13:12.213   10 Jun 2027 06:13:14.315             2.102          1051.000
       287   10 Jun 2027 06:13:27.911   10 Jun 2027 06:13:31.764             3.853          1926.500
       288   10 Jun 2027 06:13:58.532   10 Jun 2027 06:14:07.835             9.303          4651.500
       289   10 Jun 2027 06:14:43.929   10 Jun 2027 06:14:53.733             9.804          4902.000
       290   10 Jun 2027 06:15:17.118   10 Jun 2027 06:15:29.081            11.963          5981.500
       291   10 Jun 2027 07:47:03.660   10 Jun 2027 07:47:04.355             0.695           347.500
       292   10 Jun 2027 07:47:32.179   10 Jun 2027 07:47:35.170             2.991          1495.500
       293   10 Jun 2027 07:47:49.685   10 Jun 2027 07:48:01.980            12.295          6147.500
       294   10 Jun 2027 07:49:05.688   10 Jun 2027 07:49:10.341             4.653          2326.500
       295   10 Jun 2027 07:49:49.725   10 Jun 2027 07:49:53.735             4.010          2005.000
       296   10 Jun 2027 07:50:17.345   10 Jun 2027 07:50:20.430             3.085          1542.500
       297   10 Jun 2027 07:50:47.053   10 Jun 2027 07:50:48.499             1.446           723.000
       298   10 Jun 2027 07:51:14.017   10 Jun 2027 07:51:16.999             2.982          1491.000
       299   10 Jun 2027 07:52:04.704   10 Jun 2027 07:52:10.878             6.174          3087.000
       300   11 Jun 2027 03:08:33.005   11 Jun 2027 03:08:35.364             2.359          1179.500
       301   11 Jun 2027 03:08:42.614   11 Jun 2027 03:08:42.614             0.000             0.000
       302   11 Jun 2027 03:09:13.840   11 Jun 2027 03:09:16.490             2.650          1325.000
       303   11 Jun 2027 03:09:32.199   11 Jun 2027 03:09:41.862             9.663          4831.500
       304   11 Jun 2027 03:09:55.486   11 Jun 2027 03:09:59.524             4.038          2019.000
       305   11 Jun 2027 03:10:42.777   11 Jun 2027 03:10:53.643            10.866          5433.000
       306   11 Jun 2027 03:11:09.369   11 Jun 2027 03:11:14.518             5.149          2574.500
       307   11 Jun 2027 03:12:11.570   11 Jun 2027 03:12:15.509             3.939          1969.500
       308   11 Jun 2027 03:12:49.488   11 Jun 2027 03:12:53.877             4.389          2194.500
       309   11 Jun 2027 03:13:29.206   11 Jun 2027 03:13:33.864             4.658          2329.000
       310   11 Jun 2027 03:14:03.605   11 Jun 2027 03:14:08.785             5.180          2590.000
       311   11 Jun 2027 03:14:30.423   11 Jun 2027 03:14:33.842             3.419          1709.500
       312   11 Jun 2027 03:15:10.558   11 Jun 2027 03:15:16.743             6.185          3092.500
       313   11 Jun 2027 03:15:49.869   11 Jun 2027 03:15:52.499             2.630          1315.000
       314   11 Jun 2027 03:16:04.378   11 Jun 2027 03:16:06.108             1.730           865.000
       315   11 Jun 2027 04:45:22.728   11 Jun 2027 04:45:26.094             3.366          1683.000
       316   11 Jun 2027 04:46:05.019   11 Jun 2027 04:46:19.955            14.936          7468.000
       317   11 Jun 2027 04:47:25.691   11 Jun 2027 04:47:29.399             3.708          1854.000
       318   11 Jun 2027 04:48:51.272   11 Jun 2027 04:48:52.797             1.525           762.500
       319   11 Jun 2027 04:49:13.651   11 Jun 2027 04:49:16.805             3.154          1577.000
       320   11 Jun 2027 04:49:56.290   11 Jun 2027 04:50:04.082             7.792          3896.000
       321   11 Jun 2027 04:50:30.269   11 Jun 2027 04:50:32.349             2.080          1040.000
       322   11 Jun 2027 04:51:07.223   11 Jun 2027 04:51:08.444             1.221           610.500
       323   11 Jun 2027 04:51:28.720   11 Jun 2027 04:51:36.932             8.212          4106.000
       324   11 Jun 2027 06:23:34.677   11 Jun 2027 06:23:37.509             2.832          1416.000
       325   11 Jun 2027 06:23:49.090   11 Jun 2027 06:23:59.770            10.680          5340.000
       326   11 Jun 2027 06:24:46.724   11 Jun 2027 06:24:49.710             2.986          1493.000
       327   11 Jun 2027 06:25:14.359   11 Jun 2027 06:25:17.201             2.842          1421.000
       328   11 Jun 2027 06:25:34.577   11 Jun 2027 06:25:36.551             1.974           987.000
       329   11 Jun 2027 06:26:15.328   11 Jun 2027 06:26:16.139             0.811           405.500
       330   11 Jun 2027 06:26:28.562   11 Jun 2027 06:26:54.201            25.639         12819.500
       331   11 Jun 2027 07:56:52.452   11 Jun 2027 07:57:01.498             9.046          4523.000
       332   11 Jun 2027 07:57:16.291   11 Jun 2027 07:57:21.738             5.447          2723.500
       333   11 Jun 2027 07:57:31.175   11 Jun 2027 07:57:38.099             6.924          3462.000
       334   11 Jun 2027 07:58:52.064   11 Jun 2027 07:58:57.036             4.972          2486.000
       335   11 Jun 2027 07:59:54.612   11 Jun 2027 08:00:00.088             5.476          2738.000
       336   11 Jun 2027 08:01:05.057   11 Jun 2027 08:01:07.861             2.804          1402.000
       337   11 Jun 2027 08:01:15.222   11 Jun 2027 08:01:19.090             3.868          1934.000
       338   11 Jun 2027 08:01:40.589   11 Jun 2027 08:01:44.480             3.891          1945.500
       339   11 Jun 2027 08:02:11.827   11 Jun 2027 08:02:15.163             3.336          1668.000
       340   11 Jun 2027 08:02:34.556   11 Jun 2027 08:02:36.089             1.533           766.500
       341   11 Jun 2027 08:02:42.225   11 Jun 2027 08:02:48.395             6.170          3085.000
       342   11 Jun 2027 08:03:31.966   11 Jun 2027 08:03:32.271             0.305           152.500
       343   11 Jun 2027 08:03:40.601   11 Jun 2027 08:03:44.614             4.013          2006.500
       344   11 Jun 2027 08:04:28.052   11 Jun 2027 08:04:36.438             8.386          4193.000
       345   12 Jun 2027 03:20:40.997   12 Jun 2027 03:20:41.063             0.066            33.000
       346   12 Jun 2027 03:21:04.800   12 Jun 2027 03:21:09.094             4.294          2147.000
       347   12 Jun 2027 03:21:40.921   12 Jun 2027 03:21:41.847             0.926           463.000
       348   12 Jun 2027 03:21:59.009   12 Jun 2027 03:22:03.293             4.284          2142.000
       349   12 Jun 2027 03:23:09.613   12 Jun 2027 03:23:12.219             2.606          1303.000
       350   12 Jun 2027 03:23:33.646   12 Jun 2027 03:23:37.759             4.113          2056.500
       351   12 Jun 2027 03:24:01.550   12 Jun 2027 03:24:07.802             6.252          3126.000
       352   12 Jun 2027 03:24:42.742   12 Jun 2027 03:24:45.250             2.508          1254.000
       353   12 Jun 2027 03:25:38.104   12 Jun 2027 03:25:42.319             4.215          2107.500
       354   12 Jun 2027 03:26:05.459   12 Jun 2027 03:26:06.215             0.756           378.000
       355   12 Jun 2027 03:26:14.976   12 Jun 2027 03:26:17.109             2.133          1066.500
       356   12 Jun 2027 03:26:49.405   12 Jun 2027 03:27:02.568            13.163          6581.500
       357   12 Jun 2027 04:57:39.045   12 Jun 2027 04:57:53.193            14.148          7074.000
       358   12 Jun 2027 04:58:25.947   12 Jun 2027 04:58:45.385            19.438          9719.000
       359   12 Jun 2027 05:00:30.365   12 Jun 2027 05:00:35.853             5.488          2744.000
       360   12 Jun 2027 05:00:59.865   12 Jun 2027 05:01:05.102             5.237          2618.500
       361   12 Jun 2027 05:03:14.872   12 Jun 2027 05:03:16.775             1.903           951.500
       362   12 Jun 2027 06:35:34.787   12 Jun 2027 06:35:37.877             3.090          1545.000
       363   12 Jun 2027 06:36:15.894   12 Jun 2027 06:36:28.844            12.950          6475.000
       364   12 Jun 2027 06:37:45.470   12 Jun 2027 06:37:46.397             0.927           463.500
       365   12 Jun 2027 06:37:56.297   12 Jun 2027 06:38:12.795            16.498          8249.000
       366   12 Jun 2027 08:08:54.618   12 Jun 2027 08:09:28.826            34.208         17104.000
       367   12 Jun 2027 08:11:47.825   12 Jun 2027 08:12:08.664            20.839         10419.500
       368   12 Jun 2027 08:13:41.436   12 Jun 2027 08:13:59.911            18.475          9237.500
       369   12 Jun 2027 08:15:26.990   12 Jun 2027 08:15:28.212             1.222           611.000
       370   12 Jun 2027 08:15:39.255   12 Jun 2027 08:15:41.479             2.224          1112.000
       371   12 Jun 2027 08:15:52.800   12 Jun 2027 08:15:53.286             0.486           243.000
       372   13 Jun 2027 03:32:42.877   13 Jun 2027 03:32:50.172             7.295          3647.500
       373   13 Jun 2027 03:33:44.618   13 Jun 2027 03:33:48.585             3.967          1983.500
       374   13 Jun 2027 03:34:05.661   13 Jun 2027 03:34:06.103             0.442           221.000
       375   13 Jun 2027 03:34:08.023   13 Jun 2027 03:34:15.658             7.635          3817.500
       376   13 Jun 2027 03:35:04.534   13 Jun 2027 03:35:06.298             1.764           882.000
       377   13 Jun 2027 03:35:10.739   13 Jun 2027 03:35:16.966             6.227          3113.500
       378   13 Jun 2027 03:35:51.204   13 Jun 2027 03:35:53.604             2.400          1200.000
       379   13 Jun 2027 03:36:17.481   13 Jun 2027 03:36:20.169             2.688          1344.000
       380   13 Jun 2027 03:36:40.285   13 Jun 2027 03:36:48.478             8.193          4096.500
       381   13 Jun 2027 03:37:33.552   13 Jun 2027 03:37:42.593             9.041          4520.500
       382   13 Jun 2027 03:38:26.575   13 Jun 2027 03:38:36.270             9.695          4847.500
       383   13 Jun 2027 03:39:30.258   13 Jun 2027 03:39:33.460             3.202          1601.000
       384   13 Jun 2027 05:09:28.820   13 Jun 2027 05:09:39.249            10.429          5214.500
       385   13 Jun 2027 05:10:30.155   13 Jun 2027 05:10:33.618             3.463          1731.500
       386   13 Jun 2027 05:11:19.668   13 Jun 2027 05:11:29.148             9.480          4740.000
       387   13 Jun 2027 05:12:27.068   13 Jun 2027 05:12:28.323             1.255           627.500
       388   13 Jun 2027 05:12:56.256   13 Jun 2027 05:12:56.849             0.593           296.500
       389   13 Jun 2027 05:13:39.557   13 Jun 2027 05:13:40.967             1.410           705.000
       390   13 Jun 2027 05:13:51.910   13 Jun 2027 05:13:56.912             5.002          2501.000
       391   13 Jun 2027 05:14:23.956   13 Jun 2027 05:14:35.879            11.923          5961.500
       392   13 Jun 2027 05:15:40.348   13 Jun 2027 05:15:41.055             0.707           353.500
       393   13 Jun 2027 05:16:00.622   13 Jun 2027 05:16:01.712             1.090           545.000
       394   13 Jun 2027 05:16:07.323   13 Jun 2027 05:16:10.370             3.047          1523.500
       395   13 Jun 2027 06:47:33.867   13 Jun 2027 06:47:37.373             3.506          1753.000
       396   13 Jun 2027 06:48:10.047   13 Jun 2027 06:48:15.021             4.974          2487.000
       397   13 Jun 2027 06:48:37.535   13 Jun 2027 06:48:37.831             0.296           148.000
       398   13 Jun 2027 06:49:03.928   13 Jun 2027 06:49:05.455             1.527           763.500
       399   13 Jun 2027 06:49:29.018   13 Jun 2027 06:49:30.129             1.111           555.500
       400   13 Jun 2027 06:49:54.921   13 Jun 2027 06:50:02.473             7.552          3776.000
       401   13 Jun 2027 06:51:17.498   13 Jun 2027 06:51:25.907             8.409          4204.500
       402   13 Jun 2027 08:21:21.386   13 Jun 2027 08:21:34.044            12.658          6329.000
       403   13 Jun 2027 08:22:46.356   13 Jun 2027 08:22:46.839             0.483           241.500
       404   13 Jun 2027 08:23:10.814   13 Jun 2027 08:23:12.319             1.505           752.500
       405   13 Jun 2027 08:23:36.351   13 Jun 2027 08:23:57.066            20.715         10357.500
       406   13 Jun 2027 08:25:41.983   13 Jun 2027 08:25:51.146             9.163          4581.500
       407   13 Jun 2027 08:26:32.370   13 Jun 2027 08:26:36.350             3.980          1990.000
       408   13 Jun 2027 08:26:53.051   13 Jun 2027 08:27:22.520            29.469         14734.500
