uniorb/output/strategy_2/Camera/Camera_KinoSat_111709.txt

KinoSat_111709
-------------------------
    Access    *     Start Time (UTCG)     *     Stop Time (UTCG)  *   Duration (s) *   Data (Mbytes)
         1   01 Jun 2027 04:08:14.426   01 Jun 2027 04:09:15.652            61.226         30613.000
         2   01 Jun 2027 04:09:22.339   01 Jun 2027 04:11:42.457           140.118         70059.000
         3   01 Jun 2027 04:11:49.777   01 Jun 2027 04:12:01.657            11.880          5940.000
         4   01 Jun 2027 04:12:17.293   01 Jun 2027 04:12:17.293             0.000             0.000
         5   01 Jun 2027 04:12:40.670   01 Jun 2027 04:12:59.182            18.512          9256.000
         6   01 Jun 2027 04:13:48.281   01 Jun 2027 04:13:53.393             5.112          2556.000
         7   01 Jun 2027 05:46:31.810   01 Jun 2027 05:46:39.963             8.153          4076.500
         8   01 Jun 2027 05:47:29.728   01 Jun 2027 05:49:10.108           100.380         50190.000
         9   01 Jun 2027 05:49:11.975   01 Jun 2027 05:49:28.339            16.364          8182.000
        10   01 Jun 2027 05:49:52.216   01 Jun 2027 05:50:10.677            18.461          9230.500
        11   01 Jun 2027 07:09:54.516   01 Jun 2027 07:11:35.295           100.779         50389.500
        12   01 Jun 2027 08:46:27.833   01 Jun 2027 08:48:12.554           104.721         52360.500
        13   01 Jun 2027 08:49:21.418   01 Jun 2027 08:49:57.313            35.895         17947.500
        14   01 Jun 2027 10:21:37.955   01 Jun 2027 10:24:31.562           173.607         86803.500
        15   01 Jun 2027 10:28:02.711   01 Jun 2027 10:28:14.037            11.326          5663.000
        16   01 Jun 2027 11:57:59.303   01 Jun 2027 11:59:01.305            62.002         31001.000
        17   02 Jun 2027 04:21:21.099   02 Jun 2027 04:23:42.965           141.866         70933.000
        18   02 Jun 2027 04:23:51.791   02 Jun 2027 04:24:07.226            15.435          7717.500
        19   02 Jun 2027 04:25:08.416   02 Jun 2027 04:25:34.744            26.328         13164.000
        20   02 Jun 2027 04:28:04.649   02 Jun 2027 04:28:23.937            19.288          9644.000
        21   02 Jun 2027 05:58:28.754   02 Jun 2027 05:59:09.208            40.454         20227.000
        22   02 Jun 2027 05:59:26.758   02 Jun 2027 06:00:35.293            68.535         34267.500
        23   02 Jun 2027 06:01:07.208   02 Jun 2027 06:01:18.298            11.090          5545.000
        24   02 Jun 2027 07:21:56.340   02 Jun 2027 07:24:29.104           152.764         76382.000
        25   02 Jun 2027 08:58:32.063   02 Jun 2027 09:00:08.808            96.745         48372.500
        26   02 Jun 2027 10:33:12.121   02 Jun 2027 10:33:40.365            28.244         14122.000
        27   02 Jun 2027 10:35:25.097   02 Jun 2027 10:35:45.850            20.753          8188.094
        28   02 Jun 2027 10:36:11.609   02 Jun 2027 10:36:11.609             0.000             0.000
        29   02 Jun 2027 10:38:33.573   02 Jun 2027 10:38:44.876            11.303          5185.875
        30   02 Jun 2027 10:39:43.146   02 Jun 2027 10:39:46.848             3.702          1592.406
        31   02 Jun 2027 10:40:18.601   02 Jun 2027 10:40:20.568             1.967           918.031
        32   03 Jun 2027 03:00:00.000   03 Jun 2027 03:00:19.113            19.113          9556.500
        33   03 Jun 2027 03:01:02.149   03 Jun 2027 03:01:08.672             6.523          3261.500
        34   03 Jun 2027 04:33:25.217   03 Jun 2027 04:37:11.133           225.916        112958.000
        35   03 Jun 2027 04:40:28.005   03 Jun 2027 04:40:59.222            31.217         15608.500
        36   03 Jun 2027 05:59:10.253   03 Jun 2027 05:59:49.650            39.397         19698.500
        37   03 Jun 2027 06:10:25.479   03 Jun 2027 06:10:52.424            26.945         11944.969
        38   03 Jun 2027 06:11:10.111   03 Jun 2027 06:11:11.809             1.698           528.188
        39   03 Jun 2027 06:11:27.046   03 Jun 2027 06:11:29.500             2.454           457.875
        40   03 Jun 2027 07:33:01.676   03 Jun 2027 07:33:15.080            13.404          6655.375
        41   03 Jun 2027 07:34:13.655   03 Jun 2027 07:34:19.266             5.611          1488.875
        42   03 Jun 2027 07:34:56.542   03 Jun 2027 07:34:56.542             0.000             0.000
        43   03 Jun 2027 07:35:22.245   03 Jun 2027 07:35:26.871             4.626          1968.094
        44   03 Jun 2027 07:36:22.866   03 Jun 2027 07:36:27.268             4.402          1179.656
        45   03 Jun 2027 07:36:53.964   03 Jun 2027 07:36:55.690             1.726           669.813
        46   03 Jun 2027 07:37:40.731   03 Jun 2027 07:37:40.731             0.000             0.000
        47   03 Jun 2027 09:08:36.613   03 Jun 2027 09:08:45.936             9.323          4638.094
        48   03 Jun 2027 09:09:03.270   03 Jun 2027 09:09:10.017             6.747           289.406
        49   03 Jun 2027 09:10:21.242   03 Jun 2027 09:10:25.146             3.904          1952.000
        50   03 Jun 2027 09:10:54.991   03 Jun 2027 09:10:59.139             4.148          1049.500
        51   03 Jun 2027 09:12:15.761   03 Jun 2027 09:12:20.408             4.647          2071.125
        52   03 Jun 2027 09:12:46.312   03 Jun 2027 09:12:46.312             0.000             0.000
        53   03 Jun 2027 10:45:41.571   03 Jun 2027 10:45:53.480            11.909          5921.906
        54   03 Jun 2027 10:46:41.383   03 Jun 2027 10:46:43.349             1.966            95.719
        55   03 Jun 2027 10:48:18.757   03 Jun 2027 10:48:20.499             1.742           749.344
        56   03 Jun 2027 10:49:33.669   03 Jun 2027 10:49:38.739             5.070          2251.719
        57   03 Jun 2027 10:49:57.541   03 Jun 2027 10:49:58.693             1.152           515.469
        58   03 Jun 2027 10:50:52.281   03 Jun 2027 10:50:54.557             2.276          1138.000
        59   03 Jun 2027 10:50:57.800   03 Jun 2027 10:51:00.057             2.257           634.125
        60   03 Jun 2027 10:51:43.397   03 Jun 2027 10:51:46.304             2.907          1354.375
        61   03 Jun 2027 10:52:18.346   03 Jun 2027 10:52:20.409             2.063           376.813
        62   04 Jun 2027 03:06:50.519   04 Jun 2027 03:08:56.979           126.460         63230.000
        63   04 Jun 2027 03:09:07.352   04 Jun 2027 03:09:31.429            24.077         12038.500
        64   04 Jun 2027 03:11:58.068   04 Jun 2027 03:12:06.539             8.471          4235.500
        65   04 Jun 2027 04:45:55.291   04 Jun 2027 04:48:08.878           133.587         66793.500
        66   04 Jun 2027 04:48:19.985   04 Jun 2027 04:48:25.137             5.152          2576.000
        67   04 Jun 2027 04:48:27.889   04 Jun 2027 04:48:36.666             8.777          4146.875
        68   04 Jun 2027 04:49:56.419   04 Jun 2027 04:49:56.419             0.000             0.000
        69   04 Jun 2027 04:50:33.203   04 Jun 2027 04:50:40.781             7.578          3641.781
        70   04 Jun 2027 04:51:42.625   04 Jun 2027 04:51:44.876             2.251          1125.500
        71   04 Jun 2027 06:10:45.416   04 Jun 2027 06:10:48.167             2.751          1375.500
        72   04 Jun 2027 06:11:16.041   04 Jun 2027 06:11:21.393             5.352          2676.000
        73   04 Jun 2027 06:22:26.479   04 Jun 2027 06:22:38.819            12.340          5798.125
        74   04 Jun 2027 06:23:25.156   04 Jun 2027 06:23:27.325             2.169          1052.594
        75   04 Jun 2027 07:44:44.421   04 Jun 2027 07:44:58.220            13.799          6669.156
        76   04 Jun 2027 07:45:26.699   04 Jun 2027 07:45:26.699             0.000             0.000
        77   04 Jun 2027 07:46:41.388   04 Jun 2027 07:46:48.488             7.100          2442.750
        78   04 Jun 2027 07:47:06.629   04 Jun 2027 07:47:09.535             2.906           250.156
        79   04 Jun 2027 07:47:47.600   04 Jun 2027 07:47:50.538             2.938          1136.938
        80   04 Jun 2027 07:48:13.372   04 Jun 2027 07:48:19.913             6.541           600.250
        81   04 Jun 2027 07:49:04.598   04 Jun 2027 07:49:07.114             2.516          1027.062
        82   04 Jun 2027 09:19:43.077   04 Jun 2027 09:19:51.080             8.003          3762.219
        83   04 Jun 2027 09:20:27.013   04 Jun 2027 09:20:29.040             2.027           530.281
        84   04 Jun 2027 09:21:13.853   04 Jun 2027 09:21:18.876             5.023          1348.719
        85   04 Jun 2027 09:22:10.962   04 Jun 2027 09:22:13.793             2.831           952.750
        86   04 Jun 2027 09:22:43.246   04 Jun 2027 09:22:45.717             2.471           618.844
        87   04 Jun 2027 09:24:53.569   04 Jun 2027 09:24:54.859             1.290           645.000
        88   04 Jun 2027 09:25:25.969   04 Jun 2027 09:25:33.209             7.240          3437.562
        89   04 Jun 2027 09:26:20.899   04 Jun 2027 09:26:30.792             9.893          1461.406
        90   04 Jun 2027 09:27:41.429   04 Jun 2027 09:27:45.477             4.048          1198.344
        91   04 Jun 2027 10:57:10.255   04 Jun 2027 10:57:20.427            10.172          4832.375
        92   04 Jun 2027 10:57:42.648   04 Jun 2027 10:57:44.142             1.494           673.906
        93   04 Jun 2027 10:58:07.645   04 Jun 2027 10:58:08.846             1.201           600.500
        94   04 Jun 2027 10:58:11.047   04 Jun 2027 10:58:12.296             1.249           196.125
        95   04 Jun 2027 10:58:21.022   04 Jun 2027 10:58:21.626             0.604           111.969
        96   04 Jun 2027 10:59:09.453   04 Jun 2027 10:59:16.160             6.707           899.188
        97   04 Jun 2027 10:59:53.899   04 Jun 2027 10:59:57.051             3.152           713.687
        98   04 Jun 2027 11:00:32.144   04 Jun 2027 11:00:34.118             1.974           778.000
        99   04 Jun 2027 11:03:24.706   04 Jun 2027 11:03:35.472            10.766          5286.688
       100   04 Jun 2027 11:04:11.912   04 Jun 2027 11:04:14.197             2.285          1138.750
       101   05 Jun 2027 03:19:10.623   05 Jun 2027 03:19:37.289            26.666         13333.000
       102   05 Jun 2027 03:19:42.604   05 Jun 2027 03:20:16.553            33.949         16974.500
       103   05 Jun 2027 03:20:20.423   05 Jun 2027 03:21:15.712            55.289         27644.500
       104   05 Jun 2027 03:21:16.579   05 Jun 2027 03:23:11.546           114.967         57483.500
       105   05 Jun 2027 03:24:26.949   05 Jun 2027 03:24:39.669            12.720          6360.000
       106   05 Jun 2027 04:57:57.485   05 Jun 2027 04:58:01.805             4.320          2160.000
       107   05 Jun 2027 04:58:12.113   05 Jun 2027 04:59:17.164            65.051         31022.313
       108   05 Jun 2027 04:59:41.314   05 Jun 2027 04:59:42.640             1.326           663.000
       109   05 Jun 2027 04:59:57.047   05 Jun 2027 05:00:01.274             4.227           474.594
       110   05 Jun 2027 05:00:37.455   05 Jun 2027 05:00:37.605             0.150            75.000
       111   05 Jun 2027 05:01:04.117   05 Jun 2027 05:01:04.117             0.000             0.000
       112   05 Jun 2027 05:01:12.055   05 Jun 2027 05:01:15.956             3.901          1461.594
       113   05 Jun 2027 05:02:01.104   05 Jun 2027 05:02:01.104             0.000             0.000
       114   05 Jun 2027 05:02:24.849   05 Jun 2027 05:02:31.915             7.066          2152.906
       115   05 Jun 2027 05:03:11.123   05 Jun 2027 05:03:15.062             3.939          1052.437
       116   05 Jun 2027 05:04:49.664   05 Jun 2027 05:04:55.547             5.883          2917.250
       117   05 Jun 2027 06:22:18.153   05 Jun 2027 06:22:30.704            12.551          6103.406
       118   05 Jun 2027 06:23:23.016   05 Jun 2027 06:23:28.525             5.509          1257.250
       119   05 Jun 2027 06:24:05.004   05 Jun 2027 06:24:07.215             2.211           367.687
       120   05 Jun 2027 06:34:34.208   05 Jun 2027 06:34:40.185             5.977          2420.906
       121   05 Jun 2027 07:56:21.973   05 Jun 2027 07:56:37.899            15.926          6009.063
       122   05 Jun 2027 07:57:05.318   05 Jun 2027 07:57:05.318             0.000             0.000
       123   05 Jun 2027 07:58:26.916   05 Jun 2027 07:58:34.649             7.733          2162.094
       124   05 Jun 2027 07:59:52.099   05 Jun 2027 07:59:58.399             6.300          2283.656
       125   05 Jun 2027 08:01:19.235   05 Jun 2027 08:01:27.695             8.460          2413.625
       126   05 Jun 2027 08:01:32.913   05 Jun 2027 08:01:36.973             4.060           163.063
       127   05 Jun 2027 08:02:06.496   05 Jun 2027 08:02:06.595             0.099            49.500
       128   05 Jun 2027 09:31:10.933   05 Jun 2027 09:31:23.672            12.739          4823.313
       129   05 Jun 2027 09:33:06.504   05 Jun 2027 09:33:11.809             5.305          2093.750
       130   05 Jun 2027 09:33:40.464   05 Jun 2027 09:33:42.652             2.188           654.813
       131   05 Jun 2027 09:34:40.195   05 Jun 2027 09:34:42.725             2.530          1257.188
       132   05 Jun 2027 09:36:48.140   05 Jun 2027 09:36:48.140             0.000             0.000
       133   05 Jun 2027 09:37:54.353   05 Jun 2027 09:38:06.108            11.755          5711.188
       134   05 Jun 2027 09:38:23.331   05 Jun 2027 09:38:23.331             0.000             0.000
       135   05 Jun 2027 09:39:34.145   05 Jun 2027 09:39:39.838             5.693          2075.094
       136   05 Jun 2027 09:39:53.576   05 Jun 2027 09:39:54.378             0.802           262.906
       137   05 Jun 2027 11:12:03.088   05 Jun 2027 11:12:27.256            24.168         11039.406
       138   05 Jun 2027 11:13:19.689   05 Jun 2027 11:13:19.803             0.114            57.000
       139   05 Jun 2027 11:14:59.808   05 Jun 2027 11:15:08.944             9.136          4384.688
       140   05 Jun 2027 11:15:23.784   05 Jun 2027 11:15:24.864             1.080           463.750
       141   05 Jun 2027 11:16:05.493   05 Jun 2027 11:16:08.605             3.112          1269.656
       142   06 Jun 2027 03:31:53.505   06 Jun 2027 03:32:08.418            14.913          7456.500
       143   06 Jun 2027 03:32:17.331   06 Jun 2027 03:33:29.217            71.886         35943.000
       144   06 Jun 2027 03:33:58.385   06 Jun 2027 03:35:48.689           110.304         55152.000
       145   06 Jun 2027 03:35:59.873   06 Jun 2027 03:36:27.872            27.999         13999.500
       146   06 Jun 2027 03:37:07.243   06 Jun 2027 03:37:11.945             4.702          2351.000
       147   06 Jun 2027 03:37:19.616   06 Jun 2027 03:37:29.055             9.439          4719.500
       148   06 Jun 2027 05:10:22.964   06 Jun 2027 05:11:35.466            72.502         36156.125
       149   06 Jun 2027 05:11:39.622   06 Jun 2027 05:11:41.199             1.577           129.875
       150   06 Jun 2027 05:13:18.432   06 Jun 2027 05:13:26.546             8.114          2179.500
       151   06 Jun 2027 05:14:03.232   06 Jun 2027 05:14:05.977             2.745          1067.406
       152   06 Jun 2027 05:15:14.067   06 Jun 2027 05:15:14.319             0.252           126.000
       153   06 Jun 2027 06:34:15.158   06 Jun 2027 06:34:31.048            15.890          7841.188
       154   06 Jun 2027 06:35:18.534   06 Jun 2027 06:35:23.392             4.858          1206.000
       155   06 Jun 2027 06:36:17.761   06 Jun 2027 06:36:19.386             1.625           812.500
       156   06 Jun 2027 08:10:14.276   06 Jun 2027 08:10:28.796            14.520          6374.375
       157   06 Jun 2027 08:10:55.368   06 Jun 2027 08:10:59.084             3.716           803.625
       158   06 Jun 2027 08:11:41.955   06 Jun 2027 08:11:43.980             2.025          1012.500
       159   06 Jun 2027 08:11:58.684   06 Jun 2027 08:11:58.684             0.000             0.000
       160   06 Jun 2027 08:13:19.866   06 Jun 2027 08:13:28.400             8.534          3235.906
       161   06 Jun 2027 09:44:02.703   06 Jun 2027 09:44:13.079            10.376          5177.688
       162   06 Jun 2027 09:44:37.767   06 Jun 2027 09:44:39.358             1.591           771.500
       163   06 Jun 2027 09:47:29.758   06 Jun 2027 09:47:41.057            11.299          4444.688
       164   06 Jun 2027 09:48:13.226   06 Jun 2027 09:48:15.948             2.722           435.656
       165   06 Jun 2027 09:48:34.412   06 Jun 2027 09:48:36.652             2.240           157.625
       166   06 Jun 2027 09:49:45.813   06 Jun 2027 09:49:53.907             8.094          2161.281
       167   06 Jun 2027 09:51:48.815   06 Jun 2027 09:51:56.187             7.372          3466.094
       168   06 Jun 2027 09:52:12.724   06 Jun 2027 09:52:13.591             0.867            41.938
       169   06 Jun 2027 11:21:11.555   06 Jun 2027 11:21:28.214            16.659          7689.812
       170   06 Jun 2027 11:22:09.658   06 Jun 2027 11:22:11.806             2.148           712.750
       171   06 Jun 2027 11:23:48.389   06 Jun 2027 11:23:55.225             6.836          2744.594
       172   06 Jun 2027 11:24:14.375   06 Jun 2027 11:24:16.473             2.098           578.844
       173   06 Jun 2027 11:24:44.798   06 Jun 2027 11:24:47.454             2.656            81.812
       174   06 Jun 2027 11:25:09.024   06 Jun 2027 11:25:09.860             0.836           313.750
       175   06 Jun 2027 11:26:12.609   06 Jun 2027 11:26:12.609             0.000             0.000
       176   06 Jun 2027 11:26:17.481   06 Jun 2027 11:26:22.124             4.643          1982.375
       177   06 Jun 2027 11:27:26.859   06 Jun 2027 11:27:30.362             3.503          1751.500
       178   06 Jun 2027 11:28:28.804   06 Jun 2027 11:28:30.072             1.268           634.000
       179   07 Jun 2027 03:44:37.526   07 Jun 2027 03:44:56.674            19.148          9574.000
       180   07 Jun 2027 03:45:10.405   07 Jun 2027 03:46:05.648            55.243         27621.500
       181   07 Jun 2027 03:46:05.921   07 Jun 2027 03:48:25.216           139.295         69647.500
       182   07 Jun 2027 03:48:53.841   07 Jun 2027 03:49:06.898            13.057          6528.500
       183   07 Jun 2027 05:22:45.107   07 Jun 2027 05:23:12.922            27.815         13907.500
       184   07 Jun 2027 05:23:34.392   07 Jun 2027 05:24:38.444            64.052         31504.687
       185   07 Jun 2027 05:25:06.762   07 Jun 2027 05:25:09.957             3.195           409.844
       186   07 Jun 2027 05:25:31.443   07 Jun 2027 05:25:35.008             3.565           235.969
       187   07 Jun 2027 06:46:08.417   07 Jun 2027 06:46:29.330            20.913          8862.250
       188   07 Jun 2027 06:47:25.859   07 Jun 2027 06:47:30.686             4.827          1642.031
       189   07 Jun 2027 06:48:22.603   07 Jun 2027 06:48:27.402             4.799          1370.062
       190   07 Jun 2027 08:22:31.175   07 Jun 2027 08:22:49.464            18.289          8959.344
       191   07 Jun 2027 08:23:20.435   07 Jun 2027 08:23:23.611             3.176           954.531
       192   07 Jun 2027 08:23:54.063   07 Jun 2027 08:23:57.412             3.349           834.313
       193   07 Jun 2027 08:25:20.087   07 Jun 2027 08:25:28.998             8.911          2270.188
       194   07 Jun 2027 09:56:26.241   07 Jun 2027 09:56:35.262             9.021          4481.250
       195   07 Jun 2027 09:58:07.649   07 Jun 2027 09:58:13.278             5.629          1861.844
       196   07 Jun 2027 09:58:31.517   07 Jun 2027 09:58:35.241             3.724            50.187
       197   07 Jun 2027 09:59:34.912   07 Jun 2027 09:59:37.392             2.480           920.281
       198   07 Jun 2027 10:00:11.454   07 Jun 2027 10:00:15.205             3.751          1064.437
       199   07 Jun 2027 10:00:26.558   07 Jun 2027 10:00:27.250             0.692           300.500
       200   07 Jun 2027 10:00:42.041   07 Jun 2027 10:00:44.130             2.089           414.219
       201   07 Jun 2027 10:01:47.177   07 Jun 2027 10:01:50.821             3.644          1672.969
       202   07 Jun 2027 10:02:16.932   07 Jun 2027 10:02:19.744             2.812           815.969
       203   07 Jun 2027 10:03:28.486   07 Jun 2027 10:03:31.115             2.629          1314.500
       204   07 Jun 2027 10:03:32.246   07 Jun 2027 10:03:36.543             4.297           710.750
       205   07 Jun 2027 10:03:48.307   07 Jun 2027 10:03:48.887             0.580           106.781
       206   07 Jun 2027 10:04:30.962   07 Jun 2027 10:04:33.360             2.398          1199.000
       207   07 Jun 2027 11:33:37.449   07 Jun 2027 11:33:52.430            14.981          7073.281
       208   07 Jun 2027 11:33:57.844   07 Jun 2027 11:34:01.570             3.726            70.250
       209   07 Jun 2027 11:34:28.007   07 Jun 2027 11:34:31.116             3.109           707.125
       210   07 Jun 2027 11:35:40.626   07 Jun 2027 11:35:43.281             2.655          1097.219
       211   07 Jun 2027 11:36:24.560   07 Jun 2027 11:36:45.560            21.000          1210.438
       212   07 Jun 2027 11:36:52.445   07 Jun 2027 11:36:54.176             1.731           215.156
       213   07 Jun 2027 11:38:20.275   07 Jun 2027 11:38:25.792             5.517          2353.219
       214   07 Jun 2027 11:39:22.367   07 Jun 2027 11:39:26.897             4.530          1767.969
       215   07 Jun 2027 11:39:46.967   07 Jun 2027 11:39:48.560             1.593           627.188
       216   07 Jun 2027 11:40:11.168   07 Jun 2027 11:40:13.423             2.255           656.906
       217   08 Jun 2027 03:56:41.340   08 Jun 2027 03:57:37.478            56.138         28069.000
       218   08 Jun 2027 03:57:43.183   08 Jun 2027 03:58:18.376            35.193         17596.500
       219   08 Jun 2027 03:58:36.139   08 Jun 2027 03:59:13.895            37.756         18878.000
       220   08 Jun 2027 03:59:34.071   08 Jun 2027 04:00:04.526            30.455         15227.500
       221   08 Jun 2027 04:00:21.612   08 Jun 2027 04:01:14.465            52.853         26426.500
       222   08 Jun 2027 04:01:48.362   08 Jun 2027 04:02:20.147            31.785         15892.500
       223   08 Jun 2027 04:02:21.284   08 Jun 2027 04:02:23.124             1.840           920.000
       224   08 Jun 2027 05:35:07.545   08 Jun 2027 05:36:28.095            80.550         39598.719
       225   08 Jun 2027 05:37:29.701   08 Jun 2027 05:37:34.008             4.307          1504.344
       226   08 Jun 2027 05:38:33.092   08 Jun 2027 05:38:36.711             3.619           724.094
       227   08 Jun 2027 06:57:59.782   08 Jun 2027 06:58:10.224            10.442          5221.000
       228   08 Jun 2027 06:59:26.981   08 Jun 2027 06:59:41.590            14.609          3200.219
       229   08 Jun 2027 08:34:34.550   08 Jun 2027 08:34:46.140            11.590          5788.281
       230   08 Jun 2027 08:37:19.800   08 Jun 2027 08:37:28.513             8.713          4314.187
       231   08 Jun 2027 10:09:43.424   08 Jun 2027 10:09:59.369            15.945          7943.062
       232   08 Jun 2027 10:11:42.751   08 Jun 2027 10:11:47.471             4.720          2360.000
       233   08 Jun 2027 10:12:19.360   08 Jun 2027 10:12:27.054             7.694          1164.156
       234   08 Jun 2027 10:13:11.359   08 Jun 2027 10:13:17.705             6.346          1300.875
       235   08 Jun 2027 10:14:51.096   08 Jun 2027 10:14:57.013             5.917          2521.781
       236   08 Jun 2027 10:16:23.743   08 Jun 2027 10:16:29.896             6.153          2528.125
       237   08 Jun 2027 11:46:03.456   08 Jun 2027 11:46:18.236            14.780          7336.656
       238   08 Jun 2027 11:47:39.291   08 Jun 2027 11:47:44.725             5.434          1950.438
       239   08 Jun 2027 11:47:58.741   08 Jun 2027 11:48:01.793             3.052           438.000
       240   08 Jun 2027 11:48:24.235   08 Jun 2027 11:48:25.712             1.477           620.625
       241   08 Jun 2027 11:49:56.672   08 Jun 2027 11:50:04.185             7.513          2125.219
       242   08 Jun 2027 11:51:00.476   08 Jun 2027 11:51:04.502             4.026          1684.375
       243   08 Jun 2027 11:51:32.096   08 Jun 2027 11:51:34.339             2.243           862.313
       244   08 Jun 2027 11:52:23.217   08 Jun 2027 11:52:25.182             1.965           982.500
       245   09 Jun 2027 04:08:31.996   09 Jun 2027 04:09:30.816            58.820         29410.000
       246   09 Jun 2027 04:09:39.310   09 Jun 2027 04:11:05.483            86.173         43086.500
       247   09 Jun 2027 04:11:14.980   09 Jun 2027 04:11:33.403            18.423          9211.500
       248   09 Jun 2027 04:12:06.488   09 Jun 2027 04:12:55.351            48.863         24431.500
       249   09 Jun 2027 04:14:10.705   09 Jun 2027 04:14:20.164             9.459          4729.500
       250   09 Jun 2027 05:46:48.808   09 Jun 2027 05:48:07.688            78.880         39440.000
       251   09 Jun 2027 05:48:33.854   09 Jun 2027 05:48:53.488            19.634          9611.938
       252   09 Jun 2027 07:10:10.555   09 Jun 2027 07:10:30.049            19.494          9410.281
       253   09 Jun 2027 07:11:38.327   09 Jun 2027 07:11:43.293             4.966          1774.312
       254   09 Jun 2027 07:12:48.330   09 Jun 2027 07:12:53.907             5.577          1832.125
       255   09 Jun 2027 07:13:20.976   09 Jun 2027 07:13:21.229             0.253           126.500
       256   09 Jun 2027 08:46:56.131   09 Jun 2027 08:47:12.072            15.941          5574.750
       257   09 Jun 2027 08:48:31.822   09 Jun 2027 08:48:31.822             0.000             0.000
       258   09 Jun 2027 08:49:18.886   09 Jun 2027 08:49:24.894             6.008          2730.781
       259   09 Jun 2027 08:49:45.287   09 Jun 2027 08:49:47.620             2.333           260.188
       260   09 Jun 2027 10:22:10.977   09 Jun 2027 10:22:10.977             0.000             0.000
       261   09 Jun 2027 10:23:16.613   09 Jun 2027 10:23:29.914            13.301          6650.500
       262   09 Jun 2027 10:24:48.688   09 Jun 2027 10:24:59.485            10.797          4626.219
       263   09 Jun 2027 10:26:51.556   09 Jun 2027 10:26:51.556             0.000             0.000
       264   09 Jun 2027 10:28:16.293   09 Jun 2027 10:28:28.677            12.384          5951.062
       265   09 Jun 2027 11:58:16.403   09 Jun 2027 11:58:38.977            22.574          6100.750
       266   09 Jun 2027 11:58:47.440   09 Jun 2027 11:58:51.064             3.624            41.813
       267   09 Jun 2027 11:59:37.032   09 Jun 2027 11:59:41.204             4.172          1156.438
       268   10 Jun 2027 04:21:38.348   10 Jun 2027 04:24:49.252           190.904         95452.000
       269   10 Jun 2027 04:24:58.978   10 Jun 2027 04:25:24.554            25.576         12788.000
       270   10 Jun 2027 04:28:19.199   10 Jun 2027 04:28:19.199             0.000             0.000
       271   10 Jun 2027 04:28:29.719   10 Jun 2027 04:29:10.604            40.885         20442.500
       272   10 Jun 2027 05:58:45.241   10 Jun 2027 05:59:26.695            41.454         20727.000
       273   10 Jun 2027 05:59:34.863   10 Jun 2027 06:00:17.966            43.103         21200.219
       274   10 Jun 2027 06:00:59.895   10 Jun 2027 06:01:02.586             2.691          1227.156
       275   10 Jun 2027 06:01:36.325   10 Jun 2027 06:01:39.186             2.861           157.344
       276   10 Jun 2027 07:22:42.225   10 Jun 2027 07:23:02.443            20.218          7989.188
       277   10 Jun 2027 07:23:21.013   10 Jun 2027 07:23:23.078             2.065           304.750
       278   10 Jun 2027 07:24:44.805   10 Jun 2027 07:24:49.850             5.045          2389.531
       279   10 Jun 2027 09:00:47.649   10 Jun 2027 09:01:07.712            20.063          9866.875
       280   10 Jun 2027 09:02:39.579   10 Jun 2027 09:02:41.632             2.053          1026.500
       281   10 Jun 2027 10:35:45.037   10 Jun 2027 10:36:04.950            19.913          9728.656
       282   10 Jun 2027 10:40:10.122   10 Jun 2027 10:40:27.419            17.297          7599.500
       283   10 Jun 2027 10:40:31.255   10 Jun 2027 10:40:31.385             0.130            65.000
       284   11 Jun 2027 03:00:00.000   11 Jun 2027 03:00:33.446            33.446         16723.000
       285   11 Jun 2027 03:01:16.979   11 Jun 2027 03:01:25.412             8.433          4216.500
       286   11 Jun 2027 04:33:43.242   11 Jun 2027 04:36:27.376           164.134         82067.000
       287   11 Jun 2027 04:36:34.812   11 Jun 2027 04:37:27.204            52.392         26196.000
       288   11 Jun 2027 04:37:54.694   11 Jun 2027 04:37:57.166             2.472          1236.000
       289   11 Jun 2027 04:38:51.849   11 Jun 2027 04:38:55.594             3.745          1872.500
       290   11 Jun 2027 04:39:55.701   11 Jun 2027 04:39:55.701             0.000             0.000
       291   11 Jun 2027 04:40:46.330   11 Jun 2027 04:41:15.087            28.757         14378.500
       292   11 Jun 2027 05:59:23.835   11 Jun 2027 06:00:06.632            42.797         21398.500
       293   11 Jun 2027 06:10:42.820   11 Jun 2027 06:10:57.305            14.485          6140.687
       294   11 Jun 2027 06:12:07.107   11 Jun 2027 06:12:11.949             4.842          1809.813
       295   11 Jun 2027 07:33:18.089   11 Jun 2027 07:33:36.751            18.662          8955.281
       296   11 Jun 2027 07:34:53.311   11 Jun 2027 07:34:58.542             5.231          1503.062
       297   11 Jun 2027 07:35:38.987   11 Jun 2027 07:35:40.599             1.612           794.250
       298   11 Jun 2027 07:36:38.466   11 Jun 2027 07:36:44.775             6.309          1102.844
       299   11 Jun 2027 07:37:11.665   11 Jun 2027 07:37:15.292             3.627           724.594
       300   11 Jun 2027 07:37:58.958   11 Jun 2027 07:37:59.800             0.842           421.000
       301   11 Jun 2027 09:08:49.642   11 Jun 2027 09:08:59.535             9.893          4746.125
       302   11 Jun 2027 09:10:18.712   11 Jun 2027 09:10:24.302             5.590          2307.281
       303   11 Jun 2027 09:13:00.074   11 Jun 2027 09:13:06.067             5.993          2996.500
       304   11 Jun 2027 09:13:14.525   11 Jun 2027 09:13:21.165             6.640          1733.562
       305   11 Jun 2027 10:45:09.315   11 Jun 2027 10:45:22.401            13.086          6036.594
       306   11 Jun 2027 10:48:18.025   11 Jun 2027 10:48:23.607             5.582          2791.000
       307   11 Jun 2027 10:49:50.797   11 Jun 2027 10:50:01.163            10.366          5041.781
       308   11 Jun 2027 10:50:15.863   11 Jun 2027 10:50:17.057             1.194           438.219
       309   11 Jun 2027 10:50:40.980   11 Jun 2027 10:50:46.232             5.252           747.094
       310   11 Jun 2027 10:51:09.355   11 Jun 2027 10:51:10.837             1.482           669.000
       311   11 Jun 2027 10:51:17.522   11 Jun 2027 10:51:22.076             4.554           157.719
       312   11 Jun 2027 10:51:40.602   11 Jun 2027 10:51:43.000             2.398           578.937
       313   11 Jun 2027 10:52:22.259   11 Jun 2027 10:52:26.719             4.460          1150.813
       314   12 Jun 2027 03:07:08.125   12 Jun 2027 03:09:11.976           123.851         61925.500
       315   12 Jun 2027 03:09:22.035   12 Jun 2027 03:09:47.569            25.534         12767.000
       316   12 Jun 2027 03:11:24.742   12 Jun 2027 03:11:26.748             2.006          1003.000
       317   12 Jun 2027 03:11:53.304   12 Jun 2027 03:12:08.431            15.127          7563.500
       318   12 Jun 2027 03:12:45.874   12 Jun 2027 03:12:50.026             4.152          2076.000
       319   12 Jun 2027 03:13:10.207   12 Jun 2027 03:13:13.727             3.520          1760.000
       320   12 Jun 2027 04:46:12.734   12 Jun 2027 04:48:03.799           111.065         55532.500
       321   12 Jun 2027 04:48:12.527   12 Jun 2027 04:48:12.527             0.000             0.000
       322   12 Jun 2027 04:48:38.926   12 Jun 2027 04:48:41.083             2.157          1078.500
       323   12 Jun 2027 04:49:25.420   12 Jun 2027 04:49:28.331             2.911          1455.500
       324   12 Jun 2027 04:49:42.365   12 Jun 2027 04:49:42.365             0.000             0.000
       325   12 Jun 2027 04:50:11.065   12 Jun 2027 04:50:37.779            26.714         10455.437
       326   12 Jun 2027 04:52:18.250   12 Jun 2027 04:52:23.515             5.265          2632.500
       327   12 Jun 2027 06:11:02.240   12 Jun 2027 06:11:21.648            19.408          8572.344
       328   12 Jun 2027 06:22:42.410   12 Jun 2027 06:22:50.372             7.962          3227.063
       329   12 Jun 2027 06:23:06.140   12 Jun 2027 06:23:06.140             0.000             0.000
       330   12 Jun 2027 06:23:41.900   12 Jun 2027 06:23:43.490             1.590           795.000
       331   12 Jun 2027 07:45:01.115   12 Jun 2027 07:45:15.557            14.442          7013.187
       332   12 Jun 2027 07:45:45.150   12 Jun 2027 07:45:45.150             0.000             0.000
       333   12 Jun 2027 07:46:57.338   12 Jun 2027 07:47:03.512             6.174          2450.719
       334   12 Jun 2027 07:47:23.209   12 Jun 2027 07:47:24.248             1.039           236.781
       335   12 Jun 2027 07:48:05.840   12 Jun 2027 07:48:05.840             0.000             0.000
       336   12 Jun 2027 07:48:29.668   12 Jun 2027 07:48:34.309             4.641          1926.375
       337   12 Jun 2027 07:49:14.619   12 Jun 2027 07:49:14.619             0.000             0.000
       338   12 Jun 2027 07:49:20.778   12 Jun 2027 07:49:32.705            11.927          1035.406
       339   12 Jun 2027 09:19:57.824   12 Jun 2027 09:20:05.460             7.636          3763.219
       340   12 Jun 2027 09:20:45.429   12 Jun 2027 09:20:50.882             5.453           613.219
       341   12 Jun 2027 09:21:31.370   12 Jun 2027 09:21:31.370             0.000             0.000
       342   12 Jun 2027 09:23:28.342   12 Jun 2027 09:23:35.313             6.971          3485.500
       343   12 Jun 2027 09:23:44.896   12 Jun 2027 09:23:44.896             0.000             0.000
       344   12 Jun 2027 09:25:12.329   12 Jun 2027 09:25:22.351            10.022          4453.375
       345   12 Jun 2027 09:27:58.013   12 Jun 2027 09:28:05.772             7.759          3539.500
       346   12 Jun 2027 11:00:30.404   12 Jun 2027 11:00:30.404             0.000             0.000
       347   12 Jun 2027 11:00:43.597   12 Jun 2027 11:00:56.347            12.750          6375.000
       348   12 Jun 2027 11:02:48.966   12 Jun 2027 11:03:04.785            15.819          7665.781
       349   12 Jun 2027 11:03:11.009   12 Jun 2027 11:03:11.009             0.000             0.000
       350   12 Jun 2027 11:03:23.008   12 Jun 2027 11:03:24.232             1.224           569.469
       351   12 Jun 2027 11:04:29.560   12 Jun 2027 11:04:37.867             8.307          1907.938
       352   13 Jun 2027 03:19:28.625   13 Jun 2027 03:19:54.696            26.071         13035.500
       353   13 Jun 2027 03:20:01.588   13 Jun 2027 03:20:33.235            31.647         15823.500
       354   13 Jun 2027 03:20:37.316   13 Jun 2027 03:21:30.615            53.299         26649.500
       355   13 Jun 2027 03:21:33.308   13 Jun 2027 03:23:27.060           113.752         56876.000
       356   13 Jun 2027 03:25:19.506   13 Jun 2027 03:25:25.305             5.799          2899.500
       357   13 Jun 2027 04:58:15.915   13 Jun 2027 04:59:36.789            80.874         40437.000
       358   13 Jun 2027 04:59:55.912   13 Jun 2027 05:00:03.939             8.027          3382.563
       359   13 Jun 2027 05:00:17.666   13 Jun 2027 05:00:18.964             1.298           353.094
       360   13 Jun 2027 05:01:54.751   13 Jun 2027 05:02:01.223             6.472          1824.219
       361   13 Jun 2027 05:02:08.578   13 Jun 2027 05:02:17.538             8.960            99.531
       362   13 Jun 2027 05:04:13.817   13 Jun 2027 05:04:13.817             0.000             0.000
       363   13 Jun 2027 06:22:35.794   13 Jun 2027 06:22:55.341            19.547          8054.250
       364   13 Jun 2027 06:23:13.361   13 Jun 2027 06:23:13.361             0.000             0.000
       365   13 Jun 2027 06:23:39.991   13 Jun 2027 06:23:43.207             3.216          1270.406
       366   13 Jun 2027 06:24:20.493   13 Jun 2027 06:24:21.393             0.900           364.062
       367   13 Jun 2027 06:34:51.533   13 Jun 2027 06:35:01.601            10.068          4043.312
       368   13 Jun 2027 07:56:33.165   13 Jun 2027 07:56:43.630            10.465          4873.844
       369   13 Jun 2027 07:57:23.293   13 Jun 2027 07:57:24.871             1.578           505.813
       370   13 Jun 2027 07:58:27.807   13 Jun 2027 07:58:30.093             2.286           723.000
       371   13 Jun 2027 07:59:17.409   13 Jun 2027 07:59:21.072             3.663          1478.625
       372   13 Jun 2027 08:00:10.535   13 Jun 2027 08:00:15.216             4.681          1361.156
       373   13 Jun 2027 09:31:26.720   13 Jun 2027 09:31:38.076            11.356          4802.219
       374   13 Jun 2027 09:33:24.293   13 Jun 2027 09:33:29.012             4.719          2162.781
       375   13 Jun 2027 09:34:18.453   13 Jun 2027 09:34:26.323             7.870          1545.031
       376   13 Jun 2027 09:35:11.325   13 Jun 2027 09:35:14.834             3.509           454.063
       377   13 Jun 2027 09:37:12.521   13 Jun 2027 09:37:12.521             0.000             0.000
       378   13 Jun 2027 09:38:18.967   13 Jun 2027 09:38:29.400            10.433          4804.844
       379   13 Jun 2027 09:38:44.886   13 Jun 2027 09:38:47.962             3.076           301.375
       380   13 Jun 2027 11:09:21.388   13 Jun 2027 11:09:45.626            24.238          6496.094
       381   13 Jun 2027 11:10:25.008   13 Jun 2027 11:10:27.171             2.163           612.969
       382   13 Jun 2027 11:11:25.700   13 Jun 2027 11:11:33.029             7.329          1520.281
       383   13 Jun 2027 11:11:42.381   13 Jun 2027 11:11:45.432             3.051           282.812
       384   13 Jun 2027 11:12:20.866   13 Jun 2027 11:12:26.237             5.371           426.312
       385   13 Jun 2027 11:12:36.581   13 Jun 2027 11:12:39.835             3.254           159.406
       386   13 Jun 2027 11:13:36.548   13 Jun 2027 11:13:40.281             3.733          1285.406
       387   13 Jun 2027 11:15:14.528   13 Jun 2027 11:15:20.689             6.161          2915.719
       388   13 Jun 2027 11:15:25.438   13 Jun 2027 11:15:25.973             0.535           148.406
       389   13 Jun 2027 11:16:11.268   13 Jun 2027 11:16:17.599             6.331          1019.875
       390   13 Jun 2027 11:16:31.410   13 Jun 2027 11:16:36.608             5.198           366.125
