uniorb/output/strategy_2/Camera/Camera_KinoSat_110602.txt

KinoSat_110602
-------------------------
    Access    *     Start Time (UTCG)     *     Stop Time (UTCG)  *   Duration (s) *   Data (Mbytes)
         1   01 Jun 2027 04:10:56.361   01 Jun 2027 04:11:51.458            55.097         27548.500
         2   01 Jun 2027 04:12:26.956   01 Jun 2027 04:13:05.682            38.726         19363.000
         3   01 Jun 2027 04:14:53.444   01 Jun 2027 04:14:57.084             3.640          1820.000
         4   01 Jun 2027 04:16:09.672   01 Jun 2027 04:16:25.241            15.569          7784.500
         5   01 Jun 2027 04:16:53.893   01 Jun 2027 04:17:11.045            17.152          8576.000
         6   01 Jun 2027 05:47:21.691   01 Jun 2027 05:49:59.678           157.987         78993.500
         7   01 Jun 2027 05:50:08.280   01 Jun 2027 05:50:23.507            15.227          7613.500
         8   01 Jun 2027 05:54:05.711   01 Jun 2027 05:54:16.232            10.521          5260.500
         9   01 Jun 2027 05:54:52.659   01 Jun 2027 05:54:53.523             0.864           432.000
        10   01 Jun 2027 07:24:27.800   01 Jun 2027 07:27:50.739           202.939        101469.500
        11   01 Jun 2027 07:28:06.708   01 Jun 2027 07:28:44.269            37.561         18780.500
        12   01 Jun 2027 07:30:30.801   01 Jun 2027 07:30:33.852             3.051          1525.500
        13   01 Jun 2027 07:30:44.386   01 Jun 2027 07:30:44.787             0.401           200.500
        14   01 Jun 2027 09:02:23.002   01 Jun 2027 09:05:17.244           174.242         87121.000
        15   01 Jun 2027 10:35:28.805   01 Jun 2027 10:37:48.771           139.966         69983.000
        16   01 Jun 2027 10:37:59.439   01 Jun 2027 10:38:22.698            23.259         11629.500
        17   02 Jun 2027 04:22:05.932   02 Jun 2027 04:24:06.290           120.358         60179.000
        18   02 Jun 2027 04:24:13.167   02 Jun 2027 04:24:41.171            28.004         14002.000
        19   02 Jun 2027 04:25:02.295   02 Jun 2027 04:25:09.022             6.727          3363.500
        20   02 Jun 2027 04:25:16.509   02 Jun 2027 04:25:27.830            11.321          5660.500
        21   02 Jun 2027 04:25:44.554   02 Jun 2027 04:26:13.092            28.538         14269.000
        22   02 Jun 2027 04:28:52.608   02 Jun 2027 04:29:00.083             7.475          3737.500
        23   02 Jun 2027 05:59:37.426   02 Jun 2027 06:00:42.813            65.387         32693.500
        24   02 Jun 2027 06:01:02.274   02 Jun 2027 06:02:01.667            59.393         29696.500
        25   02 Jun 2027 06:02:11.465   02 Jun 2027 06:02:29.598            18.133          9066.500
        26   02 Jun 2027 06:03:52.951   02 Jun 2027 06:03:56.196             3.245          1622.500
        27   02 Jun 2027 06:04:38.299   02 Jun 2027 06:04:41.318             3.019          1509.500
        28   02 Jun 2027 06:05:47.290   02 Jun 2027 06:05:52.557             5.267          2633.500
        29   02 Jun 2027 07:36:23.218   02 Jun 2027 07:39:43.787           200.569        100284.500
        30   02 Jun 2027 07:39:54.542   02 Jun 2027 07:40:04.618            10.076          5038.000
        31   02 Jun 2027 07:40:05.972   02 Jun 2027 07:40:09.500             3.528          1764.000
        32   02 Jun 2027 07:42:20.222   02 Jun 2027 07:42:21.791             1.569           784.500
        33   02 Jun 2027 09:14:22.734   02 Jun 2027 09:16:01.172            98.438         49219.000
        34   02 Jun 2027 09:16:35.309   02 Jun 2027 09:16:38.354             3.045          1522.500
        35   02 Jun 2027 09:17:12.319   02 Jun 2027 09:17:21.405             9.086          4504.281
        36   02 Jun 2027 09:17:43.251   02 Jun 2027 09:17:47.466             4.215           604.750
        37   02 Jun 2027 09:18:01.684   02 Jun 2027 09:18:08.405             6.721           370.469
        38   02 Jun 2027 09:18:12.029   02 Jun 2027 09:18:12.320             0.291           113.250
        39   02 Jun 2027 09:18:28.164   02 Jun 2027 09:18:32.439             4.275           495.125
        40   02 Jun 2027 10:47:59.392   02 Jun 2027 10:48:07.260             7.868          3243.000
        41   02 Jun 2027 10:48:37.652   02 Jun 2027 10:48:39.003             1.351           180.969
        42   02 Jun 2027 10:49:05.556   02 Jun 2027 10:49:09.545             3.989           168.469
        43   02 Jun 2027 10:49:53.848   02 Jun 2027 10:49:56.944             3.096           371.437
        44   02 Jun 2027 10:50:53.610   02 Jun 2027 10:50:58.487             4.877          1334.875
        45   02 Jun 2027 10:51:15.597   02 Jun 2027 10:51:17.506             1.909           411.750
        46   02 Jun 2027 10:52:07.131   02 Jun 2027 10:52:07.131             0.000             0.000
        47   02 Jun 2027 10:52:24.197   02 Jun 2027 10:52:27.734             3.537          1449.031
        48   02 Jun 2027 10:53:22.252   02 Jun 2027 10:53:31.893             9.641          1091.656
        49   02 Jun 2027 10:54:41.265   02 Jun 2027 10:54:43.999             2.734          1367.000
        50   03 Jun 2027 03:00:00.000   03 Jun 2027 03:00:02.969             2.969          1484.500
        51   03 Jun 2027 03:00:51.207   03 Jun 2027 03:01:06.312            15.105          7552.500
        52   03 Jun 2027 03:01:54.386   03 Jun 2027 03:02:12.206            17.820          8910.000
        53   03 Jun 2027 03:04:36.506   03 Jun 2027 03:04:39.122             2.616          1308.000
        54   03 Jun 2027 04:33:36.579   03 Jun 2027 04:36:33.485           176.906         88453.000
        55   03 Jun 2027 04:36:43.734   03 Jun 2027 04:36:51.084             7.350          3675.000
        56   03 Jun 2027 04:36:58.979   03 Jun 2027 04:37:06.062             7.083          3541.500
        57   03 Jun 2027 04:39:12.594   03 Jun 2027 04:39:12.594             0.000             0.000
        58   03 Jun 2027 04:40:52.918   03 Jun 2027 04:40:53.777             0.859           429.500
        59   03 Jun 2027 04:41:34.160   03 Jun 2027 04:41:41.748             7.588          3794.000
        60   03 Jun 2027 04:42:01.955   03 Jun 2027 04:42:28.701            26.746         13373.000
        61   03 Jun 2027 06:11:32.215   03 Jun 2027 06:13:13.675           101.460         50730.000
        62   03 Jun 2027 06:13:49.222   03 Jun 2027 06:13:49.476             0.254           127.000
        63   03 Jun 2027 06:14:34.886   03 Jun 2027 06:14:39.321             4.435          2217.500
        64   03 Jun 2027 06:16:02.018   03 Jun 2027 06:16:03.438             1.420           710.000
        65   03 Jun 2027 06:16:10.954   03 Jun 2027 06:16:21.139            10.185          3778.969
        66   03 Jun 2027 06:17:09.991   03 Jun 2027 06:17:12.682             2.691          1055.750
        67   03 Jun 2027 06:17:38.081   03 Jun 2027 06:17:38.081             0.000             0.000
        68   03 Jun 2027 06:17:41.994   03 Jun 2027 06:17:43.680             1.686           759.375
        69   03 Jun 2027 07:48:19.635   03 Jun 2027 07:48:51.044            31.409         15704.500
        70   03 Jun 2027 07:48:52.528   03 Jun 2027 07:48:55.638             3.110          1555.000
        71   03 Jun 2027 07:49:20.030   03 Jun 2027 07:49:32.199            12.169          4550.500
        72   03 Jun 2027 07:51:16.476   03 Jun 2027 07:51:19.512             3.036          1518.000
        73   03 Jun 2027 07:51:24.818   03 Jun 2027 07:51:29.607             4.789           444.500
        74   03 Jun 2027 07:52:30.514   03 Jun 2027 07:52:37.137             6.623          1878.031
        75   03 Jun 2027 07:52:54.417   03 Jun 2027 07:52:55.304             0.887           192.563
        76   03 Jun 2027 07:53:25.713   03 Jun 2027 07:53:27.482             1.769           884.500
        77   03 Jun 2027 07:54:13.935   03 Jun 2027 07:54:19.352             5.417          1517.437
        78   03 Jun 2027 09:26:10.050   03 Jun 2027 09:26:30.127            20.077          9202.781
        79   03 Jun 2027 09:27:03.544   03 Jun 2027 09:27:08.321             4.777          1044.281
        80   03 Jun 2027 09:27:19.225   03 Jun 2027 09:27:23.210             3.985           340.750
        81   03 Jun 2027 09:27:53.328   03 Jun 2027 09:27:58.092             4.764           652.469
        82   03 Jun 2027 09:28:22.199   03 Jun 2027 09:28:25.017             2.818           720.563
        83   03 Jun 2027 09:29:08.625   03 Jun 2027 09:29:08.625             0.000             0.000
        84   03 Jun 2027 09:29:18.777   03 Jun 2027 09:29:20.372             1.595           797.500
        85   03 Jun 2027 11:02:08.619   03 Jun 2027 11:02:22.675            14.056          3296.406
        86   03 Jun 2027 11:02:38.669   03 Jun 2027 11:02:41.054             2.385            49.187
        87   03 Jun 2027 11:03:02.418   03 Jun 2027 11:03:02.418             0.000             0.000
        88   03 Jun 2027 11:03:17.172   03 Jun 2027 11:03:19.151             1.979           799.750
        89   03 Jun 2027 11:04:46.703   03 Jun 2027 11:04:52.688             5.985          2228.313
        90   03 Jun 2027 11:05:16.250   03 Jun 2027 11:05:19.522             3.272           614.187
        91   03 Jun 2027 11:05:43.106   03 Jun 2027 11:05:44.843             1.737           658.719
        92   04 Jun 2027 03:12:42.173   04 Jun 2027 03:13:24.465            42.292         21146.000
        93   04 Jun 2027 03:13:56.484   04 Jun 2027 03:14:05.434             8.950          4475.000
        94   04 Jun 2027 03:14:08.972   04 Jun 2027 03:14:19.413            10.441          5220.500
        95   04 Jun 2027 03:15:00.640   04 Jun 2027 03:15:08.679             8.039          4019.500
        96   04 Jun 2027 04:46:29.931   04 Jun 2027 04:49:29.877           179.946         89973.000
        97   04 Jun 2027 04:49:41.395   04 Jun 2027 04:50:02.844            21.449         10724.500
        98   04 Jun 2027 04:53:56.468   04 Jun 2027 04:54:24.395            27.927         13963.500
        99   04 Jun 2027 04:54:37.726   04 Jun 2027 04:54:58.150            20.424          9827.251
       100   04 Jun 2027 06:23:43.862   04 Jun 2027 06:24:43.945            60.083         28880.531
       101   04 Jun 2027 06:25:10.649   04 Jun 2027 06:25:14.888             4.239           675.406
       102   04 Jun 2027 06:26:21.249   04 Jun 2027 06:26:23.996             2.747          1336.500
       103   04 Jun 2027 06:26:46.810   04 Jun 2027 06:26:47.303             0.493           232.031
       104   04 Jun 2027 06:27:40.278   04 Jun 2027 06:27:40.278             0.000             0.000
       105   04 Jun 2027 06:27:55.208   04 Jun 2027 06:27:59.217             4.009          2004.500
       106   04 Jun 2027 06:28:07.330   04 Jun 2027 06:28:08.793             1.463           371.063
       107   04 Jun 2027 06:29:23.563   04 Jun 2027 06:29:28.891             5.328          2336.563
       108   04 Jun 2027 08:00:56.348   04 Jun 2027 08:01:36.199            39.851         18439.000
       109   04 Jun 2027 08:02:41.250   04 Jun 2027 08:02:43.990             2.740           429.000
       110   04 Jun 2027 08:03:15.691   04 Jun 2027 08:03:17.974             2.283           990.656
       111   04 Jun 2027 08:04:16.706   04 Jun 2027 08:04:21.240             4.534          1580.750
       112   04 Jun 2027 08:05:23.719   04 Jun 2027 08:05:24.920             1.201           600.500
       113   04 Jun 2027 08:05:34.643   04 Jun 2027 08:05:38.304             3.661          1345.906
       114   04 Jun 2027 08:06:38.954   04 Jun 2027 08:06:44.150             5.196          1695.844
       115   04 Jun 2027 09:37:39.073   04 Jun 2027 09:37:50.716            11.643          5821.500
       116   04 Jun 2027 09:37:58.285   04 Jun 2027 09:38:05.124             6.839          3419.500
       117   04 Jun 2027 09:38:34.509   04 Jun 2027 09:38:40.259             5.750          1785.875
       118   04 Jun 2027 09:39:20.602   04 Jun 2027 09:39:23.333             2.731           963.656
       119   04 Jun 2027 09:39:25.488   04 Jun 2027 09:39:25.801             0.313            67.344
       120   04 Jun 2027 09:39:33.758   04 Jun 2027 09:39:37.260             3.502           206.219
       121   04 Jun 2027 09:39:56.010   04 Jun 2027 09:39:57.726             1.716            45.125
       122   04 Jun 2027 09:40:50.931   04 Jun 2027 09:40:54.376             3.445          1521.906
       123   04 Jun 2027 09:41:28.387   04 Jun 2027 09:41:31.520             3.133          1021.844
       124   04 Jun 2027 09:42:08.388   04 Jun 2027 09:42:08.388             0.000             0.000
       125   04 Jun 2027 09:42:21.970   04 Jun 2027 09:42:27.960             5.990          1093.531
       126   04 Jun 2027 11:12:50.844   04 Jun 2027 11:12:57.711             6.867          2629.156
       127   04 Jun 2027 11:14:36.467   04 Jun 2027 11:14:42.837             6.370           952.594
       128   04 Jun 2027 11:14:55.589   04 Jun 2027 11:15:00.233             4.644           354.219
       129   04 Jun 2027 11:15:18.650   04 Jun 2027 11:15:20.211             1.561           525.250
       130   04 Jun 2027 11:16:07.016   04 Jun 2027 11:16:11.864             4.848          1189.469
       131   04 Jun 2027 11:16:44.248   04 Jun 2027 11:16:49.174             4.926           827.156
       132   04 Jun 2027 11:17:26.509   04 Jun 2027 11:17:29.879             3.370           739.719
       133   05 Jun 2027 03:25:19.282   05 Jun 2027 03:25:52.430            33.148         16574.000
       134   05 Jun 2027 03:26:15.353   05 Jun 2027 03:26:21.642             6.289          3144.500
       135   05 Jun 2027 03:26:30.784   05 Jun 2027 03:26:37.979             7.195          3597.500
       136   05 Jun 2027 03:26:49.519   05 Jun 2027 03:27:02.667            13.148          6574.000
       137   05 Jun 2027 03:28:19.412   05 Jun 2027 03:28:29.549            10.137          5068.500
       138   05 Jun 2027 04:59:20.868   05 Jun 2027 05:01:30.557           129.689         64844.500
       139   05 Jun 2027 05:03:28.357   05 Jun 2027 05:04:26.171            57.814         28907.000
       140   05 Jun 2027 05:04:52.171   05 Jun 2027 05:04:59.656             7.485          3742.500
       141   05 Jun 2027 05:05:31.260   05 Jun 2027 05:05:52.265            21.005         10502.500
       142   05 Jun 2027 05:05:58.901   05 Jun 2027 05:06:14.293            15.392          7696.000
       143   05 Jun 2027 05:06:28.048   05 Jun 2027 05:06:37.665             9.617          4808.500
       144   05 Jun 2027 05:06:56.483   05 Jun 2027 05:06:59.169             2.686          1343.000
       145   05 Jun 2027 06:36:05.349   05 Jun 2027 06:37:06.754            61.405         30326.719
       146   05 Jun 2027 06:37:46.699   05 Jun 2027 06:37:48.281             1.582           273.375
       147   05 Jun 2027 06:38:43.126   05 Jun 2027 06:38:45.529             2.403           653.875
       148   05 Jun 2027 06:39:23.974   05 Jun 2027 06:39:27.442             3.468           885.625
       149   05 Jun 2027 06:39:36.745   05 Jun 2027 06:39:41.516             4.771           238.437
       150   05 Jun 2027 06:39:45.350   05 Jun 2027 06:39:45.823             0.473            84.906
       151   05 Jun 2027 06:40:32.279   05 Jun 2027 06:40:34.692             2.413           944.156
       152   05 Jun 2027 06:42:10.213   05 Jun 2027 06:42:15.984             5.771          2881.125
       153   05 Jun 2027 06:42:44.724   05 Jun 2027 06:42:46.731             2.007           886.250
       154   05 Jun 2027 08:13:03.020   05 Jun 2027 08:13:35.651            32.631         15619.156
       155   05 Jun 2027 08:14:27.251   05 Jun 2027 08:14:32.825             5.574          1612.500
       156   05 Jun 2027 08:14:54.050   05 Jun 2027 08:14:55.368             1.318           526.156
       157   05 Jun 2027 08:15:10.164   05 Jun 2027 08:15:14.022             3.858           417.250
       158   05 Jun 2027 08:16:13.710   05 Jun 2027 08:16:18.596             4.886          1860.969
       159   05 Jun 2027 08:17:48.306   05 Jun 2027 08:17:53.848             5.542          2638.906
       160   05 Jun 2027 09:49:48.982   05 Jun 2027 09:50:07.753            18.771          9316.281
       161   05 Jun 2027 09:51:37.606   05 Jun 2027 09:51:43.610             6.004          2592.781
       162   05 Jun 2027 09:52:03.995   05 Jun 2027 09:52:04.518             0.523            51.969
       163   05 Jun 2027 09:52:56.270   05 Jun 2027 09:52:59.530             3.260          1302.531
       164   05 Jun 2027 09:53:15.927   05 Jun 2027 09:53:15.927             0.000             0.000
       165   05 Jun 2027 09:53:17.940   05 Jun 2027 09:53:19.590             1.650           567.000
       166   05 Jun 2027 11:28:00.523   05 Jun 2027 11:28:07.104             6.581          2330.531
       167   05 Jun 2027 11:28:29.209   05 Jun 2027 11:28:30.579             1.370           391.656
       168   06 Jun 2027 03:37:02.796   06 Jun 2027 03:37:21.476            18.680          9340.000
       169   06 Jun 2027 03:37:52.584   06 Jun 2027 03:38:19.725            27.141         13570.500
       170   06 Jun 2027 03:38:34.198   06 Jun 2027 03:38:39.461             5.263          2631.500
       171   06 Jun 2027 03:39:04.473   06 Jun 2027 03:39:08.680             4.207          2103.500
       172   06 Jun 2027 05:12:10.497   06 Jun 2027 05:15:12.312           181.815         90907.500
       173   06 Jun 2027 05:15:58.167   06 Jun 2027 05:16:01.810             3.643          1821.500
       174   06 Jun 2027 05:16:32.222   06 Jun 2027 05:17:19.352            47.130         23565.000
       175   06 Jun 2027 05:18:11.656   06 Jun 2027 05:18:11.656             0.000             0.000
       176   06 Jun 2027 05:18:50.877   06 Jun 2027 05:18:59.856             8.979          4489.500
       177   06 Jun 2027 06:48:31.496   06 Jun 2027 06:49:25.605            54.109         24474.281
       178   06 Jun 2027 06:49:39.862   06 Jun 2027 06:49:43.504             3.642           170.156
       179   06 Jun 2027 06:50:35.437   06 Jun 2027 06:50:38.353             2.916           988.469
       180   06 Jun 2027 06:50:56.370   06 Jun 2027 06:50:57.596             1.226            44.906
       181   06 Jun 2027 06:51:24.870   06 Jun 2027 06:51:28.198             3.328           852.312
       182   06 Jun 2027 06:51:36.510   06 Jun 2027 06:51:37.962             1.452           102.250
       183   06 Jun 2027 06:51:49.185   06 Jun 2027 06:51:49.767             0.582            71.406
       184   06 Jun 2027 06:52:41.847   06 Jun 2027 06:52:45.924             4.077          1627.500
       185   06 Jun 2027 06:53:17.790   06 Jun 2027 06:53:22.727             4.937           774.938
       186   06 Jun 2027 06:54:03.402   06 Jun 2027 06:54:07.366             3.964           921.875
       187   06 Jun 2027 08:26:04.644   06 Jun 2027 08:26:33.685            29.041         13725.375
       188   06 Jun 2027 08:27:07.330   06 Jun 2027 08:27:11.321             3.991           740.406
       189   06 Jun 2027 08:27:29.696   06 Jun 2027 08:27:29.696             0.000             0.000
       190   06 Jun 2027 08:27:39.765   06 Jun 2027 08:27:43.864             4.099           754.031
       191   06 Jun 2027 08:28:03.348   06 Jun 2027 08:28:05.489             2.141           413.281
       192   06 Jun 2027 08:28:39.416   06 Jun 2027 08:28:39.416             0.000             0.000
       193   06 Jun 2027 08:28:46.834   06 Jun 2027 08:28:48.050             1.216           608.000
       194   06 Jun 2027 08:30:03.367   06 Jun 2027 08:30:08.931             5.564          2648.719
       195   06 Jun 2027 10:02:08.447   06 Jun 2027 10:02:28.782            20.335          7878.406
       196   06 Jun 2027 10:02:45.504   06 Jun 2027 10:02:51.139             5.635           522.562
       197   06 Jun 2027 10:03:54.094   06 Jun 2027 10:03:58.962             4.868          1698.125
       198   06 Jun 2027 10:04:21.009   06 Jun 2027 10:04:21.009             0.000             0.000
       199   06 Jun 2027 10:04:43.988   06 Jun 2027 10:04:49.859             5.871          1271.906
       200   06 Jun 2027 10:05:06.480   06 Jun 2027 10:05:07.838             1.358            90.906
       201   06 Jun 2027 10:06:14.443   06 Jun 2027 10:06:20.697             6.254          2042.531
       202   07 Jun 2027 03:49:12.081   07 Jun 2027 03:49:29.279            17.198          8599.000
       203   07 Jun 2027 03:50:01.979   07 Jun 2027 03:50:33.034            31.055         15527.500
       204   07 Jun 2027 03:51:06.019   07 Jun 2027 03:51:07.489             1.470           735.000
       205   07 Jun 2027 03:51:16.140   07 Jun 2027 03:52:12.797            56.657         28328.500
       206   07 Jun 2027 05:24:22.074   07 Jun 2027 05:27:07.581           165.507         82753.500
       207   07 Jun 2027 05:28:08.528   07 Jun 2027 05:28:12.986             4.458          2229.000
       208   07 Jun 2027 05:30:38.730   07 Jun 2027 05:30:38.730             0.000             0.000
       209   07 Jun 2027 05:30:43.419   07 Jun 2027 05:30:58.346            14.927          7463.500
       210   07 Jun 2027 07:00:39.339   07 Jun 2027 07:01:45.997            66.658         33329.000
       211   07 Jun 2027 07:02:15.664   07 Jun 2027 07:02:30.197            14.533          6182.125
       212   07 Jun 2027 07:03:04.788   07 Jun 2027 07:03:08.515             3.727          1000.125
       213   07 Jun 2027 07:03:38.878   07 Jun 2027 07:03:39.291             0.413            71.125
       214   07 Jun 2027 07:04:53.718   07 Jun 2027 07:04:53.718             0.000             0.000
       215   07 Jun 2027 07:05:05.762   07 Jun 2027 07:05:10.999             5.237          2445.781
       216   07 Jun 2027 07:05:45.724   07 Jun 2027 07:05:45.724             0.000             0.000
       217   07 Jun 2027 07:06:19.198   07 Jun 2027 07:06:19.198             0.000             0.000
       218   07 Jun 2027 08:38:11.049   07 Jun 2027 08:38:34.791            23.742         11836.219
       219   07 Jun 2027 08:39:01.987   07 Jun 2027 08:39:05.068             3.081           463.125
       220   07 Jun 2027 08:40:16.820   07 Jun 2027 08:40:21.820             5.000          2169.813
       221   07 Jun 2027 08:41:32.284   07 Jun 2027 08:41:37.528             5.244          2175.781
       222   07 Jun 2027 08:41:45.263   07 Jun 2027 08:41:48.883             3.620           241.719
       223   07 Jun 2027 10:14:11.843   07 Jun 2027 10:14:18.432             6.589          3294.500
       224   07 Jun 2027 10:14:57.614   07 Jun 2027 10:15:14.991            17.377          6329.219
       225   07 Jun 2027 10:15:18.434   07 Jun 2027 10:15:18.434             0.000             0.000
       226   07 Jun 2027 10:16:04.163   07 Jun 2027 10:16:07.763             3.600          1536.625
       227   07 Jun 2027 10:16:59.564   07 Jun 2027 10:17:01.988             2.424          1143.531
       228   07 Jun 2027 10:17:16.252   07 Jun 2027 10:17:16.252             0.000             0.000
       229   07 Jun 2027 10:17:22.973   07 Jun 2027 10:17:24.395             1.422           366.125
       230   07 Jun 2027 10:18:15.813   07 Jun 2027 10:18:15.813             0.000             0.000
       231   07 Jun 2027 10:19:00.832   07 Jun 2027 10:19:07.966             7.134          2394.875
       232   08 Jun 2027 04:00:55.893   08 Jun 2027 04:02:09.123            73.230         36615.000
       233   08 Jun 2027 04:03:06.849   08 Jun 2027 04:03:08.037             1.188           594.000
       234   08 Jun 2027 04:03:14.397   08 Jun 2027 04:04:04.672            50.275         25137.500
       235   08 Jun 2027 04:04:19.216   08 Jun 2027 04:04:19.216             0.000             0.000
       236   08 Jun 2027 04:05:06.403   08 Jun 2027 04:05:08.769             2.366          1183.000
       237   08 Jun 2027 05:35:49.925   08 Jun 2027 05:38:31.219           161.294         80647.000
       238   08 Jun 2027 05:38:59.555   08 Jun 2027 05:39:31.097            31.542         15771.000
       239   08 Jun 2027 05:40:36.698   08 Jun 2027 05:40:54.077            17.379          6995.781
       240   08 Jun 2027 05:41:19.346   08 Jun 2027 05:41:21.856             2.510           673.062
       241   08 Jun 2027 05:41:45.962   08 Jun 2027 05:41:47.465             1.503           726.781
       242   08 Jun 2027 05:41:54.034   08 Jun 2027 05:41:54.665             0.631           164.313
       243   08 Jun 2027 05:42:37.599   08 Jun 2027 05:42:42.134             4.535          1325.375
       244   08 Jun 2027 07:12:22.698   08 Jun 2027 07:12:55.689            32.991         16495.500
       245   08 Jun 2027 07:13:20.824   08 Jun 2027 07:14:02.516            41.692         19100.344
       246   08 Jun 2027 07:14:32.812   08 Jun 2027 07:14:33.322             0.510           123.125
       247   08 Jun 2027 07:15:29.123   08 Jun 2027 07:15:31.653             2.530          1176.281
       248   08 Jun 2027 07:15:49.330   08 Jun 2027 07:15:49.330             0.000             0.000
       249   08 Jun 2027 07:16:59.540   08 Jun 2027 07:17:08.803             9.263          2653.406
       250   08 Jun 2027 07:17:32.010   08 Jun 2027 07:17:32.010             0.000             0.000
       251   08 Jun 2027 07:17:46.923   08 Jun 2027 07:17:50.342             3.419          1191.250
       252   08 Jun 2027 08:50:39.938   08 Jun 2027 08:51:01.972            22.034          9938.906
       253   08 Jun 2027 08:51:43.776   08 Jun 2027 08:51:47.838             4.062           999.344
       254   08 Jun 2027 08:52:18.857   08 Jun 2027 08:52:19.689             0.832           416.000
       255   08 Jun 2027 08:53:14.814   08 Jun 2027 08:53:24.279             9.465          2231.344
       256   08 Jun 2027 10:26:01.101   08 Jun 2027 10:26:16.025            14.924          6908.000
       257   08 Jun 2027 10:27:14.681   08 Jun 2027 10:27:16.054             1.373           686.500
       258   08 Jun 2027 10:27:26.955   08 Jun 2027 10:27:30.203             3.248          1336.156
       259   08 Jun 2027 10:27:34.229   08 Jun 2027 10:27:34.876             0.647            58.687
       260   08 Jun 2027 10:29:00.987   08 Jun 2027 10:29:09.323             8.336          2135.656
       261   08 Jun 2027 10:29:37.417   08 Jun 2027 10:29:41.077             3.660           669.969
       262   08 Jun 2027 10:30:32.370   08 Jun 2027 10:30:36.207             3.837          1418.656
       263   09 Jun 2027 04:11:10.343   09 Jun 2027 04:12:06.106            55.763         27881.500
       264   09 Jun 2027 04:12:41.357   09 Jun 2027 04:13:21.247            39.890         19945.000
       265   09 Jun 2027 04:13:22.759   09 Jun 2027 04:13:30.405             7.646          3823.000
       266   09 Jun 2027 04:13:37.843   09 Jun 2027 04:14:02.660            24.817         12408.500
       267   09 Jun 2027 04:16:00.530   09 Jun 2027 04:16:11.102            10.572          5286.000
       268   09 Jun 2027 04:16:36.018   09 Jun 2027 04:16:41.604             5.586          2793.000
       269   09 Jun 2027 04:17:09.777   09 Jun 2027 04:17:13.929             4.152          2076.000
       270   09 Jun 2027 05:47:36.608   09 Jun 2027 05:49:54.282           137.674         68837.000
       271   09 Jun 2027 05:50:15.080   09 Jun 2027 05:50:25.720            10.640          5320.000
       272   09 Jun 2027 05:50:46.715   09 Jun 2027 05:51:15.845            29.130         14565.000
       273   09 Jun 2027 05:52:36.325   09 Jun 2027 05:52:43.423             7.098          3549.000
       274   09 Jun 2027 05:52:48.285   09 Jun 2027 05:52:55.300             7.015          2731.344
       275   09 Jun 2027 05:54:06.547   09 Jun 2027 05:54:06.547             0.000             0.000
       276   09 Jun 2027 05:54:20.146   09 Jun 2027 05:54:26.785             6.639          2386.906
       277   09 Jun 2027 05:54:55.226   09 Jun 2027 05:54:57.947             2.721           800.938
       278   09 Jun 2027 07:24:43.022   09 Jun 2027 07:25:45.323            62.301         30854.750
       279   09 Jun 2027 07:26:50.284   09 Jun 2027 07:26:54.043             3.759          1499.063
       280   09 Jun 2027 07:27:24.631   09 Jun 2027 07:27:26.806             2.175            91.375
       281   09 Jun 2027 07:28:37.361   09 Jun 2027 07:28:44.215             6.854          2151.938
       282   09 Jun 2027 07:29:04.192   09 Jun 2027 07:29:07.180             2.988           473.469
       283   09 Jun 2027 07:29:26.998   09 Jun 2027 07:29:28.463             1.465           458.281
       284   09 Jun 2027 07:29:45.786   09 Jun 2027 07:29:45.897             0.111            55.500
       285   09 Jun 2027 07:30:09.229   09 Jun 2027 07:30:12.384             3.155           989.437
       286   09 Jun 2027 07:30:53.558   09 Jun 2027 07:30:56.646             3.088           916.656
       287   09 Jun 2027 09:02:37.719   09 Jun 2027 09:03:00.304            22.585         10530.344
       288   09 Jun 2027 09:03:28.602   09 Jun 2027 09:03:31.583             2.981           698.438
       289   09 Jun 2027 09:03:40.109   09 Jun 2027 09:03:40.109             0.000             0.000
       290   09 Jun 2027 09:03:46.709   09 Jun 2027 09:03:49.441             2.732           472.688
       291   09 Jun 2027 09:03:57.280   09 Jun 2027 09:03:57.681             0.401           162.625
       292   09 Jun 2027 09:05:10.407   09 Jun 2027 09:05:15.821             5.414          1859.781
       293   09 Jun 2027 09:06:21.767   09 Jun 2027 09:06:25.726             3.959          1672.125
       294   09 Jun 2027 10:35:43.754   09 Jun 2027 10:36:02.963            19.209          5975.937
       295   09 Jun 2027 10:37:00.822   09 Jun 2027 10:37:02.956             2.134           755.375
       296   09 Jun 2027 10:37:33.028   09 Jun 2027 10:37:35.277             2.249           811.500
       297   09 Jun 2027 10:38:38.159   09 Jun 2027 10:38:45.246             7.087          1659.469
       298   09 Jun 2027 10:39:19.376   09 Jun 2027 10:39:23.489             4.113          1066.562
       299   09 Jun 2027 10:39:52.291   09 Jun 2027 10:39:56.932             4.641           739.688
       300   09 Jun 2027 10:40:50.069   09 Jun 2027 10:40:53.102             3.033          1362.094
       301   09 Jun 2027 10:41:50.749   09 Jun 2027 10:41:53.872             3.123          1529.750
       302   09 Jun 2027 10:42:56.784   09 Jun 2027 10:43:06.729             9.945          1966.000
       303   09 Jun 2027 10:43:42.564   09 Jun 2027 10:43:43.668             1.104           552.000
       304   10 Jun 2027 04:22:19.767   10 Jun 2027 04:24:20.980           121.213         60606.500
       305   10 Jun 2027 04:24:27.668   10 Jun 2027 04:24:56.395            28.727         14363.500
       306   10 Jun 2027 04:25:25.112   10 Jun 2027 04:25:42.612            17.500          8750.000
       307   10 Jun 2027 04:27:47.119   10 Jun 2027 04:27:49.137             2.018          1009.000
       308   10 Jun 2027 04:27:56.168   10 Jun 2027 04:28:09.994            13.826          6913.000
       309   10 Jun 2027 04:28:29.143   10 Jun 2027 04:28:29.143             0.000             0.000
       310   10 Jun 2027 04:28:41.568   10 Jun 2027 04:28:43.104             1.536           768.000
       311   10 Jun 2027 04:29:08.575   10 Jun 2027 04:29:14.965             6.390          3195.000
       312   10 Jun 2027 04:30:20.354   10 Jun 2027 04:30:47.330            26.976         13488.000
       313   10 Jun 2027 06:00:31.010   10 Jun 2027 06:01:49.530            78.520         39260.000
       314   10 Jun 2027 06:02:23.470   10 Jun 2027 06:03:09.671            46.201         23100.500
       315   10 Jun 2027 06:04:17.199   10 Jun 2027 06:04:18.858             1.659           829.500
       316   10 Jun 2027 06:04:44.298   10 Jun 2027 06:04:57.041            12.743          6371.500
       317   10 Jun 2027 06:06:01.638   10 Jun 2027 06:06:02.496             0.858           429.000
       318   10 Jun 2027 06:06:53.393   10 Jun 2027 06:06:53.393             0.000             0.000
       319   10 Jun 2027 06:07:09.216   10 Jun 2027 06:07:11.617             2.401          1200.500
       320   10 Jun 2027 07:36:37.970   10 Jun 2027 07:37:34.472            56.502         27727.562
       321   10 Jun 2027 07:40:04.175   10 Jun 2027 07:40:08.147             3.972          1729.188
       322   10 Jun 2027 07:40:46.747   10 Jun 2027 07:40:49.250             2.503          1160.156
       323   10 Jun 2027 07:41:17.223   10 Jun 2027 07:41:18.868             1.645           822.500
       324   10 Jun 2027 07:41:23.764   10 Jun 2027 07:41:24.681             0.917           204.656
       325   10 Jun 2027 07:42:54.808   10 Jun 2027 07:43:03.657             8.849          2503.250
       326   10 Jun 2027 09:14:37.735   10 Jun 2027 09:14:59.291            21.556         10073.156
       327   10 Jun 2027 09:16:01.457   10 Jun 2027 09:16:02.843             1.386           693.000
       328   10 Jun 2027 09:16:16.966   10 Jun 2027 09:16:21.188             4.222          1328.906
       329   10 Jun 2027 09:16:42.310   10 Jun 2027 09:16:43.929             1.619           660.062
       330   10 Jun 2027 09:17:05.289   10 Jun 2027 09:17:06.106             0.817           380.000
       331   10 Jun 2027 09:17:23.947   10 Jun 2027 09:17:25.381             1.434           557.531
       332   10 Jun 2027 09:17:54.089   10 Jun 2027 09:17:56.565             2.476           897.125
       333   10 Jun 2027 09:18:07.129   10 Jun 2027 09:18:09.536             2.407           266.969
       334   10 Jun 2027 09:18:12.009   10 Jun 2027 09:18:19.986             7.977            69.344
       335   10 Jun 2027 09:18:30.025   10 Jun 2027 09:18:31.572             1.547           313.719
       336   10 Jun 2027 10:48:14.042   10 Jun 2027 10:48:22.406             8.364          1284.875
       337   10 Jun 2027 10:48:28.421   10 Jun 2027 10:48:30.105             1.684           187.969
       338   10 Jun 2027 10:49:35.803   10 Jun 2027 10:49:49.904            14.101          1781.969
       339   10 Jun 2027 10:50:46.146   10 Jun 2027 10:50:49.049             2.903          1451.500
       340   10 Jun 2027 10:51:15.119   10 Jun 2027 10:51:17.263             2.144          1072.000
       341   10 Jun 2027 10:51:30.258   10 Jun 2027 10:51:31.418             1.160           418.938
       342   10 Jun 2027 10:53:01.933   10 Jun 2027 10:53:06.094             4.161          1992.687
       343   10 Jun 2027 10:53:22.651   10 Jun 2027 10:53:22.651             0.000             0.000
       344   10 Jun 2027 10:54:06.366   10 Jun 2027 10:54:12.400             6.034          1561.906
       345   10 Jun 2027 10:54:55.489   10 Jun 2027 10:54:55.910             0.421           210.500
       346   10 Jun 2027 10:54:59.136   10 Jun 2027 10:55:02.818             3.682          1236.844
       347   11 Jun 2027 03:00:00.000   11 Jun 2027 03:00:16.050            16.050          8025.000
       348   11 Jun 2027 03:02:26.786   11 Jun 2027 03:02:33.115             6.329          3164.500
       349   11 Jun 2027 03:02:46.164   11 Jun 2027 03:02:46.164             0.000             0.000
       350   11 Jun 2027 03:02:56.919   11 Jun 2027 03:03:13.178            16.259          8129.500
       351   11 Jun 2027 03:03:38.940   11 Jun 2027 03:03:38.940             0.000             0.000
       352   11 Jun 2027 03:03:49.892   11 Jun 2027 03:04:01.310            11.418          5709.000
       353   11 Jun 2027 03:04:15.165   11 Jun 2027 03:04:52.804            37.639         18819.500
       354   11 Jun 2027 04:33:50.811   11 Jun 2027 04:36:07.512           136.701         68350.500
       355   11 Jun 2027 04:36:23.292   11 Jun 2027 04:36:45.884            22.592         11296.000
       356   11 Jun 2027 04:37:28.964   11 Jun 2027 04:37:43.087            14.123          7061.500
       357   11 Jun 2027 04:42:16.910   11 Jun 2027 04:42:31.305            14.395          7197.500
       358   11 Jun 2027 04:42:44.359   11 Jun 2027 04:42:59.961            15.602          7801.000
       359   11 Jun 2027 04:43:01.076   11 Jun 2027 04:43:01.076             0.000             0.000
       360   11 Jun 2027 06:11:46.796   11 Jun 2027 06:13:23.753            96.957         47992.718
       361   11 Jun 2027 06:14:19.154   11 Jun 2027 06:14:21.354             2.200          1100.000
       362   11 Jun 2027 06:14:32.135   11 Jun 2027 06:14:32.135             0.000             0.000
       363   11 Jun 2027 06:15:08.584   11 Jun 2027 06:15:13.189             4.605          2069.406
       364   11 Jun 2027 06:15:40.158   11 Jun 2027 06:15:45.085             4.927           343.000
       365   11 Jun 2027 06:16:01.904   11 Jun 2027 06:16:04.841             2.937           432.250
       366   11 Jun 2027 06:16:57.160   11 Jun 2027 06:17:00.662             3.502          1627.219
       367   11 Jun 2027 06:18:56.739   11 Jun 2027 06:19:04.524             7.785          3443.125
       368   11 Jun 2027 07:48:34.562   11 Jun 2027 07:49:07.279            32.717         16358.500
       369   11 Jun 2027 07:49:07.444   11 Jun 2027 07:49:16.912             9.468          4046.625
       370   11 Jun 2027 07:51:31.087   11 Jun 2027 07:51:31.302             0.215           107.500
       371   11 Jun 2027 07:52:30.360   11 Jun 2027 07:52:37.151             6.791          3395.500
       372   11 Jun 2027 07:53:39.919   11 Jun 2027 07:53:44.261             4.342          2101.469
       373   11 Jun 2027 07:54:28.656   11 Jun 2027 07:54:36.130             7.474          1387.344
       374   11 Jun 2027 09:26:24.838   11 Jun 2027 09:26:46.780            21.942         10634.500
       375   11 Jun 2027 09:27:33.880   11 Jun 2027 09:27:38.438             4.558           949.031
       376   11 Jun 2027 09:28:58.603   11 Jun 2027 09:29:03.292             4.689          1970.219
       377   11 Jun 2027 09:29:31.370   11 Jun 2027 09:29:34.242             2.872           877.437
       378   11 Jun 2027 11:02:23.558   11 Jun 2027 11:02:29.149             5.591          2348.469
       379   11 Jun 2027 11:02:53.256   11 Jun 2027 11:02:53.980             0.724           153.625
       380   11 Jun 2027 11:03:06.974   11 Jun 2027 11:03:06.974             0.000             0.000
       381   11 Jun 2027 11:03:17.251   11 Jun 2027 11:03:24.227             6.976           727.219
       382   11 Jun 2027 11:03:40.465   11 Jun 2027 11:03:44.808             4.343           269.844
       383   11 Jun 2027 11:04:11.900   11 Jun 2027 11:04:12.761             0.861           430.500
       384   11 Jun 2027 11:04:31.612   11 Jun 2027 11:04:35.432             3.820           822.625
       385   11 Jun 2027 11:05:16.510   11 Jun 2027 11:05:17.008             0.498           249.000
       386   11 Jun 2027 11:05:22.396   11 Jun 2027 11:05:22.396             0.000             0.000
       387   11 Jun 2027 11:05:31.064   11 Jun 2027 11:05:34.028             2.964           665.375
       388   11 Jun 2027 11:05:57.418   11 Jun 2027 11:06:00.775             3.357           590.344
       389   11 Jun 2027 11:06:33.105   11 Jun 2027 11:06:35.866             2.761           849.562
       390   12 Jun 2027 03:12:56.852   12 Jun 2027 03:13:12.366            15.514          7757.000
       391   12 Jun 2027 03:14:11.098   12 Jun 2027 03:14:12.313             1.215           607.500
       392   12 Jun 2027 03:14:22.434   12 Jun 2027 03:15:15.391            52.957         26478.500
       393   12 Jun 2027 03:15:20.607   12 Jun 2027 03:15:32.452            11.845          5922.500
       394   12 Jun 2027 04:46:44.360   12 Jun 2027 04:49:27.166           162.806         81403.000
       395   12 Jun 2027 04:50:43.031   12 Jun 2027 04:50:56.040            13.009          6504.500
       396   12 Jun 2027 04:52:46.320   12 Jun 2027 04:53:09.978            23.658         11829.000
       397   12 Jun 2027 04:54:23.036   12 Jun 2027 04:54:39.076            16.040          8020.000
       398   12 Jun 2027 04:54:50.344   12 Jun 2027 04:55:00.273             9.929          4964.500
       399   12 Jun 2027 04:55:12.761   12 Jun 2027 04:55:16.101             3.340          1670.000
       400   12 Jun 2027 06:23:58.881   12 Jun 2027 06:25:03.730            64.849         32194.312
       401   12 Jun 2027 06:25:59.568   12 Jun 2027 06:26:00.768             1.200           253.375
       402   12 Jun 2027 06:26:20.569   12 Jun 2027 06:26:26.370             5.801           404.781
       403   12 Jun 2027 06:26:35.380   12 Jun 2027 06:26:37.131             1.751           281.563
       404   12 Jun 2027 06:27:23.652   12 Jun 2027 06:27:26.101             2.449          1224.500
       405   12 Jun 2027 06:27:37.291   12 Jun 2027 06:27:39.649             2.358           531.500
       406   12 Jun 2027 06:27:59.387   12 Jun 2027 06:28:04.130             4.743           304.781
       407   12 Jun 2027 06:28:44.628   12 Jun 2027 06:28:50.462             5.834          1212.531
       408   12 Jun 2027 06:29:18.966   12 Jun 2027 06:29:22.623             3.657            64.063
       409   12 Jun 2027 06:30:11.848   12 Jun 2027 06:30:17.503             5.655          1514.750
       410   12 Jun 2027 08:01:11.137   12 Jun 2027 08:01:44.403            33.266         16633.000
       411   12 Jun 2027 08:01:55.431   12 Jun 2027 08:01:59.288             3.857          1393.750
       412   12 Jun 2027 08:02:23.243   12 Jun 2027 08:02:27.736             4.493           721.438
       413   12 Jun 2027 08:03:18.482   12 Jun 2027 08:03:21.859             3.377          1085.375
       414   12 Jun 2027 08:04:14.892   12 Jun 2027 08:04:26.605            11.713          1637.969
       415   12 Jun 2027 08:04:57.092   12 Jun 2027 08:04:59.124             2.032           952.719
       416   12 Jun 2027 08:06:21.511   12 Jun 2027 08:06:26.747             5.236          2574.594
       417   12 Jun 2027 08:06:48.393   12 Jun 2027 08:06:50.916             2.523           676.438
       418   12 Jun 2027 09:37:54.014   12 Jun 2027 09:38:15.142            21.128          9495.281
       419   12 Jun 2027 09:38:25.369   12 Jun 2027 09:38:26.200             0.831           319.594
       420   12 Jun 2027 09:39:25.984   12 Jun 2027 09:39:29.651             3.667          1735.344
       421   12 Jun 2027 09:40:04.757   12 Jun 2027 09:40:09.871             5.114          1058.094
       422   12 Jun 2027 09:40:10.664   12 Jun 2027 09:40:11.816             1.152            24.781
       423   12 Jun 2027 09:41:05.753   12 Jun 2027 09:41:06.760             1.007           503.500
       424   12 Jun 2027 09:41:41.683   12 Jun 2027 09:41:46.370             4.687          2115.187
       425   12 Jun 2027 09:41:59.362   12 Jun 2027 09:41:59.744             0.382            38.219
       426   12 Jun 2027 09:42:23.977   12 Jun 2027 09:42:23.977             0.000             0.000
       427   12 Jun 2027 09:42:37.396   12 Jun 2027 09:42:42.589             5.193          1073.781
       428   12 Jun 2027 11:13:07.446   12 Jun 2027 11:13:13.483             6.037          1574.250
       429   12 Jun 2027 11:14:51.109   12 Jun 2027 11:14:58.834             7.725           984.656
       430   12 Jun 2027 11:15:12.751   12 Jun 2027 11:15:15.491             2.740           409.812
       431   12 Jun 2027 11:15:17.986   12 Jun 2027 11:15:21.987             4.001            41.281
       432   12 Jun 2027 11:15:33.307   12 Jun 2027 11:15:33.307             0.000             0.000
       433   12 Jun 2027 11:15:48.431   12 Jun 2027 11:15:50.946             2.515           747.812
       434   12 Jun 2027 11:16:10.933   12 Jun 2027 11:16:10.933             0.000             0.000
       435   12 Jun 2027 11:16:23.504   12 Jun 2027 11:16:27.617             4.113           598.094
       436   12 Jun 2027 11:16:58.890   12 Jun 2027 11:17:03.955             5.065           804.531
       437   12 Jun 2027 11:17:41.260   12 Jun 2027 11:17:43.581             2.321           731.375
       438   13 Jun 2027 03:25:11.135   13 Jun 2027 03:25:42.434            31.299         15649.500
       439   13 Jun 2027 03:26:45.849   13 Jun 2027 03:26:53.934             8.085          4042.500
       440   13 Jun 2027 03:27:21.124   13 Jun 2027 03:28:01.294            40.170         20085.000
       441   13 Jun 2027 04:57:30.187   13 Jun 2027 04:58:03.557            33.370         16685.000
       442   13 Jun 2027 04:59:34.657   13 Jun 2027 05:02:28.538           173.881         86940.500
       443   13 Jun 2027 05:04:41.106   13 Jun 2027 05:04:41.106             0.000             0.000
       444   13 Jun 2027 05:05:45.148   13 Jun 2027 05:05:56.610            11.462          5731.000
       445   13 Jun 2027 05:06:05.223   13 Jun 2027 05:06:07.494             2.271          1135.500
       446   13 Jun 2027 05:06:52.815   13 Jun 2027 05:06:54.850             2.035          1017.500
       447   13 Jun 2027 05:07:11.055   13 Jun 2027 05:07:13.736             2.681          1340.500
       448   13 Jun 2027 06:36:19.838   13 Jun 2027 06:37:24.047            64.209         31852.593
       449   13 Jun 2027 06:38:01.361   13 Jun 2027 06:38:02.165             0.804           252.500
       450   13 Jun 2027 06:38:57.894   13 Jun 2027 06:38:59.582             1.688           662.312
       451   13 Jun 2027 06:39:16.130   13 Jun 2027 06:39:22.845             6.715           118.469
       452   13 Jun 2027 06:40:00.021   13 Jun 2027 06:40:02.401             2.380          1035.188
       453   13 Jun 2027 06:40:17.777   13 Jun 2027 06:40:20.351             2.574           480.500
       454   13 Jun 2027 06:41:13.400   13 Jun 2027 06:41:14.266             0.866           433.000
       455   13 Jun 2027 06:41:34.981   13 Jun 2027 06:41:39.050             4.069          1661.500
       456   13 Jun 2027 06:42:24.656   13 Jun 2027 06:42:27.678             3.022          1268.187
       457   13 Jun 2027 06:42:59.772   13 Jun 2027 06:43:02.401             2.629           861.719
       458   13 Jun 2027 08:13:17.727   13 Jun 2027 08:13:47.540            29.813         14646.687
       459   13 Jun 2027 08:14:41.891   13 Jun 2027 08:14:46.181             4.290          1570.812
       460   13 Jun 2027 08:15:44.241   13 Jun 2027 08:15:47.164             2.923           943.125
       461   13 Jun 2027 08:16:23.879   13 Jun 2027 08:16:28.809             4.930           927.250
       462   13 Jun 2027 08:16:38.700   13 Jun 2027 08:16:38.700             0.000             0.000
       463   13 Jun 2027 08:16:46.381   13 Jun 2027 08:16:46.381             0.000             0.000
       464   13 Jun 2027 08:16:52.339   13 Jun 2027 08:16:55.753             3.414           693.781
       465   13 Jun 2027 08:17:11.734   13 Jun 2027 08:17:15.287             3.553           256.156
       466   13 Jun 2027 08:17:52.420   13 Jun 2027 08:17:56.494             4.074          1160.406
       467   13 Jun 2027 09:50:03.413   13 Jun 2027 09:50:23.337            19.924          7888.500
       468   13 Jun 2027 09:50:55.105   13 Jun 2027 09:50:57.878             2.773           535.000
       469   13 Jun 2027 09:51:27.131   13 Jun 2027 09:51:30.307             3.176           799.438
       470   13 Jun 2027 09:52:17.278   13 Jun 2027 09:52:25.030             7.752          1266.750
       471   13 Jun 2027 09:52:34.657   13 Jun 2027 09:52:36.435             1.778           300.844
       472   13 Jun 2027 09:53:09.745   13 Jun 2027 09:53:11.203             1.458           606.844
       473   13 Jun 2027 09:53:32.558   13 Jun 2027 09:53:33.709             1.151           559.844
       474   13 Jun 2027 11:28:14.988   13 Jun 2027 11:28:27.410            12.422          4181.875
       475   13 Jun 2027 11:28:43.908   13 Jun 2027 11:28:46.611             2.703           348.406
