uniorb/output/strategy_2/Camera/Camera_KinoSat_111503.txt

KinoSat_111503
-------------------------
    Access    *     Start Time (UTCG)     *     Stop Time (UTCG)  *   Duration (s) *   Data (Mbytes)
         1   01 Jun 2027 03:38:28.787   01 Jun 2027 03:41:33.054           184.267         92133.500
         2   01 Jun 2027 03:41:57.982   01 Jun 2027 03:42:23.669            25.687         12843.500
         3   01 Jun 2027 03:42:45.906   01 Jun 2027 03:43:28.368            42.462         21231.000
         4   01 Jun 2027 03:43:35.423   01 Jun 2027 03:44:00.331            24.908         12454.000
         5   01 Jun 2027 03:45:25.545   01 Jun 2027 03:45:30.894             5.349          2674.500
         6   01 Jun 2027 05:04:42.515   01 Jun 2027 05:04:52.072             9.557          4778.500
         7   01 Jun 2027 05:15:32.658   01 Jun 2027 05:17:14.955           102.297         51148.500
         8   01 Jun 2027 05:18:31.330   01 Jun 2027 05:18:42.470            11.140          5570.000
         9   01 Jun 2027 06:39:29.647   01 Jun 2027 06:40:35.111            65.464         32732.000
        10   01 Jun 2027 08:15:15.289   01 Jun 2027 08:18:02.725           167.436         83718.000
        11   01 Jun 2027 08:18:48.736   01 Jun 2027 08:19:02.550            13.814          6907.000
        12   01 Jun 2027 09:49:59.157   01 Jun 2027 09:51:44.240           105.083         52541.500
        13   01 Jun 2027 09:52:54.072   01 Jun 2027 09:53:22.967            28.895         14447.500
        14   01 Jun 2027 09:56:53.419   01 Jun 2027 09:57:19.607            26.188         13094.000
        15   01 Jun 2027 11:26:48.892   01 Jun 2027 11:27:28.737            39.845         19922.500
        16   01 Jun 2027 11:27:45.016   01 Jun 2027 11:28:31.180            46.164         23082.000
        17   01 Jun 2027 11:28:41.615   01 Jun 2027 11:28:48.330             6.715          3357.500
        18   01 Jun 2027 11:31:13.987   01 Jun 2027 11:31:15.536             1.549           774.500
        19   01 Jun 2027 11:31:18.451   01 Jun 2027 11:31:20.673             2.222          1111.000
        20   01 Jun 2027 11:32:23.872   01 Jun 2027 11:32:26.654             2.782          1391.000
        21   01 Jun 2027 11:32:37.640   01 Jun 2027 11:32:57.150            19.510          9755.000
        22   02 Jun 2027 03:50:51.099   02 Jun 2027 03:53:20.661           149.562         74781.000
        23   02 Jun 2027 03:54:25.274   02 Jun 2027 03:55:42.323            77.049         38524.500
        24   02 Jun 2027 03:56:12.861   02 Jun 2027 03:56:48.655            35.794         17897.000
        25   02 Jun 2027 03:57:41.224   02 Jun 2027 03:58:09.301            28.077         14038.500
        26   02 Jun 2027 05:15:53.962   02 Jun 2027 05:16:16.170            22.208         11104.000
        27   02 Jun 2027 05:27:33.809   02 Jun 2027 05:28:25.046            51.237         25618.500
        28   02 Jun 2027 05:28:48.762   02 Jun 2027 05:28:54.100             5.338          2669.000
        29   02 Jun 2027 06:49:50.929   02 Jun 2027 06:51:06.087            75.158         37579.000
        30   02 Jun 2027 06:51:47.009   02 Jun 2027 06:52:36.991            49.982         24991.000
        31   02 Jun 2027 06:53:08.361   02 Jun 2027 06:53:29.615            21.254         10627.000
        32   02 Jun 2027 08:25:05.721   02 Jun 2027 08:26:27.401            81.680         40840.000
        33   02 Jun 2027 08:26:58.903   02 Jun 2027 08:27:18.085            19.182          8912.592
        34   02 Jun 2027 08:28:31.978   02 Jun 2027 08:28:37.251             5.273          2309.156
        35   02 Jun 2027 08:30:03.573   02 Jun 2027 08:30:03.916             0.343           171.500
        36   02 Jun 2027 08:31:12.501   02 Jun 2027 08:31:22.411             9.910          4636.312
        37   02 Jun 2027 10:02:07.054   02 Jun 2027 10:02:09.598             2.544          1272.000
        38   02 Jun 2027 10:04:07.760   02 Jun 2027 10:04:29.907            22.147          7313.625
        39   02 Jun 2027 10:05:38.896   02 Jun 2027 10:05:42.116             3.220           546.594
        40   02 Jun 2027 10:08:38.967   02 Jun 2027 10:08:51.463            12.496          5526.594
        41   02 Jun 2027 10:09:05.976   02 Jun 2027 10:09:11.469             5.493           453.531
        42   02 Jun 2027 11:39:05.037   02 Jun 2027 11:39:19.849            14.812          7326.812
        43   02 Jun 2027 11:39:50.432   02 Jun 2027 11:39:55.069             4.637           955.719
        44   02 Jun 2027 11:40:49.651   02 Jun 2027 11:40:53.955             4.304          1114.500
        45   02 Jun 2027 11:41:13.561   02 Jun 2027 11:41:21.240             7.679           439.656
        46   02 Jun 2027 11:42:46.020   02 Jun 2027 11:42:50.600             4.580          2290.000
        47   03 Jun 2027 04:03:10.512   03 Jun 2027 04:06:21.374           190.862         95431.000
        48   03 Jun 2027 04:07:19.743   03 Jun 2027 04:08:05.822            46.079         23039.500
        49   03 Jun 2027 04:09:08.437   03 Jun 2027 04:09:09.947             1.510           755.000
        50   03 Jun 2027 04:09:54.923   03 Jun 2027 04:10:07.437            12.514          6257.000
        51   03 Jun 2027 05:27:15.098   03 Jun 2027 05:28:00.298            45.200         22600.000
        52   03 Jun 2027 05:28:12.868   03 Jun 2027 05:28:13.809             0.941           470.500
        53   03 Jun 2027 05:28:26.599   03 Jun 2027 05:28:39.833            13.234          6617.000
        54   03 Jun 2027 05:39:31.118   03 Jun 2027 05:39:59.530            28.412         14206.000
        55   03 Jun 2027 05:40:04.219   03 Jun 2027 05:40:06.933             2.714          1153.250
        56   03 Jun 2027 07:01:30.022   03 Jun 2027 07:01:43.108            13.086          6373.750
        57   03 Jun 2027 07:02:36.922   03 Jun 2027 07:02:40.943             4.021          1345.062
        58   03 Jun 2027 07:02:42.944   03 Jun 2027 07:02:44.387             1.443            14.594
        59   03 Jun 2027 07:03:37.619   03 Jun 2027 07:03:40.259             2.640           423.344
        60   03 Jun 2027 07:04:14.946   03 Jun 2027 07:04:19.394             4.448          1032.844
        61   03 Jun 2027 07:05:43.594   03 Jun 2027 07:05:48.315             4.721          2163.094
        62   03 Jun 2027 07:06:39.878   03 Jun 2027 07:06:45.653             5.775          1004.531
        63   03 Jun 2027 08:36:30.544   03 Jun 2027 08:36:37.589             7.045          3328.688
        64   03 Jun 2027 08:37:12.038   03 Jun 2027 08:37:14.581             2.543           187.406
        65   03 Jun 2027 08:38:20.253   03 Jun 2027 08:38:20.253             0.000             0.000
        66   03 Jun 2027 08:39:03.865   03 Jun 2027 08:39:08.500             4.635          2021.719
        67   03 Jun 2027 08:40:15.154   03 Jun 2027 08:40:17.280             2.126           907.875
        68   03 Jun 2027 08:40:48.148   03 Jun 2027 08:40:51.552             3.404           964.625
        69   03 Jun 2027 08:41:21.726   03 Jun 2027 08:41:22.374             0.648           315.344
        70   03 Jun 2027 08:41:36.305   03 Jun 2027 08:41:37.653             1.348           327.750
        71   03 Jun 2027 08:43:01.606   03 Jun 2027 08:43:10.110             8.504          1802.219
        72   03 Jun 2027 08:43:20.600   03 Jun 2027 08:43:22.327             1.727           190.031
        73   03 Jun 2027 08:43:36.078   03 Jun 2027 08:43:38.517             2.439           429.719
        74   03 Jun 2027 08:44:53.544   03 Jun 2027 08:44:57.869             4.325          2069.000
        75   03 Jun 2027 10:14:09.139   03 Jun 2027 10:14:19.143            10.004          4817.969
        76   03 Jun 2027 10:15:12.216   03 Jun 2027 10:15:12.908             0.692            94.187
        77   03 Jun 2027 10:15:28.159   03 Jun 2027 10:15:30.128             1.969           449.594
        78   03 Jun 2027 10:16:00.472   03 Jun 2027 10:16:04.037             3.565           442.875
        79   03 Jun 2027 10:16:17.660   03 Jun 2027 10:16:21.741             4.081           380.281
        80   03 Jun 2027 10:17:16.771   03 Jun 2027 10:17:20.116             3.345          1091.719
        81   03 Jun 2027 10:18:27.888   03 Jun 2027 10:18:31.779             3.891          1354.938
        82   03 Jun 2027 10:19:24.354   03 Jun 2027 10:19:27.711             3.357          1611.187
        83   03 Jun 2027 10:20:18.738   03 Jun 2027 10:20:22.619             3.881          1502.125
        84   03 Jun 2027 10:20:27.907   03 Jun 2027 10:20:30.943             3.036           165.250
        85   03 Jun 2027 10:20:53.364   03 Jun 2027 10:20:58.429             5.065           309.844
        86   03 Jun 2027 10:21:12.520   03 Jun 2027 10:21:13.544             1.024           439.094
        87   03 Jun 2027 11:50:55.425   03 Jun 2027 11:51:04.095             8.670          4335.000
        88   03 Jun 2027 11:51:27.350   03 Jun 2027 11:51:38.119            10.769          2305.500
        89   03 Jun 2027 11:52:09.062   03 Jun 2027 11:52:16.608             7.546           966.969
        90   03 Jun 2027 11:52:19.933   03 Jun 2027 11:52:24.574             4.641           103.906
        91   03 Jun 2027 11:53:43.209   03 Jun 2027 11:53:49.264             6.055          2259.687
        92   03 Jun 2027 11:54:52.276   03 Jun 2027 11:54:57.863             5.587          1969.125
        93   03 Jun 2027 11:55:11.131   03 Jun 2027 11:55:12.410             1.279           372.344
        94   03 Jun 2027 11:55:47.534   03 Jun 2027 11:55:48.669             1.135           567.500
        95   03 Jun 2027 11:56:28.452   03 Jun 2027 11:56:32.176             3.724          1773.344
        96   03 Jun 2027 11:57:08.363   03 Jun 2027 11:57:09.377             1.014           507.000
        97   04 Jun 2027 04:15:15.049   04 Jun 2027 04:17:28.231           133.182         66591.000
        98   04 Jun 2027 04:18:04.038   04 Jun 2027 04:18:59.360            55.322         27661.000
        99   04 Jun 2027 04:19:07.993   04 Jun 2027 04:19:27.540            19.547          9773.500
       100   04 Jun 2027 04:20:23.740   04 Jun 2027 04:20:23.740             0.000             0.000
       101   04 Jun 2027 05:39:23.042   04 Jun 2027 05:40:45.176            82.134         41067.000
       102   04 Jun 2027 07:13:12.194   04 Jun 2027 07:13:50.637            38.443         18443.094
       103   04 Jun 2027 07:14:21.788   04 Jun 2027 07:14:25.325             3.537           725.875
       104   04 Jun 2027 07:15:08.298   04 Jun 2027 07:15:10.029             1.731           749.906
       105   04 Jun 2027 07:15:57.088   04 Jun 2027 07:15:59.718             2.630          1208.500
       106   04 Jun 2027 07:16:11.562   04 Jun 2027 07:16:12.057             0.495           188.438
       107   04 Jun 2027 07:16:42.163   04 Jun 2027 07:16:45.443             3.280           934.813
       108   04 Jun 2027 07:18:28.355   04 Jun 2027 07:18:35.811             7.456          2686.500
       109   04 Jun 2027 07:18:37.928   04 Jun 2027 07:18:38.548             0.620            57.031
       110   04 Jun 2027 08:48:04.210   04 Jun 2027 08:48:13.196             8.986          4211.687
       111   04 Jun 2027 08:48:59.334   04 Jun 2027 08:48:59.334             0.000             0.000
       112   04 Jun 2027 08:50:21.304   04 Jun 2027 08:50:32.608            11.304          3795.625
       113   04 Jun 2027 08:51:16.699   04 Jun 2027 08:51:23.395             6.696           938.937
       114   04 Jun 2027 08:52:17.615   04 Jun 2027 08:52:21.625             4.010          1101.750
       115   04 Jun 2027 08:53:52.334   04 Jun 2027 08:54:03.328            10.994          2483.219
       116   04 Jun 2027 08:54:53.793   04 Jun 2027 08:54:57.439             3.646          1564.500
       117   04 Jun 2027 08:55:59.550   04 Jun 2027 08:56:04.203             4.653          1940.969
       118   04 Jun 2027 08:56:50.226   04 Jun 2027 08:56:50.226             0.000             0.000
       119   04 Jun 2027 08:57:38.395   04 Jun 2027 08:57:39.107             0.712           356.000
       120   04 Jun 2027 10:26:10.414   04 Jun 2027 10:26:23.960            13.546          6581.313
       121   04 Jun 2027 10:26:58.674   04 Jun 2027 10:27:01.533             2.859           553.062
       122   04 Jun 2027 10:27:24.926   04 Jun 2027 10:27:26.264             1.338           623.750
       123   04 Jun 2027 10:27:27.451   04 Jun 2027 10:27:30.422             2.971            37.094
       124   04 Jun 2027 10:27:49.522   04 Jun 2027 10:27:53.031             3.509           596.781
       125   04 Jun 2027 10:28:01.705   04 Jun 2027 10:28:02.765             1.060           185.844
       126   04 Jun 2027 10:29:03.543   04 Jun 2027 10:29:08.557             5.014          1788.969
       127   04 Jun 2027 10:29:10.333   04 Jun 2027 10:29:10.611             0.278            46.438
       128   04 Jun 2027 10:29:18.130   04 Jun 2027 10:29:22.235             4.105           234.969
       129   04 Jun 2027 10:30:24.982   04 Jun 2027 10:30:28.657             3.675          1647.500
       130   04 Jun 2027 10:31:46.618   04 Jun 2027 10:31:55.332             8.714          2353.844
       131   04 Jun 2027 10:32:31.161   04 Jun 2027 10:32:32.404             1.243           621.500
       132   04 Jun 2027 10:32:40.737   04 Jun 2027 10:32:44.034             3.297           758.562
       133   04 Jun 2027 10:33:09.641   04 Jun 2027 10:33:12.028             2.387           775.719
       134   05 Jun 2027 04:27:51.645   05 Jun 2027 04:31:17.588           205.943        102971.500
       135   05 Jun 2027 04:31:17.890   05 Jun 2027 04:31:40.896            23.006         11503.000
       136   05 Jun 2027 05:51:19.134   05 Jun 2027 05:52:06.185            47.051         23525.500
       137   05 Jun 2027 05:52:12.492   05 Jun 2027 05:52:29.376            16.884          8442.000
       138   05 Jun 2027 07:27:32.227   05 Jun 2027 07:28:04.182            31.955         15977.500
       139   05 Jun 2027 07:28:14.912   05 Jun 2027 07:28:18.888             3.976          1044.500
       140   05 Jun 2027 07:28:42.650   05 Jun 2027 07:28:46.078             3.428           174.250
       141   05 Jun 2027 07:29:38.061   05 Jun 2027 07:29:41.072             3.011          1417.094
       142   05 Jun 2027 07:29:56.920   05 Jun 2027 07:30:00.176             3.256           495.250
       143   05 Jun 2027 07:30:38.390   05 Jun 2027 07:30:40.403             2.013           801.125
       144   05 Jun 2027 09:01:05.360   05 Jun 2027 09:01:15.394            10.034          4739.062
       145   05 Jun 2027 09:01:46.529   05 Jun 2027 09:01:47.343             0.814           100.094
       146   05 Jun 2027 09:02:04.807   05 Jun 2027 09:02:12.358             7.551           318.969
       147   05 Jun 2027 09:02:33.809   05 Jun 2027 09:02:38.168             4.359           372.156
       148   05 Jun 2027 09:03:37.190   05 Jun 2027 09:03:40.641             3.451          1344.719
       149   05 Jun 2027 09:04:19.823   05 Jun 2027 09:04:22.497             2.674          1110.000
       150   05 Jun 2027 09:05:42.852   05 Jun 2027 09:05:46.610             3.758          1879.000
       151   05 Jun 2027 09:06:03.590   05 Jun 2027 09:06:06.049             2.459           847.063
       152   05 Jun 2027 09:06:18.282   05 Jun 2027 09:06:21.355             3.073           370.187
       153   05 Jun 2027 09:06:28.167   05 Jun 2027 09:06:28.694             0.527            57.094
       154   05 Jun 2027 09:07:18.212   05 Jun 2027 09:07:21.132             2.920           949.063
       155   05 Jun 2027 09:08:13.716   05 Jun 2027 09:08:14.211             0.495           247.500
       156   05 Jun 2027 09:08:16.410   05 Jun 2027 09:08:22.079             5.669          1010.000
       157   05 Jun 2027 09:08:39.492   05 Jun 2027 09:08:41.314             1.822           544.156
       158   05 Jun 2027 09:09:38.152   05 Jun 2027 09:09:39.199             1.047           523.500
       159   05 Jun 2027 10:38:37.774   05 Jun 2027 10:38:48.982            11.208          5596.344
       160   05 Jun 2027 10:40:07.732   05 Jun 2027 10:40:11.114             3.382          1691.000
       161   05 Jun 2027 10:40:56.553   05 Jun 2027 10:41:01.645             5.092          1902.094
       162   05 Jun 2027 10:41:48.088   05 Jun 2027 10:41:52.471             4.383          1451.344
       163   05 Jun 2027 10:42:22.584   05 Jun 2027 10:42:25.687             3.103           911.344
       164   05 Jun 2027 10:43:28.467   05 Jun 2027 10:43:33.704             5.237          1450.844
       165   05 Jun 2027 10:43:54.463   05 Jun 2027 10:43:56.554             2.091           648.719
       166   05 Jun 2027 10:44:01.845   05 Jun 2027 10:44:03.329             1.484            37.438
       167   05 Jun 2027 10:44:14.571   05 Jun 2027 10:44:23.186             8.615           242.437
       168   05 Jun 2027 10:44:32.962   05 Jun 2027 10:44:40.012             7.050           269.281
       169   05 Jun 2027 10:44:58.129   05 Jun 2027 10:44:59.118             0.989           487.750
       170   05 Jun 2027 10:45:05.476   05 Jun 2027 10:45:07.283             1.807           198.687
       171   06 Jun 2027 03:01:29.060   06 Jun 2027 03:01:56.972            27.912         13956.000
       172   06 Jun 2027 03:02:00.971   06 Jun 2027 03:02:21.743            20.772         10386.000
       173   06 Jun 2027 03:03:02.694   06 Jun 2027 03:03:10.118             7.424          3712.000
       174   06 Jun 2027 03:03:12.682   06 Jun 2027 03:03:31.558            18.876          9438.000
       175   06 Jun 2027 03:03:54.210   06 Jun 2027 03:04:10.935            16.725          8362.500
       176   06 Jun 2027 03:04:21.220   06 Jun 2027 03:04:21.496             0.276           138.000
       177   06 Jun 2027 03:05:35.626   06 Jun 2027 03:05:49.625            13.999          6999.500
       178   06 Jun 2027 03:06:56.465   06 Jun 2027 03:07:19.973            23.508         11754.000
       179   06 Jun 2027 03:07:37.536   06 Jun 2027 03:07:39.603             2.067          1033.500
       180   06 Jun 2027 04:39:31.235   06 Jun 2027 04:41:13.055           101.820         50910.000
       181   06 Jun 2027 04:41:16.746   06 Jun 2027 04:41:24.489             7.743          3871.500
       182   06 Jun 2027 04:42:07.995   06 Jun 2027 04:43:05.142            57.147         28573.500
       183   06 Jun 2027 06:03:10.298   06 Jun 2027 06:03:47.144            36.846         17358.594
       184   06 Jun 2027 06:04:47.813   06 Jun 2027 06:04:47.813             0.000             0.000
       185   06 Jun 2027 07:39:37.382   06 Jun 2027 07:39:51.160            13.778          5391.406
       186   06 Jun 2027 07:40:10.209   06 Jun 2027 07:40:10.209             0.000             0.000
       187   06 Jun 2027 07:40:35.265   06 Jun 2027 07:40:36.328             1.063           531.500
       188   06 Jun 2027 07:40:39.619   06 Jun 2027 07:40:41.954             2.335           431.125
       189   06 Jun 2027 07:41:37.795   06 Jun 2027 07:41:41.979             4.184          1668.281
       190   06 Jun 2027 07:42:47.521   06 Jun 2027 07:42:57.077             9.556          1890.750
       191   06 Jun 2027 09:11:45.219   06 Jun 2027 09:11:52.839             7.620          3686.594
       192   06 Jun 2027 09:14:21.961   06 Jun 2027 09:14:29.141             7.180          2798.313
       193   06 Jun 2027 09:15:04.152   06 Jun 2027 09:15:07.848             3.696           310.219
       194   06 Jun 2027 09:15:51.740   06 Jun 2027 09:15:55.237             3.497           709.406
       195   06 Jun 2027 09:17:00.029   06 Jun 2027 09:17:02.478             2.449          1196.406
       196   06 Jun 2027 09:18:01.180   06 Jun 2027 09:18:10.842             9.662          1834.438
       197   06 Jun 2027 09:18:48.653   06 Jun 2027 09:18:55.133             6.480           874.719
       198   06 Jun 2027 09:20:05.317   06 Jun 2027 09:20:07.443             2.126          1063.000
       199   06 Jun 2027 09:20:11.761   06 Jun 2027 09:20:11.861             0.100            50.000
       200   06 Jun 2027 09:20:31.185   06 Jun 2027 09:20:32.230             1.045           522.500
       201   06 Jun 2027 09:20:35.364   06 Jun 2027 09:20:39.674             4.310           924.906
       202   06 Jun 2027 09:20:56.681   06 Jun 2027 09:20:58.389             1.708           302.438
       203   06 Jun 2027 09:21:15.702   06 Jun 2027 09:21:17.550             1.848           541.031
       204   06 Jun 2027 09:21:33.838   06 Jun 2027 09:21:33.950             0.112            56.000
       205   06 Jun 2027 10:50:42.803   06 Jun 2027 10:50:58.029            15.226          7099.438
       206   06 Jun 2027 10:52:44.556   06 Jun 2027 10:52:50.066             5.510          1747.344
       207   06 Jun 2027 10:52:54.044   06 Jun 2027 10:52:54.627             0.583           124.312
       208   06 Jun 2027 10:53:03.492   06 Jun 2027 10:53:05.888             2.396           156.750
       209   06 Jun 2027 10:53:11.244   06 Jun 2027 10:53:15.297             4.053            19.156
       210   06 Jun 2027 10:53:42.111   06 Jun 2027 10:53:46.666             4.555           720.594
       211   06 Jun 2027 10:55:09.497   06 Jun 2027 10:55:14.520             5.023          2319.187
       212   06 Jun 2027 10:55:47.145   06 Jun 2027 10:55:52.362             5.217           791.719
       213   06 Jun 2027 10:56:01.891   06 Jun 2027 10:56:03.844             1.953           297.781
       214   06 Jun 2027 10:56:42.462   06 Jun 2027 10:56:45.522             3.060           647.500
       215   06 Jun 2027 10:57:03.739   06 Jun 2027 10:57:07.078             3.339           569.281
       216   07 Jun 2027 03:13:36.365   07 Jun 2027 03:14:37.689            61.324         30662.000
       217   07 Jun 2027 03:14:45.527   07 Jun 2027 03:14:59.852            14.325          7162.500
       218   07 Jun 2027 03:15:40.999   07 Jun 2027 03:17:10.676            89.677         44838.500
       219   07 Jun 2027 03:17:41.187   07 Jun 2027 03:17:42.262             1.075           537.500
       220   07 Jun 2027 03:17:56.929   07 Jun 2027 03:18:19.471            22.542         11271.000
       221   07 Jun 2027 03:18:55.317   07 Jun 2027 03:19:09.105            13.788          6894.000
       222   07 Jun 2027 03:19:12.811   07 Jun 2027 03:19:17.685             4.874          2437.000
       223   07 Jun 2027 03:19:25.662   07 Jun 2027 03:19:52.076            26.414         13207.000
       224   07 Jun 2027 04:52:44.413   07 Jun 2027 04:54:22.799            98.386         48666.969
       225   07 Jun 2027 04:55:00.761   07 Jun 2027 04:55:00.761             0.000             0.000
       226   07 Jun 2027 04:55:14.022   07 Jun 2027 04:55:17.724             3.702          1286.656
       227   07 Jun 2027 04:55:48.461   07 Jun 2027 04:55:50.350             1.889           942.250
       228   07 Jun 2027 06:15:18.676   07 Jun 2027 06:15:32.537            13.861          6638.344
       229   07 Jun 2027 06:17:46.431   07 Jun 2027 06:18:00.845            14.414          4020.250
       230   07 Jun 2027 06:18:13.027   07 Jun 2027 06:18:13.027             0.000             0.000
       231   07 Jun 2027 07:51:47.392   07 Jun 2027 07:51:54.341             6.949          2500.063
       232   07 Jun 2027 07:52:46.047   07 Jun 2027 07:52:47.143             1.096           548.000
       233   07 Jun 2027 07:52:58.575   07 Jun 2027 07:53:01.412             2.837          1156.875
       234   07 Jun 2027 07:53:22.743   07 Jun 2027 07:53:25.918             3.175           589.531
       235   07 Jun 2027 07:54:16.842   07 Jun 2027 07:54:21.296             4.454          1546.187
       236   07 Jun 2027 07:55:07.560   07 Jun 2027 07:55:11.529             3.969          1244.313
       237   07 Jun 2027 09:26:58.455   07 Jun 2027 09:27:08.670            10.215          4338.312
       238   07 Jun 2027 09:28:06.480   07 Jun 2027 09:28:10.698             4.218          1729.688
       239   07 Jun 2027 09:28:23.321   07 Jun 2027 09:28:29.727             6.406           278.750
       240   07 Jun 2027 09:32:12.305   07 Jun 2027 09:32:31.124            18.819          5614.563
       241   07 Jun 2027 11:03:17.475   07 Jun 2027 11:03:29.138            11.663          5454.656
       242   07 Jun 2027 11:05:16.300   07 Jun 2027 11:05:22.150             5.850          2697.719
       243   07 Jun 2027 11:05:52.809   07 Jun 2027 11:05:58.559             5.750           945.937
       244   07 Jun 2027 11:06:30.208   07 Jun 2027 11:06:33.459             3.251           969.281
       245   07 Jun 2027 11:06:47.027   07 Jun 2027 11:06:49.043             2.016           397.500
       246   07 Jun 2027 11:07:11.547   07 Jun 2027 11:07:16.436             4.889           703.250
       247   07 Jun 2027 11:08:29.474   07 Jun 2027 11:08:35.367             5.893          2210.781
       248   07 Jun 2027 11:08:38.631   07 Jun 2027 11:08:40.391             1.760           102.000
       249   07 Jun 2027 11:09:00.853   07 Jun 2027 11:09:03.091             2.238           639.437
       250   07 Jun 2027 11:09:10.453   07 Jun 2027 11:09:11.427             0.974           230.062
       251   07 Jun 2027 11:09:26.318   07 Jun 2027 11:09:29.815             3.497           398.094
       252   08 Jun 2027 03:25:41.364   08 Jun 2027 03:26:01.991            20.627         10313.500
       253   08 Jun 2027 03:26:44.197   08 Jun 2027 03:28:58.602           134.405         67202.500
       254   08 Jun 2027 03:28:59.168   08 Jun 2027 03:29:36.607            37.439         18719.500
       255   08 Jun 2027 03:30:36.093   08 Jun 2027 03:30:38.576             2.483          1241.500
       256   08 Jun 2027 03:31:08.222   08 Jun 2027 03:31:17.221             8.999          4499.500
       257   08 Jun 2027 03:34:00.140   08 Jun 2027 03:34:23.118            22.978         11489.000
       258   08 Jun 2027 05:03:53.300   08 Jun 2027 05:04:29.845            36.545         18272.500
       259   08 Jun 2027 05:04:58.434   08 Jun 2027 05:05:38.373            39.939         19968.156
       260   08 Jun 2027 05:06:08.593   08 Jun 2027 05:06:11.650             3.057           863.938
       261   08 Jun 2027 05:06:41.605   08 Jun 2027 05:06:41.605             0.000             0.000
       262   08 Jun 2027 05:06:53.321   08 Jun 2027 05:06:57.766             4.445          1253.687
       263   08 Jun 2027 05:07:18.220   08 Jun 2027 05:07:19.370             1.150           469.250
       264   08 Jun 2027 06:28:01.245   08 Jun 2027 06:28:14.040            12.795          5761.656
       265   08 Jun 2027 06:30:01.238   08 Jun 2027 06:30:10.270             9.032          3346.313
       266   08 Jun 2027 08:03:45.798   08 Jun 2027 08:03:54.586             8.788          2755.156
       267   08 Jun 2027 08:04:47.517   08 Jun 2027 08:04:51.023             3.506          1603.781
       268   08 Jun 2027 08:05:45.788   08 Jun 2027 08:05:48.873             3.085          1207.625
       269   08 Jun 2027 08:06:26.288   08 Jun 2027 08:06:29.919             3.631           628.844
       270   08 Jun 2027 09:38:50.205   08 Jun 2027 09:39:00.703            10.498          4443.375
       271   08 Jun 2027 09:40:24.503   08 Jun 2027 09:40:31.654             7.151          2388.625
       272   08 Jun 2027 09:41:04.029   08 Jun 2027 09:41:08.556             4.527           915.781
       273   08 Jun 2027 09:41:52.716   08 Jun 2027 09:41:52.716             0.000             0.000
       274   08 Jun 2027 09:42:45.870   08 Jun 2027 09:42:52.027             6.157          2505.000
       275   08 Jun 2027 09:43:21.943   08 Jun 2027 09:43:25.698             3.755           934.875
       276   08 Jun 2027 09:44:14.152   08 Jun 2027 09:44:21.114             6.962           977.281
       277   08 Jun 2027 09:45:05.276   08 Jun 2027 09:45:08.056             2.780          1380.062
       278   08 Jun 2027 09:45:30.746   08 Jun 2027 09:45:30.746             0.000             0.000
       279   08 Jun 2027 09:45:40.257   08 Jun 2027 09:45:40.953             0.696           348.000
       280   08 Jun 2027 11:14:55.321   08 Jun 2027 11:15:07.862            12.541          5736.406
       281   08 Jun 2027 11:15:28.246   08 Jun 2027 11:15:28.615             0.369            53.219
       282   08 Jun 2027 11:15:57.792   08 Jun 2027 11:15:59.577             1.785           889.500
       283   08 Jun 2027 11:17:02.016   08 Jun 2027 11:17:05.101             3.085          1542.500
       284   08 Jun 2027 11:18:39.155   08 Jun 2027 11:18:46.557             7.402          3272.719
       285   08 Jun 2027 11:18:59.551   08 Jun 2027 11:19:01.702             2.151           343.375
       286   08 Jun 2027 11:19:23.755   08 Jun 2027 11:19:31.712             7.957           508.781
       287   08 Jun 2027 11:20:12.079   08 Jun 2027 11:20:17.009             4.930          1255.625
       288   08 Jun 2027 11:20:19.175   08 Jun 2027 11:20:20.839             1.664            66.031
       289   08 Jun 2027 11:20:51.951   08 Jun 2027 11:21:00.894             8.943           847.438
       290   08 Jun 2027 11:21:13.346   08 Jun 2027 11:21:15.369             2.023           389.125
       291   09 Jun 2027 03:38:45.834   09 Jun 2027 03:40:47.942           122.108         61054.000
       292   09 Jun 2027 03:40:58.433   09 Jun 2027 03:42:39.182           100.749         50374.500
       293   09 Jun 2027 03:43:18.932   09 Jun 2027 03:43:18.932             0.000             0.000
       294   09 Jun 2027 03:43:44.423   09 Jun 2027 03:44:14.865            30.442         15221.000
       295   09 Jun 2027 03:45:43.110   09 Jun 2027 03:45:47.174             4.064          2032.000
       296   09 Jun 2027 05:04:50.536   09 Jun 2027 05:04:56.747             6.211          3105.500
       297   09 Jun 2027 05:15:49.030   09 Jun 2027 05:16:54.185            65.155         32130.875
       298   09 Jun 2027 05:17:43.824   09 Jun 2027 05:17:47.925             4.101          1164.437
       299   09 Jun 2027 05:17:49.872   09 Jun 2027 05:17:50.967             1.095            60.844
       300   09 Jun 2027 05:18:11.010   09 Jun 2027 05:18:14.250             3.240           385.563
       301   09 Jun 2027 05:18:45.482   09 Jun 2027 05:18:46.626             1.144           572.000
       302   09 Jun 2027 05:18:48.621   09 Jun 2027 05:18:53.639             5.018           374.813
       303   09 Jun 2027 06:39:08.070   09 Jun 2027 06:39:20.129            12.059          4608.500
       304   09 Jun 2027 06:40:52.967   09 Jun 2027 06:40:59.006             6.039          2399.000
       305   09 Jun 2027 06:41:52.773   09 Jun 2027 06:42:01.008             8.235           907.375
       306   09 Jun 2027 06:42:19.136   09 Jun 2027 06:42:22.794             3.658           563.000
       307   09 Jun 2027 08:15:30.426   09 Jun 2027 08:15:38.807             8.381          4097.656
       308   09 Jun 2027 08:16:48.762   09 Jun 2027 08:16:56.200             7.438          1935.844
       309   09 Jun 2027 08:18:06.052   09 Jun 2027 08:18:09.706             3.654          1809.594
       310   09 Jun 2027 08:19:40.501   09 Jun 2027 08:19:45.894             5.393          2526.000
       311   09 Jun 2027 09:50:16.036   09 Jun 2027 09:50:17.831             1.795           897.500
       312   09 Jun 2027 09:50:24.276   09 Jun 2027 09:50:35.615            11.339          3686.750
       313   09 Jun 2027 09:51:22.375   09 Jun 2027 09:51:28.945             6.570          1321.906
       314   09 Jun 2027 09:52:23.005   09 Jun 2027 09:52:25.233             2.228          1029.344
       315   09 Jun 2027 09:54:50.060   09 Jun 2027 09:55:01.492            11.432          4525.844
       316   09 Jun 2027 09:55:21.295   09 Jun 2027 09:55:26.066             4.771           618.844
       317   09 Jun 2027 09:55:29.524   09 Jun 2027 09:55:32.729             3.205           108.063
       318   09 Jun 2027 09:55:44.196   09 Jun 2027 09:55:44.984             0.788           358.344
       319   09 Jun 2027 09:57:13.252   09 Jun 2027 09:57:19.103             5.851          2758.375
       320   09 Jun 2027 09:57:44.168   09 Jun 2027 09:57:47.403             3.235           783.281
       321   09 Jun 2027 11:27:05.587   09 Jun 2027 11:27:20.783            15.196          6692.344
       322   09 Jun 2027 11:27:55.686   09 Jun 2027 11:27:59.337             3.651           867.031
       323   09 Jun 2027 11:28:57.011   09 Jun 2027 11:29:03.552             6.541          1680.781
       324   09 Jun 2027 11:29:08.648   09 Jun 2027 11:29:09.768             1.120           159.250
       325   09 Jun 2027 11:29:28.002   09 Jun 2027 11:29:29.916             1.914           569.813
       326   09 Jun 2027 11:30:47.914   09 Jun 2027 11:30:53.196             5.282          2062.187
       327   09 Jun 2027 11:31:13.818   09 Jun 2027 11:31:13.916             0.098            49.000
       328   09 Jun 2027 11:31:30.450   09 Jun 2027 11:31:33.604             3.154          1112.125
       329   09 Jun 2027 11:31:36.609   09 Jun 2027 11:31:37.356             0.747            58.469
       330   09 Jun 2027 11:32:39.504   09 Jun 2027 11:32:43.856             4.352          1932.750
       331   09 Jun 2027 11:33:19.887   09 Jun 2027 11:33:22.531             2.644          1049.375
       332   10 Jun 2027 03:51:09.101   10 Jun 2027 03:53:41.486           152.385         76192.500
       333   10 Jun 2027 03:55:13.108   10 Jun 2027 03:56:24.169            71.061         35530.500
       334   10 Jun 2027 03:57:58.672   10 Jun 2027 03:58:25.556            26.884         13442.000
       335   10 Jun 2027 05:16:09.906   10 Jun 2027 05:16:31.090            21.184         10592.000
       336   10 Jun 2027 05:27:50.260   10 Jun 2027 05:29:02.396            72.136         34731.812
       337   10 Jun 2027 06:50:06.057   10 Jun 2027 06:50:14.280             8.223          4111.500
       338   10 Jun 2027 06:50:17.322   10 Jun 2027 06:50:25.568             8.246          1425.094
       339   10 Jun 2027 06:52:03.319   10 Jun 2027 06:52:09.533             6.214          2177.500
       340   10 Jun 2027 06:54:00.259   10 Jun 2027 06:54:00.398             0.139            69.500
       341   10 Jun 2027 06:54:22.036   10 Jun 2027 06:54:30.104             8.068          3785.250
       342   10 Jun 2027 08:25:18.290   10 Jun 2027 08:25:27.833             9.543          4730.937
       343   10 Jun 2027 08:25:36.063   10 Jun 2027 08:25:36.797             0.734           215.031
       344   10 Jun 2027 08:25:53.632   10 Jun 2027 08:25:54.700             1.068           526.094
       345   10 Jun 2027 08:28:04.852   10 Jun 2027 08:28:11.536             6.684          2718.031
       346   10 Jun 2027 08:28:53.137   10 Jun 2027 08:28:58.353             5.216           709.844
       347   10 Jun 2027 08:29:08.468   10 Jun 2027 08:29:12.866             4.398           316.094
       348   10 Jun 2027 08:30:20.477   10 Jun 2027 08:30:20.483             0.006             3.000
       349   10 Jun 2027 08:30:33.445   10 Jun 2027 08:30:36.274             2.829          1132.937
       350   10 Jun 2027 08:31:31.463   10 Jun 2027 08:31:37.853             6.390          1457.938
       351   10 Jun 2027 10:02:24.086   10 Jun 2027 10:02:36.353            12.267          3797.031
       352   10 Jun 2027 10:03:13.216   10 Jun 2027 10:03:15.552             2.336           167.125
       353   10 Jun 2027 10:04:49.915   10 Jun 2027 10:04:58.210             8.295          1940.906
       354   10 Jun 2027 10:05:42.760   10 Jun 2027 10:05:45.373             2.613           831.875
       355   10 Jun 2027 10:07:12.811   10 Jun 2027 10:07:20.327             7.516          2664.719
       356   10 Jun 2027 10:07:31.711   10 Jun 2027 10:07:32.075             0.364           103.125
       357   10 Jun 2027 10:07:46.265   10 Jun 2027 10:07:47.379             1.114           422.812
       358   10 Jun 2027 10:08:13.702   10 Jun 2027 10:08:16.791             3.089           804.469
       359   10 Jun 2027 10:08:50.532   10 Jun 2027 10:08:53.792             3.260           981.812
       360   10 Jun 2027 10:09:06.495   10 Jun 2027 10:09:10.439             3.944           245.844
       361   10 Jun 2027 10:09:31.469   10 Jun 2027 10:09:36.370             4.901           657.187
       362   10 Jun 2027 11:39:21.258   10 Jun 2027 11:39:35.771            14.513          5710.094
       363   10 Jun 2027 11:40:08.570   10 Jun 2027 11:40:12.904             4.334          1024.969
       364   10 Jun 2027 11:40:41.428   10 Jun 2027 11:40:44.434             3.006           305.438
       365   10 Jun 2027 11:42:01.466   10 Jun 2027 11:42:05.947             4.481          2169.688
       366   10 Jun 2027 11:42:39.823   10 Jun 2027 11:42:45.468             5.645          1053.594
       367   10 Jun 2027 11:42:55.342   10 Jun 2027 11:42:57.597             2.255           308.562
       368   10 Jun 2027 11:43:09.583   10 Jun 2027 11:43:12.719             3.136           258.750
       369   10 Jun 2027 11:43:23.496   10 Jun 2027 11:43:25.305             1.809           255.906
       370   10 Jun 2027 11:43:29.824   10 Jun 2027 11:43:29.824             0.000             0.000
       371   10 Jun 2027 11:43:41.800   10 Jun 2027 11:43:43.077             1.277           515.469
       372   10 Jun 2027 11:44:06.753   10 Jun 2027 11:44:19.349            12.596           538.469
       373   10 Jun 2027 11:44:44.974   10 Jun 2027 11:44:45.956             0.982           391.094
       374   10 Jun 2027 11:45:01.945   10 Jun 2027 11:45:02.589             0.644           180.813
       375   10 Jun 2027 11:45:09.383   10 Jun 2027 11:45:13.010             3.627           212.312
       376   11 Jun 2027 04:03:27.435   11 Jun 2027 04:05:43.377           135.942         67971.000
       377   11 Jun 2027 04:06:24.133   11 Jun 2027 04:06:40.940            16.807          8403.500
       378   11 Jun 2027 04:07:22.711   11 Jun 2027 04:08:15.477            52.766         26383.000
       379   11 Jun 2027 04:08:35.054   11 Jun 2027 04:09:06.065            31.011         15505.500
       380   11 Jun 2027 04:09:27.253   11 Jun 2027 04:09:41.665            14.412          7206.000
       381   11 Jun 2027 04:10:12.254   11 Jun 2027 04:10:23.723            11.469          5734.500
       382   11 Jun 2027 05:27:33.015   11 Jun 2027 05:28:16.756            43.741         21870.500
       383   11 Jun 2027 05:39:47.411   11 Jun 2027 05:40:27.150            39.739         19658.562
       384   11 Jun 2027 07:01:48.411   11 Jun 2027 07:02:09.318            20.907          5674.031
       385   11 Jun 2027 07:02:54.154   11 Jun 2027 07:02:59.183             5.029          1401.125
       386   11 Jun 2027 07:03:59.728   11 Jun 2027 07:04:03.514             3.786          1864.812
       387   11 Jun 2027 07:04:26.201   11 Jun 2027 07:04:27.584             1.383           182.375
       388   11 Jun 2027 07:04:56.757   11 Jun 2027 07:04:58.616             1.859           800.563
       389   11 Jun 2027 07:06:22.663   11 Jun 2027 07:06:24.802             2.139          1069.500
       390   11 Jun 2027 07:06:26.484   11 Jun 2027 07:06:31.152             4.668           796.812
       391   11 Jun 2027 07:07:21.894   11 Jun 2027 07:07:24.278             2.384          1165.469
       392   11 Jun 2027 08:36:45.648   11 Jun 2027 08:36:54.633             8.985          3887.281
       393   11 Jun 2027 08:37:55.382   11 Jun 2027 08:37:59.174             3.792          1697.344
       394   11 Jun 2027 08:39:21.521   11 Jun 2027 08:39:26.002             4.481          2052.250
       395   11 Jun 2027 08:40:31.836   11 Jun 2027 08:40:36.778             4.942           926.438
       396   11 Jun 2027 08:42:15.538   11 Jun 2027 08:42:26.360            10.822          2662.219
       397   11 Jun 2027 08:43:43.945   11 Jun 2027 08:43:43.945             0.000             0.000
       398   11 Jun 2027 08:44:24.493   11 Jun 2027 08:44:29.702             5.209          2604.500
       399   11 Jun 2027 10:14:25.336   11 Jun 2027 10:14:35.942            10.606          5155.375
       400   11 Jun 2027 10:15:28.135   11 Jun 2027 10:15:28.389             0.254           107.844
       401   11 Jun 2027 10:16:02.687   11 Jun 2027 10:16:08.652             5.965          1071.812
       402   11 Jun 2027 10:17:32.562   11 Jun 2027 10:17:37.924             5.362          2111.313
       403   11 Jun 2027 10:18:29.275   11 Jun 2027 10:18:30.467             1.192           157.281
       404   11 Jun 2027 10:18:56.867   11 Jun 2027 10:18:58.460             1.593           405.844
       405   11 Jun 2027 10:19:27.741   11 Jun 2027 10:19:30.329             2.588           853.031
       406   11 Jun 2027 10:19:48.980   11 Jun 2027 10:19:52.157             3.177           313.656
       407   11 Jun 2027 10:20:36.210   11 Jun 2027 10:20:41.017             4.807          1053.938
       408   11 Jun 2027 10:21:00.966   11 Jun 2027 10:21:07.984             7.018           577.906
       409   11 Jun 2027 10:21:23.162   11 Jun 2027 10:21:24.566             1.404           461.531
       410   11 Jun 2027 11:51:12.448   11 Jun 2027 11:51:27.123            14.675          6626.031
       411   11 Jun 2027 11:51:33.473   11 Jun 2027 11:51:34.506             1.033            99.875
       412   11 Jun 2027 11:52:12.194   11 Jun 2027 11:52:14.488             2.294           853.906
       413   11 Jun 2027 11:52:35.447   11 Jun 2027 11:52:40.576             5.129            76.594
       414   11 Jun 2027 11:53:05.885   11 Jun 2027 11:53:07.273             1.388           580.750
       415   11 Jun 2027 11:53:22.513   11 Jun 2027 11:53:23.612             1.099           305.219
       416   11 Jun 2027 11:53:31.246   11 Jun 2027 11:53:31.846             0.600           238.562
       417   11 Jun 2027 11:54:31.035   11 Jun 2027 11:54:38.398             7.363          1490.312
       418   11 Jun 2027 11:55:13.191   11 Jun 2027 11:55:15.591             2.400          1087.281
       419   11 Jun 2027 11:56:58.339   11 Jun 2027 11:57:01.687             3.348          1674.000
       420   11 Jun 2027 11:57:28.163   11 Jun 2027 11:57:31.746             3.583          1791.500
       421   12 Jun 2027 04:15:32.414   12 Jun 2027 04:17:57.198           144.784         72392.000
       422   12 Jun 2027 04:18:18.690   12 Jun 2027 04:18:59.125            40.435         20217.500
       423   12 Jun 2027 04:19:24.706   12 Jun 2027 04:19:24.706             0.000             0.000
       424   12 Jun 2027 04:19:36.061   12 Jun 2027 04:20:05.907            29.846         14923.000
       425   12 Jun 2027 04:21:07.586   12 Jun 2027 04:21:28.785            21.199         10599.500
       426   12 Jun 2027 05:39:39.576   12 Jun 2027 05:40:22.400            42.824         21412.000
       427   12 Jun 2027 05:40:40.671   12 Jun 2027 05:40:44.398             3.727          1863.500
       428   12 Jun 2027 05:41:34.742   12 Jun 2027 05:41:34.742             0.000             0.000
       429   12 Jun 2027 07:13:27.399   12 Jun 2027 07:14:28.386            60.987         29406.531
       430   12 Jun 2027 07:15:06.004   12 Jun 2027 07:15:08.087             2.083           838.031
       431   12 Jun 2027 07:15:40.657   12 Jun 2027 07:15:41.866             1.209           597.344
       432   12 Jun 2027 07:16:21.877   12 Jun 2027 07:16:28.197             6.320           787.125
       433   12 Jun 2027 07:16:58.566   12 Jun 2027 07:16:58.647             0.081            40.500
       434   12 Jun 2027 07:17:17.124   12 Jun 2027 07:17:20.994             3.870          1485.938
       435   12 Jun 2027 07:18:45.246   12 Jun 2027 07:18:50.381             5.135          2138.500
       436   12 Jun 2027 08:48:19.626   12 Jun 2027 08:48:24.988             5.362          2681.000
       437   12 Jun 2027 08:48:38.038   12 Jun 2027 08:48:38.038             0.000             0.000
       438   12 Jun 2027 08:49:14.412   12 Jun 2027 08:49:19.738             5.326          2593.344
       439   12 Jun 2027 08:50:38.524   12 Jun 2027 08:50:38.524             0.000             0.000
       440   12 Jun 2027 08:51:04.394   12 Jun 2027 08:51:11.340             6.946          3270.500
       441   12 Jun 2027 08:52:50.536   12 Jun 2027 08:52:57.245             6.709          3040.781
       442   12 Jun 2027 08:53:40.234   12 Jun 2027 08:53:41.544             1.310           113.656
       443   12 Jun 2027 08:53:50.537   12 Jun 2027 08:53:52.706             2.169           281.031
       444   12 Jun 2027 08:55:35.040   12 Jun 2027 08:55:41.606             6.566          2700.844
       445   12 Jun 2027 08:55:57.486   12 Jun 2027 08:55:57.573             0.087            43.500
       446   12 Jun 2027 08:56:35.802   12 Jun 2027 08:56:37.495             1.693           846.500
       447   12 Jun 2027 08:57:50.717   12 Jun 2027 08:57:55.934             5.217          2608.500
       448   12 Jun 2027 10:26:27.940   12 Jun 2027 10:26:52.476            24.536          6618.094
       449   12 Jun 2027 10:29:19.332   12 Jun 2027 10:29:33.065            13.733          4221.875
       450   12 Jun 2027 10:30:39.523   12 Jun 2027 10:30:43.759             4.236          1551.031
       451   12 Jun 2027 10:31:17.654   12 Jun 2027 10:31:18.630             0.976           488.000
       452   12 Jun 2027 10:32:00.562   12 Jun 2027 10:32:06.172             5.610          1881.594
       453   12 Jun 2027 10:32:13.964   12 Jun 2027 10:32:15.437             1.473           104.250
       454   12 Jun 2027 10:32:18.421   12 Jun 2027 10:32:19.847             1.426            93.250
       455   12 Jun 2027 10:32:37.387   12 Jun 2027 10:32:41.791             4.404           337.531
       456   12 Jun 2027 10:33:00.183   12 Jun 2027 10:33:01.173             0.990           407.125
       457   12 Jun 2027 10:33:10.215   12 Jun 2027 10:33:12.586             2.371           282.562
       458   12 Jun 2027 10:33:24.687   12 Jun 2027 10:33:25.769             1.082           263.313
       459   12 Jun 2027 10:33:34.433   12 Jun 2027 10:33:35.187             0.754           270.750
       460   13 Jun 2027 04:28:09.238   13 Jun 2027 04:31:55.553           226.315        113157.500
       461   13 Jun 2027 05:51:34.795   13 Jun 2027 05:52:15.462            40.667         20333.500
       462   13 Jun 2027 05:53:47.449   13 Jun 2027 05:53:56.718             9.269          4634.500
       463   13 Jun 2027 07:27:49.909   13 Jun 2027 07:28:20.452            30.543         15271.500
       464   13 Jun 2027 07:28:23.027   13 Jun 2027 07:28:27.258             4.231          1790.812
       465   13 Jun 2027 07:28:51.342   13 Jun 2027 07:28:53.175             1.833           752.625
       466   13 Jun 2027 07:29:45.388   13 Jun 2027 07:29:49.118             3.730          1403.000
       467   13 Jun 2027 07:29:57.478   13 Jun 2027 07:29:59.246             1.768           129.000
       468   13 Jun 2027 07:30:29.788   13 Jun 2027 07:30:31.688             1.900           595.062
       469   13 Jun 2027 07:31:20.054   13 Jun 2027 07:31:21.825             1.771           885.500
       470   13 Jun 2027 09:01:22.429   13 Jun 2027 09:01:33.687            11.258          4351.000
       471   13 Jun 2027 09:02:01.767   13 Jun 2027 09:02:02.544             0.777           123.938
       472   13 Jun 2027 09:03:52.910   13 Jun 2027 09:03:53.115             0.205           102.500
       473   13 Jun 2027 09:04:02.550   13 Jun 2027 09:04:10.929             8.379          3090.281
       474   13 Jun 2027 09:05:58.901   13 Jun 2027 09:06:05.645             6.744          3140.781
       475   13 Jun 2027 09:07:05.755   13 Jun 2027 09:07:09.218             3.463          1441.438
       476   13 Jun 2027 09:08:21.530   13 Jun 2027 09:08:28.451             6.921          2120.219
       477   13 Jun 2027 09:09:54.484   13 Jun 2027 09:09:55.658             1.174           587.000
       478   13 Jun 2027 10:38:54.992   13 Jun 2027 10:39:12.444            17.452          6829.125
       479   13 Jun 2027 10:40:54.753   13 Jun 2027 10:40:57.142             2.389           953.031
       480   13 Jun 2027 10:41:41.882   13 Jun 2027 10:41:47.007             5.125          1398.125
       481   13 Jun 2027 10:42:32.820   13 Jun 2027 10:42:37.325             4.505          1431.656
       482   13 Jun 2027 10:42:59.849   13 Jun 2027 10:43:03.109             3.260           645.406
       483   13 Jun 2027 10:43:50.181   13 Jun 2027 10:43:57.654             7.473          1110.500
       484   13 Jun 2027 10:43:58.380   13 Jun 2027 10:43:58.573             0.193            22.688
       485   13 Jun 2027 10:45:11.821   13 Jun 2027 10:45:17.224             5.403          2289.000
