uniorb/output/strategy_2/Camera/Camera_KinoSat_111509.txt

KinoSat_111509
-------------------------
    Access    *     Start Time (UTCG)     *     Stop Time (UTCG)  *   Duration (s) *   Data (Mbytes)
         1   01 Jun 2027 04:17:36.339   01 Jun 2027 04:20:21.165           164.826         82413.000
         2   01 Jun 2027 04:20:27.990   01 Jun 2027 04:20:44.897            16.907          8453.500
         3   01 Jun 2027 04:22:07.361   01 Jun 2027 04:22:42.073            34.712         17356.000
         4   01 Jun 2027 04:23:29.032   01 Jun 2027 04:23:33.618             4.586          2293.000
         5   01 Jun 2027 05:41:40.023   01 Jun 2027 05:42:21.290            41.267         20633.500
         6   01 Jun 2027 05:42:30.911   01 Jun 2027 05:42:45.793            14.882          7441.000
         7   01 Jun 2027 07:17:37.194   01 Jun 2027 07:20:45.691           188.497         94248.500
         8   01 Jun 2027 08:51:26.986   01 Jun 2027 08:53:54.050           147.064         73532.000
         9   01 Jun 2027 08:56:20.886   01 Jun 2027 08:57:09.574            48.688         24344.000
        10   01 Jun 2027 10:28:30.188   01 Jun 2027 10:29:39.266            69.078         34539.000
        11   01 Jun 2027 10:30:00.374   01 Jun 2027 10:30:05.679             5.305          2652.500
        12   01 Jun 2027 10:30:45.605   01 Jun 2027 10:31:18.119            32.514         16257.000
        13   01 Jun 2027 10:33:56.325   01 Jun 2027 10:34:47.256            50.931         25465.500
        14   02 Jun 2027 04:30:10.283   02 Jun 2027 04:33:17.648           187.365         93682.500
        15   02 Jun 2027 04:34:45.106   02 Jun 2027 04:34:45.106             0.000             0.000
        16   02 Jun 2027 05:53:34.566   02 Jun 2027 05:54:47.085            72.519         36259.500
        17   02 Jun 2027 05:55:58.003   02 Jun 2027 05:55:58.531             0.528           264.000
        18   02 Jun 2027 07:29:55.044   02 Jun 2027 07:32:45.917           170.873         85436.500
        19   02 Jun 2027 09:03:25.239   02 Jun 2027 09:05:50.987           145.748         71376.687
        20   02 Jun 2027 09:11:20.815   02 Jun 2027 09:11:20.815             0.000             0.000
        21   02 Jun 2027 09:11:54.872   02 Jun 2027 09:11:56.382             1.510           755.000
        22   02 Jun 2027 10:40:56.334   02 Jun 2027 10:41:19.361            23.027         10556.500
        23   02 Jun 2027 10:41:26.123   02 Jun 2027 10:41:27.589             1.466           157.375
        24   02 Jun 2027 10:41:51.803   02 Jun 2027 10:41:53.443             1.640           227.156
        25   02 Jun 2027 10:42:41.971   02 Jun 2027 10:42:43.561             1.590           795.000
        26   02 Jun 2027 10:43:32.312   02 Jun 2027 10:43:39.982             7.670          1672.156
        27   02 Jun 2027 10:44:16.981   02 Jun 2027 10:44:23.419             6.438          1138.969
        28   02 Jun 2027 10:45:03.030   02 Jun 2027 10:45:04.833             1.803           882.281
        29   02 Jun 2027 10:45:48.698   02 Jun 2027 10:45:52.445             3.747          1081.250
        30   02 Jun 2027 10:46:02.553   02 Jun 2027 10:46:04.467             1.914           129.469
        31   02 Jun 2027 10:47:04.165   02 Jun 2027 10:47:10.237             6.072          1796.844
        32   02 Jun 2027 10:47:29.554   02 Jun 2027 10:47:31.122             1.568           588.094
        33   03 Jun 2027 03:03:45.643   03 Jun 2027 03:05:26.980           101.337         50668.500
        34   03 Jun 2027 03:06:18.171   03 Jun 2027 03:06:23.990             5.819          2909.500
        35   03 Jun 2027 03:07:30.785   03 Jun 2027 03:07:50.633            19.848          9924.000
        36   03 Jun 2027 03:09:07.650   03 Jun 2027 03:09:15.257             7.607          3803.500
        37   03 Jun 2027 03:09:31.972   03 Jun 2027 03:09:41.703             9.731          4865.500
        38   03 Jun 2027 04:41:49.062   03 Jun 2027 04:43:02.511            73.449         36724.500
        39   03 Jun 2027 04:43:17.732   03 Jun 2027 04:44:34.218            76.486         38243.000
        40   03 Jun 2027 04:44:46.733   03 Jun 2027 04:44:48.110             1.377           688.500
        41   03 Jun 2027 06:05:25.453   03 Jun 2027 06:05:51.878            26.425         13108.657
        42   03 Jun 2027 06:07:39.049   03 Jun 2027 06:07:39.049             0.000             0.000
        43   03 Jun 2027 06:07:44.448   03 Jun 2027 06:07:46.283             1.835           917.500
        44   03 Jun 2027 07:41:57.089   03 Jun 2027 07:42:10.208            13.119          4538.375
        45   03 Jun 2027 07:42:33.970   03 Jun 2027 07:42:34.797             0.827           295.781
        46   03 Jun 2027 07:42:55.255   03 Jun 2027 07:42:56.328             1.073           536.500
        47   03 Jun 2027 07:43:01.616   03 Jun 2027 07:43:03.940             2.324           240.657
        48   03 Jun 2027 07:44:27.113   03 Jun 2027 07:44:32.527             5.414          1892.063
        49   03 Jun 2027 07:44:59.495   03 Jun 2027 07:45:04.669             5.174           842.750
        50   03 Jun 2027 07:45:13.166   03 Jun 2027 07:45:15.666             2.500           108.375
        51   03 Jun 2027 09:16:24.656   03 Jun 2027 09:16:33.252             8.596          3384.656
        52   03 Jun 2027 09:17:46.222   03 Jun 2027 09:17:51.174             4.952          2099.250
        53   03 Jun 2027 09:18:38.953   03 Jun 2027 09:18:48.400             9.447          1425.688
        54   03 Jun 2027 09:20:18.055   03 Jun 2027 09:20:29.341            11.286          1782.812
        55   03 Jun 2027 09:20:56.887   03 Jun 2027 09:20:57.419             0.532           190.531
        56   03 Jun 2027 09:21:01.582   03 Jun 2027 09:21:01.582             0.000             0.000
        57   03 Jun 2027 09:22:53.879   03 Jun 2027 09:23:02.576             8.697          3606.563
        58   03 Jun 2027 09:23:32.851   03 Jun 2027 09:23:35.558             2.707           712.844
        59   03 Jun 2027 09:23:50.305   03 Jun 2027 09:23:50.793             0.488           244.000
        60   03 Jun 2027 10:53:04.422   03 Jun 2027 10:53:19.969            15.547          7162.437
        61   03 Jun 2027 10:55:14.982   03 Jun 2027 10:55:16.754             1.772           152.844
        62   03 Jun 2027 10:55:44.758   03 Jun 2027 10:55:45.030             0.272           136.000
        63   03 Jun 2027 10:56:14.433   03 Jun 2027 10:56:21.475             7.042          1657.969
        64   03 Jun 2027 10:56:52.705   03 Jun 2027 10:56:58.560             5.855           917.531
        65   03 Jun 2027 10:57:36.877   03 Jun 2027 10:57:42.401             5.524          1091.563
        66   03 Jun 2027 10:57:59.868   03 Jun 2027 10:58:01.420             1.552           543.406
        67   03 Jun 2027 10:58:44.463   03 Jun 2027 10:58:55.454            10.991          1271.438
        68   03 Jun 2027 10:59:04.706   03 Jun 2027 10:59:05.923             1.217           229.719
        69   03 Jun 2027 10:59:16.747   03 Jun 2027 10:59:19.593             2.846           338.250
        70   04 Jun 2027 03:15:54.001   04 Jun 2027 03:16:53.667            59.666         29833.000
        71   04 Jun 2027 03:17:03.242   04 Jun 2027 03:18:52.271           109.029         54514.500
        72   04 Jun 2027 03:19:07.347   04 Jun 2027 03:19:07.347             0.000             0.000
        73   04 Jun 2027 03:19:57.896   04 Jun 2027 03:20:45.489            47.593         23796.500
        74   04 Jun 2027 04:54:13.055   04 Jun 2027 04:54:41.861            28.806         14403.000
        75   04 Jun 2027 04:55:01.596   04 Jun 2027 04:55:10.622             9.026          4513.000
        76   04 Jun 2027 04:55:26.307   04 Jun 2027 04:56:29.097            62.790         31395.000
        77   04 Jun 2027 04:56:33.385   04 Jun 2027 04:56:39.912             6.527          1699.469
        78   04 Jun 2027 04:57:31.732   04 Jun 2027 04:57:33.988             2.256          1128.000
        79   04 Jun 2027 04:58:08.366   04 Jun 2027 04:58:08.953             0.587           293.500
        80   04 Jun 2027 06:17:35.633   04 Jun 2027 06:17:50.834            15.201          6237.281
        81   04 Jun 2027 06:18:49.013   04 Jun 2027 06:18:49.013             0.000             0.000
        82   04 Jun 2027 06:20:10.399   04 Jun 2027 06:20:18.780             8.381          4190.500
        83   04 Jun 2027 06:20:30.808   04 Jun 2027 06:20:30.808             0.000             0.000
        84   04 Jun 2027 07:54:06.812   04 Jun 2027 07:54:18.789            11.977          3609.906
        85   04 Jun 2027 07:54:38.888   04 Jun 2027 07:54:42.823             3.935           426.125
        86   04 Jun 2027 07:55:11.713   04 Jun 2027 07:55:13.263             1.550           265.000
        87   04 Jun 2027 07:55:52.562   04 Jun 2027 07:55:55.137             2.575          1228.094
        88   04 Jun 2027 07:56:45.868   04 Jun 2027 07:56:52.060             6.192          1114.969
        89   04 Jun 2027 09:29:16.357   04 Jun 2027 09:29:29.715            13.358          4701.781
        90   04 Jun 2027 09:29:38.443   04 Jun 2027 09:29:42.697             4.254           206.031
        91   04 Jun 2027 09:30:35.947   04 Jun 2027 09:30:40.467             4.520            25.406
        92   04 Jun 2027 09:32:15.236   04 Jun 2027 09:32:22.636             7.400          2961.531
        93   04 Jun 2027 09:33:07.248   04 Jun 2027 09:33:11.188             3.940          1175.875
        94   04 Jun 2027 09:33:26.671   04 Jun 2027 09:33:28.499             1.828           453.562
        95   04 Jun 2027 09:33:45.502   04 Jun 2027 09:33:49.933             4.431           531.344
        96   04 Jun 2027 09:34:01.954   04 Jun 2027 09:34:03.467             1.513           375.656
        97   04 Jun 2027 09:35:13.464   04 Jun 2027 09:35:18.080             4.616          1603.656
        98   04 Jun 2027 09:35:43.374   04 Jun 2027 09:35:46.144             2.770           760.969
        99   04 Jun 2027 09:35:51.324   04 Jun 2027 09:35:53.335             2.011           161.875
       100   04 Jun 2027 11:05:39.407   04 Jun 2027 11:05:51.281            11.874          5880.969
       101   04 Jun 2027 11:06:48.960   04 Jun 2027 11:07:08.827            19.867          1386.094
       102   04 Jun 2027 11:07:21.251   04 Jun 2027 11:07:22.704             1.453           388.250
       103   04 Jun 2027 11:07:35.914   04 Jun 2027 11:07:37.110             1.196           146.187
       104   04 Jun 2027 11:07:40.599   04 Jun 2027 11:07:41.656             1.057           109.031
       105   04 Jun 2027 11:07:48.556   04 Jun 2027 11:07:56.758             8.202           213.594
       106   04 Jun 2027 11:08:16.788   04 Jun 2027 11:08:27.628            10.840           625.937
       107   04 Jun 2027 11:09:16.228   04 Jun 2027 11:09:19.200             2.972           854.219
       108   04 Jun 2027 11:09:57.278   04 Jun 2027 11:10:01.334             4.056           991.312
       109   04 Jun 2027 11:10:21.205   04 Jun 2027 11:10:29.557             8.352           570.594
       110   04 Jun 2027 11:11:07.808   04 Jun 2027 11:11:15.359             7.551          1195.344
       111   04 Jun 2027 11:11:19.200   04 Jun 2027 11:11:24.514             5.314           120.031
       112   05 Jun 2027 03:27:58.842   05 Jun 2027 03:28:11.245            12.403          6201.500
       113   05 Jun 2027 03:29:00.946   05 Jun 2027 03:31:32.926           151.980         75990.000
       114   05 Jun 2027 03:32:54.576   05 Jun 2027 03:33:24.739            30.163         15081.500
       115   05 Jun 2027 03:35:41.099   05 Jun 2027 03:35:46.013             4.914          2457.000
       116   05 Jun 2027 05:06:09.637   05 Jun 2027 05:06:48.005            38.368         19184.000
       117   05 Jun 2027 05:07:16.422   05 Jun 2027 05:08:11.216            54.794         27106.844
       118   05 Jun 2027 05:09:00.192   05 Jun 2027 05:09:00.863             0.671           335.500
       119   05 Jun 2027 05:09:12.556   05 Jun 2027 05:09:15.755             3.199          1205.406
       120   05 Jun 2027 05:09:38.647   05 Jun 2027 05:09:42.673             4.026           715.375
       121   05 Jun 2027 06:30:15.637   05 Jun 2027 06:30:24.021             8.384          4192.000
       122   05 Jun 2027 06:30:33.764   05 Jun 2027 06:30:40.903             7.139          1013.719
       123   05 Jun 2027 06:30:50.871   05 Jun 2027 06:30:52.032             1.161           311.500
       124   05 Jun 2027 06:32:19.085   05 Jun 2027 06:32:25.272             6.187          2472.563
       125   05 Jun 2027 08:06:00.843   05 Jun 2027 08:06:07.270             6.427          2706.375
       126   05 Jun 2027 08:07:29.147   05 Jun 2027 08:07:34.785             5.638          2008.500
       127   05 Jun 2027 08:08:04.197   05 Jun 2027 08:08:06.631             2.434           906.969
       128   05 Jun 2027 08:08:35.931   05 Jun 2027 08:08:43.212             7.281           915.625
       129   05 Jun 2027 08:09:31.337   05 Jun 2027 08:09:38.258             6.921          1503.906
       130   05 Jun 2027 09:40:58.458   05 Jun 2027 09:41:12.632            14.174          4520.344
       131   05 Jun 2027 09:43:03.177   05 Jun 2027 09:43:03.177             0.000             0.000
       132   05 Jun 2027 09:43:24.628   05 Jun 2027 09:43:33.215             8.587          3806.031
       133   05 Jun 2027 09:44:02.650   05 Jun 2027 09:44:02.650             0.000             0.000
       134   05 Jun 2027 09:46:29.121   05 Jun 2027 09:46:41.264            12.143          5122.125
       135   05 Jun 2027 09:47:02.392   05 Jun 2027 09:47:04.593             2.201           660.250
       136   05 Jun 2027 09:47:16.807   05 Jun 2027 09:47:19.123             2.316           274.188
       137   05 Jun 2027 09:47:40.875   05 Jun 2027 09:47:48.576             7.701           621.969
       138   05 Jun 2027 09:47:56.614   05 Jun 2027 09:47:57.262             0.648           245.125
       139   05 Jun 2027 11:17:11.382   05 Jun 2027 11:17:25.127            13.745          6473.406
       140   05 Jun 2027 11:17:43.655   05 Jun 2027 11:17:44.164             0.509           241.500
       141   05 Jun 2027 11:19:05.795   05 Jun 2027 11:19:10.278             4.483          1603.563
       142   05 Jun 2027 11:19:19.103   05 Jun 2027 11:19:20.248             1.145           198.188
       143   05 Jun 2027 11:19:40.474   05 Jun 2027 11:19:43.499             3.025           632.062
       144   05 Jun 2027 11:20:11.168   05 Jun 2027 11:20:13.050             1.882           864.656
       145   05 Jun 2027 11:21:24.924   05 Jun 2027 11:21:29.884             4.960          2246.062
       146   05 Jun 2027 11:21:49.497   05 Jun 2027 11:21:51.523             2.026           612.906
       147   05 Jun 2027 11:21:56.690   05 Jun 2027 11:22:00.839             4.149           149.281
       148   05 Jun 2027 11:22:21.888   05 Jun 2027 11:22:23.662             1.774           657.781
       149   05 Jun 2027 11:22:51.666   05 Jun 2027 11:22:54.204             2.538           875.125
       150   06 Jun 2027 03:41:04.151   06 Jun 2027 03:44:05.246           181.095         90547.500
       151   06 Jun 2027 03:44:30.389   06 Jun 2027 03:44:43.227            12.838          6419.000
       152   06 Jun 2027 03:45:36.609   06 Jun 2027 03:46:30.707            54.098         27049.000
       153   06 Jun 2027 03:48:03.367   06 Jun 2027 03:48:43.189            39.822         19911.000
       154   06 Jun 2027 05:07:00.638   06 Jun 2027 05:07:26.964            26.326         13163.000
       155   06 Jun 2027 05:07:35.534   06 Jun 2027 05:07:43.226             7.692          3846.000
       156   06 Jun 2027 05:18:05.935   06 Jun 2027 05:18:39.389            33.454         16218.562
       157   06 Jun 2027 05:19:24.590   06 Jun 2027 05:19:27.912             3.322          1142.875
       158   06 Jun 2027 05:21:03.531   06 Jun 2027 05:21:06.913             3.382          1691.000
       159   06 Jun 2027 05:21:09.257   06 Jun 2027 05:21:15.286             6.029           681.469
       160   06 Jun 2027 06:41:03.571   06 Jun 2027 06:41:14.472            10.901          4315.562
       161   06 Jun 2027 06:42:04.633   06 Jun 2027 06:42:09.661             5.028          1202.719
       162   06 Jun 2027 06:42:34.344   06 Jun 2027 06:42:35.605             1.261           453.719
       163   06 Jun 2027 06:44:18.859   06 Jun 2027 06:44:26.410             7.551          3183.156
       164   06 Jun 2027 06:45:17.169   06 Jun 2027 06:45:17.292             0.123            61.500
       165   06 Jun 2027 08:16:30.273   06 Jun 2027 08:16:40.369            10.096          4209.031
       166   06 Jun 2027 08:17:46.270   06 Jun 2027 08:17:48.554             2.284           955.156
       167   06 Jun 2027 08:19:05.871   06 Jun 2027 08:19:13.556             7.685          1987.000
       168   06 Jun 2027 08:19:24.699   06 Jun 2027 08:19:24.699             0.000             0.000
       169   06 Jun 2027 08:20:28.329   06 Jun 2027 08:20:33.000             4.671          2024.969
       170   06 Jun 2027 08:21:25.667   06 Jun 2027 08:21:30.322             4.655          1517.906
       171   06 Jun 2027 09:52:31.515   06 Jun 2027 09:52:34.491             2.976          1488.000
       172   06 Jun 2027 09:55:34.808   06 Jun 2027 09:55:51.900            17.092          8349.531
       173   06 Jun 2027 09:56:05.609   06 Jun 2027 09:56:05.609             0.000             0.000
       174   06 Jun 2027 09:57:07.823   06 Jun 2027 09:57:13.818             5.995          2060.312
       175   06 Jun 2027 09:57:18.254   06 Jun 2027 09:57:21.169             2.915            87.094
       176   06 Jun 2027 09:57:57.809   06 Jun 2027 09:57:59.768             1.959           545.625
       177   06 Jun 2027 09:58:13.153   06 Jun 2027 09:58:13.518             0.365           182.500
       178   06 Jun 2027 09:58:27.591   06 Jun 2027 09:58:27.591             0.000             0.000
       179   06 Jun 2027 09:58:28.687   06 Jun 2027 09:58:30.124             1.437           653.656
       180   06 Jun 2027 09:59:24.239   06 Jun 2027 09:59:28.525             4.286          1673.500
       181   06 Jun 2027 09:59:45.176   06 Jun 2027 09:59:48.533             3.357           295.094
       182   06 Jun 2027 11:29:33.571   06 Jun 2027 11:29:51.171            17.600          8148.156
       183   06 Jun 2027 11:30:21.082   06 Jun 2027 11:30:23.705             2.623           724.719
       184   06 Jun 2027 11:31:07.696   06 Jun 2027 11:31:10.584             2.888           242.625
       185   06 Jun 2027 11:32:18.938   06 Jun 2027 11:32:23.201             4.263          2060.969
       186   06 Jun 2027 11:32:40.151   06 Jun 2027 11:32:44.650             4.499           505.781
       187   06 Jun 2027 11:33:37.250   06 Jun 2027 11:33:43.337             6.087          1027.469
       188   06 Jun 2027 11:34:02.659   06 Jun 2027 11:34:02.737             0.078            39.000
       189   06 Jun 2027 11:34:17.103   06 Jun 2027 11:34:19.541             2.438           922.813
       190   06 Jun 2027 11:34:51.609   06 Jun 2027 11:34:56.867             5.258          1002.125
       191   06 Jun 2027 11:35:11.893   06 Jun 2027 11:35:12.785             0.892           277.219
       192   06 Jun 2027 11:35:30.468   06 Jun 2027 11:35:31.687             1.219           335.156
       193   07 Jun 2027 03:53:30.923   07 Jun 2027 03:56:31.335           180.412         90206.000
       194   07 Jun 2027 03:57:31.210   07 Jun 2027 03:57:56.434            25.224         12612.000
       195   07 Jun 2027 03:58:40.627   07 Jun 2027 03:58:40.627             0.000             0.000
       196   07 Jun 2027 04:00:18.572   07 Jun 2027 04:00:41.495            22.923         11461.500
       197   07 Jun 2027 05:18:25.619   07 Jun 2027 05:19:18.342            52.723         26361.500
       198   07 Jun 2027 05:19:33.972   07 Jun 2027 05:19:38.486             4.514          2257.000
       199   07 Jun 2027 05:30:08.688   07 Jun 2027 05:31:04.044            55.356         25437.188
       200   07 Jun 2027 06:52:21.091   07 Jun 2027 06:52:31.215            10.124          5062.000
       201   07 Jun 2027 06:52:41.501   07 Jun 2027 06:52:46.430             4.929          1291.844
       202   07 Jun 2027 06:54:49.343   07 Jun 2027 06:54:56.981             7.638          2823.531
       203   07 Jun 2027 06:56:39.770   07 Jun 2027 06:56:46.614             6.844          2999.719
       204   07 Jun 2027 06:56:58.414   07 Jun 2027 06:57:00.596             2.182            96.750
       205   07 Jun 2027 08:27:27.740   07 Jun 2027 08:27:38.901            11.161          4186.625
       206   07 Jun 2027 08:27:52.975   07 Jun 2027 08:27:53.643             0.668           249.750
       207   07 Jun 2027 08:29:29.924   07 Jun 2027 08:29:36.096             6.172          1933.594
       208   07 Jun 2027 08:31:06.786   07 Jun 2027 08:31:12.061             5.275          2462.406
       209   07 Jun 2027 08:32:37.830   07 Jun 2027 08:32:43.821             5.991          2350.844
       210   07 Jun 2027 08:33:07.271   07 Jun 2027 08:33:16.035             8.764           602.000
       211   07 Jun 2027 08:33:20.355   07 Jun 2027 08:33:20.585             0.230           115.000
       212   07 Jun 2027 08:33:40.149   07 Jun 2027 08:33:41.412             1.263           631.375
       213   07 Jun 2027 08:33:45.738   07 Jun 2027 08:33:45.738             0.000             0.000
       214   07 Jun 2027 08:33:54.837   07 Jun 2027 08:33:58.502             3.665           351.125
       215   07 Jun 2027 08:34:07.408   07 Jun 2027 08:34:13.192             5.784           278.312
       216   07 Jun 2027 10:06:42.338   07 Jun 2027 10:07:02.559            20.221          8246.031
       217   07 Jun 2027 10:08:07.093   07 Jun 2027 10:08:11.537             4.444           415.906
       218   07 Jun 2027 10:11:08.703   07 Jun 2027 10:11:24.868            16.165          5536.437
       219   07 Jun 2027 10:11:39.697   07 Jun 2027 10:11:40.933             1.236           463.406
       220   07 Jun 2027 10:11:48.833   07 Jun 2027 10:11:54.535             5.702           212.312
       221   07 Jun 2027 11:41:37.421   07 Jun 2027 11:41:52.088            14.667          7051.531
       222   07 Jun 2027 11:42:26.294   07 Jun 2027 11:42:29.844             3.550          1068.937
       223   07 Jun 2027 11:44:18.582   07 Jun 2027 11:44:20.946             2.364          1182.000
       224   07 Jun 2027 11:44:25.198   07 Jun 2027 11:44:30.004             4.806          1139.812
       225   07 Jun 2027 11:44:55.312   07 Jun 2027 11:44:56.925             1.613           790.875
       226   07 Jun 2027 11:46:05.644   07 Jun 2027 11:46:09.490             3.846          1906.406
       227   07 Jun 2027 11:46:50.903   07 Jun 2027 11:46:54.822             3.919           901.750
       228   08 Jun 2027 04:05:43.309   08 Jun 2027 04:08:19.943           156.634         78317.000
       229   08 Jun 2027 04:08:41.134   08 Jun 2027 04:09:02.333            21.199         10599.500
       230   08 Jun 2027 04:09:40.420   08 Jun 2027 04:10:31.763            51.343         25671.500
       231   08 Jun 2027 04:10:53.665   08 Jun 2027 04:11:24.077            30.412         15206.000
       232   08 Jun 2027 04:11:57.295   08 Jun 2027 04:11:57.295             0.000             0.000
       233   08 Jun 2027 04:12:31.816   08 Jun 2027 04:12:38.590             6.774          3387.000
       234   08 Jun 2027 05:29:54.106   08 Jun 2027 05:30:34.777            40.671         20335.500
       235   08 Jun 2027 05:30:39.047   08 Jun 2027 05:30:41.017             1.970           985.000
       236   08 Jun 2027 05:42:09.820   08 Jun 2027 05:42:42.134            32.314         16157.000
       237   08 Jun 2027 07:04:06.848   08 Jun 2027 07:04:25.950            19.102          6775.188
       238   08 Jun 2027 07:05:17.592   08 Jun 2027 07:05:20.959             3.367          1613.813
       239   08 Jun 2027 07:06:19.456   08 Jun 2027 07:06:23.723             4.267          1796.781
       240   08 Jun 2027 07:06:43.672   08 Jun 2027 07:06:43.672             0.000             0.000
       241   08 Jun 2027 07:07:09.503   08 Jun 2027 07:07:11.750             2.247           979.719
       242   08 Jun 2027 07:09:01.991   08 Jun 2027 07:09:13.151            11.160          3374.875
       243   08 Jun 2027 07:09:28.666   08 Jun 2027 07:09:32.913             4.247           484.844
       244   08 Jun 2027 08:38:57.104   08 Jun 2027 08:39:08.644            11.540          4319.875
       245   08 Jun 2027 08:39:42.930   08 Jun 2027 08:39:44.487             1.557           107.875
       246   08 Jun 2027 08:40:42.505   08 Jun 2027 08:40:46.028             3.523           150.125
       247   08 Jun 2027 08:43:07.343   08 Jun 2027 08:43:17.539            10.196          4416.094
       248   08 Jun 2027 08:45:29.186   08 Jun 2027 08:45:40.968            11.782          3945.750
       249   08 Jun 2027 08:46:42.782   08 Jun 2027 08:46:49.504             6.722          1692.813
       250   08 Jun 2027 10:16:43.622   08 Jun 2027 10:17:02.270            18.648          5688.750
       251   08 Jun 2027 10:17:25.425   08 Jun 2027 10:17:27.095             1.670           723.594
       252   08 Jun 2027 10:17:55.749   08 Jun 2027 10:18:00.327             4.578           895.437
       253   08 Jun 2027 10:18:13.718   08 Jun 2027 10:18:14.906             1.188           398.469
       254   08 Jun 2027 10:18:26.326   08 Jun 2027 10:18:28.663             2.337           181.125
       255   08 Jun 2027 10:20:54.436   08 Jun 2027 10:21:04.307             9.871          4145.094
       256   08 Jun 2027 10:21:14.932   08 Jun 2027 10:21:15.695             0.763           332.031
       257   08 Jun 2027 10:21:44.802   08 Jun 2027 10:21:48.312             3.510           659.969
       258   08 Jun 2027 10:22:04.220   08 Jun 2027 10:22:05.451             1.231            97.500
       259   08 Jun 2027 10:22:23.835   08 Jun 2027 10:22:27.799             3.964           517.844
       260   08 Jun 2027 10:22:44.113   08 Jun 2027 10:22:46.165             2.052           469.906
       261   08 Jun 2027 10:22:54.318   08 Jun 2027 10:22:54.853             0.535            84.438
       262   08 Jun 2027 10:23:32.958   08 Jun 2027 10:23:37.517             4.559          1165.625
       263   08 Jun 2027 11:53:28.928   08 Jun 2027 11:53:36.945             8.017          4008.500
       264   08 Jun 2027 11:54:02.760   08 Jun 2027 11:54:11.829             9.069          2940.250
       265   08 Jun 2027 11:54:48.069   08 Jun 2027 11:54:49.067             0.998           499.000
       266   08 Jun 2027 11:55:43.232   08 Jun 2027 11:55:48.907             5.675          2298.094
       267   08 Jun 2027 11:57:09.160   08 Jun 2027 11:57:15.255             6.095          2507.906
       268   08 Jun 2027 11:57:31.731   08 Jun 2027 11:57:34.289             2.558           514.875
       269   08 Jun 2027 11:58:01.917   08 Jun 2027 11:58:05.411             3.494           859.125
       270   08 Jun 2027 11:58:48.838   08 Jun 2027 11:58:52.009             3.171           881.937
       271   08 Jun 2027 11:59:24.113   08 Jun 2027 11:59:24.113             0.000             0.000
       272   08 Jun 2027 11:59:44.166   08 Jun 2027 11:59:46.724             2.558          1279.000
       273   09 Jun 2027 04:17:53.541   09 Jun 2027 04:19:35.846           102.305         51152.500
       274   09 Jun 2027 04:19:50.780   09 Jun 2027 04:20:33.245            42.465         21232.500
       275   09 Jun 2027 04:20:56.912   09 Jun 2027 04:21:21.685            24.773         12386.500
       276   09 Jun 2027 04:21:58.290   09 Jun 2027 04:22:22.029            23.739         11869.500
       277   09 Jun 2027 05:41:56.413   09 Jun 2027 05:43:02.137            65.724         32862.000
       278   09 Jun 2027 05:43:54.598   09 Jun 2027 05:44:00.789             6.191          3095.500
       279   09 Jun 2027 07:17:53.980   09 Jun 2027 07:18:56.347            62.367         30571.844
       280   09 Jun 2027 07:20:13.968   09 Jun 2027 07:20:22.466             8.498          1752.063
       281   09 Jun 2027 07:20:45.068   09 Jun 2027 07:20:45.068             0.000             0.000
       282   09 Jun 2027 07:21:02.462   09 Jun 2027 07:21:02.580             0.118            59.000
       283   09 Jun 2027 07:21:36.758   09 Jun 2027 07:21:45.895             9.137          2161.750
       284   09 Jun 2027 08:51:43.349   09 Jun 2027 08:51:53.259             9.910          4275.813
       285   09 Jun 2027 08:53:04.460   09 Jun 2027 08:53:05.040             0.580           270.906
       286   09 Jun 2027 08:53:54.366   09 Jun 2027 08:53:56.340             1.974           701.250
       287   09 Jun 2027 08:54:15.051   09 Jun 2027 08:54:15.051             0.000             0.000
       288   09 Jun 2027 08:54:52.814   09 Jun 2027 08:54:58.568             5.754          1405.844
       289   09 Jun 2027 08:57:56.843   09 Jun 2027 08:58:11.211            14.368          5293.406
       290   09 Jun 2027 08:58:18.333   09 Jun 2027 08:58:18.333             0.000             0.000
       291   09 Jun 2027 08:59:33.117   09 Jun 2027 08:59:39.144             6.027          2477.406
       292   09 Jun 2027 09:00:11.182   09 Jun 2027 09:00:12.612             1.430           366.563
       293   09 Jun 2027 10:28:47.749   09 Jun 2027 10:29:09.053            21.304          6855.563
       294   09 Jun 2027 10:29:26.189   09 Jun 2027 10:29:28.738             2.549           270.531
       295   09 Jun 2027 10:29:45.032   09 Jun 2027 10:29:46.959             1.927           509.187
       296   09 Jun 2027 10:30:00.993   09 Jun 2027 10:30:01.676             0.683            89.906
       297   09 Jun 2027 10:30:50.258   09 Jun 2027 10:30:55.108             4.850          1518.187
       298   09 Jun 2027 10:31:41.890   09 Jun 2027 10:31:44.700             2.810          1243.781
       299   09 Jun 2027 10:32:24.541   09 Jun 2027 10:32:27.555             3.014           825.469
       300   09 Jun 2027 10:32:57.068   09 Jun 2027 10:32:59.812             2.744           602.781
       301   09 Jun 2027 10:33:45.380   09 Jun 2027 10:33:47.738             2.358          1011.250
       302   09 Jun 2027 10:33:53.467   09 Jun 2027 10:33:54.360             0.893            60.625
       303   09 Jun 2027 10:34:17.374   09 Jun 2027 10:34:18.889             1.515           708.656
       304   09 Jun 2027 10:35:18.935   09 Jun 2027 10:35:23.320             4.385          1876.437
       305   09 Jun 2027 10:35:39.418   09 Jun 2027 10:35:41.167             1.749           503.063
       306   10 Jun 2027 04:30:27.945   10 Jun 2027 04:34:11.530           223.585        111792.500
       307   10 Jun 2027 05:53:50.537   10 Jun 2027 05:54:31.880            41.343         20671.500
       308   10 Jun 2027 05:55:03.417   10 Jun 2027 05:55:21.353            17.936          8968.000
       309   10 Jun 2027 07:30:13.054   10 Jun 2027 07:30:50.380            37.326         17396.250
       310   10 Jun 2027 07:31:29.106   10 Jun 2027 07:31:32.327             3.221          1210.188
       311   10 Jun 2027 07:32:10.430   10 Jun 2027 07:32:10.430             0.000             0.000
       312   10 Jun 2027 07:32:12.461   10 Jun 2027 07:32:16.504             4.043           902.375
       313   10 Jun 2027 07:33:12.806   10 Jun 2027 07:33:17.039             4.233          1732.094
       314   10 Jun 2027 09:03:41.623   10 Jun 2027 09:03:52.291            10.668          3657.344
       315   10 Jun 2027 09:05:35.559   10 Jun 2027 09:05:35.559             0.000             0.000
       316   10 Jun 2027 09:06:09.498   10 Jun 2027 09:06:14.177             4.679          2288.656
       317   10 Jun 2027 09:06:51.596   10 Jun 2027 09:06:54.952             3.356           909.156
       318   10 Jun 2027 09:07:31.131   10 Jun 2027 09:07:35.094             3.963          1130.594
       319   10 Jun 2027 09:09:58.238   10 Jun 2027 09:09:58.238             0.000             0.000
       320   10 Jun 2027 09:10:27.487   10 Jun 2027 09:10:36.198             8.711          4167.688
       321   10 Jun 2027 09:11:05.251   10 Jun 2027 09:11:13.497             8.246           907.906
       322   10 Jun 2027 09:12:11.191   10 Jun 2027 09:12:12.902             1.711           855.500
       323   10 Jun 2027 10:41:15.075   10 Jun 2027 10:41:30.517            15.442          7195.687
       324   10 Jun 2027 10:41:59.376   10 Jun 2027 10:42:03.799             4.423           901.844
       325   10 Jun 2027 10:42:21.933   10 Jun 2027 10:42:22.605             0.672           336.000
       326   10 Jun 2027 10:42:48.488   10 Jun 2027 10:42:51.490             3.002           914.531
       327   10 Jun 2027 10:43:47.215   10 Jun 2027 10:43:50.450             3.235          1438.500
       328   10 Jun 2027 10:44:03.425   10 Jun 2027 10:44:16.924            13.499           144.750
       329   10 Jun 2027 10:44:28.410   10 Jun 2027 10:44:32.610             4.200           328.531
       330   10 Jun 2027 10:45:42.657   10 Jun 2027 10:45:42.717             0.060            30.000
       331   10 Jun 2027 10:46:42.859   10 Jun 2027 10:46:54.653            11.794          4036.156
       332   10 Jun 2027 10:47:19.572   10 Jun 2027 10:47:20.534             0.962           481.000
       333   10 Jun 2027 10:47:48.368   10 Jun 2027 10:47:50.925             2.557          1167.531
       334   11 Jun 2027 03:04:02.168   11 Jun 2027 03:04:08.408             6.240          3120.000
       335   11 Jun 2027 03:04:32.149   11 Jun 2027 03:06:00.949            88.800         44400.000
       336   11 Jun 2027 03:06:05.779   11 Jun 2027 03:06:23.503            17.724          8862.000
       337   11 Jun 2027 03:08:18.102   11 Jun 2027 03:08:24.378             6.276          3138.000
       338   11 Jun 2027 03:08:58.795   11 Jun 2027 03:08:59.856             1.061           530.500
       339   11 Jun 2027 03:09:29.784   11 Jun 2027 03:09:32.199             2.415          1207.500
       340   11 Jun 2027 03:09:42.469   11 Jun 2027 03:10:18.605            36.136         18068.000
       341   11 Jun 2027 04:42:06.057   11 Jun 2027 04:43:16.822            70.765         35382.500
       342   11 Jun 2027 04:43:32.633   11 Jun 2027 04:44:59.115            86.482         43241.000
       343   11 Jun 2027 04:45:40.009   11 Jun 2027 04:45:52.552            12.543          6271.500
       344   11 Jun 2027 04:46:25.414   11 Jun 2027 04:46:31.619             6.205          1837.719
       345   11 Jun 2027 06:05:40.576   11 Jun 2027 06:05:52.404            11.828          5914.000
       346   11 Jun 2027 06:07:55.454   11 Jun 2027 06:08:01.381             5.927          2963.500
       347   11 Jun 2027 06:08:22.484   11 Jun 2027 06:08:24.679             2.195          1097.500
       348   11 Jun 2027 07:42:14.949   11 Jun 2027 07:42:27.085            12.136          2799.188
       349   11 Jun 2027 07:42:52.154   11 Jun 2027 07:42:53.667             1.513           363.719
       350   11 Jun 2027 07:43:11.692   11 Jun 2027 07:43:13.464             1.772           563.281
       351   11 Jun 2027 07:43:19.446   11 Jun 2027 07:43:20.555             1.109           147.188
       352   11 Jun 2027 07:44:01.693   11 Jun 2027 07:44:05.558             3.865          1159.188
       353   11 Jun 2027 07:44:49.541   11 Jun 2027 07:44:49.541             0.000             0.000
       354   11 Jun 2027 07:45:16.357   11 Jun 2027 07:45:23.185             6.828          2212.469
       355   11 Jun 2027 07:45:41.159   11 Jun 2027 07:45:45.072             3.913           524.406
       356   11 Jun 2027 09:16:48.931   11 Jun 2027 09:16:56.171             7.240          3620.000
       357   11 Jun 2027 09:18:02.009   11 Jun 2027 09:18:06.778             4.769          2228.063
       358   11 Jun 2027 09:18:56.788   11 Jun 2027 09:19:05.934             9.146          1409.719
       359   11 Jun 2027 09:20:00.784   11 Jun 2027 09:20:02.548             1.764           788.625
       360   11 Jun 2027 09:20:34.041   11 Jun 2027 09:20:34.753             0.712           356.000
       361   11 Jun 2027 09:21:13.578   11 Jun 2027 09:21:13.578             0.000             0.000
       362   11 Jun 2027 09:22:46.478   11 Jun 2027 09:22:55.200             8.722          4166.031
       363   11 Jun 2027 09:23:03.302   11 Jun 2027 09:23:06.100             2.798           253.188
       364   11 Jun 2027 09:23:53.959   11 Jun 2027 09:23:59.135             5.176          1300.813
       365   11 Jun 2027 09:24:03.127   11 Jun 2027 09:24:03.978             0.851           124.750
       366   11 Jun 2027 10:53:21.520   11 Jun 2027 10:53:36.529            15.009          7050.469
       367   11 Jun 2027 10:53:54.644   11 Jun 2027 10:53:56.045             1.401            93.875
       368   11 Jun 2027 10:55:31.991   11 Jun 2027 10:55:37.785             5.794          2854.281
       369   11 Jun 2027 10:56:01.199   11 Jun 2027 10:56:03.332             2.133           731.688
       370   11 Jun 2027 10:56:28.059   11 Jun 2027 10:56:29.387             1.328           521.906
       371   11 Jun 2027 10:56:59.670   11 Jun 2027 10:57:09.632             9.962           880.281
       372   11 Jun 2027 10:57:20.797   11 Jun 2027 10:57:20.840             0.043            21.500
       373   11 Jun 2027 10:57:45.269   11 Jun 2027 10:57:48.702             3.433           836.906
       374   11 Jun 2027 10:58:58.567   11 Jun 2027 10:59:10.049            11.482          2183.281
       375   11 Jun 2027 10:59:19.308   11 Jun 2027 10:59:20.724             1.416           194.187
       376   11 Jun 2027 10:59:31.761   11 Jun 2027 10:59:32.586             0.825           295.844
       377   11 Jun 2027 10:59:42.371   11 Jun 2027 10:59:43.698             1.327           305.781
       378   12 Jun 2027 03:16:10.739   12 Jun 2027 03:17:10.523            59.784         29892.000
       379   12 Jun 2027 03:17:19.950   12 Jun 2027 03:19:17.703           117.753         58876.500
       380   12 Jun 2027 03:21:47.643   12 Jun 2027 03:22:03.091            15.448          7724.000
       381   12 Jun 2027 04:54:29.240   12 Jun 2027 04:54:59.735            30.495         15247.500
       382   12 Jun 2027 04:55:18.253   12 Jun 2027 04:56:37.530            79.277         39085.656
       383   12 Jun 2027 04:57:21.149   12 Jun 2027 04:57:24.382             3.233           157.812
       384   12 Jun 2027 04:58:03.205   12 Jun 2027 04:58:05.839             2.634           976.094
       385   12 Jun 2027 06:17:52.078   12 Jun 2027 06:18:07.187            15.109          7043.875
       386   12 Jun 2027 06:19:24.458   12 Jun 2027 06:19:33.077             8.619          2414.719
       387   12 Jun 2027 06:19:52.377   12 Jun 2027 06:19:54.191             1.814           603.125
       388   12 Jun 2027 06:20:35.281   12 Jun 2027 06:20:38.613             3.332          1141.938
       389   12 Jun 2027 07:54:23.872   12 Jun 2027 07:54:31.499             7.627          2589.500
       390   12 Jun 2027 07:54:56.869   12 Jun 2027 07:55:03.530             6.661           479.781
       391   12 Jun 2027 07:55:38.767   12 Jun 2027 07:55:40.050             1.283           553.781
       392   12 Jun 2027 07:55:52.685   12 Jun 2027 07:55:53.398             0.713           244.812
       393   12 Jun 2027 07:57:22.507   12 Jun 2027 07:57:35.011            12.504          2609.406
       394   12 Jun 2027 07:57:54.577   12 Jun 2027 07:57:54.577             0.000             0.000
       395   12 Jun 2027 09:29:33.186   12 Jun 2027 09:29:44.483            11.297          4771.156
       396   12 Jun 2027 09:30:53.840   12 Jun 2027 09:30:58.265             4.425          1934.531
       397   12 Jun 2027 09:32:31.854   12 Jun 2027 09:32:38.681             6.827          2924.656
       398   12 Jun 2027 09:33:21.859   12 Jun 2027 09:33:24.446             2.587          1090.625
       399   12 Jun 2027 09:33:38.884   12 Jun 2027 09:33:43.043             4.159           273.781
       400   12 Jun 2027 09:34:01.024   12 Jun 2027 09:34:03.407             2.383           561.906
       401   12 Jun 2027 09:34:16.686   12 Jun 2027 09:34:22.024             5.338           304.312
       402   12 Jun 2027 09:35:29.739   12 Jun 2027 09:35:34.058             4.319          1658.000
       403   12 Jun 2027 09:35:59.211   12 Jun 2027 09:36:01.239             2.028           786.031
       404   12 Jun 2027 09:36:08.301   12 Jun 2027 09:36:09.839             1.538           220.687
       405   12 Jun 2027 11:05:57.592   12 Jun 2027 11:06:13.712            16.120          5971.969
       406   12 Jun 2027 11:07:03.746   12 Jun 2027 11:07:26.542            22.796          1164.656
       407   12 Jun 2027 11:07:36.075   12 Jun 2027 11:07:38.234             2.159           267.125
       408   12 Jun 2027 11:07:59.507   12 Jun 2027 11:08:02.942             3.435           628.906
       409   12 Jun 2027 11:08:17.696   12 Jun 2027 11:08:20.989             3.293           394.469
       410   12 Jun 2027 11:09:01.796   12 Jun 2027 11:09:04.356             2.560          1111.500
       411   12 Jun 2027 11:09:20.021   12 Jun 2027 11:09:22.919             2.898           461.156
       412   12 Jun 2027 11:09:46.071   12 Jun 2027 11:09:53.269             7.198           723.500
       413   12 Jun 2027 11:10:28.620   12 Jun 2027 11:10:33.137             4.517          1097.969
       414   12 Jun 2027 11:11:23.325   12 Jun 2027 11:11:30.471             7.146          1481.062
       415   12 Jun 2027 11:11:37.318   12 Jun 2027 11:11:39.569             2.251           213.969
       416   13 Jun 2027 03:28:15.826   13 Jun 2027 03:28:25.646             9.820          4910.000
       417   13 Jun 2027 03:29:17.461   13 Jun 2027 03:32:14.140           176.679         88339.500
       418   13 Jun 2027 03:33:09.083   13 Jun 2027 03:33:33.266            24.183         12091.500
       419   13 Jun 2027 03:33:48.585   13 Jun 2027 03:33:51.565             2.980          1490.000
       420   13 Jun 2027 03:36:03.784   13 Jun 2027 03:36:07.181             3.397          1698.500
       421   13 Jun 2027 05:06:26.073   13 Jun 2027 05:07:04.956            38.883         19441.500
       422   13 Jun 2027 05:07:29.764   13 Jun 2027 05:08:18.179            48.415         23313.531
       423   13 Jun 2027 05:08:47.583   13 Jun 2027 05:08:55.187             7.604           706.031
       424   13 Jun 2027 05:09:24.686   13 Jun 2027 05:09:28.198             3.512           222.406
       425   13 Jun 2027 05:09:58.143   13 Jun 2027 05:10:02.416             4.273           935.781
       426   13 Jun 2027 06:30:28.508   13 Jun 2027 06:30:38.926            10.418          5209.000
       427   13 Jun 2027 06:31:06.233   13 Jun 2027 06:31:09.798             3.565          1455.406
       428   13 Jun 2027 06:32:34.513   13 Jun 2027 06:32:40.151             5.638          2455.969
       429   13 Jun 2027 08:06:28.026   13 Jun 2027 08:06:37.776             9.750          4818.562
       430   13 Jun 2027 08:06:59.969   13 Jun 2027 08:07:02.646             2.677           589.687
       431   13 Jun 2027 08:08:13.240   13 Jun 2027 08:08:16.959             3.719          1586.875
       432   13 Jun 2027 08:08:23.425   13 Jun 2027 08:08:24.813             1.388            69.437
       433   13 Jun 2027 08:08:59.917   13 Jun 2027 08:08:59.917             0.000             0.000
       434   13 Jun 2027 08:09:37.703   13 Jun 2027 08:09:43.562             5.859          1651.406
       435   13 Jun 2027 09:41:14.097   13 Jun 2027 09:41:26.344            12.247          5150.437
       436   13 Jun 2027 09:42:59.340   13 Jun 2027 09:42:59.340             0.000             0.000
       437   13 Jun 2027 09:43:22.061   13 Jun 2027 09:43:29.079             7.018          3245.062
       438   13 Jun 2027 09:43:49.793   13 Jun 2027 09:43:55.294             5.501           446.094
       439   13 Jun 2027 09:44:16.450   13 Jun 2027 09:44:16.450             0.000             0.000
       440   13 Jun 2027 09:45:21.443   13 Jun 2027 09:45:31.290             9.847          2423.250
       441   13 Jun 2027 09:45:47.354   13 Jun 2027 09:45:48.340             0.986            63.312
       442   13 Jun 2027 09:45:51.410   13 Jun 2027 09:45:55.674             4.264            86.563
       443   13 Jun 2027 09:46:04.981   13 Jun 2027 09:46:05.934             0.953           281.344
       444   13 Jun 2027 09:46:46.463   13 Jun 2027 09:46:46.496             0.033            16.500
       445   13 Jun 2027 09:47:51.633   13 Jun 2027 09:47:57.059             5.426          2713.000
       446   13 Jun 2027 09:48:16.774   13 Jun 2027 09:48:17.575             0.801           400.500
       447   13 Jun 2027 11:17:30.265   13 Jun 2027 11:17:45.284            15.019          7016.563
       448   13 Jun 2027 11:18:33.318   13 Jun 2027 11:18:34.710             1.392           477.000
       449   13 Jun 2027 11:19:17.803   13 Jun 2027 11:19:21.147             3.344          1291.813
       450   13 Jun 2027 11:19:36.938   13 Jun 2027 11:19:37.670             0.732           294.094
       451   13 Jun 2027 11:20:27.257   13 Jun 2027 11:20:32.772             5.515          1549.594
       452   13 Jun 2027 11:21:15.740   13 Jun 2027 11:21:19.625             3.885          1265.063
       453   13 Jun 2027 11:22:04.144   13 Jun 2027 11:22:06.601             2.457          1223.344
       454   13 Jun 2027 11:22:12.939   13 Jun 2027 11:22:15.719             2.780           191.656
       455   13 Jun 2027 11:22:36.609   13 Jun 2027 11:22:39.462             2.853           652.812
