uniorb/output/strategy_2/Camera/Camera_KinoSat_111507.txt

KinoSat_111507
-------------------------
    Access    *     Start Time (UTCG)     *     Stop Time (UTCG)  *   Duration (s) *   Data (Mbytes)
         1   01 Jun 2027 03:00:00.000   01 Jun 2027 03:00:38.579            38.579         19289.500
         2   01 Jun 2027 03:00:39.019   01 Jun 2027 03:00:44.331             5.312          2656.000
         3   01 Jun 2027 03:00:50.541   01 Jun 2027 03:00:50.541             0.000             0.000
         4   01 Jun 2027 03:00:57.356   01 Jun 2027 03:01:08.841            11.485          5742.500
         5   01 Jun 2027 03:02:16.045   01 Jun 2027 03:02:19.613             3.568          1784.000
         6   01 Jun 2027 03:03:02.562   01 Jun 2027 03:03:02.562             0.000             0.000
         7   01 Jun 2027 03:03:09.986   01 Jun 2027 03:03:50.189            40.203         20101.500
         8   01 Jun 2027 03:04:28.110   01 Jun 2027 03:04:29.006             0.896           448.000
         9   01 Jun 2027 03:04:44.566   01 Jun 2027 03:05:06.727            22.161         11080.500
        10   01 Jun 2027 04:36:58.929   01 Jun 2027 04:37:36.696            37.767         18883.500
        11   01 Jun 2027 04:38:38.851   01 Jun 2027 04:39:15.880            37.029         18514.500
        12   01 Jun 2027 04:39:44.796   01 Jun 2027 04:41:25.062           100.266         50133.000
        13   01 Jun 2027 06:00:37.951   01 Jun 2027 06:01:20.489            42.538         21269.000
        14   01 Jun 2027 06:02:36.243   01 Jun 2027 06:02:36.243             0.000             0.000
        15   01 Jun 2027 06:03:09.775   01 Jun 2027 06:03:13.864             4.089          2044.500
        16   01 Jun 2027 07:37:01.288   01 Jun 2027 07:39:54.459           173.171         86585.500
        17   01 Jun 2027 09:11:06.453   01 Jun 2027 09:12:58.265           111.812         55906.000
        18   01 Jun 2027 09:13:12.688   01 Jun 2027 09:13:46.674            33.986         16993.000
        19   01 Jun 2027 09:15:27.548   01 Jun 2027 09:15:27.548             0.000             0.000
        20   01 Jun 2027 09:16:10.896   01 Jun 2027 09:16:18.630             7.734          3867.000
        21   01 Jun 2027 09:17:32.713   01 Jun 2027 09:17:37.210             4.497          2248.500
        22   01 Jun 2027 09:18:12.308   01 Jun 2027 09:18:37.631            25.323         12661.500
        23   01 Jun 2027 09:19:01.054   01 Jun 2027 09:19:03.906             2.852          1426.000
        24   01 Jun 2027 10:48:08.902   01 Jun 2027 10:50:02.591           113.689         56844.500
        25   01 Jun 2027 10:52:52.746   01 Jun 2027 10:53:11.101            18.355          9177.500
        26   02 Jun 2027 03:11:05.785   02 Jun 2027 03:12:07.280            61.495         30747.500
        27   02 Jun 2027 03:12:13.689   02 Jun 2027 03:13:49.960            96.271         48135.500
        28   02 Jun 2027 03:15:56.897   02 Jun 2027 03:16:18.467            21.570         10785.000
        29   02 Jun 2027 03:16:35.951   02 Jun 2027 03:16:39.009             3.058          1529.000
        30   02 Jun 2027 04:50:11.372   02 Jun 2027 04:51:56.351           104.979         52489.500
        31   02 Jun 2027 04:52:29.586   02 Jun 2027 04:52:47.813            18.227          9113.500
        32   02 Jun 2027 06:12:42.892   02 Jun 2027 06:13:36.972            54.080         27040.000
        33   02 Jun 2027 06:14:11.905   02 Jun 2027 06:14:38.025            26.120         13060.000
        34   02 Jun 2027 07:49:11.865   02 Jun 2027 07:51:42.278           150.413         75206.500
        35   02 Jun 2027 09:24:17.994   02 Jun 2027 09:25:16.198            58.204         28755.780
        36   02 Jun 2027 09:25:34.476   02 Jun 2027 09:25:34.476             0.000             0.000
        37   02 Jun 2027 09:25:48.345   02 Jun 2027 09:25:53.146             4.801           701.281
        38   02 Jun 2027 09:26:35.444   02 Jun 2027 09:26:38.737             3.293           452.812
        39   02 Jun 2027 09:26:56.698   02 Jun 2027 09:26:57.553             0.855           427.500
        40   02 Jun 2027 09:27:09.334   02 Jun 2027 09:27:14.235             4.901           384.500
        41   02 Jun 2027 09:29:32.556   02 Jun 2027 09:29:43.308            10.752          3981.063
        42   02 Jun 2027 09:30:48.752   02 Jun 2027 09:30:53.547             4.795          2045.125
        43   02 Jun 2027 09:30:55.565   02 Jun 2027 09:30:56.438             0.873            42.531
        44   02 Jun 2027 09:30:57.301   02 Jun 2027 09:30:57.786             0.485            26.969
        45   02 Jun 2027 11:00:40.146   02 Jun 2027 11:00:54.806            14.660          7304.125
        46   02 Jun 2027 11:02:12.488   02 Jun 2027 11:02:19.267             6.779          1986.500
        47   02 Jun 2027 11:02:26.806   02 Jun 2027 11:02:30.715             3.909           148.844
        48   02 Jun 2027 11:02:50.801   02 Jun 2027 11:02:53.159             2.358           627.687
        49   02 Jun 2027 11:04:11.031   02 Jun 2027 11:04:14.050             3.019          1509.500
        50   02 Jun 2027 11:04:38.712   02 Jun 2027 11:04:42.183             3.471           870.437
        51   02 Jun 2027 11:04:48.708   02 Jun 2027 11:04:52.915             4.207            91.375
        52   02 Jun 2027 11:05:03.284   02 Jun 2027 11:05:05.629             2.345            60.625
        53   02 Jun 2027 11:05:14.425   02 Jun 2027 11:05:16.713             2.288           176.563
        54   02 Jun 2027 11:05:29.896   02 Jun 2027 11:05:32.386             2.490           407.344
        55   02 Jun 2027 11:06:15.766   02 Jun 2027 11:06:17.633             1.867           933.500
        56   02 Jun 2027 11:06:46.616   02 Jun 2027 11:06:50.964             4.348          1327.844
        57   03 Jun 2027 03:23:05.442   03 Jun 2027 03:23:49.715            44.273         22136.500
        58   03 Jun 2027 03:24:11.256   03 Jun 2027 03:26:26.993           135.737         67868.500
        59   03 Jun 2027 03:28:01.941   03 Jun 2027 03:28:36.934            34.993         17496.500
        60   03 Jun 2027 05:01:18.267   03 Jun 2027 05:01:56.337            38.070         19035.000
        61   03 Jun 2027 05:02:08.816   03 Jun 2027 05:03:06.790            57.974         27940.406
        62   03 Jun 2027 05:04:18.524   03 Jun 2027 05:04:21.988             3.464          1732.000
        63   03 Jun 2027 05:04:44.301   03 Jun 2027 05:04:48.288             3.987          1015.375
        64   03 Jun 2027 06:24:47.066   03 Jun 2027 06:24:59.148            12.082          5413.531
        65   03 Jun 2027 06:25:34.368   03 Jun 2027 06:25:37.877             3.509            54.938
        66   03 Jun 2027 06:25:40.902   03 Jun 2027 06:25:40.902             0.000             0.000
        67   03 Jun 2027 06:27:27.933   03 Jun 2027 06:27:39.105            11.172          3378.531
        68   03 Jun 2027 06:27:47.826   03 Jun 2027 06:27:49.116             1.290           252.250
        69   03 Jun 2027 08:01:16.098   03 Jun 2027 08:01:24.215             8.117          3390.219
        70   03 Jun 2027 08:02:12.557   03 Jun 2027 08:02:16.380             3.823          1510.687
        71   03 Jun 2027 08:02:47.917   03 Jun 2027 08:02:53.112             5.195           241.438
        72   03 Jun 2027 08:03:04.197   03 Jun 2027 08:03:04.939             0.742           155.531
        73   03 Jun 2027 08:04:02.856   03 Jun 2027 08:04:07.448             4.592          1809.906
        74   03 Jun 2027 09:36:26.618   03 Jun 2027 09:36:36.654            10.036          3777.344
        75   03 Jun 2027 09:38:00.032   03 Jun 2027 09:38:07.127             7.095          2574.469
        76   03 Jun 2027 09:40:10.462   03 Jun 2027 09:40:18.305             7.843          3703.469
        77   03 Jun 2027 09:40:29.436   03 Jun 2027 09:40:32.137             2.701            63.344
        78   03 Jun 2027 09:41:12.004   03 Jun 2027 09:41:13.681             1.677           460.719
        79   03 Jun 2027 09:41:26.227   03 Jun 2027 09:41:28.355             2.128            98.813
        80   03 Jun 2027 09:41:39.755   03 Jun 2027 09:41:44.569             4.814           339.781
        81   03 Jun 2027 09:42:49.724   03 Jun 2027 09:42:53.252             3.528          1677.656
        82   03 Jun 2027 11:12:24.453   03 Jun 2027 11:12:36.628            12.175          6079.344
        83   03 Jun 2027 11:13:23.293   03 Jun 2027 11:13:25.485             2.192           940.219
        84   03 Jun 2027 11:14:28.548   03 Jun 2027 11:14:32.406             3.858          1929.000
        85   03 Jun 2027 11:14:49.355   03 Jun 2027 11:14:51.115             1.760           559.875
        86   03 Jun 2027 11:15:19.251   03 Jun 2027 11:15:22.066             2.815           879.250
        87   03 Jun 2027 11:16:42.964   03 Jun 2027 11:16:48.455             5.491          2392.219
        88   03 Jun 2027 11:17:33.537   03 Jun 2027 11:17:39.137             5.600           968.000
        89   03 Jun 2027 11:18:07.862   03 Jun 2027 11:18:09.516             1.654           638.844
        90   04 Jun 2027 03:36:10.535   04 Jun 2027 03:39:56.934           226.399        113199.500
        91   04 Jun 2027 03:40:44.557   04 Jun 2027 03:40:44.557             0.000             0.000
        92   04 Jun 2027 03:41:11.078   04 Jun 2027 03:41:15.121             4.043          2021.500
        93   04 Jun 2027 03:42:24.381   04 Jun 2027 03:42:28.863             4.482          2241.000
        94   04 Jun 2027 03:43:05.200   04 Jun 2027 03:43:59.380            54.180         27090.000
        95   04 Jun 2027 05:02:30.494   04 Jun 2027 05:02:44.366            13.872          6936.000
        96   04 Jun 2027 05:13:16.036   04 Jun 2027 05:14:02.079            46.043         21817.937
        97   04 Jun 2027 05:14:35.221   04 Jun 2027 05:14:37.500             2.279          1035.687
        98   04 Jun 2027 05:15:27.110   04 Jun 2027 05:15:30.323             3.213           922.531
        99   04 Jun 2027 05:16:12.965   04 Jun 2027 05:16:12.965             0.000             0.000
       100   04 Jun 2027 05:16:15.138   04 Jun 2027 05:16:19.031             3.893          1146.469
       101   04 Jun 2027 05:16:24.792   04 Jun 2027 05:16:26.037             1.245            44.063
       102   04 Jun 2027 05:16:45.613   04 Jun 2027 05:16:47.772             2.159           611.750
       103   04 Jun 2027 06:37:14.006   04 Jun 2027 06:37:28.766            14.760          4820.375
       104   04 Jun 2027 06:37:42.180   04 Jun 2027 06:37:43.747             1.567           359.219
       105   04 Jun 2027 06:38:08.862   04 Jun 2027 06:38:08.862             0.000             0.000
       106   04 Jun 2027 06:39:27.937   04 Jun 2027 06:39:37.222             9.285          3245.250
       107   04 Jun 2027 08:13:00.550   04 Jun 2027 08:13:11.123            10.573          3735.000
       108   04 Jun 2027 08:15:13.095   04 Jun 2027 08:15:22.413             9.318          3673.406
       109   04 Jun 2027 08:15:45.285   04 Jun 2027 08:15:47.571             2.286           577.812
       110   04 Jun 2027 08:16:17.715   04 Jun 2027 08:16:17.715             0.000             0.000
       111   04 Jun 2027 08:16:44.309   04 Jun 2027 08:16:49.318             5.009          1681.687
       112   04 Jun 2027 09:47:44.084   04 Jun 2027 09:47:53.840             9.756          4839.187
       113   04 Jun 2027 09:48:48.022   04 Jun 2027 09:48:51.054             3.032          1451.250
       114   04 Jun 2027 09:49:22.393   04 Jun 2027 09:49:26.739             4.346           933.375
       115   04 Jun 2027 09:49:53.433   04 Jun 2027 09:49:55.540             2.107           827.531
       116   04 Jun 2027 09:50:37.171   04 Jun 2027 09:50:39.841             2.670           231.156
       117   04 Jun 2027 09:53:37.190   04 Jun 2027 09:53:45.433             8.243          4121.500
       118   04 Jun 2027 09:54:26.168   04 Jun 2027 09:54:30.921             4.753          1967.656
       119   04 Jun 2027 09:54:48.790   04 Jun 2027 09:54:51.379             2.589           551.469
       120   04 Jun 2027 09:55:01.301   04 Jun 2027 09:55:01.968             0.667           114.312
       121   04 Jun 2027 11:24:28.473   04 Jun 2027 11:24:41.816            13.343          6292.281
       122   04 Jun 2027 11:24:57.618   04 Jun 2027 11:24:59.163             1.545            76.469
       123   04 Jun 2027 11:25:29.033   04 Jun 2027 11:25:32.110             3.077           226.406
       124   04 Jun 2027 11:26:15.439   04 Jun 2027 11:26:17.881             2.442           439.281
       125   04 Jun 2027 11:27:27.421   04 Jun 2027 11:27:33.761             6.340          1973.469
       126   04 Jun 2027 11:27:53.360   04 Jun 2027 11:27:56.724             3.364           482.000
       127   04 Jun 2027 11:28:19.324   04 Jun 2027 11:28:20.601             1.277           514.750
       128   04 Jun 2027 11:28:53.093   04 Jun 2027 11:28:55.020             1.927           647.125
       129   04 Jun 2027 11:29:03.178   04 Jun 2027 11:29:04.273             1.095           204.937
       130   04 Jun 2027 11:29:31.182   04 Jun 2027 11:29:34.235             3.053           804.438
       131   04 Jun 2027 11:29:42.661   04 Jun 2027 11:29:54.564            11.903           108.500
       132   04 Jun 2027 11:30:49.390   04 Jun 2027 11:30:51.170             1.780           890.000
       133   05 Jun 2027 03:48:31.229   05 Jun 2027 03:51:45.251           194.022         97011.000
       134   05 Jun 2027 03:52:46.372   05 Jun 2027 03:53:06.286            19.914          9957.000
       135   05 Jun 2027 03:53:49.365   05 Jun 2027 03:53:49.365             0.000             0.000
       136   05 Jun 2027 03:53:52.973   05 Jun 2027 03:54:26.716            33.743         16871.500
       137   05 Jun 2027 05:13:41.787   05 Jun 2027 05:14:07.260            25.473         12736.500
       138   05 Jun 2027 05:14:39.649   05 Jun 2027 05:15:00.164            20.515         10257.500
       139   05 Jun 2027 05:25:39.446   05 Jun 2027 05:26:28.106            48.660         23674.344
       140   05 Jun 2027 06:47:52.582   05 Jun 2027 06:48:05.882            13.300          6390.031
       141   05 Jun 2027 06:49:29.101   05 Jun 2027 06:49:33.512             4.411          1434.531
       142   05 Jun 2027 06:51:09.399   05 Jun 2027 06:51:13.470             4.071          2035.500
       143   05 Jun 2027 06:52:09.253   05 Jun 2027 06:52:14.255             5.002          2366.563
       144   05 Jun 2027 06:52:27.792   05 Jun 2027 06:52:33.668             5.876           423.031
       145   05 Jun 2027 08:23:01.113   05 Jun 2027 08:23:10.237             9.124          4458.313
       146   05 Jun 2027 08:23:57.464   05 Jun 2027 08:24:00.259             2.795          1321.312
       147   05 Jun 2027 08:24:43.905   05 Jun 2027 08:24:46.403             2.498          1057.875
       148   05 Jun 2027 08:25:03.286   05 Jun 2027 08:25:03.286             0.000             0.000
       149   05 Jun 2027 08:25:51.568   05 Jun 2027 08:25:55.102             3.534          1699.781
       150   05 Jun 2027 08:27:46.208   05 Jun 2027 08:27:53.252             7.044          3472.063
       151   05 Jun 2027 08:28:31.350   05 Jun 2027 08:28:34.127             2.777          1190.562
       152   05 Jun 2027 09:59:47.943   05 Jun 2027 09:59:55.645             7.702          3586.844
       153   05 Jun 2027 10:03:04.293   05 Jun 2027 10:03:10.086             5.793          2896.500
       154   05 Jun 2027 10:04:20.137   05 Jun 2027 10:04:30.944            10.807          5128.687
       155   05 Jun 2027 10:05:01.828   05 Jun 2027 10:05:06.106             4.278           477.781
       156   05 Jun 2027 10:05:21.204   05 Jun 2027 10:05:23.283             2.079           273.125
       157   05 Jun 2027 10:05:39.454   05 Jun 2027 10:05:41.204             1.750           501.125
       158   05 Jun 2027 10:06:24.623   05 Jun 2027 10:06:33.090             8.467          1356.844
       159   05 Jun 2027 10:06:48.311   05 Jun 2027 10:06:54.865             6.554           475.656
       160   05 Jun 2027 10:06:57.605   05 Jun 2027 10:06:58.911             1.306            85.625
       161   05 Jun 2027 11:36:48.978   05 Jun 2027 11:37:03.452            14.474          7237.000
       162   05 Jun 2027 11:37:32.676   05 Jun 2027 11:37:44.550            11.874          2597.531
       163   05 Jun 2027 11:38:20.899   05 Jun 2027 11:38:22.188             1.289           348.750
       164   05 Jun 2027 11:38:36.226   05 Jun 2027 11:38:39.544             3.318           147.844
       165   05 Jun 2027 11:38:55.766   05 Jun 2027 11:38:59.463             3.697           452.313
       166   05 Jun 2027 11:39:27.493   05 Jun 2027 11:39:29.519             2.026           875.938
       167   05 Jun 2027 11:40:07.644   05 Jun 2027 11:40:13.454             5.810          1104.594
       168   05 Jun 2027 11:40:54.880   05 Jun 2027 11:40:56.960             2.080          1040.000
       169   05 Jun 2027 11:41:31.231   05 Jun 2027 11:41:33.701             2.470          1235.000
       170   05 Jun 2027 11:42:41.343   05 Jun 2027 11:42:47.152             5.809          2159.906
       171   06 Jun 2027 04:00:46.972   06 Jun 2027 04:02:13.253            86.281         43140.500
       172   06 Jun 2027 04:02:22.102   06 Jun 2027 04:02:27.039             4.937          2468.500
       173   06 Jun 2027 04:02:28.535   06 Jun 2027 04:02:42.508            13.973          6986.500
       174   06 Jun 2027 04:03:52.516   06 Jun 2027 04:05:21.827            89.311         44655.500
       175   06 Jun 2027 04:05:44.481   06 Jun 2027 04:06:32.287            47.806         23903.000
       176   06 Jun 2027 04:07:35.278   06 Jun 2027 04:07:38.076             2.798          1399.000
       177   06 Jun 2027 05:25:00.305   06 Jun 2027 05:25:41.889            41.584         20792.000
       178   06 Jun 2027 05:26:47.934   06 Jun 2027 05:27:00.734            12.800          6400.000
       179   06 Jun 2027 05:37:14.027   06 Jun 2027 05:38:07.239            53.212         25394.094
       180   06 Jun 2027 06:59:28.315   06 Jun 2027 06:59:41.190            12.875          6437.500
       181   06 Jun 2027 07:00:01.125   06 Jun 2027 07:00:05.601             4.476          1117.219
       182   06 Jun 2027 07:00:20.706   06 Jun 2027 07:00:22.465             1.759           268.687
       183   06 Jun 2027 07:01:57.633   06 Jun 2027 07:02:03.565             5.932          2877.313
       184   06 Jun 2027 07:03:50.020   06 Jun 2027 07:03:56.210             6.190          2949.281
       185   06 Jun 2027 07:04:23.095   06 Jun 2027 07:04:23.095             0.000             0.000
       186   06 Jun 2027 07:04:45.649   06 Jun 2027 07:04:47.754             2.105          1052.500
       187   06 Jun 2027 08:34:21.226   06 Jun 2027 08:34:30.831             9.605          4262.687
       188   06 Jun 2027 08:35:33.547   06 Jun 2027 08:35:34.549             1.002           501.000
       189   06 Jun 2027 08:35:49.398   06 Jun 2027 08:36:00.994            11.596          1325.094
       190   06 Jun 2027 08:36:44.696   06 Jun 2027 08:36:45.131             0.435           217.500
       191   06 Jun 2027 08:38:15.621   06 Jun 2027 08:38:31.002            15.381          3916.469
       192   06 Jun 2027 08:39:46.658   06 Jun 2027 08:39:51.357             4.699          2349.500
       193   06 Jun 2027 08:40:22.256   06 Jun 2027 08:40:24.013             1.757           878.500
       194   06 Jun 2027 08:40:46.249   06 Jun 2027 08:40:46.249             0.000             0.000
       195   06 Jun 2027 08:41:32.973   06 Jun 2027 08:41:38.358             5.385          2256.844
       196   06 Jun 2027 08:42:25.471   06 Jun 2027 08:42:28.458             2.987          1030.469
       197   06 Jun 2027 10:11:55.916   06 Jun 2027 10:12:13.394            17.478          6528.437
       198   06 Jun 2027 10:12:55.470   06 Jun 2027 10:12:58.727             3.257           813.687
       199   06 Jun 2027 10:13:02.464   06 Jun 2027 10:13:02.911             0.447           116.781
       200   06 Jun 2027 10:13:05.017   06 Jun 2027 10:13:08.679             3.662            65.813
       201   06 Jun 2027 10:14:34.286   06 Jun 2027 10:14:40.166             5.880          2571.969
       202   06 Jun 2027 10:14:59.934   06 Jun 2027 10:15:01.070             1.136           568.000
       203   06 Jun 2027 10:15:43.706   06 Jun 2027 10:15:43.706             0.000             0.000
       204   06 Jun 2027 10:16:28.994   06 Jun 2027 10:16:35.161             6.167          2797.375
       205   06 Jun 2027 10:16:43.870   06 Jun 2027 10:16:44.188             0.318            31.031
       206   06 Jun 2027 10:17:03.955   06 Jun 2027 10:17:05.775             1.820           324.750
       207   06 Jun 2027 10:17:13.058   06 Jun 2027 10:17:15.971             2.913           227.594
       208   06 Jun 2027 10:17:57.868   06 Jun 2027 10:18:01.887             4.019           933.969
       209   06 Jun 2027 10:18:30.355   06 Jun 2027 10:18:32.865             2.510           873.562
       210   06 Jun 2027 10:18:49.183   06 Jun 2027 10:18:50.999             1.816           443.156
       211   06 Jun 2027 11:48:38.831   06 Jun 2027 11:48:52.547            13.716          6422.656
       212   06 Jun 2027 11:49:43.923   06 Jun 2027 11:49:46.088             2.165          1077.500
       213   06 Jun 2027 11:50:32.587   06 Jun 2027 11:50:38.301             5.714          1453.094
       214   06 Jun 2027 11:50:41.706   06 Jun 2027 11:50:44.557             2.851           106.406
       215   06 Jun 2027 11:50:48.788   06 Jun 2027 11:50:52.578             3.790           132.219
       216   06 Jun 2027 11:51:36.248   06 Jun 2027 11:51:37.647             1.399           699.500
       217   06 Jun 2027 11:51:58.675   06 Jun 2027 11:52:10.560            11.885          1176.844
       218   06 Jun 2027 11:52:44.654   06 Jun 2027 11:52:49.833             5.179          1065.438
       219   06 Jun 2027 11:54:57.326   06 Jun 2027 11:55:09.839            12.513          3870.812
       220   07 Jun 2027 04:12:52.464   07 Jun 2027 04:15:10.122           137.658         68829.000
       221   07 Jun 2027 04:15:55.807   07 Jun 2027 04:16:25.521            29.714         14857.000
       222   07 Jun 2027 04:16:41.339   07 Jun 2027 04:17:11.374            30.035         15017.500
       223   07 Jun 2027 04:17:35.084   07 Jun 2027 04:17:35.084             0.000             0.000
       224   07 Jun 2027 04:18:05.361   07 Jun 2027 04:18:33.841            28.480         14240.000
       225   07 Jun 2027 05:37:06.319   07 Jun 2027 05:37:45.274            38.955         19477.500
       226   07 Jun 2027 05:37:53.873   07 Jun 2027 05:38:02.500             8.627          4313.500
       227   07 Jun 2027 05:49:35.740   07 Jun 2027 05:49:41.300             5.560          2780.000
       228   07 Jun 2027 07:10:57.021   07 Jun 2027 07:11:57.658            60.637         28844.938
       229   07 Jun 2027 07:13:37.037   07 Jun 2027 07:13:46.114             9.077          2786.531
       230   07 Jun 2027 07:13:54.094   07 Jun 2027 07:13:56.306             2.212           249.375
       231   07 Jun 2027 07:14:48.069   07 Jun 2027 07:14:57.121             9.052          1617.594
       232   07 Jun 2027 07:16:11.011   07 Jun 2027 07:16:11.011             0.000             0.000
       233   07 Jun 2027 07:16:45.601   07 Jun 2027 07:16:53.248             7.647          3282.688
       234   07 Jun 2027 08:45:51.160   07 Jun 2027 08:46:01.969            10.809          4797.656
       235   07 Jun 2027 08:46:44.252   07 Jun 2027 08:46:47.148             2.896          1303.563
       236   07 Jun 2027 08:48:19.537   07 Jun 2027 08:48:23.292             3.755           484.906
       237   07 Jun 2027 08:50:15.933   07 Jun 2027 08:50:15.933             0.000             0.000
       238   07 Jun 2027 08:51:36.401   07 Jun 2027 08:51:49.147            12.746          5955.406
       239   07 Jun 2027 08:53:02.230   07 Jun 2027 08:53:07.219             4.989           989.500
       240   07 Jun 2027 08:54:31.468   07 Jun 2027 08:54:36.848             5.380          2283.406
       241   07 Jun 2027 08:54:40.447   07 Jun 2027 08:54:42.262             1.815           112.469
       242   07 Jun 2027 08:55:17.155   07 Jun 2027 08:55:18.364             1.209           604.500
       243   07 Jun 2027 10:23:51.179   07 Jun 2027 10:24:05.402            14.223          6404.094
       244   07 Jun 2027 10:26:48.819   07 Jun 2027 10:26:59.608            10.789          4901.719
       245   07 Jun 2027 10:28:06.809   07 Jun 2027 10:28:07.826             1.017           352.313
       246   07 Jun 2027 10:28:31.775   07 Jun 2027 10:28:31.775             0.000             0.000
       247   07 Jun 2027 10:28:40.695   07 Jun 2027 10:28:44.429             3.734           973.250
       248   07 Jun 2027 10:28:53.204   07 Jun 2027 10:28:53.882             0.678           129.063
       249   07 Jun 2027 10:29:08.772   07 Jun 2027 10:29:12.467             3.695           428.656
       250   07 Jun 2027 10:29:16.737   07 Jun 2027 10:29:17.646             0.909           133.437
       251   07 Jun 2027 10:29:35.611   07 Jun 2027 10:29:35.783             0.172            86.000
       252   07 Jun 2027 10:29:37.786   07 Jun 2027 10:29:40.826             3.040           450.500
       253   07 Jun 2027 10:29:47.395   07 Jun 2027 10:29:49.254             1.859           205.281
       254   07 Jun 2027 10:30:44.193   07 Jun 2027 10:30:49.961             5.768          1544.375
       255   07 Jun 2027 10:31:02.609   07 Jun 2027 10:31:05.858             3.249           395.250
       256   08 Jun 2027 04:25:18.636   08 Jun 2027 04:28:52.298           213.662        106831.000
       257   08 Jun 2027 04:29:00.815   08 Jun 2027 04:29:24.888            24.073         12036.500
       258   08 Jun 2027 04:29:31.448   08 Jun 2027 04:30:00.412            28.964         14482.000
       259   08 Jun 2027 05:49:02.562   08 Jun 2027 05:49:22.942            20.380         10190.000
       260   08 Jun 2027 07:25:15.746   08 Jun 2027 07:26:16.659            60.913         29120.406
       261   08 Jun 2027 07:28:11.377   08 Jun 2027 07:28:20.762             9.385          3322.625
       262   08 Jun 2027 08:58:47.372   08 Jun 2027 08:58:55.452             8.080          3719.375
       263   08 Jun 2027 09:00:30.968   08 Jun 2027 09:00:32.713             1.745           820.937
       264   08 Jun 2027 09:00:46.544   08 Jun 2027 09:00:49.976             3.432           432.219
       265   08 Jun 2027 09:01:20.141   08 Jun 2027 09:01:20.736             0.595           297.500
       266   08 Jun 2027 09:02:37.078   08 Jun 2027 09:02:43.919             6.841          2444.750
       267   08 Jun 2027 09:03:52.106   08 Jun 2027 09:03:54.168             2.062           802.469
       268   08 Jun 2027 09:03:59.734   08 Jun 2027 09:04:00.859             1.125           139.625
       269   08 Jun 2027 09:04:42.836   08 Jun 2027 09:04:43.765             0.929           333.594
       270   08 Jun 2027 09:05:57.726   08 Jun 2027 09:06:00.584             2.858          1205.125
       271   08 Jun 2027 09:06:58.926   08 Jun 2027 09:07:05.353             6.427          1819.281
       272   08 Jun 2027 09:07:22.105   08 Jun 2027 09:07:22.288             0.183            91.500
       273   08 Jun 2027 10:36:13.368   08 Jun 2027 10:36:32.943            19.575          7659.375
       274   08 Jun 2027 10:36:45.823   08 Jun 2027 10:36:49.043             3.220           402.500
       275   08 Jun 2027 10:36:50.212   08 Jun 2027 10:36:51.221             1.009            36.531
       276   08 Jun 2027 10:37:12.370   08 Jun 2027 10:37:13.689             1.319           357.281
       277   08 Jun 2027 10:38:18.054   08 Jun 2027 10:38:26.452             8.398          1071.500
       278   08 Jun 2027 10:40:39.615   08 Jun 2027 10:40:48.682             9.067          3994.875
       279   08 Jun 2027 10:41:46.457   08 Jun 2027 10:41:50.158             3.701          1805.469
       280   08 Jun 2027 10:42:23.738   08 Jun 2027 10:42:27.867             4.129          1049.375
       281   08 Jun 2027 10:42:28.599   08 Jun 2027 10:42:34.852             6.253            19.719
       282   08 Jun 2027 10:42:40.391   08 Jun 2027 10:42:40.587             0.196            98.000
       283   08 Jun 2027 10:42:55.203   08 Jun 2027 10:42:56.806             1.603           485.594
       284   09 Jun 2027 03:00:00.000   09 Jun 2027 03:00:41.759            41.759         20879.500
       285   09 Jun 2027 03:01:23.640   09 Jun 2027 03:01:30.134             6.494          3247.000
       286   09 Jun 2027 03:02:34.627   09 Jun 2027 03:02:48.837            14.210          7105.000
       287   09 Jun 2027 03:02:50.944   09 Jun 2027 03:03:17.415            26.471         13235.500
       288   09 Jun 2027 03:04:05.862   09 Jun 2027 03:04:15.143             9.281          4640.500
       289   09 Jun 2027 03:04:35.851   09 Jun 2027 03:05:00.825            24.974         12487.000
       290   09 Jun 2027 03:05:22.694   09 Jun 2027 03:05:24.338             1.644           822.000
       291   09 Jun 2027 04:37:14.212   09 Jun 2027 04:39:02.790           108.578         54289.000
       292   09 Jun 2027 04:39:33.438   09 Jun 2027 04:40:52.515            79.077         39538.500
       293   09 Jun 2027 04:41:21.435   09 Jun 2027 04:41:21.435             0.000             0.000
       294   09 Jun 2027 06:00:54.554   09 Jun 2027 06:01:29.406            34.852         15888.625
       295   09 Jun 2027 07:37:21.094   09 Jun 2027 07:37:36.576            15.482          5157.469
       296   09 Jun 2027 07:38:14.286   09 Jun 2027 07:38:17.918             3.632           865.844
       297   09 Jun 2027 07:38:45.906   09 Jun 2027 07:38:49.110             3.204           840.031
       298   09 Jun 2027 07:39:16.636   09 Jun 2027 07:39:17.932             1.296            72.875
       299   09 Jun 2027 07:40:11.290   09 Jun 2027 07:40:14.743             3.453          1639.250
       300   09 Jun 2027 09:09:30.987   09 Jun 2027 09:09:38.582             7.595          3696.375
       301   09 Jun 2027 09:13:04.928   09 Jun 2027 09:13:14.106             9.178          4589.000
       302   09 Jun 2027 09:14:04.525   09 Jun 2027 09:14:14.951            10.426          1914.875
       303   09 Jun 2027 09:14:56.190   09 Jun 2027 09:14:59.942             3.752           988.344
       304   09 Jun 2027 09:17:45.319   09 Jun 2027 09:17:54.709             9.390          4695.000
       305   09 Jun 2027 09:18:08.623   09 Jun 2027 09:18:12.135             3.512           445.969
       306   09 Jun 2027 09:19:02.838   09 Jun 2027 09:19:07.142             4.304          1584.469
       307   09 Jun 2027 09:19:10.097   09 Jun 2027 09:19:12.038             1.941            73.250
       308   09 Jun 2027 10:48:24.662   09 Jun 2027 10:48:40.433            15.771          7376.688
       309   09 Jun 2027 10:49:09.031   09 Jun 2027 10:49:13.494             4.463           893.687
       310   09 Jun 2027 10:50:33.243   09 Jun 2027 10:50:34.657             1.414           435.844
       311   09 Jun 2027 10:50:53.588   09 Jun 2027 10:50:54.926             1.338           384.656
       312   09 Jun 2027 10:51:28.450   09 Jun 2027 10:51:36.905             8.455           861.313
       313   09 Jun 2027 10:52:06.747   09 Jun 2027 10:52:16.996            10.249           869.031
       314   09 Jun 2027 10:52:53.589   09 Jun 2027 10:53:00.201             6.612           772.594
       315   09 Jun 2027 10:53:16.895   09 Jun 2027 10:53:18.501             1.606           465.969
       316   09 Jun 2027 10:54:30.300   09 Jun 2027 10:54:36.268             5.968          2134.781
       317   09 Jun 2027 10:55:00.179   09 Jun 2027 10:55:01.784             1.605           747.219
       318   10 Jun 2027 03:11:20.591   10 Jun 2027 03:12:23.343            62.752         31376.000
       319   10 Jun 2027 03:12:29.984   10 Jun 2027 03:13:49.240            79.256         39628.000
       320   10 Jun 2027 03:14:29.683   10 Jun 2027 03:14:52.737            23.054         11527.000
       321   10 Jun 2027 03:16:12.520   10 Jun 2027 03:16:24.555            12.035          6017.500
       322   10 Jun 2027 03:16:53.691   10 Jun 2027 03:16:58.089             4.398          2199.000
       323   10 Jun 2027 04:50:27.671   10 Jun 2027 04:51:44.057            76.386         38193.000
       324   10 Jun 2027 04:52:24.167   10 Jun 2027 04:52:56.308            32.141         16070.500
       325   10 Jun 2027 04:53:50.285   10 Jun 2027 04:54:00.915            10.630          5315.000
       326   10 Jun 2027 06:13:00.119   10 Jun 2027 06:13:12.023            11.904          5942.594
       327   10 Jun 2027 06:15:08.212   10 Jun 2027 06:15:15.326             7.114          3296.469
       328   10 Jun 2027 06:15:42.892   10 Jun 2027 06:15:42.892             0.000             0.000
       329   10 Jun 2027 06:15:55.244   10 Jun 2027 06:15:58.667             3.423          1247.438
       330   10 Jun 2027 07:49:46.404   10 Jun 2027 07:49:57.819            11.415          5228.438
       331   10 Jun 2027 07:50:28.860   10 Jun 2027 07:50:28.860             0.000             0.000
       332   10 Jun 2027 07:50:37.086   10 Jun 2027 07:50:39.682             2.596           448.813
       333   10 Jun 2027 07:51:01.888   10 Jun 2027 07:51:04.592             2.704           693.938
       334   10 Jun 2027 07:51:10.819   10 Jun 2027 07:51:14.017             3.198           194.594
       335   10 Jun 2027 07:52:49.977   10 Jun 2027 07:52:57.253             7.276          2455.375
       336   10 Jun 2027 09:24:36.720   10 Jun 2027 09:24:44.162             7.442          3693.594
       337   10 Jun 2027 09:25:48.842   10 Jun 2027 09:25:52.971             4.129          1696.812
       338   10 Jun 2027 09:26:06.161   10 Jun 2027 09:26:07.178             1.017           412.188
       339   10 Jun 2027 09:28:10.410   10 Jun 2027 09:28:10.410             0.000             0.000
       340   10 Jun 2027 09:28:27.357   10 Jun 2027 09:28:30.868             3.511          1755.500
       341   10 Jun 2027 09:28:32.828   10 Jun 2027 09:28:35.691             2.863          1232.000
       342   10 Jun 2027 09:29:14.176   10 Jun 2027 09:29:16.483             2.307           479.125
       343   10 Jun 2027 09:29:25.052   10 Jun 2027 09:29:26.951             1.899           267.781
       344   10 Jun 2027 09:29:55.239   10 Jun 2027 09:29:55.239             0.000             0.000
       345   10 Jun 2027 09:30:40.071   10 Jun 2027 09:30:45.931             5.860          1928.688
       346   10 Jun 2027 09:31:11.551   10 Jun 2027 09:31:13.061             1.510           652.719
       347   10 Jun 2027 11:00:58.473   10 Jun 2027 11:01:11.477            13.004          6357.719
       348   10 Jun 2027 11:02:42.044   10 Jun 2027 11:02:47.387             5.343          2223.875
       349   10 Jun 2027 11:03:08.571   10 Jun 2027 11:03:12.045             3.474           662.000
       350   10 Jun 2027 11:03:36.439   10 Jun 2027 11:03:40.423             3.984           762.312
       351   10 Jun 2027 11:04:11.629   10 Jun 2027 11:04:13.274             1.645           822.500
       352   10 Jun 2027 11:04:30.929   10 Jun 2027 11:04:34.463             3.534           668.625
       353   10 Jun 2027 11:05:00.568   10 Jun 2027 11:05:01.961             1.393           290.719
       354   10 Jun 2027 11:06:59.587   10 Jun 2027 11:07:07.296             7.709          3597.969
       355   11 Jun 2027 03:23:22.714   11 Jun 2027 03:24:03.278            40.564         20282.000
       356   11 Jun 2027 03:24:27.534   11 Jun 2027 03:26:47.270           139.736         69868.000
       357   11 Jun 2027 03:28:17.508   11 Jun 2027 03:28:54.361            36.853         18426.500
       358   11 Jun 2027 03:29:20.299   11 Jun 2027 03:29:30.345            10.046          5023.000
       359   11 Jun 2027 05:01:34.894   11 Jun 2027 05:02:12.962            38.068         19034.000
       360   11 Jun 2027 05:02:26.249   11 Jun 2027 05:03:05.263            39.014         18711.219
       361   11 Jun 2027 05:03:53.266   11 Jun 2027 05:03:55.673             2.407          1203.500
       362   11 Jun 2027 05:04:22.962   11 Jun 2027 05:04:25.146             2.184          1042.625
       363   11 Jun 2027 05:04:34.160   11 Jun 2027 05:04:34.817             0.657           264.531
       364   11 Jun 2027 05:04:50.425   11 Jun 2027 05:04:55.184             4.759           432.375
       365   11 Jun 2027 06:25:03.214   11 Jun 2027 06:25:14.359            11.145          5349.344
       366   11 Jun 2027 06:25:56.234   11 Jun 2027 06:25:58.906             2.672          1129.312
       367   11 Jun 2027 06:26:25.109   11 Jun 2027 06:26:26.995             1.886           818.844
       368   11 Jun 2027 06:27:43.372   11 Jun 2027 06:27:49.000             5.628          2190.531
       369   11 Jun 2027 06:28:04.814   11 Jun 2027 06:28:10.758             5.944           264.094
       370   11 Jun 2027 08:01:32.005   11 Jun 2027 08:01:40.056             8.051          2528.687
       371   11 Jun 2027 08:02:30.360   11 Jun 2027 08:02:34.195             3.835          1572.000
       372   11 Jun 2027 08:03:28.097   11 Jun 2027 08:03:31.080             2.983          1217.000
       373   11 Jun 2027 08:04:09.337   11 Jun 2027 08:04:09.337             0.000             0.000
       374   11 Jun 2027 08:04:54.272   11 Jun 2027 08:04:57.477             3.205          1602.500
       375   11 Jun 2027 09:36:43.976   11 Jun 2027 09:36:57.930            13.954          4788.594
       376   11 Jun 2027 09:37:36.397   11 Jun 2027 09:37:38.928             2.531           684.812
       377   11 Jun 2027 09:38:11.340   11 Jun 2027 09:38:15.712             4.372           239.438
       378   11 Jun 2027 09:39:06.293   11 Jun 2027 09:39:14.227             7.934          1484.156
       379   11 Jun 2027 09:40:41.899   11 Jun 2027 09:40:47.868             5.969          2441.969
       380   11 Jun 2027 09:41:00.104   11 Jun 2027 09:41:01.650             1.546           372.375
       381   11 Jun 2027 09:41:44.620   11 Jun 2027 09:41:49.023             4.403           619.344
       382   11 Jun 2027 09:42:13.704   11 Jun 2027 09:42:18.139             4.435           705.750
       383   11 Jun 2027 09:42:52.740   11 Jun 2027 09:42:57.655             4.915           453.594
       384   11 Jun 2027 09:43:07.783   11 Jun 2027 09:43:12.731             4.948           139.563
       385   11 Jun 2027 11:12:39.203   11 Jun 2027 11:12:52.334            13.131          6162.531
       386   11 Jun 2027 11:13:39.029   11 Jun 2027 11:13:40.470             1.441           342.250
       387   11 Jun 2027 11:13:42.021   11 Jun 2027 11:13:44.874             2.853            27.656
       388   11 Jun 2027 11:14:40.281   11 Jun 2027 11:14:42.064             1.783           891.500
       389   11 Jun 2027 11:15:07.547   11 Jun 2027 11:15:12.454             4.907          1312.531
       390   11 Jun 2027 11:16:19.955   11 Jun 2027 11:16:24.817             4.862          1983.750
       391   11 Jun 2027 11:16:44.307   11 Jun 2027 11:16:46.388             2.081           487.688
       392   11 Jun 2027 11:17:05.679   11 Jun 2027 11:17:14.247             8.568           490.344
       393   11 Jun 2027 11:17:24.085   11 Jun 2027 11:17:27.175             3.090           195.656
       394   11 Jun 2027 11:17:45.435   11 Jun 2027 11:17:46.949             1.514           570.625
       395   11 Jun 2027 11:18:34.101   11 Jun 2027 11:18:40.542             6.441          1406.156
       396   12 Jun 2027 03:36:27.434   12 Jun 2027 03:40:11.437           224.003        112001.500
       397   12 Jun 2027 03:40:20.895   12 Jun 2027 03:40:20.895             0.000             0.000
       398   12 Jun 2027 03:42:38.892   12 Jun 2027 03:42:44.634             5.742          2871.000
       399   12 Jun 2027 03:43:22.786   12 Jun 2027 03:44:14.904            52.118         26059.000
       400   12 Jun 2027 05:02:40.182   12 Jun 2027 05:03:02.486            22.304         11152.000
       401   12 Jun 2027 05:13:32.377   12 Jun 2027 05:14:13.767            41.390         17110.312
       402   12 Jun 2027 05:14:49.979   12 Jun 2027 05:14:53.185             3.206          1044.000
       403   12 Jun 2027 05:15:53.383   12 Jun 2027 05:15:57.308             3.925          1192.906
       404   12 Jun 2027 05:16:21.792   12 Jun 2027 05:16:23.278             1.486           702.281
       405   12 Jun 2027 05:16:38.010   12 Jun 2027 05:16:39.950             1.940           258.094
       406   12 Jun 2027 05:17:01.224   12 Jun 2027 05:17:02.119             0.895           447.500
       407   12 Jun 2027 06:37:30.040   12 Jun 2027 06:37:45.470            15.430          4571.938
       408   12 Jun 2027 06:38:24.885   12 Jun 2027 06:38:27.945             3.060          1228.437
       409   12 Jun 2027 06:39:36.173   12 Jun 2027 06:39:43.355             7.182          1888.594
       410   12 Jun 2027 06:40:01.376   12 Jun 2027 06:40:02.559             1.183           563.156
       411   12 Jun 2027 08:13:15.936   12 Jun 2027 08:13:26.321            10.385          3731.719
       412   12 Jun 2027 08:15:32.069   12 Jun 2027 08:15:40.345             8.276          3776.469
       413   12 Jun 2027 08:16:02.231   12 Jun 2027 08:16:03.920             1.689           572.688
       414   12 Jun 2027 08:16:32.351   12 Jun 2027 08:16:35.302             2.951           888.469
       415   12 Jun 2027 08:16:46.744   12 Jun 2027 08:16:48.530             1.786            21.781
       416   12 Jun 2027 09:47:58.845   12 Jun 2027 09:48:09.674            10.829          4332.625
       417   12 Jun 2027 09:49:07.270   12 Jun 2027 09:49:10.971             3.701          1036.250
       418   12 Jun 2027 09:50:49.375   12 Jun 2027 09:50:49.375             0.000             0.000
       419   12 Jun 2027 09:51:21.906   12 Jun 2027 09:51:27.000             5.094          2302.750
       420   12 Jun 2027 09:52:32.368   12 Jun 2027 09:52:46.193            13.825          2042.750
       421   12 Jun 2027 09:53:02.180   12 Jun 2027 09:53:03.511             1.331           498.188
       422   12 Jun 2027 09:53:34.721   12 Jun 2027 09:53:36.193             1.472           239.656
       423   12 Jun 2027 09:53:50.708   12 Jun 2027 09:53:50.708             0.000             0.000
       424   12 Jun 2027 09:54:14.794   12 Jun 2027 09:54:23.295             8.501          1021.594
       425   12 Jun 2027 09:54:33.611   12 Jun 2027 09:54:35.265             1.654           251.906
       426   12 Jun 2027 09:55:04.504   12 Jun 2027 09:55:04.504             0.000             0.000
       427   12 Jun 2027 09:55:12.361   12 Jun 2027 09:55:16.759             4.398           969.219
       428   12 Jun 2027 11:24:45.624   12 Jun 2027 11:25:00.806            15.182          7360.312
       429   12 Jun 2027 11:25:16.775   12 Jun 2027 11:25:22.378             5.603           369.813
       430   12 Jun 2027 11:26:31.760   12 Jun 2027 11:26:32.461             0.701            49.781
       431   12 Jun 2027 11:26:51.425   12 Jun 2027 11:26:53.204             1.779           434.781
       432   12 Jun 2027 11:27:38.042   12 Jun 2027 11:27:43.327             5.285           872.906
       433   12 Jun 2027 11:28:31.906   12 Jun 2027 11:28:35.089             3.183          1486.844
       434   12 Jun 2027 11:29:06.887   12 Jun 2027 11:29:08.252             1.365           506.875
       435   12 Jun 2027 11:29:38.758   12 Jun 2027 11:29:44.242             5.484           889.875
       436   13 Jun 2027 03:48:48.307   13 Jun 2027 03:51:27.365           159.058         79529.000
       437   13 Jun 2027 03:51:51.914   13 Jun 2027 03:51:59.747             7.833          3916.500
       438   13 Jun 2027 03:52:37.202   13 Jun 2027 03:53:03.076            25.874         12937.000
       439   13 Jun 2027 03:53:23.898   13 Jun 2027 03:53:46.829            22.931         11465.500
       440   13 Jun 2027 03:54:43.253   13 Jun 2027 03:54:46.388             3.135          1567.500
       441   13 Jun 2027 03:55:38.704   13 Jun 2027 03:56:09.235            30.531         15265.500
       442   13 Jun 2027 05:13:55.175   13 Jun 2027 05:14:09.170            13.995          6997.500
       443   13 Jun 2027 05:15:15.045   13 Jun 2027 05:15:18.039             2.994          1497.000
       444   13 Jun 2027 05:25:32.851   13 Jun 2027 05:26:35.821            62.970         30912.469
       445   13 Jun 2027 06:48:06.918   13 Jun 2027 06:48:28.670            21.752          8112.563
       446   13 Jun 2027 06:49:46.009   13 Jun 2027 06:49:48.435             2.426           851.844
       447   13 Jun 2027 06:51:42.750   13 Jun 2027 06:51:55.591            12.841          3188.938
       448   13 Jun 2027 06:52:30.132   13 Jun 2027 06:52:30.132             0.000             0.000
       449   13 Jun 2027 06:52:44.015   13 Jun 2027 06:52:45.733             1.718           859.000
       450   13 Jun 2027 08:23:10.963   13 Jun 2027 08:23:20.532             9.569          4108.344
       451   13 Jun 2027 08:24:18.676   13 Jun 2027 08:24:22.401             3.725          1817.000
       452   13 Jun 2027 08:25:18.710   13 Jun 2027 08:25:21.879             3.169          1574.844
       453   13 Jun 2027 08:25:51.385   13 Jun 2027 08:25:53.096             1.711           769.094
       454   13 Jun 2027 08:27:52.061   13 Jun 2027 08:27:52.061             0.000             0.000
       455   13 Jun 2027 08:28:03.907   13 Jun 2027 08:28:11.226             7.319          3478.063
       456   13 Jun 2027 08:29:11.010   13 Jun 2027 08:29:12.821             1.811           905.500
       457   13 Jun 2027 10:00:05.816   13 Jun 2027 10:00:15.442             9.626          4265.594
       458   13 Jun 2027 10:01:18.172   13 Jun 2027 10:01:24.508             6.336            80.906
       459   13 Jun 2027 10:01:42.237   13 Jun 2027 10:01:49.520             7.283           554.031
       460   13 Jun 2027 10:04:38.759   13 Jun 2027 10:04:49.367            10.608          4695.281
       461   13 Jun 2027 10:05:02.056   13 Jun 2027 10:05:03.197             1.141           373.594
       462   13 Jun 2027 10:05:13.935   13 Jun 2027 10:05:16.252             2.317           335.562
       463   13 Jun 2027 10:05:37.199   13 Jun 2027 10:05:37.868             0.669           272.250
       464   13 Jun 2027 10:05:58.724   13 Jun 2027 10:06:01.703             2.979           625.750
       465   13 Jun 2027 10:06:55.060   13 Jun 2027 10:07:02.385             7.325          1385.844
       466   13 Jun 2027 10:07:22.637   13 Jun 2027 10:07:26.883             4.246           573.000
       467   13 Jun 2027 11:37:06.078   13 Jun 2027 11:37:19.389            13.311          6655.500
       468   13 Jun 2027 11:37:50.823   13 Jun 2027 11:37:55.430             4.607          1465.437
       469   13 Jun 2027 11:38:37.036   13 Jun 2027 11:38:41.155             4.119           635.250
       470   13 Jun 2027 11:38:52.918   13 Jun 2027 11:38:54.403             1.485           194.156
       471   13 Jun 2027 11:39:12.130   13 Jun 2027 11:39:15.510             3.380           388.344
       472   13 Jun 2027 11:39:43.803   13 Jun 2027 11:39:44.316             0.513           256.500
       473   13 Jun 2027 11:40:20.718   13 Jun 2027 11:40:24.348             3.630          1765.219
       474   13 Jun 2027 11:40:28.669   13 Jun 2027 11:40:28.669             0.000             0.000
       475   13 Jun 2027 11:41:09.817   13 Jun 2027 11:41:13.276             3.459          1420.906
       476   13 Jun 2027 11:42:14.011   13 Jun 2027 11:42:18.030             4.019          1897.969
       477   13 Jun 2027 11:43:09.821   13 Jun 2027 11:43:14.792             4.971          1585.531
