uniorb/output/strategy_2/Camera/Camera_KinoSat_111802.txt

KinoSat_111802
-------------------------
    Access    *     Start Time (UTCG)     *     Stop Time (UTCG)  *   Duration (s) *   Data (Mbytes)
         1   01 Jun 2027 03:34:07.685   01 Jun 2027 03:36:20.440           132.755         66377.500
         2   01 Jun 2027 03:36:41.932   01 Jun 2027 03:37:37.329            55.397         27698.500
         3   01 Jun 2027 03:38:25.937   01 Jun 2027 03:39:21.994            56.057         28028.500
         4   01 Jun 2027 03:39:58.455   01 Jun 2027 03:40:11.417            12.962          6481.000
         5   01 Jun 2027 05:13:11.667   01 Jun 2027 05:13:39.798            28.131         14065.500
         6   01 Jun 2027 05:13:59.529   01 Jun 2027 05:15:33.982            94.453         47226.500
         7   01 Jun 2027 05:15:38.481   01 Jun 2027 05:16:00.424            21.943         10971.500
         8   01 Jun 2027 05:16:24.873   01 Jun 2027 05:16:31.161             6.288          3144.000
         9   01 Jun 2027 05:18:31.330   01 Jun 2027 05:18:31.330             0.000             0.000
        10   01 Jun 2027 05:19:01.088   01 Jun 2027 05:19:01.088             0.000             0.000
        11   01 Jun 2027 05:20:00.592   01 Jun 2027 05:20:18.143            17.551          8775.500
        12   01 Jun 2027 06:38:00.939   01 Jun 2027 06:38:39.761            38.822         19411.000
        13   01 Jun 2027 06:49:40.894   01 Jun 2027 06:50:39.774            58.880         29440.000
        14   01 Jun 2027 08:11:58.852   01 Jun 2027 08:13:05.244            66.392         33196.000
        15   01 Jun 2027 08:13:52.795   01 Jun 2027 08:14:46.732            53.937         26968.500
        16   01 Jun 2027 08:16:51.127   01 Jun 2027 08:17:12.354            21.227         10613.500
        17   01 Jun 2027 09:47:27.708   01 Jun 2027 09:47:52.967            25.259         12629.500
        18   01 Jun 2027 09:49:20.026   01 Jun 2027 09:49:20.026             0.000             0.000
        19   01 Jun 2027 11:24:24.951   01 Jun 2027 11:25:59.786            94.835         47417.500
        20   01 Jun 2027 11:30:37.819   01 Jun 2027 11:31:44.629            66.810         33405.000
        21   02 Jun 2027 03:46:34.984   02 Jun 2027 03:46:52.919            17.935          8967.500
        22   02 Jun 2027 03:47:00.492   02 Jun 2027 03:47:30.247            29.755         14877.500
        23   02 Jun 2027 03:47:35.163   02 Jun 2027 03:47:35.331             0.168            84.000
        24   02 Jun 2027 03:48:34.985   02 Jun 2027 03:51:38.352           183.367         91683.500
        25   02 Jun 2027 03:51:49.483   02 Jun 2027 03:51:58.620             9.137          4568.500
        26   02 Jun 2027 05:25:16.585   02 Jun 2027 05:26:34.812            78.227         39113.500
        27   02 Jun 2027 05:27:26.817   02 Jun 2027 05:27:51.483            24.666         12333.000
        28   02 Jun 2027 05:28:56.217   02 Jun 2027 05:28:56.217             0.000             0.000
        29   02 Jun 2027 05:30:26.042   02 Jun 2027 05:30:36.775            10.733          5366.500
        30   02 Jun 2027 05:31:02.820   02 Jun 2027 05:31:02.820             0.000             0.000
        31   02 Jun 2027 05:31:04.349   02 Jun 2027 05:31:49.276            44.927         22463.500
        32   02 Jun 2027 05:32:05.891   02 Jun 2027 05:32:05.891             0.000             0.000
        33   02 Jun 2027 06:49:34.681   02 Jun 2027 06:50:57.978            83.297         41648.500
        34   02 Jun 2027 06:51:21.856   02 Jun 2027 06:51:21.856             0.000             0.000
        35   02 Jun 2027 07:01:56.460   02 Jun 2027 07:02:14.253            17.793          8896.500
        36   02 Jun 2027 08:23:30.788   02 Jun 2027 08:24:50.918            80.130         40065.000
        37   02 Jun 2027 08:25:52.658   02 Jun 2027 08:26:09.270            16.612          6031.437
        38   02 Jun 2027 08:27:48.707   02 Jun 2027 08:27:54.430             5.723          2809.500
        39   02 Jun 2027 09:58:23.894   02 Jun 2027 09:58:35.587            11.693          5825.750
        40   02 Jun 2027 10:00:40.939   02 Jun 2027 10:00:42.879             1.940           970.000
        41   02 Jun 2027 10:05:09.781   02 Jun 2027 10:05:23.476            13.695          6847.500
        42   02 Jun 2027 10:06:25.633   02 Jun 2027 10:06:29.255             3.622          1811.000
        43   02 Jun 2027 11:36:19.987   02 Jun 2027 11:36:25.965             5.978          2989.000
        44   02 Jun 2027 11:42:11.366   02 Jun 2027 11:42:39.461            28.095         13420.469
        45   02 Jun 2027 11:42:58.021   02 Jun 2027 11:42:59.514             1.493           580.000
        46   02 Jun 2027 11:43:41.008   02 Jun 2027 11:43:44.672             3.664          1003.375
        47   03 Jun 2027 03:59:10.967   03 Jun 2027 03:59:23.555            12.588          6294.000
        48   03 Jun 2027 03:59:33.954   03 Jun 2027 04:00:34.452            60.498         30249.000
        49   03 Jun 2027 04:00:42.723   03 Jun 2027 04:01:10.244            27.521         13760.500
        50   03 Jun 2027 04:01:19.921   03 Jun 2027 04:03:05.237           105.316         52658.000
        51   03 Jun 2027 04:03:46.053   03 Jun 2027 04:03:50.174             4.121          2060.500
        52   03 Jun 2027 05:37:42.126   03 Jun 2027 05:39:21.231            99.105         49552.500
        53   03 Jun 2027 05:39:42.261   03 Jun 2027 05:39:53.789            11.528          5764.000
        54   03 Jun 2027 05:40:06.933   03 Jun 2027 05:40:14.607             7.674          2606.438
        55   03 Jun 2027 05:41:25.863   03 Jun 2027 05:41:32.751             6.888          1787.750
        56   03 Jun 2027 05:42:37.381   03 Jun 2027 05:42:40.588             3.207          1382.563
        57   03 Jun 2027 07:01:30.526   03 Jun 2027 07:01:53.485            22.959          6536.375
        58   03 Jun 2027 07:02:36.922   03 Jun 2027 07:02:40.943             4.021          1345.062
        59   03 Jun 2027 07:02:42.944   03 Jun 2027 07:02:44.387             1.443            14.594
        60   03 Jun 2027 07:03:12.362   03 Jun 2027 07:03:12.362             0.000             0.000
        61   03 Jun 2027 07:03:20.500   03 Jun 2027 07:03:22.626             2.126           309.594
        62   03 Jun 2027 08:37:30.271   03 Jun 2027 08:37:42.778            12.507          6253.500
        63   03 Jun 2027 08:37:50.695   03 Jun 2027 08:37:56.986             6.291          2242.906
        64   03 Jun 2027 08:37:59.170   03 Jun 2027 08:37:59.170             0.000             0.000
        65   03 Jun 2027 08:38:20.253   03 Jun 2027 08:38:21.687             1.434           686.187
        66   03 Jun 2027 08:38:58.450   03 Jun 2027 08:39:01.330             2.880          1004.312
        67   03 Jun 2027 08:39:46.102   03 Jun 2027 08:39:48.798             2.696          1319.906
        68   03 Jun 2027 08:40:17.280   03 Jun 2027 08:40:21.637             4.357            66.437
        69   03 Jun 2027 10:11:17.776   03 Jun 2027 10:11:29.794            12.018          4875.469
        70   03 Jun 2027 10:12:29.227   03 Jun 2027 10:12:39.143             9.916           735.750
        71   03 Jun 2027 10:13:34.765   03 Jun 2027 10:13:34.765             0.000             0.000
        72   03 Jun 2027 10:16:07.393   03 Jun 2027 10:16:21.741            14.348          5878.875
        73   03 Jun 2027 10:16:52.590   03 Jun 2027 10:16:54.475             1.885           858.719
        74   03 Jun 2027 10:17:24.670   03 Jun 2027 10:17:28.695             4.025           766.969
        75   03 Jun 2027 10:17:56.224   03 Jun 2027 10:18:04.606             8.382           638.187
        76   03 Jun 2027 11:48:32.386   03 Jun 2027 11:48:52.404            20.018          8445.844
        77   03 Jun 2027 11:50:56.664   03 Jun 2027 11:51:00.090             3.426          1713.000
        78   03 Jun 2027 11:53:24.538   03 Jun 2027 11:53:40.636            16.098          6556.188
        79   03 Jun 2027 11:54:41.418   03 Jun 2027 11:54:46.872             5.454          1819.031
        80   03 Jun 2027 11:55:09.239   03 Jun 2027 11:55:09.239             0.000             0.000
        81   04 Jun 2027 04:11:44.176   04 Jun 2027 04:12:11.028            26.852         13426.000
        82   04 Jun 2027 04:12:21.898   04 Jun 2027 04:14:11.418           109.520         54760.000
        83   04 Jun 2027 04:14:14.926   04 Jun 2027 04:14:30.438            15.512          7756.000
        84   04 Jun 2027 04:14:54.425   04 Jun 2027 04:15:23.139            28.714         14357.000
        85   04 Jun 2027 04:15:43.890   04 Jun 2027 04:15:52.151             8.261          4130.500
        86   04 Jun 2027 04:16:14.730   04 Jun 2027 04:16:14.730             0.000             0.000
        87   04 Jun 2027 04:17:04.007   04 Jun 2027 04:17:16.329            12.322          6161.000
        88   04 Jun 2027 05:50:00.765   04 Jun 2027 05:51:52.246           111.481         55740.500
        89   04 Jun 2027 05:52:32.067   04 Jun 2027 05:52:42.049             9.982          4319.282
        90   04 Jun 2027 05:52:44.122   04 Jun 2027 05:52:44.961             0.839             1.594
        91   04 Jun 2027 07:13:22.750   04 Jun 2027 07:13:42.718            19.968          8870.344
        92   04 Jun 2027 07:14:44.301   04 Jun 2027 07:14:47.897             3.596          1787.375
        93   04 Jun 2027 07:15:05.082   04 Jun 2027 07:15:07.607             2.525           469.906
        94   04 Jun 2027 07:15:18.416   04 Jun 2027 07:15:21.780             3.364           316.187
        95   04 Jun 2027 07:15:40.542   04 Jun 2027 07:15:42.025             1.483           456.906
        96   04 Jun 2027 08:49:44.321   04 Jun 2027 08:50:07.533            23.212          9300.531
        97   04 Jun 2027 08:52:32.871   04 Jun 2027 08:52:42.673             9.802          4318.406
        98   04 Jun 2027 10:22:02.721   04 Jun 2027 10:22:14.033            11.312          5591.656
        99   04 Jun 2027 10:25:32.943   04 Jun 2027 10:25:45.539            12.596          6182.719
       100   04 Jun 2027 10:29:03.543   04 Jun 2027 10:29:12.730             9.187          4593.500
       101   04 Jun 2027 10:30:26.109   04 Jun 2027 10:30:31.295             5.186          2593.000
       102   04 Jun 2027 10:30:58.082   04 Jun 2027 10:31:03.472             5.390          2131.313
       103   04 Jun 2027 10:31:10.310   04 Jun 2027 10:31:12.098             1.788           213.688
       104   04 Jun 2027 10:31:32.067   04 Jun 2027 10:31:34.958             2.891           605.844
       105   04 Jun 2027 10:31:45.855   04 Jun 2027 10:31:45.979             0.124            62.000
       106   05 Jun 2027 04:23:50.590   05 Jun 2027 04:24:52.201            61.611         30805.500
       107   05 Jun 2027 04:24:58.162   05 Jun 2027 04:27:07.478           129.316         64658.000
       108   05 Jun 2027 04:27:21.991   05 Jun 2027 04:27:47.086            25.095         12547.500
       109   05 Jun 2027 04:28:05.892   05 Jun 2027 04:28:34.855            28.963         14481.500
       110   05 Jun 2027 04:29:05.745   05 Jun 2027 04:29:08.379             2.634          1317.000
       111   05 Jun 2027 04:29:16.148   05 Jun 2027 04:29:18.437             2.289          1144.500
       112   05 Jun 2027 04:29:23.434   05 Jun 2027 04:29:23.434             0.000             0.000
       113   05 Jun 2027 06:02:53.687   05 Jun 2027 06:04:17.832            84.145         40615.719
       114   05 Jun 2027 06:05:04.976   05 Jun 2027 06:05:11.692             6.716          1379.031
       115   05 Jun 2027 07:25:26.189   05 Jun 2027 07:25:37.708            11.519          5759.500
       116   05 Jun 2027 07:26:45.429   05 Jun 2027 07:26:51.784             6.355          2641.906
       117   05 Jun 2027 07:27:13.168   05 Jun 2027 07:27:14.470             1.302           409.188
       118   05 Jun 2027 09:01:51.573   05 Jun 2027 09:02:12.358            20.785          6938.188
       119   05 Jun 2027 09:04:32.598   05 Jun 2027 09:04:41.902             9.304          4168.313
       120   05 Jun 2027 10:37:38.347   05 Jun 2027 10:37:53.255            14.908          6383.375
       121   05 Jun 2027 10:43:02.113   05 Jun 2027 10:43:14.913            12.800          6400.000
       122   05 Jun 2027 10:43:41.216   05 Jun 2027 10:43:47.031             5.815          2907.500
       123   06 Jun 2027 03:00:00.000   06 Jun 2027 03:00:09.158             9.158          4579.000
       124   06 Jun 2027 03:00:51.422   06 Jun 2027 03:01:19.001            27.579         13789.500
       125   06 Jun 2027 03:01:52.346   06 Jun 2027 03:02:10.210            17.864          8932.000
       126   06 Jun 2027 03:03:10.118   06 Jun 2027 03:03:48.100            37.982         18991.000
       127   06 Jun 2027 04:35:49.396   06 Jun 2027 04:36:34.840            45.444         22722.000
       128   06 Jun 2027 04:36:55.649   06 Jun 2027 04:38:38.004           102.355         51177.500
       129   06 Jun 2027 04:39:08.271   06 Jun 2027 04:39:58.023            49.752         24876.000
       130   06 Jun 2027 06:14:02.872   06 Jun 2027 06:14:25.476            22.604         11302.000
       131   06 Jun 2027 06:14:30.598   06 Jun 2027 06:14:45.608            15.010          7391.094
       132   06 Jun 2027 06:14:53.241   06 Jun 2027 06:14:54.878             1.637           190.594
       133   06 Jun 2027 06:16:15.118   06 Jun 2027 06:16:22.438             7.320          2340.156
       134   06 Jun 2027 06:17:25.727   06 Jun 2027 06:17:25.727             0.000             0.000
       135   06 Jun 2027 06:17:35.056   06 Jun 2027 06:17:35.056             0.000             0.000
       136   06 Jun 2027 07:37:24.054   06 Jun 2027 07:37:39.304            15.250          7346.125
       137   06 Jun 2027 07:38:27.401   06 Jun 2027 07:38:30.707             3.306           988.375
       138   06 Jun 2027 07:39:44.087   06 Jun 2027 07:39:51.160             7.073          1806.688
       139   06 Jun 2027 07:40:18.220   06 Jun 2027 07:40:20.602             2.382           335.781
       140   06 Jun 2027 09:14:13.269   06 Jun 2027 09:14:32.386            19.117          9007.281
       141   06 Jun 2027 09:16:31.682   06 Jun 2027 09:16:38.568             6.886          2384.281
       142   06 Jun 2027 09:17:02.478   06 Jun 2027 09:17:06.402             3.924            76.531
       143   06 Jun 2027 10:49:11.204   06 Jun 2027 10:49:24.090            12.886          5377.313
       144   06 Jun 2027 10:52:01.290   06 Jun 2027 10:52:01.290             0.000             0.000
       145   06 Jun 2027 10:52:18.365   06 Jun 2027 10:52:28.430            10.065          5032.500
       146   06 Jun 2027 10:55:33.326   06 Jun 2027 10:55:45.662            12.336          6106.062
       147   07 Jun 2027 03:09:37.291   07 Jun 2027 03:10:00.042            22.751         11375.500
       148   07 Jun 2027 03:10:01.876   07 Jun 2027 03:11:49.448           107.572         53786.000
       149   07 Jun 2027 03:12:54.849   07 Jun 2027 03:12:59.932             5.083          2541.500
       150   07 Jun 2027 03:13:22.290   07 Jun 2027 03:13:53.908            31.618         15809.000
       151   07 Jun 2027 03:15:51.005   07 Jun 2027 03:15:54.065             3.060          1530.000
       152   07 Jun 2027 03:16:02.352   07 Jun 2027 03:16:04.711             2.359          1179.500
       153   07 Jun 2027 04:48:54.768   07 Jun 2027 04:50:22.269            87.501         43750.500
       154   07 Jun 2027 04:51:23.622   07 Jun 2027 04:52:12.010            48.388         24159.094
       155   07 Jun 2027 04:54:02.989   07 Jun 2027 04:54:04.971             1.982           991.000
       156   07 Jun 2027 04:55:10.452   07 Jun 2027 04:55:17.724             7.272          3494.406
       157   07 Jun 2027 04:55:18.309   07 Jun 2027 04:55:20.270             1.961             2.438
       158   07 Jun 2027 04:55:37.647   07 Jun 2027 04:55:41.704             4.057           248.063
       159   07 Jun 2027 06:15:16.003   07 Jun 2027 06:15:21.616             5.613          2806.500
       160   07 Jun 2027 06:26:00.604   07 Jun 2027 06:26:08.541             7.937          3968.500
       161   07 Jun 2027 06:26:09.375   07 Jun 2027 06:26:11.917             2.542           721.219
       162   07 Jun 2027 06:27:21.613   07 Jun 2027 06:27:28.515             6.902          2138.031
       163   07 Jun 2027 06:28:41.601   07 Jun 2027 06:28:48.498             6.897          1041.531
       164   07 Jun 2027 06:29:04.582   07 Jun 2027 06:29:07.782             3.200           502.625
       165   07 Jun 2027 06:29:27.750   07 Jun 2027 06:29:28.294             0.544           156.406
       166   07 Jun 2027 07:50:00.430   07 Jun 2027 07:50:16.551            16.121          5869.063
       167   07 Jun 2027 07:52:07.764   07 Jun 2027 07:52:15.003             7.239          3062.750
       168   07 Jun 2027 09:25:45.229   07 Jun 2027 09:26:00.831            15.602          7388.312
       169   07 Jun 2027 09:26:26.074   07 Jun 2027 09:26:30.446             4.372           784.062
       170   07 Jun 2027 09:27:31.007   07 Jun 2027 09:27:38.001             6.994          1878.156
       171   07 Jun 2027 09:28:29.982   07 Jun 2027 09:28:35.611             5.629          1450.313
       172   07 Jun 2027 11:00:36.910   07 Jun 2027 11:00:48.406            11.496          5594.969
       173   07 Jun 2027 11:01:19.388   07 Jun 2027 11:01:21.821             2.433           865.156
       174   07 Jun 2027 11:02:17.926   07 Jun 2027 11:02:21.212             3.286          1411.156
       175   07 Jun 2027 11:03:47.444   07 Jun 2027 11:03:52.168             4.724          2053.938
       176   07 Jun 2027 11:07:24.709   07 Jun 2027 11:07:39.905            15.196          6608.500
       177   07 Jun 2027 11:07:46.767   07 Jun 2027 11:07:46.990             0.223           111.500
       178   08 Jun 2027 03:22:17.778   08 Jun 2027 03:24:20.835           123.057         61528.500
       179   08 Jun 2027 03:25:02.085   08 Jun 2027 03:25:44.482            42.397         21198.500
       180   08 Jun 2027 03:26:02.203   08 Jun 2027 03:26:34.713            32.510         16255.000
       181   08 Jun 2027 03:27:10.294   08 Jun 2027 03:27:16.183             5.889          2944.500
       182   08 Jun 2027 03:28:38.807   08 Jun 2027 03:28:44.649             5.842          2921.000
       183   08 Jun 2027 05:01:15.502   08 Jun 2027 05:02:58.367           102.865         50600.156
       184   08 Jun 2027 05:04:04.935   08 Jun 2027 05:04:09.674             4.739          2076.500
       185   08 Jun 2027 05:04:19.844   08 Jun 2027 05:04:20.143             0.299            94.094
       186   08 Jun 2027 05:05:06.950   08 Jun 2027 05:05:10.193             3.243           795.094
       187   08 Jun 2027 05:06:06.059   08 Jun 2027 05:06:11.650             5.591          1745.813
       188   08 Jun 2027 05:06:43.271   08 Jun 2027 05:06:47.304             4.033           988.156
       189   08 Jun 2027 05:07:03.204   08 Jun 2027 05:07:05.425             2.221           308.125
       190   08 Jun 2027 05:07:28.356   08 Jun 2027 05:07:31.795             3.439           316.750
       191   08 Jun 2027 06:26:33.045   08 Jun 2027 06:26:46.775            13.730          4796.344
       192   08 Jun 2027 06:37:59.288   08 Jun 2027 06:38:04.438             5.150          2575.000
       193   08 Jun 2027 06:38:13.908   08 Jun 2027 06:38:18.175             4.267          1890.531
       194   08 Jun 2027 06:39:03.883   08 Jun 2027 06:39:06.402             2.519           678.500
       195   08 Jun 2027 08:00:38.497   08 Jun 2027 08:00:49.379            10.882          5054.406
       196   08 Jun 2027 08:02:14.145   08 Jun 2027 08:02:19.482             5.337          1654.313
       197   08 Jun 2027 08:04:07.495   08 Jun 2027 08:04:19.228            11.733          2976.187
       198   08 Jun 2027 08:05:13.091   08 Jun 2027 08:05:16.178             3.087          1516.000
       199   08 Jun 2027 09:35:59.505   08 Jun 2027 09:36:02.798             3.293          1646.500
       200   08 Jun 2027 09:36:42.504   08 Jun 2027 09:36:42.989             0.485           242.500
       201   08 Jun 2027 09:40:15.291   08 Jun 2027 09:40:27.287            11.996          5998.000
       202   08 Jun 2027 11:12:27.912   08 Jun 2027 11:12:47.692            19.780          9890.000
       203   08 Jun 2027 11:13:25.307   08 Jun 2027 11:13:25.307             0.000             0.000
       204   08 Jun 2027 11:15:33.447   08 Jun 2027 11:15:37.614             4.167          2083.500
       205   08 Jun 2027 11:19:11.709   08 Jun 2027 11:19:32.775            21.066         10348.718
       206   08 Jun 2027 11:19:40.376   08 Jun 2027 11:19:43.845             3.469           172.781
       207   09 Jun 2027 03:34:25.952   09 Jun 2027 03:37:01.350           155.398         77699.000
       208   09 Jun 2027 03:37:18.809   09 Jun 2027 03:37:54.859            36.050         18025.000
       209   09 Jun 2027 03:38:41.880   09 Jun 2027 03:38:49.031             7.151          3575.500
       210   09 Jun 2027 03:39:01.538   09 Jun 2027 03:39:38.538            37.000         18500.000
       211   09 Jun 2027 03:40:11.647   09 Jun 2027 03:40:31.699            20.052         10026.000
       212   09 Jun 2027 05:13:31.397   09 Jun 2027 05:14:40.521            69.124         33322.562
       213   09 Jun 2027 05:15:26.713   09 Jun 2027 05:15:32.548             5.835          1443.500
       214   09 Jun 2027 05:15:53.242   09 Jun 2027 05:15:54.315             1.073           536.500
       215   09 Jun 2027 05:15:59.248   09 Jun 2027 05:16:00.567             1.319           264.344
       216   09 Jun 2027 05:17:30.475   09 Jun 2027 05:17:32.026             1.551           775.500
       217   09 Jun 2027 05:18:43.049   09 Jun 2027 05:18:53.639            10.590          3963.406
       218   09 Jun 2027 05:19:16.368   09 Jun 2027 05:19:17.777             1.409           478.719
       219   09 Jun 2027 05:20:14.268   09 Jun 2027 05:20:18.601             4.333          1765.344
       220   09 Jun 2027 06:37:46.807   09 Jun 2027 06:38:03.641            16.834          5367.406
       221   09 Jun 2027 06:38:29.899   09 Jun 2027 06:38:32.264             2.365           504.344
       222   09 Jun 2027 06:38:57.049   09 Jun 2027 06:38:58.302             1.253           422.500
       223   09 Jun 2027 06:39:49.522   09 Jun 2027 06:39:49.522             0.000             0.000
       224   09 Jun 2027 06:49:58.588   09 Jun 2027 06:50:05.406             6.818          3115.719
       225   09 Jun 2027 08:12:14.793   09 Jun 2027 08:12:27.052            12.259          6129.500
       226   09 Jun 2027 08:13:01.298   09 Jun 2027 08:13:05.313             4.015          1578.313
       227   09 Jun 2027 08:14:46.349   09 Jun 2027 08:14:57.252            10.903          3064.969
       228   09 Jun 2027 08:16:27.576   09 Jun 2027 08:16:34.908             7.332          2611.437
       229   09 Jun 2027 09:47:08.570   09 Jun 2027 09:47:22.796            14.226          3840.375
       230   09 Jun 2027 09:48:15.106   09 Jun 2027 09:48:24.262             9.156           982.594
       231   09 Jun 2027 09:50:17.831   09 Jun 2027 09:50:26.582             8.751          3549.031
       232   09 Jun 2027 11:24:42.151   09 Jun 2027 11:25:06.449            24.298          9628.250
       233   09 Jun 2027 11:25:48.241   09 Jun 2027 11:25:51.066             2.825          1236.375
       234   09 Jun 2027 11:27:04.538   09 Jun 2027 11:27:17.006            12.468          2296.000
       235   09 Jun 2027 11:30:53.435   09 Jun 2027 11:31:06.571            13.136          6567.625
       236   09 Jun 2027 11:31:41.161   09 Jun 2027 11:31:47.870             6.709          1080.937
       237   09 Jun 2027 11:32:01.903   09 Jun 2027 11:32:02.307             0.404           202.000
       238   10 Jun 2027 03:46:52.790   10 Jun 2027 03:47:09.396            16.606          8303.000
       239   10 Jun 2027 03:47:18.799   10 Jun 2027 03:47:47.668            28.869         14434.500
       240   10 Jun 2027 03:47:52.390   10 Jun 2027 03:48:46.706            54.316         27158.000
       241   10 Jun 2027 03:48:47.908   10 Jun 2027 03:49:46.449            58.541         29270.500
       242   10 Jun 2027 03:50:35.510   10 Jun 2027 03:51:20.783            45.273         22636.500
       243   10 Jun 2027 03:51:34.238   10 Jun 2027 03:52:03.045            28.807         14403.500
       244   10 Jun 2027 03:52:44.445   10 Jun 2027 03:52:47.972             3.527          1763.500
       245   10 Jun 2027 05:26:14.556   10 Jun 2027 05:27:42.548            87.992         43996.000
       246   10 Jun 2027 05:28:10.599   10 Jun 2027 05:28:12.604             2.005           956.562
       247   10 Jun 2027 05:28:17.382   10 Jun 2027 05:28:20.073             2.691           149.312
       248   10 Jun 2027 05:28:46.814   10 Jun 2027 05:28:48.582             1.768           835.656
       249   10 Jun 2027 05:29:02.396   10 Jun 2027 05:29:04.409             2.013           384.812
       250   10 Jun 2027 05:29:22.895   10 Jun 2027 05:29:30.675             7.780           507.531
       251   10 Jun 2027 05:29:34.772   10 Jun 2027 05:29:35.170             0.398            40.688
       252   10 Jun 2027 05:30:07.699   10 Jun 2027 05:30:09.224             1.525           689.906
       253   10 Jun 2027 05:30:19.689   10 Jun 2027 05:30:24.256             4.567           327.031
       254   10 Jun 2027 05:30:40.895   10 Jun 2027 05:30:40.895             0.000             0.000
       255   10 Jun 2027 05:30:53.955   10 Jun 2027 05:30:53.955             0.000             0.000
       256   10 Jun 2027 05:30:56.067   10 Jun 2027 05:30:57.771             1.704           481.219
       257   10 Jun 2027 05:31:09.783   10 Jun 2027 05:31:12.815             3.032           252.313
       258   10 Jun 2027 05:32:21.678   10 Jun 2027 05:32:27.684             6.006          1851.000
       259   10 Jun 2027 06:49:52.346   10 Jun 2027 06:50:04.763            12.417          6057.000
       260   10 Jun 2027 06:50:37.118   10 Jun 2027 06:50:37.118             0.000             0.000
       261   10 Jun 2027 06:51:46.798   10 Jun 2027 06:51:53.782             6.984          2891.187
       262   10 Jun 2027 07:02:19.865   10 Jun 2027 07:02:25.951             6.086          3043.000
       263   10 Jun 2027 08:23:44.296   10 Jun 2027 08:24:00.069            15.773          6411.031
       264   10 Jun 2027 08:24:55.945   10 Jun 2027 08:25:00.789             4.844          1178.750
       265   10 Jun 2027 08:25:43.900   10 Jun 2027 08:25:45.443             1.543           215.031
       266   10 Jun 2027 08:26:36.089   10 Jun 2027 08:26:41.986             5.897          1326.781
       267   10 Jun 2027 08:27:27.000   10 Jun 2027 08:27:33.454             6.454          1305.594
       268   10 Jun 2027 08:28:49.727   10 Jun 2027 08:28:49.727             0.000             0.000
       269   10 Jun 2027 08:29:05.184   10 Jun 2027 08:29:12.866             7.682          2866.562
       270   10 Jun 2027 09:58:39.263   10 Jun 2027 09:58:47.078             7.815          3812.187
       271   10 Jun 2027 10:00:49.467   10 Jun 2027 10:00:56.535             7.068           511.594
       272   10 Jun 2027 10:01:32.295   10 Jun 2027 10:01:35.118             2.823           993.250
       273   10 Jun 2027 10:07:37.751   10 Jun 2027 10:08:00.871            23.120         10705.469
       274   10 Jun 2027 11:36:36.314   10 Jun 2027 11:36:49.268            12.954          6222.906
       275   10 Jun 2027 11:42:25.950   10 Jun 2027 11:42:46.649            20.699         10349.500
       276   10 Jun 2027 11:43:25.305   10 Jun 2027 11:43:28.157             2.852          1379.813
       277   10 Jun 2027 11:43:41.800   10 Jun 2027 11:43:41.800             0.000             0.000
       278   11 Jun 2027 03:59:29.539   11 Jun 2027 03:59:40.559            11.020          5510.000
       279   11 Jun 2027 03:59:52.206   11 Jun 2027 04:00:53.577            61.371         30685.500
       280   11 Jun 2027 04:00:59.461   11 Jun 2027 04:01:30.625            31.164         15582.000
       281   11 Jun 2027 04:01:37.616   11 Jun 2027 04:03:37.501           119.885         59942.500
       282   11 Jun 2027 04:04:35.465   11 Jun 2027 04:04:46.401            10.936          5468.000
       283   11 Jun 2027 05:38:52.006   11 Jun 2027 05:40:00.730            68.724         34362.000
       284   11 Jun 2027 05:41:28.852   11 Jun 2027 05:41:50.460            21.608         10763.375
       285   11 Jun 2027 07:01:48.956   11 Jun 2027 07:02:09.318            20.362          4877.781
       286   11 Jun 2027 07:02:54.154   11 Jun 2027 07:02:59.183             5.029          1401.125
       287   11 Jun 2027 07:03:59.728   11 Jun 2027 07:03:59.728             0.000             0.000
       288   11 Jun 2027 08:37:47.974   11 Jun 2027 08:37:59.697            11.723          5654.125
       289   11 Jun 2027 08:38:28.509   11 Jun 2027 08:38:28.509             0.000             0.000
       290   11 Jun 2027 08:40:50.347   11 Jun 2027 08:41:00.942            10.595          5253.812
       291   11 Jun 2027 10:11:32.947   11 Jun 2027 10:11:44.088            11.141          5038.844
       292   11 Jun 2027 10:13:18.802   11 Jun 2027 10:13:23.176             4.374          1395.969
       293   11 Jun 2027 10:13:54.282   11 Jun 2027 10:13:55.002             0.720           360.000
       294   11 Jun 2027 10:16:25.000   11 Jun 2027 10:16:25.000             0.000             0.000
       295   11 Jun 2027 10:17:32.562   11 Jun 2027 10:17:48.660            16.098          7238.844
       296   11 Jun 2027 10:18:11.604   11 Jun 2027 10:18:17.109             5.505           569.688
       297   11 Jun 2027 10:18:29.275   11 Jun 2027 10:18:30.467             1.192           157.281
       298   11 Jun 2027 10:18:43.880   11 Jun 2027 10:18:44.119             0.239            20.031
       299   11 Jun 2027 10:18:48.130   11 Jun 2027 10:18:52.644             4.514           125.344
       300   11 Jun 2027 10:19:00.444   11 Jun 2027 10:19:00.884             0.440           111.781
       301   11 Jun 2027 11:48:57.413   11 Jun 2027 11:49:12.192            14.779          7305.562
       302   11 Jun 2027 11:49:27.343   11 Jun 2027 11:49:32.910             5.567           473.469
       303   11 Jun 2027 11:50:13.349   11 Jun 2027 11:50:16.356             3.007           836.188
       304   11 Jun 2027 11:51:06.629   11 Jun 2027 11:51:12.448             5.819          1571.031
       305   11 Jun 2027 11:51:28.256   11 Jun 2027 11:51:29.368             1.112           405.156
       306   11 Jun 2027 11:51:55.370   11 Jun 2027 11:52:05.799            10.429           812.563
       307   11 Jun 2027 11:52:50.216   11 Jun 2027 11:52:58.735             8.519          1159.375
       308   11 Jun 2027 11:53:12.746   11 Jun 2027 11:53:14.091             1.345           214.406
       309   11 Jun 2027 11:54:00.057   11 Jun 2027 11:54:00.206             0.149            74.500
       310   11 Jun 2027 11:55:15.847   11 Jun 2027 11:55:25.524             9.677          3462.531
       311   12 Jun 2027 04:12:00.637   12 Jun 2027 04:12:27.266            26.629         13314.500
       312   12 Jun 2027 04:12:34.152   12 Jun 2027 04:13:56.227            82.075         41037.500
       313   12 Jun 2027 04:14:26.217   12 Jun 2027 04:15:21.921            55.704         27852.000
       314   12 Jun 2027 04:15:39.368   12 Jun 2027 04:15:47.408             8.040          4020.000
       315   12 Jun 2027 04:16:20.808   12 Jun 2027 04:16:44.331            23.523         11761.500
       316   12 Jun 2027 05:49:59.643   12 Jun 2027 05:51:20.215            80.572         40286.000
       317   12 Jun 2027 05:52:10.832   12 Jun 2027 05:52:39.180            28.348         14174.000
       318   12 Jun 2027 05:53:13.238   12 Jun 2027 05:53:30.897            17.659          8829.500
       319   12 Jun 2027 05:53:39.083   12 Jun 2027 05:53:47.246             8.163          3550.407
       320   12 Jun 2027 05:54:30.876   12 Jun 2027 05:54:31.772             0.896           448.000
       321   12 Jun 2027 07:13:40.506   12 Jun 2027 07:13:58.702            18.196          8747.937
       322   12 Jun 2027 07:15:01.548   12 Jun 2027 07:15:06.004             4.456          1846.750
       323   12 Jun 2027 07:15:40.657   12 Jun 2027 07:15:44.423             3.766          1082.906
       324   12 Jun 2027 08:50:02.586   12 Jun 2027 08:50:22.262            19.676          8877.906
       325   12 Jun 2027 08:52:50.536   12 Jun 2027 08:53:03.061            12.525          4253.687
       326   12 Jun 2027 10:24:06.794   12 Jun 2027 10:24:15.229             8.435          3585.062
       327   12 Jun 2027 10:25:52.852   12 Jun 2027 10:25:52.852             0.000             0.000
       328   12 Jun 2027 10:28:23.830   12 Jun 2027 10:28:38.609            14.779          7161.000
       329   12 Jun 2027 10:29:17.643   12 Jun 2027 10:29:18.263             0.620           244.406
       330   12 Jun 2027 10:31:18.630   12 Jun 2027 10:31:26.305             7.675          3728.063
       331   12 Jun 2027 10:31:27.822   12 Jun 2027 10:31:29.310             1.488            10.719
       332   12 Jun 2027 10:31:51.113   12 Jun 2027 10:31:52.014             0.901           158.562
       333   13 Jun 2027 04:24:06.666   13 Jun 2027 04:25:08.705            62.039         31019.500
       334   13 Jun 2027 04:25:15.213   13 Jun 2027 04:26:30.499            75.286         37643.000
       335   13 Jun 2027 04:26:55.673   13 Jun 2027 04:28:40.150           104.477         52238.500
       336   13 Jun 2027 04:28:46.508   13 Jun 2027 04:28:48.724             2.216          1108.000
       337   13 Jun 2027 04:29:16.309   13 Jun 2027 04:29:20.622             4.313          2156.500
       338   13 Jun 2027 04:29:32.032   13 Jun 2027 04:29:33.233             1.201           600.500
       339   13 Jun 2027 04:29:37.920   13 Jun 2027 04:29:44.095             6.175          3087.500
       340   13 Jun 2027 04:29:50.428   13 Jun 2027 04:30:13.339            22.911         11455.500
       341   13 Jun 2027 06:03:12.982   13 Jun 2027 06:04:05.206            52.224         26112.000
       342   13 Jun 2027 06:05:02.688   13 Jun 2027 06:05:06.836             4.148          2074.000
       343   13 Jun 2027 06:06:01.686   13 Jun 2027 06:06:09.998             8.312          4049.220
       344   13 Jun 2027 06:06:40.606   13 Jun 2027 06:06:42.606             2.000           956.500
       345   13 Jun 2027 07:25:44.334   13 Jun 2027 07:25:55.357            11.023          5331.750
       346   13 Jun 2027 07:26:13.187   13 Jun 2027 07:26:14.992             1.805           518.375
       347   13 Jun 2027 07:26:47.544   13 Jun 2027 07:26:51.294             3.750           171.500
       348   13 Jun 2027 07:27:55.356   13 Jun 2027 07:27:55.356             0.000             0.000
       349   13 Jun 2027 07:28:27.258   13 Jun 2027 07:28:32.913             5.655          2643.906
       350   13 Jun 2027 09:02:13.468   13 Jun 2027 09:02:27.500            14.032          4560.625
       351   13 Jun 2027 09:04:18.396   13 Jun 2027 09:04:22.062             3.666          1833.000
       352   13 Jun 2027 09:05:12.152   13 Jun 2027 09:05:18.670             6.518          2933.625
       353   13 Jun 2027 10:38:26.268   13 Jun 2027 10:38:45.888            19.620          7791.438
       354   13 Jun 2027 10:39:51.165   13 Jun 2027 10:39:54.236             3.071          1178.000
       355   13 Jun 2027 10:40:24.256   13 Jun 2027 10:40:26.747             2.491           599.437
       356   13 Jun 2027 10:41:11.792   13 Jun 2027 10:41:15.570             3.778          1374.000
       357   13 Jun 2027 10:42:03.969   13 Jun 2027 10:42:06.937             2.968          1476.094
       358   13 Jun 2027 10:42:39.196   13 Jun 2027 10:42:41.352             2.156           895.250
       359   13 Jun 2027 10:43:04.370   13 Jun 2027 10:43:04.370             0.000             0.000
       360   13 Jun 2027 10:43:14.645   13 Jun 2027 10:43:16.449             1.804           901.719
       361   13 Jun 2027 10:43:27.582   13 Jun 2027 10:43:28.771             1.189           274.625
       362   13 Jun 2027 10:43:58.127   13 Jun 2027 10:44:00.308             2.181           741.188
