uniorb/output/strategy_2/Camera/Camera_KinoSat_111004.txt

KinoSat_111004
-------------------------
    Access    *     Start Time (UTCG)     *     Stop Time (UTCG)  *   Duration (s) *   Data (Mbytes)
         1   01 Jun 2027 03:36:47.365   01 Jun 2027 03:37:32.108            44.743         22371.500
         2   01 Jun 2027 03:37:46.269   01 Jun 2027 03:38:03.974            17.705          8852.500
         3   01 Jun 2027 05:12:44.500   01 Jun 2027 05:16:04.857           200.357        100178.500
         4   01 Jun 2027 06:46:33.434   01 Jun 2027 06:49:36.121           182.687         91343.500
         5   01 Jun 2027 06:50:02.918   01 Jun 2027 06:50:02.918             0.000             0.000
         6   01 Jun 2027 06:51:38.676   01 Jun 2027 06:52:00.776            22.100         11050.000
         7   01 Jun 2027 06:54:19.374   01 Jun 2027 06:54:33.853            14.479          7239.500
         8   01 Jun 2027 06:54:39.152   01 Jun 2027 06:54:53.910            14.758          7379.000
         9   01 Jun 2027 08:23:42.628   01 Jun 2027 08:25:28.873           106.245         53122.500
        10   01 Jun 2027 08:25:50.364   01 Jun 2027 08:26:40.023            49.659         24829.500
        11   01 Jun 2027 08:27:06.731   01 Jun 2027 08:27:32.635            25.904         12952.000
        12   01 Jun 2027 08:27:48.854   01 Jun 2027 08:27:49.924             1.070           535.000
        13   01 Jun 2027 08:28:22.693   01 Jun 2027 08:28:22.732             0.039            19.500
        14   01 Jun 2027 08:28:51.498   01 Jun 2027 08:28:59.366             7.868          3934.000
        15   01 Jun 2027 10:00:45.341   01 Jun 2027 10:02:56.612           131.271         65635.500
        16   01 Jun 2027 10:03:26.665   01 Jun 2027 10:03:49.921            23.256         11628.000
        17   01 Jun 2027 10:05:54.094   01 Jun 2027 10:05:54.094             0.000             0.000
        18   01 Jun 2027 10:06:47.120   01 Jun 2027 10:06:47.120             0.000             0.000
        19   01 Jun 2027 10:06:50.238   01 Jun 2027 10:06:51.422             1.184           592.000
        20   01 Jun 2027 11:37:41.359   01 Jun 2027 11:39:12.502            91.143         45571.500
        21   01 Jun 2027 11:40:52.511   01 Jun 2027 11:40:55.392             2.881          1440.500
        22   01 Jun 2027 11:41:23.872   01 Jun 2027 11:41:25.167             1.295           647.500
        23   01 Jun 2027 11:41:54.544   01 Jun 2027 11:42:02.898             8.354          4177.000
        24   01 Jun 2027 11:42:09.889   01 Jun 2027 11:42:13.706             3.817          1908.500
        25   01 Jun 2027 11:42:16.730   01 Jun 2027 11:42:21.442             4.712          2356.000
        26   01 Jun 2027 11:42:30.331   01 Jun 2027 11:42:31.923             1.592           796.000
        27   02 Jun 2027 03:48:40.149   02 Jun 2027 03:50:04.952            84.803         42401.500
        28   02 Jun 2027 03:50:21.382   02 Jun 2027 03:50:21.382             0.000             0.000
        29   02 Jun 2027 05:25:02.729   02 Jun 2027 05:28:15.768           193.039         96519.500
        30   02 Jun 2027 06:58:53.956   02 Jun 2027 07:00:37.534           103.578         51789.000
        31   02 Jun 2027 07:01:21.704   02 Jun 2027 07:02:55.532            93.828         46914.000
        32   02 Jun 2027 07:05:47.838   02 Jun 2027 07:06:02.246            14.408          7204.000
        33   02 Jun 2027 07:06:03.334   02 Jun 2027 07:06:10.334             7.000          3500.000
        34   02 Jun 2027 07:06:36.447   02 Jun 2027 07:06:36.447             0.000             0.000
        35   02 Jun 2027 07:07:03.473   02 Jun 2027 07:07:04.202             0.729           364.500
        36   02 Jun 2027 08:36:08.966   02 Jun 2027 08:37:58.113           109.147         53979.750
        37   02 Jun 2027 08:38:56.505   02 Jun 2027 08:38:58.522             2.017          1008.500
        38   02 Jun 2027 08:39:02.080   02 Jun 2027 08:39:03.625             1.545           457.969
        39   02 Jun 2027 08:40:19.592   02 Jun 2027 08:40:21.274             1.682           841.000
        40   02 Jun 2027 08:40:57.474   02 Jun 2027 08:41:03.874             6.400          2583.625
        41   02 Jun 2027 08:41:56.736   02 Jun 2027 08:41:56.792             0.056            28.000
        42   02 Jun 2027 08:42:17.681   02 Jun 2027 08:42:27.730            10.049          2185.281
        43   02 Jun 2027 08:42:33.588   02 Jun 2027 08:42:36.171             2.583           183.063
        44   02 Jun 2027 10:13:09.745   02 Jun 2027 10:13:31.176            21.431         10019.750
        45   02 Jun 2027 10:14:33.438   02 Jun 2027 10:14:38.931             5.493          1333.406
        46   02 Jun 2027 10:14:54.894   02 Jun 2027 10:14:59.343             4.449           498.844
        47   02 Jun 2027 10:16:04.511   02 Jun 2027 10:16:04.687             0.176            88.000
        48   02 Jun 2027 10:16:27.122   02 Jun 2027 10:16:28.268             1.146           573.000
        49   02 Jun 2027 10:16:58.285   02 Jun 2027 10:16:59.369             1.084           542.000
        50   02 Jun 2027 10:17:24.034   02 Jun 2027 10:17:27.036             3.002          1371.625
        51   02 Jun 2027 10:17:31.906   02 Jun 2027 10:17:31.906             0.000             0.000
        52   02 Jun 2027 10:17:35.422   02 Jun 2027 10:17:39.973             4.551           149.094
        53   02 Jun 2027 11:49:54.978   02 Jun 2027 11:50:17.791            22.813          6676.906
        54   02 Jun 2027 11:51:25.567   02 Jun 2027 11:51:27.316             1.749           874.500
        55   02 Jun 2027 11:52:30.386   02 Jun 2027 11:52:33.609             3.223          1611.500
        56   02 Jun 2027 11:53:00.087   02 Jun 2027 11:53:11.166            11.079          2429.719
        57   02 Jun 2027 11:53:57.036   02 Jun 2027 11:54:00.377             3.341          1078.875
        58   03 Jun 2027 04:00:28.652   03 Jun 2027 04:01:47.324            78.672         39336.000
        59   03 Jun 2027 04:02:02.400   03 Jun 2027 04:02:10.805             8.405          4202.500
        60   03 Jun 2027 04:02:40.123   03 Jun 2027 04:03:15.934            35.811         17905.500
        61   03 Jun 2027 05:37:06.161   03 Jun 2027 05:37:26.869            20.708         10354.000
        62   03 Jun 2027 05:38:14.769   03 Jun 2027 05:38:52.655            37.886         18943.000
        63   03 Jun 2027 05:39:58.502   03 Jun 2027 05:40:39.274            40.772         20386.000
        64   03 Jun 2027 07:12:08.531   03 Jun 2027 07:13:46.893            98.362         48980.656
        65   03 Jun 2027 07:14:00.108   03 Jun 2027 07:14:08.739             8.631           219.406
        66   03 Jun 2027 07:15:16.332   03 Jun 2027 07:15:22.809             6.477          1924.406
        67   03 Jun 2027 07:17:23.732   03 Jun 2027 07:17:31.083             7.351          3489.500
        68   03 Jun 2027 07:17:52.956   03 Jun 2027 07:17:56.328             3.372           581.406
        69   03 Jun 2027 07:18:30.715   03 Jun 2027 07:18:32.355             1.640           820.000
        70   03 Jun 2027 07:18:51.895   03 Jun 2027 07:18:51.895             0.000             0.000
        71   03 Jun 2027 07:18:54.989   03 Jun 2027 07:18:56.571             1.582           740.032
        72   03 Jun 2027 08:48:18.250   03 Jun 2027 08:48:34.367            16.117          7666.594
        73   03 Jun 2027 08:49:16.966   03 Jun 2027 08:49:19.698             2.732           547.875
        74   03 Jun 2027 08:50:00.105   03 Jun 2027 08:50:05.893             5.788          1015.156
        75   03 Jun 2027 08:50:53.953   03 Jun 2027 08:50:59.548             5.595           757.563
        76   03 Jun 2027 08:51:28.436   03 Jun 2027 08:51:32.111             3.675           602.125
        77   03 Jun 2027 08:51:56.582   03 Jun 2027 08:51:59.532             2.950           144.094
        78   03 Jun 2027 08:52:22.773   03 Jun 2027 08:52:23.096             0.323           161.500
        79   03 Jun 2027 08:53:24.166   03 Jun 2027 08:53:29.872             5.706          2234.219
        80   03 Jun 2027 08:53:38.370   03 Jun 2027 08:53:39.800             1.430            92.531
        81   03 Jun 2027 08:53:56.999   03 Jun 2027 08:54:02.925             5.926           537.469
        82   03 Jun 2027 08:54:11.490   03 Jun 2027 08:54:12.038             0.548           225.531
        83   03 Jun 2027 08:54:40.844   03 Jun 2027 08:54:43.953             3.109           646.656
        84   03 Jun 2027 10:26:01.569   03 Jun 2027 10:26:16.617            15.048          7468.031
        85   03 Jun 2027 10:26:43.100   03 Jun 2027 10:26:44.003             0.903           447.781
        86   03 Jun 2027 10:26:53.116   03 Jun 2027 10:26:58.003             4.887           284.781
        87   03 Jun 2027 10:27:05.466   03 Jun 2027 10:27:07.159             1.693           126.500
        88   03 Jun 2027 10:28:00.548   03 Jun 2027 10:28:08.412             7.864          1668.406
        89   03 Jun 2027 10:28:33.079   03 Jun 2027 10:28:36.218             3.139           770.844
        90   03 Jun 2027 10:28:44.621   03 Jun 2027 10:28:45.557             0.936            97.344
        91   03 Jun 2027 10:29:15.794   03 Jun 2027 10:29:17.996             2.202           856.594
        92   03 Jun 2027 10:30:18.896   03 Jun 2027 10:30:25.314             6.418          1804.250
        93   04 Jun 2027 04:12:42.707   04 Jun 2027 04:14:36.716           114.009         57004.500
        94   04 Jun 2027 05:49:15.489   04 Jun 2027 05:51:42.622           147.133         73566.500
        95   04 Jun 2027 07:24:25.936   04 Jun 2027 07:25:20.221            54.285         26937.188
        96   04 Jun 2027 07:26:26.632   04 Jun 2027 07:26:30.340             3.708          1709.344
        97   04 Jun 2027 07:27:17.995   04 Jun 2027 07:27:23.053             5.058           147.500
        98   04 Jun 2027 07:27:46.585   04 Jun 2027 07:27:48.003             1.418           160.469
        99   04 Jun 2027 07:28:23.658   04 Jun 2027 07:28:26.882             3.224          1114.219
       100   04 Jun 2027 07:28:50.307   04 Jun 2027 07:28:52.413             2.106           724.969
       101   04 Jun 2027 07:29:22.819   04 Jun 2027 07:29:23.890             1.071           249.656
       102   04 Jun 2027 07:29:43.659   04 Jun 2027 07:29:45.318             1.659           617.781
       103   04 Jun 2027 07:30:18.436   04 Jun 2027 07:30:18.436             0.000             0.000
       104   04 Jun 2027 07:30:42.103   04 Jun 2027 07:30:45.825             3.722          1774.531
       105   04 Jun 2027 09:00:47.806   04 Jun 2027 09:01:03.358            15.552          6949.469
       106   04 Jun 2027 09:01:10.916   04 Jun 2027 09:01:12.370             1.454            53.969
       107   04 Jun 2027 09:01:40.321   04 Jun 2027 09:01:44.262             3.941           873.469
       108   04 Jun 2027 09:02:10.925   04 Jun 2027 09:02:14.596             3.671           833.219
       109   04 Jun 2027 09:02:53.042   04 Jun 2027 09:02:58.571             5.529           613.187
       110   04 Jun 2027 09:03:18.968   04 Jun 2027 09:03:19.413             0.445           167.031
       111   04 Jun 2027 09:03:24.672   04 Jun 2027 09:03:31.629             6.957           126.500
       112   04 Jun 2027 09:03:48.088   04 Jun 2027 09:03:49.531             1.443           438.094
       113   04 Jun 2027 09:04:35.960   04 Jun 2027 09:04:41.323             5.363           980.969
       114   04 Jun 2027 09:05:10.843   04 Jun 2027 09:05:12.808             1.965           691.031
       115   04 Jun 2027 09:05:14.076   04 Jun 2027 09:05:17.245             3.169             1.438
       116   04 Jun 2027 09:05:39.985   04 Jun 2027 09:05:40.871             0.886            98.156
       117   04 Jun 2027 09:05:53.185   04 Jun 2027 09:05:54.479             1.294           100.094
       118   04 Jun 2027 10:38:05.739   04 Jun 2027 10:38:18.340            12.601          6300.500
       119   04 Jun 2027 10:38:42.010   04 Jun 2027 10:38:43.091             1.081           540.500
       120   04 Jun 2027 10:38:59.500   04 Jun 2027 10:39:04.099             4.599          1281.000
       121   04 Jun 2027 10:39:35.933   04 Jun 2027 10:39:35.933             0.000             0.000
       122   04 Jun 2027 10:40:23.996   04 Jun 2027 10:40:29.568             5.572          2079.594
       123   04 Jun 2027 10:41:10.486   04 Jun 2027 10:41:13.310             2.824          1090.344
       124   04 Jun 2027 10:41:16.820   04 Jun 2027 10:41:17.703             0.883            64.625
       125   04 Jun 2027 10:41:31.096   04 Jun 2027 10:41:31.096             0.000             0.000
       126   04 Jun 2027 10:41:34.902   04 Jun 2027 10:41:37.277             2.375           176.094
       127   04 Jun 2027 10:41:58.557   04 Jun 2027 10:42:00.519             1.962           645.219
       128   04 Jun 2027 10:42:26.107   04 Jun 2027 10:42:31.074             4.967           799.625
       129   04 Jun 2027 10:42:36.903   04 Jun 2027 10:42:38.648             1.745           182.156
       130   05 Jun 2027 03:01:17.624   05 Jun 2027 03:01:56.664            39.040         19520.000
       131   05 Jun 2027 03:02:19.537   05 Jun 2027 03:02:41.597            22.060         11030.000
       132   05 Jun 2027 03:03:09.991   05 Jun 2027 03:03:22.700            12.709          6354.500
       133   05 Jun 2027 03:03:59.223   05 Jun 2027 03:04:37.693            38.470         19235.000
       134   05 Jun 2027 04:25:12.260   05 Jun 2027 04:26:13.844            61.584         30792.000
       135   05 Jun 2027 04:26:41.637   05 Jun 2027 04:27:02.002            20.365         10182.500
       136   05 Jun 2027 04:27:10.154   05 Jun 2027 04:27:28.979            18.825          9412.500
       137   05 Jun 2027 06:01:07.142   05 Jun 2027 06:02:53.687           106.545         52704.656
       138   05 Jun 2027 06:03:40.769   05 Jun 2027 06:03:40.769             0.000             0.000
       139   05 Jun 2027 06:04:11.775   05 Jun 2027 06:04:17.832             6.057          2141.438
       140   05 Jun 2027 07:36:01.621   05 Jun 2027 07:36:17.232            15.611          4552.437
       141   05 Jun 2027 07:37:41.726   05 Jun 2027 07:37:45.986             4.260          2112.438
       142   05 Jun 2027 07:37:56.094   05 Jun 2027 07:37:57.003             0.909           279.969
       143   05 Jun 2027 07:38:14.039   05 Jun 2027 07:38:17.401             3.362           429.500
       144   05 Jun 2027 07:39:06.031   05 Jun 2027 07:39:09.008             2.977           888.938
       145   05 Jun 2027 07:39:18.454   05 Jun 2027 07:39:22.421             3.967           295.187
       146   05 Jun 2027 07:40:21.173   05 Jun 2027 07:40:25.376             4.203          1548.844
       147   05 Jun 2027 07:40:59.244   05 Jun 2027 07:41:02.856             3.612           998.406
       148   05 Jun 2027 07:41:30.221   05 Jun 2027 07:41:32.144             1.923           436.750
       149   05 Jun 2027 07:41:43.876   05 Jun 2027 07:41:44.913             1.037           366.625
       150   05 Jun 2027 07:42:26.018   05 Jun 2027 07:42:29.647             3.629          1274.406
       151   05 Jun 2027 07:42:30.358   05 Jun 2027 07:42:37.133             6.775            22.219
       152   05 Jun 2027 07:42:46.242   05 Jun 2027 07:42:47.915             1.673           276.250
       153   05 Jun 2027 07:43:09.561   05 Jun 2027 07:43:10.762             1.201           600.500
       154   05 Jun 2027 09:12:23.061   05 Jun 2027 09:12:44.144            21.083          9444.375
       155   05 Jun 2027 09:13:35.504   05 Jun 2027 09:13:37.179             1.675           831.125
       156   05 Jun 2027 09:14:20.230   05 Jun 2027 09:14:25.709             5.479          1152.844
       157   05 Jun 2027 09:14:56.267   05 Jun 2027 09:15:00.890             4.623           234.219
       158   05 Jun 2027 09:15:55.857   05 Jun 2027 09:15:58.490             2.633          1310.656
       159   05 Jun 2027 09:16:08.515   05 Jun 2027 09:16:09.336             0.821           308.719
       160   05 Jun 2027 09:16:38.189   05 Jun 2027 09:16:40.601             2.412           802.875
       161   05 Jun 2027 09:17:41.382   05 Jun 2027 09:17:45.300             3.918          1899.406
       162   05 Jun 2027 10:50:39.945   05 Jun 2027 10:50:54.266            14.321          7160.500
       163   05 Jun 2027 10:51:33.809   05 Jun 2027 10:51:35.540             1.731           865.500
       164   05 Jun 2027 10:52:22.599   05 Jun 2027 10:52:24.921             2.322          1161.000
       165   05 Jun 2027 10:52:27.161   05 Jun 2027 10:52:29.785             2.624           876.812
       166   05 Jun 2027 10:52:46.268   05 Jun 2027 10:52:53.223             6.955            71.781
       167   05 Jun 2027 10:53:21.116   05 Jun 2027 10:53:23.132             2.016           871.656
       168   05 Jun 2027 10:53:27.370   05 Jun 2027 10:53:27.370             0.000             0.000
       169   05 Jun 2027 10:53:29.830   05 Jun 2027 10:53:33.781             3.951           209.313
       170   05 Jun 2027 10:54:28.473   05 Jun 2027 10:54:31.897             3.424          1634.094
       171   06 Jun 2027 03:01:57.821   06 Jun 2027 03:02:19.039            21.218         10609.000
       172   06 Jun 2027 03:13:13.899   06 Jun 2027 03:16:01.204           167.305         83652.500
       173   06 Jun 2027 04:35:49.762   06 Jun 2027 04:36:10.745            20.983         10491.500
       174   06 Jun 2027 04:36:31.400   06 Jun 2027 04:36:33.051             1.651           825.500
       175   06 Jun 2027 04:36:52.948   06 Jun 2027 04:37:05.749            12.801          6400.500
       176   06 Jun 2027 04:37:32.912   06 Jun 2027 04:37:38.427             5.515          2757.500
       177   06 Jun 2027 04:38:44.628   06 Jun 2027 04:38:56.617            11.989          5994.500
       178   06 Jun 2027 04:39:18.888   06 Jun 2027 04:39:40.087            21.199         10599.500
       179   06 Jun 2027 04:40:29.393   06 Jun 2027 04:40:29.393             0.000             0.000
       180   06 Jun 2027 06:11:24.483   06 Jun 2027 06:12:07.595            43.112         21556.000
       181   06 Jun 2027 06:12:50.918   06 Jun 2027 06:13:15.407            24.489         12244.500
       182   06 Jun 2027 06:14:23.300   06 Jun 2027 06:14:30.598             7.298          3604.750
       183   06 Jun 2027 06:15:08.213   06 Jun 2027 06:15:08.213             0.000             0.000
       184   06 Jun 2027 06:15:35.165   06 Jun 2027 06:15:38.003             2.838          1419.000
       185   06 Jun 2027 06:16:13.455   06 Jun 2027 06:16:13.455             0.000             0.000
       186   06 Jun 2027 06:16:36.731   06 Jun 2027 06:16:41.346             4.615          1964.907
       187   06 Jun 2027 06:17:22.742   06 Jun 2027 06:17:22.742             0.000             0.000
       188   06 Jun 2027 07:47:36.819   06 Jun 2027 07:47:53.800            16.981          5576.656
       189   06 Jun 2027 07:49:42.121   06 Jun 2027 07:49:46.873             4.752          2213.969
       190   06 Jun 2027 07:51:06.747   06 Jun 2027 07:51:09.630             2.883           690.750
       191   06 Jun 2027 07:52:19.854   06 Jun 2027 07:52:22.397             2.543           908.531
       192   06 Jun 2027 07:53:22.391   06 Jun 2027 07:53:29.279             6.888          1681.313
       193   06 Jun 2027 07:53:44.786   06 Jun 2027 07:53:44.886             0.100            50.000
       194   06 Jun 2027 07:53:45.463   06 Jun 2027 07:53:48.631             3.168           425.750
       195   06 Jun 2027 07:54:25.853   06 Jun 2027 07:54:29.391             3.538          1163.188
       196   06 Jun 2027 07:55:01.648   06 Jun 2027 07:55:04.618             2.970          1008.031
       197   06 Jun 2027 09:24:43.199   06 Jun 2027 09:25:05.137            21.938          9550.875
       198   06 Jun 2027 09:25:06.648   06 Jun 2027 09:25:09.566             2.918            47.219
       199   06 Jun 2027 09:26:08.574   06 Jun 2027 09:26:18.119             9.545          1626.656
       200   06 Jun 2027 09:28:21.423   06 Jun 2027 09:28:28.403             6.980          3490.000
       201   06 Jun 2027 09:28:58.967   06 Jun 2027 09:29:07.984             9.017          1239.219
       202   06 Jun 2027 09:29:13.694   06 Jun 2027 09:29:16.377             2.683           135.125
       203   06 Jun 2027 09:29:34.643   06 Jun 2027 09:29:35.847             1.204           376.656
       204   06 Jun 2027 09:29:47.172   06 Jun 2027 09:29:51.274             4.102           276.625
       205   06 Jun 2027 09:30:46.463   06 Jun 2027 09:30:50.189             3.726          1374.781
       206   06 Jun 2027 09:30:58.236   06 Jun 2027 09:31:01.456             3.220            48.250
       207   06 Jun 2027 11:02:41.258   06 Jun 2027 11:02:53.279            12.021          6010.500
       208   06 Jun 2027 11:03:33.054   06 Jun 2027 11:03:42.258             9.204          2129.094
       209   06 Jun 2027 11:04:21.648   06 Jun 2027 11:04:23.413             1.765           808.375
       210   06 Jun 2027 11:05:16.206   06 Jun 2027 11:05:19.995             3.789          1637.719
       211   06 Jun 2027 11:05:37.261   06 Jun 2027 11:05:40.345             3.084           460.625
       212   06 Jun 2027 11:06:29.720   06 Jun 2027 11:06:33.402             3.682          1286.406
       213   07 Jun 2027 03:13:32.738   07 Jun 2027 03:15:06.638            93.900         46950.000
       214   07 Jun 2027 03:25:16.663   07 Jun 2027 03:26:26.104            69.441         34720.500
       215   07 Jun 2027 04:47:31.639   07 Jun 2027 04:48:38.427            66.788         33394.000
       216   07 Jun 2027 04:49:28.939   07 Jun 2027 04:49:45.922            16.983          8491.500
       217   07 Jun 2027 04:50:35.451   07 Jun 2027 04:51:30.906            55.455         27557.281
       218   07 Jun 2027 04:51:42.512   07 Jun 2027 04:51:42.512             0.000             0.000
       219   07 Jun 2027 04:51:55.251   07 Jun 2027 04:51:55.558             0.307           153.500
       220   07 Jun 2027 06:22:31.297   07 Jun 2027 06:23:11.853            40.556         17480.906
       221   07 Jun 2027 06:23:18.518   07 Jun 2027 06:23:18.518             0.000             0.000
       222   07 Jun 2027 06:23:30.728   07 Jun 2027 06:23:31.383             0.655           327.500
       223   07 Jun 2027 06:24:34.900   07 Jun 2027 06:24:39.367             4.467          2109.500
       224   07 Jun 2027 06:26:57.754   07 Jun 2027 06:27:05.632             7.878          3770.094
       225   07 Jun 2027 06:27:49.801   07 Jun 2027 06:27:50.792             0.991           442.094
       226   07 Jun 2027 06:28:43.603   07 Jun 2027 06:28:48.498             4.895          1650.344
       227   07 Jun 2027 06:29:03.849   07 Jun 2027 06:29:03.849             0.000             0.000
       228   07 Jun 2027 06:29:09.727   07 Jun 2027 06:29:13.817             4.090           596.031
       229   07 Jun 2027 06:29:42.806   07 Jun 2027 06:29:45.104             2.298           905.906
       230   07 Jun 2027 07:59:56.787   07 Jun 2027 08:00:06.080             9.293          4411.125
       231   07 Jun 2027 08:01:41.977   07 Jun 2027 08:01:53.253            11.276          2996.781
       232   07 Jun 2027 08:02:33.475   07 Jun 2027 08:02:41.278             7.803           933.094
       233   07 Jun 2027 08:03:07.575   07 Jun 2027 08:03:08.344             0.769           378.031
       234   07 Jun 2027 08:04:19.604   07 Jun 2027 08:04:26.570             6.966          2131.469
       235   07 Jun 2027 08:04:45.220   07 Jun 2027 08:04:46.710             1.490           582.813
       236   07 Jun 2027 08:05:20.183   07 Jun 2027 08:05:20.495             0.312           156.000
       237   07 Jun 2027 08:05:32.035   07 Jun 2027 08:05:33.636             1.601           568.750
       238   07 Jun 2027 08:05:45.967   07 Jun 2027 08:05:45.967             0.000             0.000
       239   07 Jun 2027 08:06:03.834   07 Jun 2027 08:06:08.238             4.404           737.688
       240   07 Jun 2027 09:36:44.053   07 Jun 2027 09:37:01.771            17.718          8850.594
       241   07 Jun 2027 09:38:03.432   07 Jun 2027 09:38:07.364             3.932           231.594
       242   07 Jun 2027 09:38:36.937   07 Jun 2027 09:38:40.152             3.215           699.688
       243   07 Jun 2027 09:39:15.033   07 Jun 2027 09:39:22.463             7.430          1030.750
       244   07 Jun 2027 09:39:25.513   07 Jun 2027 09:39:29.943             4.430            95.312
       245   07 Jun 2027 09:39:52.474   07 Jun 2027 09:39:52.474             0.000             0.000
       246   07 Jun 2027 09:39:59.870   07 Jun 2027 09:40:07.670             7.800           874.063
       247   07 Jun 2027 09:40:34.656   07 Jun 2027 09:40:35.484             0.828           414.000
       248   07 Jun 2027 09:42:26.865   07 Jun 2027 09:42:35.708             8.843          3909.969
       249   07 Jun 2027 09:42:58.489   07 Jun 2027 09:43:00.250             1.761           680.875
       250   07 Jun 2027 11:14:41.659   07 Jun 2027 11:14:57.237            15.578          7164.406
       251   07 Jun 2027 11:15:08.532   07 Jun 2027 11:15:14.323             5.791           320.937
       252   07 Jun 2027 11:15:33.176   07 Jun 2027 11:15:33.758             0.582           227.250
       253   07 Jun 2027 11:16:18.278   07 Jun 2027 11:16:21.101             2.823          1391.250
       254   07 Jun 2027 11:16:36.011   07 Jun 2027 11:16:36.011             0.000             0.000
       255   07 Jun 2027 11:17:10.384   07 Jun 2027 11:17:14.677             4.293          1540.094
       256   07 Jun 2027 11:17:19.726   07 Jun 2027 11:17:31.064            11.338           117.375
       257   07 Jun 2027 11:18:22.983   07 Jun 2027 11:18:25.914             2.931          1403.406
       258   07 Jun 2027 11:18:35.203   07 Jun 2027 11:18:39.859             4.656           290.281
       259   07 Jun 2027 11:18:46.229   07 Jun 2027 11:18:47.592             1.363           156.219
       260   08 Jun 2027 03:25:04.901   08 Jun 2027 03:25:58.018            53.117         26558.500
       261   08 Jun 2027 03:26:07.701   08 Jun 2027 03:26:19.570            11.869          5934.500
       262   08 Jun 2027 03:26:23.035   08 Jun 2027 03:27:04.274            41.239         20619.500
       263   08 Jun 2027 03:27:08.237   08 Jun 2027 03:27:08.448             0.211           105.500
       264   08 Jun 2027 03:37:17.502   08 Jun 2027 03:37:49.211            31.709         15854.500
       265   08 Jun 2027 04:59:11.703   08 Jun 2027 05:00:25.076            73.373         36686.500
       266   08 Jun 2027 05:01:14.661   08 Jun 2027 05:02:08.549            53.888         26944.000
       267   08 Jun 2027 05:02:13.817   08 Jun 2027 05:02:31.830            18.013          9006.500
       268   08 Jun 2027 06:34:00.099   08 Jun 2027 06:34:37.930            37.831         18076.500
       269   08 Jun 2027 06:35:10.943   08 Jun 2027 06:35:14.085             3.142           981.844
       270   08 Jun 2027 06:35:48.005   08 Jun 2027 06:35:48.005             0.000             0.000
       271   08 Jun 2027 06:36:03.512   08 Jun 2027 06:36:06.594             3.082          1292.313
       272   08 Jun 2027 06:37:26.481   08 Jun 2027 06:37:37.708            11.227          2293.563
       273   08 Jun 2027 06:37:52.069   08 Jun 2027 06:37:53.095             1.026           435.531
       274   08 Jun 2027 06:39:35.648   08 Jun 2027 06:39:44.656             9.008          3204.781
       275   08 Jun 2027 06:40:18.146   08 Jun 2027 06:40:22.350             4.204          1022.219
       276   08 Jun 2027 06:41:06.456   08 Jun 2027 06:41:08.629             2.173          1086.500
       277   08 Jun 2027 06:41:19.990   08 Jun 2027 06:41:21.794             1.804           530.375
       278   08 Jun 2027 06:42:38.231   08 Jun 2027 06:42:43.599             5.368          1916.031
       279   08 Jun 2027 08:11:50.789   08 Jun 2027 08:12:04.556            13.767          6659.625
       280   08 Jun 2027 08:12:37.131   08 Jun 2027 08:12:41.400             4.269           904.156
       281   08 Jun 2027 08:13:27.345   08 Jun 2027 08:13:32.567             5.222          1232.719
       282   08 Jun 2027 08:13:43.104   08 Jun 2027 08:13:50.797             7.693           215.094
       283   08 Jun 2027 08:14:43.325   08 Jun 2027 08:14:49.673             6.348          1316.656
       284   08 Jun 2027 08:16:20.715   08 Jun 2027 08:16:27.455             6.740          2351.219
       285   08 Jun 2027 08:17:09.328   08 Jun 2027 08:17:12.956             3.628          1308.531
       286   08 Jun 2027 08:17:46.379   08 Jun 2027 08:17:48.248             1.869           902.719
       287   08 Jun 2027 08:17:58.528   08 Jun 2027 08:17:59.560             1.032           321.250
       288   08 Jun 2027 08:19:09.762   08 Jun 2027 08:19:14.239             4.477          1784.719
       289   08 Jun 2027 09:48:35.489   08 Jun 2027 09:48:53.913            18.424          7994.125
       290   08 Jun 2027 09:49:06.933   08 Jun 2027 09:49:08.044             1.111           279.500
       291   08 Jun 2027 09:49:47.415   08 Jun 2027 09:49:49.100             1.685           406.000
       292   08 Jun 2027 09:50:43.766   08 Jun 2027 09:50:50.161             6.395          1708.313
       293   08 Jun 2027 09:51:19.530   08 Jun 2027 09:51:21.022             1.492           506.844
       294   08 Jun 2027 09:51:37.550   08 Jun 2027 09:51:41.237             3.687           516.500
       295   08 Jun 2027 09:52:11.497   08 Jun 2027 09:52:11.497             0.000             0.000
       296   08 Jun 2027 09:52:22.133   08 Jun 2027 09:52:24.417             2.284          1142.000
       297   08 Jun 2027 09:52:41.710   08 Jun 2027 09:52:44.158             2.448           605.094
       298   08 Jun 2027 09:53:43.340   08 Jun 2027 09:53:48.049             4.709          1669.750
       299   08 Jun 2027 09:54:38.291   08 Jun 2027 09:54:45.331             7.040          1570.063
       300   08 Jun 2027 09:55:17.220   08 Jun 2027 09:55:18.353             1.133           566.500
       301   08 Jun 2027 11:26:44.218   08 Jun 2027 11:26:58.410            14.192          6969.813
       302   08 Jun 2027 11:27:10.323   08 Jun 2027 11:27:11.449             1.126           372.281
       303   08 Jun 2027 11:28:00.997   08 Jun 2027 11:28:04.650             3.653          1347.625
       304   08 Jun 2027 11:28:27.208   08 Jun 2027 11:28:28.993             1.785           520.469
       305   08 Jun 2027 11:28:39.675   08 Jun 2027 11:28:40.052             0.377           145.219
       306   08 Jun 2027 11:29:01.688   08 Jun 2027 11:29:03.939             2.251           676.125
       307   08 Jun 2027 11:29:11.661   08 Jun 2027 11:29:12.866             1.205           241.312
       308   08 Jun 2027 11:30:05.141   08 Jun 2027 11:30:13.244             8.103          1633.594
       309   08 Jun 2027 11:30:36.024   08 Jun 2027 11:30:43.912             7.888           707.906
       310   09 Jun 2027 03:37:02.549   09 Jun 2027 03:38:19.111            76.562         38281.000
       311   09 Jun 2027 05:12:59.996   09 Jun 2027 05:15:59.729           179.733         89866.500
       312   09 Jun 2027 06:46:48.431   09 Jun 2027 06:47:48.165            59.734         29725.281
       313   09 Jun 2027 06:48:06.708   09 Jun 2027 06:48:13.216             6.508           561.156
       314   09 Jun 2027 06:48:51.126   09 Jun 2027 06:48:54.603             3.477           290.750
       315   09 Jun 2027 06:50:06.412   09 Jun 2027 06:50:06.412             0.000             0.000
       316   09 Jun 2027 06:50:28.685   09 Jun 2027 06:50:35.251             6.566          2768.656
       317   09 Jun 2027 06:51:38.143   09 Jun 2027 06:51:48.256            10.113          1848.156
       318   09 Jun 2027 06:52:22.192   09 Jun 2027 06:52:28.632             6.440           825.938
       319   09 Jun 2027 06:53:08.523   09 Jun 2027 06:53:08.523             0.000             0.000
       320   09 Jun 2027 06:53:30.019   09 Jun 2027 06:53:32.009             1.990           995.000
       321   09 Jun 2027 06:53:45.172   09 Jun 2027 06:53:49.155             3.983          1107.437
       322   09 Jun 2027 06:54:20.233   09 Jun 2027 06:54:20.254             0.021            10.500
       323   09 Jun 2027 06:54:33.889   09 Jun 2027 06:54:36.900             3.011          1251.688
       324   09 Jun 2027 06:55:09.405   09 Jun 2027 06:55:13.818             4.413           426.469
       325   09 Jun 2027 08:23:57.943   09 Jun 2027 08:24:14.516            16.573          6085.031
       326   09 Jun 2027 08:25:18.937   09 Jun 2027 08:25:20.854             1.917           603.250
       327   09 Jun 2027 08:25:21.217   09 Jun 2027 08:25:23.838             2.621            11.344
       328   09 Jun 2027 08:26:31.059   09 Jun 2027 08:26:40.341             9.282          1606.500
       329   09 Jun 2027 08:27:54.666   09 Jun 2027 08:27:54.666             0.000             0.000
       330   09 Jun 2027 08:28:01.900   09 Jun 2027 08:28:07.650             5.750          2548.719
       331   09 Jun 2027 08:28:32.643   09 Jun 2027 08:28:33.563             0.920           146.844
       332   09 Jun 2027 08:29:01.545   09 Jun 2027 08:29:03.360             1.815           846.500
       333   09 Jun 2027 08:29:38.474   09 Jun 2027 08:29:41.674             3.200          1093.844
       334   09 Jun 2027 08:30:41.298   09 Jun 2027 08:30:48.641             7.343          1770.094
       335   09 Jun 2027 10:01:01.076   09 Jun 2027 10:01:18.761            17.685          8372.594
       336   09 Jun 2027 10:02:21.263   09 Jun 2027 10:02:26.006             4.743          1836.750
       337   09 Jun 2027 10:03:11.924   09 Jun 2027 10:03:17.673             5.749          1166.656
       338   09 Jun 2027 10:03:32.639   09 Jun 2027 10:03:35.313             2.674           467.688
       339   09 Jun 2027 10:04:05.154   09 Jun 2027 10:04:11.429             6.275           159.094
       340   09 Jun 2027 10:04:34.239   09 Jun 2027 10:04:38.288             4.049           280.125
       341   09 Jun 2027 10:05:24.396   09 Jun 2027 10:05:29.202             4.806          1359.937
       342   09 Jun 2027 10:06:02.651   09 Jun 2027 10:06:04.582             1.931           965.500
       343   09 Jun 2027 10:06:08.728   09 Jun 2027 10:06:08.728             0.000             0.000
       344   09 Jun 2027 10:06:22.530   09 Jun 2027 10:06:25.987             3.457           640.656
       345   09 Jun 2027 10:06:40.143   09 Jun 2027 10:06:43.923             3.780           259.938
       346   09 Jun 2027 11:37:55.680   09 Jun 2027 11:38:17.823            22.143          8655.812
       347   09 Jun 2027 11:38:28.967   09 Jun 2027 11:38:31.643             2.676           348.250
       348   09 Jun 2027 11:38:44.574   09 Jun 2027 11:38:46.974             2.400           171.000
       349   09 Jun 2027 11:39:31.422   09 Jun 2027 11:39:35.648             4.226          1389.000
       350   09 Jun 2027 11:40:36.620   09 Jun 2027 11:40:43.600             6.980          1905.375
       351   09 Jun 2027 11:40:45.157   09 Jun 2027 11:40:46.338             1.181            48.656
       352   09 Jun 2027 11:41:05.818   09 Jun 2027 11:41:07.182             1.364           353.906
       353   09 Jun 2027 11:41:39.938   09 Jun 2027 11:41:47.351             7.413          1023.625
       354   09 Jun 2027 11:42:19.638   09 Jun 2027 11:42:24.021             4.383           404.438
       355   10 Jun 2027 03:48:55.097   10 Jun 2027 03:49:44.557            49.460         24730.000
       356   10 Jun 2027 03:49:53.117   10 Jun 2027 03:49:53.117             0.000             0.000
       357   10 Jun 2027 03:50:43.911   10 Jun 2027 03:50:49.698             5.787          2893.500
       358   10 Jun 2027 03:51:02.945   10 Jun 2027 03:51:12.781             9.836          4918.000
       359   10 Jun 2027 05:25:17.435   10 Jun 2027 05:28:26.895           189.460         94730.000
       360   10 Jun 2027 06:59:09.458   10 Jun 2027 07:00:09.831            60.373         30186.500
       361   10 Jun 2027 07:01:04.735   10 Jun 2027 07:01:10.945             6.210          2148.344
       362   10 Jun 2027 07:01:26.321   10 Jun 2027 07:01:26.321             0.000             0.000
       363   10 Jun 2027 07:01:54.385   10 Jun 2027 07:01:57.056             2.671          1224.219
       364   10 Jun 2027 07:02:08.951   10 Jun 2027 07:02:10.956             2.005           371.719
       365   10 Jun 2027 07:04:18.741   10 Jun 2027 07:04:31.277            12.536          3948.469
       366   10 Jun 2027 07:04:52.891   10 Jun 2027 07:04:56.674             3.783           675.438
       367   10 Jun 2027 07:05:50.176   10 Jun 2027 07:05:54.341             4.165          1670.375
       368   10 Jun 2027 07:06:29.655   10 Jun 2027 07:06:31.978             2.323          1083.063
       369   10 Jun 2027 07:07:13.334   10 Jun 2027 07:07:16.778             3.444          1046.813
       370   10 Jun 2027 08:36:24.643   10 Jun 2027 08:36:39.646            15.003          7023.031
       371   10 Jun 2027 08:37:43.738   10 Jun 2027 08:37:48.186             4.448          1065.062
       372   10 Jun 2027 08:38:24.786   10 Jun 2027 08:38:27.174             2.388           495.938
       373   10 Jun 2027 08:39:15.070   10 Jun 2027 08:39:16.572             1.502           106.219
       374   10 Jun 2027 08:39:56.179   10 Jun 2027 08:39:59.085             2.906          1091.375
       375   10 Jun 2027 08:40:34.225   10 Jun 2027 08:40:34.353             0.128            64.000
       376   10 Jun 2027 08:40:51.309   10 Jun 2027 08:40:54.769             3.460          1414.406
       377   10 Jun 2027 08:41:19.015   10 Jun 2027 08:41:20.739             1.724           517.656
       378   10 Jun 2027 08:42:11.358   10 Jun 2027 08:42:19.071             7.713          1581.844
       379   10 Jun 2027 10:13:25.862   10 Jun 2027 10:13:45.239            19.377          7531.063
       380   10 Jun 2027 10:14:58.280   10 Jun 2027 10:15:02.274             3.994           608.375
       381   10 Jun 2027 10:16:42.836   10 Jun 2027 10:16:50.049             7.213          2905.500
       382   10 Jun 2027 10:16:51.304   10 Jun 2027 10:16:51.458             0.154            39.219
       383   10 Jun 2027 10:17:35.662   10 Jun 2027 10:17:40.774             5.112          1224.906
       384   10 Jun 2027 10:18:33.909   10 Jun 2027 10:18:37.794             3.885          1589.375
       385   10 Jun 2027 11:50:10.049   10 Jun 2027 11:50:32.179            22.130          9403.000
       386   10 Jun 2027 11:50:37.924   10 Jun 2027 11:50:39.615             1.691           143.750
       387   10 Jun 2027 11:50:46.650   10 Jun 2027 11:50:48.321             1.671           201.938
       388   10 Jun 2027 11:51:40.900   10 Jun 2027 11:51:44.349             3.449          1643.094
       389   10 Jun 2027 11:52:45.145   10 Jun 2027 11:52:47.052             1.907           953.500
       390   10 Jun 2027 11:52:58.651   10 Jun 2027 11:53:00.277             1.626           813.000
       391   10 Jun 2027 11:53:38.085   10 Jun 2027 11:53:40.531             2.446          1223.000
       392   10 Jun 2027 11:54:08.150   10 Jun 2027 11:54:11.079             2.929          1317.437
       393   10 Jun 2027 11:54:16.012   10 Jun 2027 11:54:18.658             2.646           141.250
       394   11 Jun 2027 04:00:43.989   11 Jun 2027 04:02:22.498            98.509         49254.500
       395   11 Jun 2027 04:02:55.908   11 Jun 2027 04:03:12.814            16.906          8453.000
       396   11 Jun 2027 05:37:20.835   11 Jun 2027 05:40:13.144           172.309         86154.500
       397   11 Jun 2027 05:40:44.712   11 Jun 2027 05:40:54.424             9.712          4856.000
       398   11 Jun 2027 07:12:27.144   11 Jun 2027 07:12:54.819            27.675         11303.844
       399   11 Jun 2027 07:13:17.319   11 Jun 2027 07:13:18.720             1.401           630.437
       400   11 Jun 2027 07:13:26.412   11 Jun 2027 07:13:26.767             0.355           177.500
       401   11 Jun 2027 07:13:54.072   11 Jun 2027 07:13:55.968             1.896           912.500
       402   11 Jun 2027 07:14:31.129   11 Jun 2027 07:14:34.949             3.820          1098.781
       403   11 Jun 2027 07:15:26.422   11 Jun 2027 07:15:28.669             2.247           885.312
       404   11 Jun 2027 07:16:43.998   11 Jun 2027 07:16:48.822             4.824          2333.938
       405   11 Jun 2027 07:17:28.322   11 Jun 2027 07:17:31.897             3.575           767.125
       406   11 Jun 2027 07:17:58.224   11 Jun 2027 07:18:00.117             1.893           578.094
       407   11 Jun 2027 07:18:49.667   11 Jun 2027 07:18:58.392             8.725          1542.375
       408   11 Jun 2027 07:19:11.593   11 Jun 2027 07:19:16.421             4.828           288.312
       409   11 Jun 2027 08:48:47.866   11 Jun 2027 08:49:04.822            16.956          7391.406
       410   11 Jun 2027 08:50:41.892   11 Jun 2027 08:50:43.997             2.105           797.031
       411   11 Jun 2027 08:51:10.177   11 Jun 2027 08:51:16.957             6.780           788.406
       412   11 Jun 2027 08:52:02.241   11 Jun 2027 08:52:06.370             4.129          1187.250
       413   11 Jun 2027 08:52:10.854   11 Jun 2027 08:52:11.474             0.620           111.000
       414   11 Jun 2027 08:53:14.490   11 Jun 2027 08:53:17.738             3.248          1624.000
       415   11 Jun 2027 08:53:50.138   11 Jun 2027 08:53:53.395             3.257          1027.594
       416   11 Jun 2027 08:54:18.891   11 Jun 2027 08:54:18.891             0.000             0.000
       417   11 Jun 2027 10:26:17.796   11 Jun 2027 10:26:40.012            22.216          7587.219
       418   11 Jun 2027 10:26:57.940   11 Jun 2027 10:27:00.550             2.610           405.969
       419   11 Jun 2027 10:27:39.935   11 Jun 2027 10:27:43.212             3.277          1202.437
       420   11 Jun 2027 10:28:15.000   11 Jun 2027 10:28:18.536             3.536           365.156
       421   11 Jun 2027 10:28:50.480   11 Jun 2027 10:28:52.629             2.149           862.000
       422   11 Jun 2027 10:29:28.104   11 Jun 2027 10:29:31.750             3.646           938.344
       423   11 Jun 2027 10:30:11.820   11 Jun 2027 10:30:18.392             6.572          1252.187
       424   12 Jun 2027 04:12:57.552   12 Jun 2027 04:14:10.548            72.996         36498.000
       425   12 Jun 2027 04:14:23.859   12 Jun 2027 04:14:52.581            28.722         14361.000
       426   12 Jun 2027 05:49:31.181   12 Jun 2027 05:52:04.934           153.753         76876.500
       427   12 Jun 2027 07:24:41.145   12 Jun 2027 07:25:49.770            68.625         34300.594
       428   12 Jun 2027 07:25:57.196   12 Jun 2027 07:25:58.140             0.944           232.063
       429   12 Jun 2027 07:26:43.587   12 Jun 2027 07:26:47.064             3.477          1420.219
       430   12 Jun 2027 07:28:17.314   12 Jun 2027 07:28:22.069             4.755          2377.500
       431   12 Jun 2027 07:29:05.056   12 Jun 2027 07:29:09.259             4.203          1437.406
       432   12 Jun 2027 07:29:31.852   12 Jun 2027 07:29:33.643             1.791           551.625
       433   12 Jun 2027 07:30:01.365   12 Jun 2027 07:30:03.335             1.970           672.188
       434   12 Jun 2027 07:30:43.477   12 Jun 2027 07:30:43.622             0.145            72.500
       435   12 Jun 2027 07:30:53.581   12 Jun 2027 07:30:55.124             1.543           771.500
       436   12 Jun 2027 07:31:16.526   12 Jun 2027 07:31:16.994             0.468           234.000
       437   12 Jun 2027 09:01:02.596   12 Jun 2027 09:01:21.382            18.786          7216.500
       438   12 Jun 2027 09:01:40.264   12 Jun 2027 09:01:47.451             7.187           450.187
       439   12 Jun 2027 09:02:46.331   12 Jun 2027 09:02:48.337             2.006          1003.000
       440   12 Jun 2027 09:03:00.680   12 Jun 2027 09:03:02.283             1.603           801.500
       441   12 Jun 2027 09:03:30.860   12 Jun 2027 09:03:33.409             2.549          1004.500
       442   12 Jun 2027 09:05:21.495   12 Jun 2027 09:05:28.767             7.272          2991.719
       443   12 Jun 2027 09:05:30.991   12 Jun 2027 09:05:32.788             1.797            69.500
       444   12 Jun 2027 09:06:19.029   12 Jun 2027 09:06:21.708             2.679           857.813
       445   12 Jun 2027 09:06:30.527   12 Jun 2027 09:06:33.401             2.874            48.281
       446   12 Jun 2027 10:38:20.977   12 Jun 2027 10:38:39.495            18.518          7938.406
       447   12 Jun 2027 10:39:31.938   12 Jun 2027 10:39:39.007             7.069          1512.594
       448   12 Jun 2027 10:39:51.993   12 Jun 2027 10:39:58.448             6.455           405.125
       449   12 Jun 2027 10:40:57.354   12 Jun 2027 10:41:01.813             4.459          1840.813
       450   12 Jun 2027 10:41:24.429   12 Jun 2027 10:41:25.968             1.539           706.750
       451   12 Jun 2027 10:41:30.549   12 Jun 2027 10:41:31.356             0.807           143.156
       452   12 Jun 2027 10:42:07.268   12 Jun 2027 10:42:13.192             5.924          1122.250
       453   12 Jun 2027 10:42:16.197   12 Jun 2027 10:42:30.840            14.643            93.906
       454   12 Jun 2027 10:42:50.037   12 Jun 2027 10:42:51.545             1.508           534.875
       455   12 Jun 2027 10:42:55.378   12 Jun 2027 10:42:56.248             0.870           119.781
       456   13 Jun 2027 03:01:32.961   13 Jun 2027 03:02:11.941            38.980         19490.000
       457   13 Jun 2027 03:02:34.321   13 Jun 2027 03:02:58.980            24.659         12329.500
       458   13 Jun 2027 03:03:24.838   13 Jun 2027 03:03:35.803            10.965          5482.500
       459   13 Jun 2027 03:04:13.700   13 Jun 2027 03:04:52.270            38.570         19285.000
       460   13 Jun 2027 04:25:27.233   13 Jun 2027 04:26:25.339            58.106         29053.000
       461   13 Jun 2027 04:26:51.048   13 Jun 2027 04:26:56.504             5.456          2728.000
       462   13 Jun 2027 04:27:48.414   13 Jun 2027 04:27:55.108             6.694          3347.000
       463   13 Jun 2027 06:01:21.894   13 Jun 2027 06:01:49.241            27.347         13673.500
       464   13 Jun 2027 06:01:50.807   13 Jun 2027 06:03:20.319            89.512         44756.000
       465   13 Jun 2027 06:03:34.889   13 Jun 2027 06:03:46.364            11.475          5701.625
       466   13 Jun 2027 06:04:24.641   13 Jun 2027 06:04:27.065             2.424          1156.812
       467   13 Jun 2027 07:36:15.647   13 Jun 2027 07:36:31.935            16.288          5839.313
       468   13 Jun 2027 07:37:58.027   13 Jun 2027 07:38:03.360             5.333          2167.469
       469   13 Jun 2027 07:38:16.674   13 Jun 2027 07:38:18.081             1.407           216.125
       470   13 Jun 2027 07:38:54.227   13 Jun 2027 07:38:56.710             2.483           952.469
       471   13 Jun 2027 07:39:01.318   13 Jun 2027 07:39:02.255             0.937           116.781
       472   13 Jun 2027 07:39:45.169   13 Jun 2027 07:39:50.067             4.898           926.313
       473   13 Jun 2027 07:41:39.410   13 Jun 2027 07:41:46.423             7.013          2116.719
       474   13 Jun 2027 07:42:28.852   13 Jun 2027 07:42:33.202             4.350           949.813
       475   13 Jun 2027 07:42:52.416   13 Jun 2027 07:42:54.755             2.339           477.062
       476   13 Jun 2027 07:43:19.775   13 Jun 2027 07:43:21.687             1.912           583.625
       477   13 Jun 2027 09:12:39.014   13 Jun 2027 09:13:01.178            22.164          9499.000
       478   13 Jun 2027 09:13:58.031   13 Jun 2027 09:14:04.318             6.287          1439.781
       479   13 Jun 2027 09:15:03.609   13 Jun 2027 09:15:08.202             4.593           977.469
       480   13 Jun 2027 09:15:28.444   13 Jun 2027 09:15:28.968             0.524           195.875
       481   13 Jun 2027 09:16:18.303   13 Jun 2027 09:16:21.945             3.642          1443.344
       482   13 Jun 2027 09:16:29.083   13 Jun 2027 09:16:34.933             5.850           157.844
       483   13 Jun 2027 09:16:39.683   13 Jun 2027 09:16:40.957             1.274            62.750
       484   13 Jun 2027 09:17:26.046   13 Jun 2027 09:17:27.694             1.648           270.406
       485   13 Jun 2027 09:18:01.658   13 Jun 2027 09:18:03.454             1.796           524.031
       486   13 Jun 2027 10:50:55.467   13 Jun 2027 10:51:09.130            13.663          6831.500
       487   13 Jun 2027 10:51:36.170   13 Jun 2027 10:51:45.228             9.058           881.188
       488   13 Jun 2027 10:52:59.400   13 Jun 2027 10:53:07.173             7.773          2284.000
       489   13 Jun 2027 10:53:24.239   13 Jun 2027 10:53:26.883             2.644           453.750
       490   13 Jun 2027 10:53:42.505   13 Jun 2027 10:53:43.709             1.204           380.281
       491   13 Jun 2027 10:53:50.912   13 Jun 2027 10:53:50.912             0.000             0.000
       492   13 Jun 2027 10:54:14.827   13 Jun 2027 10:54:16.776             1.949           901.781
       493   13 Jun 2027 10:54:35.489   13 Jun 2027 10:54:38.113             2.624            69.656
