uniorb/output/strategy_2/Camera/Camera_KinoSat_110708.txt

KinoSat_110708
-------------------------
    Access    *     Start Time (UTCG)     *     Stop Time (UTCG)  *   Duration (s) *   Data (Mbytes)
         1   01 Jun 2027 03:09:38.426   01 Jun 2027 03:10:21.471            43.045         21522.500
         2   01 Jun 2027 03:13:27.124   01 Jun 2027 03:13:34.003             6.879          3439.500
         3   01 Jun 2027 03:13:36.351   01 Jun 2027 03:13:36.351             0.000             0.000
         4   01 Jun 2027 03:13:49.494   01 Jun 2027 03:13:49.494             0.000             0.000
         5   01 Jun 2027 04:44:59.319   01 Jun 2027 04:45:56.893            57.574         28787.000
         6   01 Jun 2027 04:46:30.400   01 Jun 2027 04:47:15.917            45.517         22758.500
         7   01 Jun 2027 04:48:41.811   01 Jun 2027 04:50:44.825           123.014         61507.000
         8   01 Jun 2027 04:51:16.091   01 Jun 2027 04:51:16.477             0.386           193.000
         9   01 Jun 2027 06:21:27.982   01 Jun 2027 06:23:22.079           114.097         57048.500
        10   01 Jun 2027 06:24:17.861   01 Jun 2027 06:25:51.298            93.437         46718.500
        11   01 Jun 2027 06:26:02.298   01 Jun 2027 06:26:25.874            23.576         11788.000
        12   01 Jun 2027 06:28:09.151   01 Jun 2027 06:28:15.290             6.139          3069.500
        13   01 Jun 2027 07:58:33.390   01 Jun 2027 08:00:25.705           112.315         56157.500
        14   01 Jun 2027 08:01:13.545   01 Jun 2027 08:02:12.513            58.968         29484.000
        15   01 Jun 2027 08:03:25.308   01 Jun 2027 08:03:27.657             2.349          1174.500
        16   01 Jun 2027 08:04:25.087   01 Jun 2027 08:04:38.808            13.721          6860.500
        17   01 Jun 2027 09:36:27.452   01 Jun 2027 09:38:48.789           141.337         70668.500
        18   01 Jun 2027 09:39:42.582   01 Jun 2027 09:39:46.739             4.157          2078.500
        19   01 Jun 2027 11:09:35.256   01 Jun 2027 11:11:10.485            95.229         47614.500
        20   01 Jun 2027 11:11:40.727   01 Jun 2027 11:11:44.147             3.420          1710.000
        21   01 Jun 2027 11:13:00.284   01 Jun 2027 11:13:13.068            12.784          6392.000
        22   01 Jun 2027 11:14:44.970   01 Jun 2027 11:14:58.614            13.644          6822.000
        23   02 Jun 2027 03:21:14.327   02 Jun 2027 03:21:22.396             8.069          4034.500
        24   02 Jun 2027 03:22:12.481   02 Jun 2027 03:22:20.965             8.484          4242.000
        25   02 Jun 2027 03:23:32.865   02 Jun 2027 03:24:03.875            31.010         15505.000
        26   02 Jun 2027 03:24:47.977   02 Jun 2027 03:25:03.808            15.831          7915.500
        27   02 Jun 2027 04:56:08.364   02 Jun 2027 04:58:10.769           122.405         61202.500
        28   02 Jun 2027 04:58:17.238   02 Jun 2027 04:59:19.741            62.503         31251.500
        29   02 Jun 2027 05:01:40.600   02 Jun 2027 05:01:53.516            12.916          6458.000
        30   02 Jun 2027 05:02:19.455   02 Jun 2027 05:02:25.350             5.895          2947.500
        31   02 Jun 2027 05:03:04.530   02 Jun 2027 05:03:18.017            13.487          6743.500
        32   02 Jun 2027 05:04:17.342   02 Jun 2027 05:04:17.342             0.000             0.000
        33   02 Jun 2027 05:04:31.976   02 Jun 2027 05:04:37.259             5.283          2641.500
        34   02 Jun 2027 06:33:41.802   02 Jun 2027 06:34:49.586            67.784         33892.000
        35   02 Jun 2027 06:35:37.160   02 Jun 2027 06:37:07.158            89.998         44999.000
        36   02 Jun 2027 06:37:52.521   02 Jun 2027 06:37:57.348             4.827          2413.500
        37   02 Jun 2027 06:38:23.761   02 Jun 2027 06:38:25.471             1.710           855.000
        38   02 Jun 2027 06:38:49.129   02 Jun 2027 06:39:13.002            23.873         11936.500
        39   02 Jun 2027 06:39:35.269   02 Jun 2027 06:39:35.269             0.000             0.000
        40   02 Jun 2027 06:39:50.262   02 Jun 2027 06:40:06.282            16.020          8010.000
        41   02 Jun 2027 06:41:01.875   02 Jun 2027 06:41:02.224             0.349           174.500
        42   02 Jun 2027 08:10:24.275   02 Jun 2027 08:12:25.683           121.408         60704.000
        43   02 Jun 2027 08:13:41.025   02 Jun 2027 08:13:47.622             6.597          3087.657
        44   02 Jun 2027 08:13:55.441   02 Jun 2027 08:13:59.861             4.420           244.344
        45   02 Jun 2027 08:14:00.346   02 Jun 2027 08:14:00.635             0.289             9.000
        46   02 Jun 2027 08:14:20.272   02 Jun 2027 08:14:20.893             0.621            82.813
        47   02 Jun 2027 08:14:39.316   02 Jun 2027 08:14:40.740             1.424           451.781
        48   02 Jun 2027 08:15:06.693   02 Jun 2027 08:15:06.693             0.000             0.000
        49   02 Jun 2027 08:16:33.117   02 Jun 2027 08:16:35.632             2.515          1257.500
        50   02 Jun 2027 09:48:27.348   02 Jun 2027 09:48:51.567            24.219         11311.531
        51   02 Jun 2027 09:49:58.165   02 Jun 2027 09:50:02.063             3.898          1803.937
        52   02 Jun 2027 09:50:20.976   02 Jun 2027 09:50:23.510             2.534           442.781
        53   02 Jun 2027 09:50:53.512   02 Jun 2027 09:50:56.592             3.080           354.719
        54   02 Jun 2027 09:51:39.763   02 Jun 2027 09:51:42.940             3.177          1131.625
        55   02 Jun 2027 09:51:44.319   02 Jun 2027 09:51:46.006             1.687            15.094
        56   02 Jun 2027 09:52:25.123   02 Jun 2027 09:52:28.397             3.274          1126.688
        57   02 Jun 2027 11:22:04.329   02 Jun 2027 11:22:08.247             3.918          1626.250
        58   02 Jun 2027 11:23:33.553   02 Jun 2027 11:23:39.399             5.846          2024.219
        59   02 Jun 2027 11:24:31.537   02 Jun 2027 11:24:36.876             5.339          1629.312
        60   02 Jun 2027 11:25:22.821   02 Jun 2027 11:25:27.665             4.844          1335.156
        61   02 Jun 2027 11:26:26.142   02 Jun 2027 11:26:28.332             2.190          1095.000
        62   02 Jun 2027 11:26:51.684   02 Jun 2027 11:27:01.515             9.831          1104.125
        63   02 Jun 2027 11:27:18.650   02 Jun 2027 11:27:18.650             0.000             0.000
        64   02 Jun 2027 11:27:28.023   02 Jun 2027 11:27:31.669             3.646           714.938
        65   02 Jun 2027 11:27:57.893   02 Jun 2027 11:27:59.648             1.755           785.219
        66   02 Jun 2027 11:28:49.565   02 Jun 2027 11:28:56.988             7.423          1559.906
        67   03 Jun 2027 03:32:43.802   03 Jun 2027 03:34:06.810            83.008         41504.000
        68   03 Jun 2027 03:34:49.690   03 Jun 2027 03:34:55.766             6.076          3038.000
        69   03 Jun 2027 03:36:29.378   03 Jun 2027 03:36:29.378             0.000             0.000
        70   03 Jun 2027 03:36:54.048   03 Jun 2027 03:37:04.938            10.890          5445.000
        71   03 Jun 2027 03:37:28.523   03 Jun 2027 03:37:28.523             0.000             0.000
        72   03 Jun 2027 05:07:39.006   03 Jun 2027 05:07:57.208            18.202          9101.000
        73   03 Jun 2027 05:08:24.259   03 Jun 2027 05:11:00.833           156.574         78287.000
        74   03 Jun 2027 05:13:51.050   03 Jun 2027 05:13:51.953             0.903           451.500
        75   03 Jun 2027 05:14:56.792   03 Jun 2027 05:14:59.828             3.036          1518.000
        76   03 Jun 2027 05:15:17.051   03 Jun 2027 05:15:22.454             5.403          2701.500
        77   03 Jun 2027 05:15:28.814   03 Jun 2027 05:15:46.291            17.477          8738.500
        78   03 Jun 2027 05:16:06.701   03 Jun 2027 05:16:26.507            19.806          9903.000
        79   03 Jun 2027 06:45:35.753   03 Jun 2027 06:46:21.712            45.959         22669.844
        80   03 Jun 2027 06:46:47.879   03 Jun 2027 06:46:53.180             5.301           817.719
        81   03 Jun 2027 06:47:30.857   03 Jun 2027 06:47:33.849             2.992          1131.719
        82   03 Jun 2027 06:48:15.297   03 Jun 2027 06:48:19.028             3.731          1131.875
        83   03 Jun 2027 06:48:38.306   03 Jun 2027 06:48:40.964             2.658           510.031
        84   03 Jun 2027 06:49:22.707   03 Jun 2027 06:49:26.548             3.841          1118.531
        85   03 Jun 2027 06:50:29.789   03 Jun 2027 06:50:31.740             1.951           975.500
        86   03 Jun 2027 06:50:33.032   03 Jun 2027 06:50:34.980             1.948           243.156
        87   03 Jun 2027 06:50:43.534   03 Jun 2027 06:50:45.449             1.915           267.313
        88   03 Jun 2027 06:52:03.504   03 Jun 2027 06:52:10.714             7.210          2414.156
        89   03 Jun 2027 06:52:40.554   03 Jun 2027 06:52:44.459             3.905           794.250
        90   03 Jun 2027 08:22:27.435   03 Jun 2027 08:22:45.761            18.326          9163.000
        91   03 Jun 2027 08:22:58.596   03 Jun 2027 08:23:12.815            14.219          6930.812
        92   03 Jun 2027 08:23:39.567   03 Jun 2027 08:23:40.188             0.621           182.656
        93   03 Jun 2027 08:24:44.307   03 Jun 2027 08:24:47.199             2.892          1377.219
        94   03 Jun 2027 08:25:14.354   03 Jun 2027 08:25:16.299             1.945           505.781
        95   03 Jun 2027 08:26:04.874   03 Jun 2027 08:26:12.657             7.783          1517.969
        96   03 Jun 2027 08:26:32.489   03 Jun 2027 08:26:34.730             2.241           567.375
        97   03 Jun 2027 08:26:58.215   03 Jun 2027 08:26:58.215             0.000             0.000
        98   03 Jun 2027 08:27:15.528   03 Jun 2027 08:27:19.184             3.656          1274.937
        99   03 Jun 2027 08:27:26.387   03 Jun 2027 08:27:26.480             0.093            46.500
       100   03 Jun 2027 08:28:11.248   03 Jun 2027 08:28:16.711             5.463          1018.438
       101   03 Jun 2027 08:28:24.601   03 Jun 2027 08:28:25.569             0.968           221.688
       102   03 Jun 2027 10:00:13.888   03 Jun 2027 10:00:34.034            20.146         10058.844
       103   03 Jun 2027 10:00:38.148   03 Jun 2027 10:00:38.962             0.814            37.563
       104   03 Jun 2027 10:01:09.971   03 Jun 2027 10:01:09.971             0.000             0.000
       105   03 Jun 2027 10:01:10.194   03 Jun 2027 10:01:19.602             9.408           755.094
       106   03 Jun 2027 10:02:06.252   03 Jun 2027 10:02:09.540             3.288          1410.250
       107   03 Jun 2027 10:02:45.384   03 Jun 2027 10:02:48.556             3.172          1120.125
       108   03 Jun 2027 10:04:02.075   03 Jun 2027 10:04:03.710             1.635           817.500
       109   03 Jun 2027 10:04:26.175   03 Jun 2027 10:04:30.807             4.632          1694.281
       110   03 Jun 2027 11:36:13.375   03 Jun 2027 11:36:16.483             3.108          1429.281
       111   03 Jun 2027 11:37:07.842   03 Jun 2027 11:37:08.747             0.905           452.500
       112   03 Jun 2027 11:37:30.452   03 Jun 2027 11:37:32.959             2.507          1085.625
       113   03 Jun 2027 11:37:59.358   03 Jun 2027 11:38:02.275             2.917           623.750
       114   03 Jun 2027 11:38:43.422   03 Jun 2027 11:38:59.624            16.202          1285.844
       115   03 Jun 2027 11:39:19.385   03 Jun 2027 11:39:20.925             1.540           187.312
       116   03 Jun 2027 11:39:34.523   03 Jun 2027 11:39:36.396             1.873           424.938
       117   03 Jun 2027 11:40:02.262   03 Jun 2027 11:40:03.869             1.607           729.812
       118   04 Jun 2027 03:46:46.938   04 Jun 2027 03:47:10.494            23.556         11778.000
       119   04 Jun 2027 03:48:33.635   04 Jun 2027 03:48:43.860            10.225          5112.500
       120   04 Jun 2027 03:49:12.081   04 Jun 2027 03:49:28.790            16.709          8354.500
       121   04 Jun 2027 05:20:33.029   04 Jun 2027 05:23:38.721           185.692         92846.000
       122   04 Jun 2027 05:24:03.552   04 Jun 2027 05:24:38.700            35.148         17574.000
       123   04 Jun 2027 05:26:40.644   04 Jun 2027 05:26:45.956             5.312          2656.000
       124   04 Jun 2027 05:29:04.956   04 Jun 2027 05:29:05.948             0.992           496.000
       125   04 Jun 2027 06:57:55.826   04 Jun 2027 06:58:57.499            61.673         30623.249
       126   04 Jun 2027 06:59:33.436   04 Jun 2027 06:59:35.531             2.095           542.437
       127   04 Jun 2027 07:00:51.264   04 Jun 2027 07:00:55.419             4.155          1997.375
       128   04 Jun 2027 07:01:14.408   04 Jun 2027 07:01:16.134             1.726           229.313
       129   04 Jun 2027 07:01:32.342   04 Jun 2027 07:01:36.389             4.047           199.531
       130   04 Jun 2027 07:03:06.499   04 Jun 2027 07:03:10.738             4.239          2048.031
       131   04 Jun 2027 07:03:48.786   04 Jun 2027 07:03:51.463             2.677          1118.219
       132   04 Jun 2027 07:04:19.424   04 Jun 2027 07:04:21.821             2.397           873.781
       133   04 Jun 2027 08:35:00.411   04 Jun 2027 08:35:09.988             9.577          4788.500
       134   04 Jun 2027 08:35:16.379   04 Jun 2027 08:35:35.367            18.988          8940.156
       135   04 Jun 2027 08:35:39.263   04 Jun 2027 08:35:39.347             0.084            42.000
       136   04 Jun 2027 08:35:41.326   04 Jun 2027 08:35:42.127             0.801           141.594
       137   04 Jun 2027 08:36:15.566   04 Jun 2027 08:36:18.860             3.294          1044.969
       138   04 Jun 2027 08:37:21.011   04 Jun 2027 08:37:21.011             0.000             0.000
       139   04 Jun 2027 08:37:35.477   04 Jun 2027 08:37:40.745             5.268          1954.813
       140   04 Jun 2027 08:38:11.170   04 Jun 2027 08:38:13.261             2.091           950.781
       141   04 Jun 2027 08:38:31.280   04 Jun 2027 08:38:33.508             2.228           425.906
       142   04 Jun 2027 08:38:44.048   04 Jun 2027 08:38:47.801             3.753           329.375
       143   04 Jun 2027 08:39:17.558   04 Jun 2027 08:39:21.532             3.974           928.188
       144   04 Jun 2027 08:39:37.267   04 Jun 2027 08:39:39.772             2.505           258.719
       145   04 Jun 2027 10:11:44.663   04 Jun 2027 10:12:00.325            15.662          7641.437
       146   04 Jun 2027 10:12:47.142   04 Jun 2027 10:12:47.682             0.540           270.000
       147   04 Jun 2027 10:12:57.435   04 Jun 2027 10:13:01.231             3.796          1388.563
       148   04 Jun 2027 10:14:12.675   04 Jun 2027 10:14:24.750            12.075          2045.406
       149   04 Jun 2027 10:15:05.816   04 Jun 2027 10:15:08.079             2.263          1051.344
       150   04 Jun 2027 10:15:27.922   04 Jun 2027 10:15:31.568             3.646           165.000
       151   04 Jun 2027 10:15:35.730   04 Jun 2027 10:15:36.685             0.955            56.281
       152   04 Jun 2027 10:15:51.124   04 Jun 2027 10:15:53.639             2.515           416.406
       153   04 Jun 2027 11:47:00.530   04 Jun 2027 11:47:05.175             4.645          1940.375
       154   04 Jun 2027 11:49:09.341   04 Jun 2027 11:49:14.811             5.470          2310.875
       155   04 Jun 2027 11:49:43.874   04 Jun 2027 11:49:46.201             2.327           778.219
       156   04 Jun 2027 11:50:00.952   04 Jun 2027 11:50:03.975             3.023           328.031
       157   04 Jun 2027 11:51:20.339   04 Jun 2027 11:51:23.415             3.076          1538.000
       158   05 Jun 2027 03:59:01.182   05 Jun 2027 04:00:05.879            64.697         32348.500
       159   05 Jun 2027 04:00:21.777   05 Jun 2027 04:00:40.948            19.171          9585.500
       160   05 Jun 2027 05:31:18.104   05 Jun 2027 05:31:36.973            18.869          9434.500
       161   05 Jun 2027 05:33:05.197   05 Jun 2027 05:36:24.424           199.227         99613.500
       162   05 Jun 2027 05:39:31.763   05 Jun 2027 05:39:39.292             7.529          3764.500
       163   05 Jun 2027 05:41:00.714   05 Jun 2027 05:41:03.322             2.608          1304.000
       164   05 Jun 2027 07:10:09.661   05 Jun 2027 07:11:04.108            54.447         26978.562
       165   05 Jun 2027 07:12:33.476   05 Jun 2027 07:12:40.329             6.853          1470.031
       166   05 Jun 2027 07:13:03.503   05 Jun 2027 07:13:12.292             8.789           676.406
       167   05 Jun 2027 07:14:09.633   05 Jun 2027 07:14:13.524             3.891          1564.875
       168   05 Jun 2027 07:14:22.201   05 Jun 2027 07:14:22.201             0.000             0.000
       169   05 Jun 2027 07:14:34.482   05 Jun 2027 07:14:38.287             3.805           568.688
       170   05 Jun 2027 07:15:46.469   05 Jun 2027 07:15:49.955             3.486          1743.000
       171   05 Jun 2027 07:16:20.343   05 Jun 2027 07:16:20.343             0.000             0.000
       172   05 Jun 2027 07:16:37.522   05 Jun 2027 07:16:43.747             6.225          1745.406
       173   05 Jun 2027 08:47:05.844   05 Jun 2027 08:47:28.486            22.642         11133.531
       174   05 Jun 2027 08:48:34.041   05 Jun 2027 08:48:36.845             2.804          1278.406
       175   05 Jun 2027 08:49:20.691   05 Jun 2027 08:49:24.954             4.263          1351.750
       176   05 Jun 2027 08:50:13.608   05 Jun 2027 08:50:15.978             2.370          1185.000
       177   05 Jun 2027 08:50:34.424   05 Jun 2027 08:50:36.515             2.091           911.875
       178   05 Jun 2027 08:50:40.147   05 Jun 2027 08:50:43.723             3.576           113.500
       179   05 Jun 2027 08:51:32.713   05 Jun 2027 08:51:42.230             9.517          1530.937
       180   05 Jun 2027 08:51:55.459   05 Jun 2027 08:51:57.477             2.018           206.438
       181   05 Jun 2027 10:23:52.446   05 Jun 2027 10:24:08.345            15.899          6942.219
       182   05 Jun 2027 10:24:32.444   05 Jun 2027 10:24:40.126             7.682           299.281
       183   05 Jun 2027 10:25:07.295   05 Jun 2027 10:25:09.428             2.133           703.844
       184   05 Jun 2027 10:25:54.993   05 Jun 2027 10:25:59.160             4.167          1319.813
       185   05 Jun 2027 10:26:19.831   05 Jun 2027 10:26:26.571             6.740           576.656
       186   05 Jun 2027 10:26:57.881   05 Jun 2027 10:27:03.099             5.218           549.156
       187   05 Jun 2027 10:27:34.350   05 Jun 2027 10:27:37.407             3.057           976.594
       188   05 Jun 2027 10:27:59.755   05 Jun 2027 10:28:00.569             0.814           407.000
       189   05 Jun 2027 10:28:31.020   05 Jun 2027 10:28:34.014             2.994          1214.031
       190   06 Jun 2027 04:11:11.698   06 Jun 2027 04:12:23.675            71.977         35988.500
       191   06 Jun 2027 04:13:04.291   06 Jun 2027 04:13:06.396             2.105          1052.500
       192   06 Jun 2027 04:13:15.853   06 Jun 2027 04:13:28.073            12.220          6110.000
       193   06 Jun 2027 05:46:16.581   06 Jun 2027 05:47:49.235            92.654         46327.000
       194   06 Jun 2027 05:48:07.448   06 Jun 2027 05:49:16.778            69.330         34665.000
       195   06 Jun 2027 05:49:49.331   06 Jun 2027 05:50:09.446            20.115         10057.500
       196   06 Jun 2027 05:52:01.670   06 Jun 2027 05:52:18.658            16.988          8494.000
       197   06 Jun 2027 05:52:55.000   06 Jun 2027 05:53:04.431             9.431          4715.500
       198   06 Jun 2027 07:22:38.302   06 Jun 2027 07:23:21.389            43.087         21323.156
       199   06 Jun 2027 07:24:05.855   06 Jun 2027 07:24:08.835             2.980           669.906
       200   06 Jun 2027 07:24:13.745   06 Jun 2027 07:24:16.418             2.673           153.438
       201   06 Jun 2027 07:24:44.124   06 Jun 2027 07:24:48.517             4.393           418.469
       202   06 Jun 2027 07:25:44.679   06 Jun 2027 07:25:48.307             3.628          1468.562
       203   06 Jun 2027 07:26:27.061   06 Jun 2027 07:26:30.047             2.986          1049.031
       204   06 Jun 2027 07:27:17.057   06 Jun 2027 07:27:19.996             2.939          1461.688
       205   06 Jun 2027 07:27:59.626   06 Jun 2027 07:28:03.375             3.749          1238.437
       206   06 Jun 2027 07:28:25.420   06 Jun 2027 07:28:26.262             0.842           397.250
       207   06 Jun 2027 09:00:08.876   06 Jun 2027 09:00:30.088            21.212         10606.000
       208   06 Jun 2027 09:00:52.679   06 Jun 2027 09:00:52.679             0.000             0.000
       209   06 Jun 2027 09:00:55.859   06 Jun 2027 09:01:00.888             5.029          1392.406
       210   06 Jun 2027 09:01:11.618   06 Jun 2027 09:01:11.809             0.191            67.437
       211   06 Jun 2027 09:01:27.949   06 Jun 2027 09:01:29.317             1.368           504.375
       212   06 Jun 2027 09:01:48.663   06 Jun 2027 09:01:50.075             1.412            56.125
       213   06 Jun 2027 09:02:06.696   06 Jun 2027 09:02:10.769             4.073           297.187
       214   06 Jun 2027 09:02:43.391   06 Jun 2027 09:02:43.391             0.000             0.000
       215   06 Jun 2027 09:03:02.824   06 Jun 2027 09:03:06.414             3.590          1453.188
       216   06 Jun 2027 09:03:39.087   06 Jun 2027 09:03:40.805             1.718           489.937
       217   06 Jun 2027 09:04:29.478   06 Jun 2027 09:04:34.774             5.296          1521.031
       218   06 Jun 2027 10:36:13.466   06 Jun 2027 10:36:29.984            16.518          7591.687
       219   06 Jun 2027 10:36:46.260   06 Jun 2027 10:36:46.579             0.319           159.500
       220   06 Jun 2027 10:36:50.620   06 Jun 2027 10:36:53.216             2.596           402.281
       221   06 Jun 2027 10:37:03.836   06 Jun 2027 10:37:05.020             1.184           176.781
       222   06 Jun 2027 10:37:39.927   06 Jun 2027 10:37:44.921             4.994          1090.844
       223   06 Jun 2027 10:38:02.295   06 Jun 2027 10:38:04.242             1.947           481.031
       224   06 Jun 2027 10:38:49.181   06 Jun 2027 10:38:52.132             2.951          1289.844
       225   06 Jun 2027 10:39:09.579   06 Jun 2027 10:39:10.193             0.614           193.781
       226   06 Jun 2027 10:39:26.209   06 Jun 2027 10:39:26.637             0.428           136.594
       227   06 Jun 2027 10:39:48.226   06 Jun 2027 10:39:49.655             1.429           457.906
       228   06 Jun 2027 10:39:50.705   06 Jun 2027 10:39:54.448             3.743            32.812
       229   07 Jun 2027 04:23:16.381   07 Jun 2027 04:23:53.210            36.829         18414.500
       230   07 Jun 2027 04:24:47.069   07 Jun 2027 04:25:28.052            40.983         20491.500
       231   07 Jun 2027 05:58:26.612   07 Jun 2027 06:00:36.012           129.400         64700.000
       232   07 Jun 2027 06:01:12.001   07 Jun 2027 06:02:39.519            87.518         43759.000
       233   07 Jun 2027 06:02:42.972   07 Jun 2027 06:02:47.610             4.638          2319.000
       234   07 Jun 2027 06:04:35.496   07 Jun 2027 06:04:39.506             4.010          2005.000
       235   07 Jun 2027 07:34:42.250   07 Jun 2027 07:35:18.285            36.035         16329.657
       236   07 Jun 2027 07:36:22.528   07 Jun 2027 07:36:30.022             7.494          1612.719
       237   07 Jun 2027 07:36:43.639   07 Jun 2027 07:36:48.367             4.728           123.875
       238   07 Jun 2027 07:38:21.144   07 Jun 2027 07:38:26.236             5.092          2425.844
       239   07 Jun 2027 07:39:28.628   07 Jun 2027 07:39:37.010             8.382          1692.312
       240   07 Jun 2027 07:39:46.088   07 Jun 2027 07:39:47.531             1.443           247.062
       241   07 Jun 2027 07:40:09.776   07 Jun 2027 07:40:10.712             0.936           257.313
       242   07 Jun 2027 09:12:14.389   07 Jun 2027 09:12:38.537            24.148         10505.594
       243   07 Jun 2027 09:13:32.946   07 Jun 2027 09:13:35.507             2.561          1116.844
       244   07 Jun 2027 09:14:28.016   07 Jun 2027 09:14:30.737             2.721          1360.500
       245   07 Jun 2027 09:14:40.003   07 Jun 2027 09:14:41.909             1.906           569.969
       246   07 Jun 2027 09:14:58.326   07 Jun 2027 09:15:02.217             3.891           213.625
       247   07 Jun 2027 09:15:29.764   07 Jun 2027 09:15:31.366             1.602           714.656
       248   07 Jun 2027 09:15:46.452   07 Jun 2027 09:15:49.305             2.853           182.688
       249   07 Jun 2027 09:16:05.007   07 Jun 2027 09:16:06.461             1.454            42.625
       250   07 Jun 2027 09:16:35.696   07 Jun 2027 09:16:41.152             5.456           913.594
       251   07 Jun 2027 10:48:15.673   07 Jun 2027 10:48:30.042            14.369          7042.156
       252   07 Jun 2027 10:48:44.737   07 Jun 2027 10:48:44.737             0.000             0.000
       253   07 Jun 2027 10:48:49.812   07 Jun 2027 10:48:52.051             2.239           223.813
       254   07 Jun 2027 10:49:38.241   07 Jun 2027 10:49:42.240             3.999          1441.438
       255   07 Jun 2027 10:51:01.956   07 Jun 2027 10:51:08.454             6.498          2357.063
       256   07 Jun 2027 10:51:14.547   07 Jun 2027 10:51:20.511             5.964           168.531
       257   07 Jun 2027 10:51:37.237   07 Jun 2027 10:51:37.830             0.593           129.219
       258   07 Jun 2027 10:52:10.738   07 Jun 2027 10:52:14.275             3.537           500.406
       259   07 Jun 2027 10:52:25.723   07 Jun 2027 10:52:27.741             2.018           357.750
       260   08 Jun 2027 03:00:00.000   08 Jun 2027 03:00:15.486            15.486          7743.000
       261   08 Jun 2027 03:01:04.530   08 Jun 2027 03:01:18.250            13.720          6860.000
       262   08 Jun 2027 03:01:40.952   08 Jun 2027 03:01:58.374            17.422          8711.000
       263   08 Jun 2027 04:34:59.956   08 Jun 2027 04:37:50.298           170.342         85171.000
       264   08 Jun 2027 04:38:25.126   08 Jun 2027 04:38:27.737             2.611          1305.500
       265   08 Jun 2027 04:38:40.225   08 Jun 2027 04:38:59.736            19.511          9755.500
       266   08 Jun 2027 06:09:51.263   08 Jun 2027 06:11:20.667            89.404         43258.250
       267   08 Jun 2027 06:12:34.702   08 Jun 2027 06:12:42.059             7.357          2031.750
       268   08 Jun 2027 06:12:57.870   08 Jun 2027 06:12:57.877             0.007             3.500
       269   08 Jun 2027 06:13:17.380   08 Jun 2027 06:13:22.609             5.229           968.656
       270   08 Jun 2027 06:14:31.447   08 Jun 2027 06:14:41.583            10.136          1904.719
       271   08 Jun 2027 06:14:50.583   08 Jun 2027 06:14:57.624             7.041           281.250
       272   08 Jun 2027 06:16:22.321   08 Jun 2027 06:16:26.535             4.214          2006.344
       273   08 Jun 2027 06:16:37.273   08 Jun 2027 06:16:44.629             7.356           335.562
       274   08 Jun 2027 07:46:26.876   08 Jun 2027 07:47:02.039            35.163         15923.125
       275   08 Jun 2027 07:47:43.627   08 Jun 2027 07:47:46.266             2.639           228.281
       276   08 Jun 2027 07:48:27.111   08 Jun 2027 07:48:30.265             3.154          1276.406
       277   08 Jun 2027 07:49:00.983   08 Jun 2027 07:49:05.749             4.766           898.375
       278   08 Jun 2027 07:50:12.672   08 Jun 2027 07:50:18.102             5.430          2066.781
       279   08 Jun 2027 07:50:28.055   08 Jun 2027 07:50:29.874             1.819            89.687
       280   08 Jun 2027 07:51:42.362   08 Jun 2027 07:51:48.642             6.280          2046.969
       281   08 Jun 2027 09:24:44.481   08 Jun 2027 09:25:05.561            21.080          9658.781
       282   08 Jun 2027 09:25:27.288   08 Jun 2027 09:25:34.388             7.100           497.219
       283   08 Jun 2027 09:26:15.875   08 Jun 2027 09:26:17.598             1.723           361.594
       284   08 Jun 2027 09:26:22.955   08 Jun 2027 09:26:26.413             3.458           144.656
       285   08 Jun 2027 09:27:21.972   08 Jun 2027 09:27:27.805             5.833          1676.719
       286   08 Jun 2027 09:27:31.156   08 Jun 2027 09:27:31.917             0.761            77.094
       287   08 Jun 2027 09:27:46.708   08 Jun 2027 09:27:46.708             0.000             0.000
       288   08 Jun 2027 09:28:00.930   08 Jun 2027 09:28:02.950             2.020           769.719
       289   08 Jun 2027 09:28:05.013   08 Jun 2027 09:28:07.699             2.686            54.844
       290   08 Jun 2027 10:58:44.185   08 Jun 2027 10:59:02.239            18.054          7092.844
       291   08 Jun 2027 11:00:04.374   08 Jun 2027 11:00:06.919             2.545          1081.906
       292   08 Jun 2027 11:00:35.300   08 Jun 2027 11:00:41.109             5.809           837.844
       293   08 Jun 2027 11:00:53.277   08 Jun 2027 11:00:54.357             1.080           346.313
       294   08 Jun 2027 11:01:25.536   08 Jun 2027 11:01:28.104             2.568           742.813
       295   08 Jun 2027 11:01:47.473   08 Jun 2027 11:01:50.036             2.563           605.281
       296   08 Jun 2027 11:02:05.441   08 Jun 2027 11:02:07.314             1.873           481.406
       297   08 Jun 2027 11:02:58.752   08 Jun 2027 11:03:02.243             3.491          1562.031
       298   08 Jun 2027 11:03:08.438   08 Jun 2027 11:03:14.606             6.168           155.250
       299   08 Jun 2027 11:03:26.878   08 Jun 2027 11:03:28.974             2.096           352.531
       300   08 Jun 2027 11:04:08.393   08 Jun 2027 11:04:16.156             7.763          1106.563
       301   08 Jun 2027 11:05:05.395   08 Jun 2027 11:05:09.838             4.443          1403.406
       302   08 Jun 2027 11:05:17.731   08 Jun 2027 11:05:17.731             0.000             0.000
       303   09 Jun 2027 03:09:53.111   09 Jun 2027 03:10:08.703            15.592          7796.000
       304   09 Jun 2027 03:10:40.017   09 Jun 2027 03:10:47.167             7.150          3575.000
       305   09 Jun 2027 03:10:49.019   09 Jun 2027 03:10:52.014             2.995          1497.500
       306   09 Jun 2027 03:11:28.639   09 Jun 2027 03:11:51.062            22.423         11211.500
       307   09 Jun 2027 03:14:08.016   09 Jun 2027 03:14:27.890            19.874          9937.000
       308   09 Jun 2027 04:45:13.255   09 Jun 2027 04:46:11.859            58.604         29302.000
       309   09 Jun 2027 04:46:44.995   09 Jun 2027 04:48:42.246           117.251         58625.500
       310   09 Jun 2027 04:50:51.778   09 Jun 2027 04:50:59.802             8.024          4012.000
       311   09 Jun 2027 04:51:31.109   09 Jun 2027 04:51:31.328             0.219           109.500
       312   09 Jun 2027 06:21:43.093   09 Jun 2027 06:22:47.902            64.809         30862.969
       313   09 Jun 2027 06:23:05.696   09 Jun 2027 06:23:05.696             0.000             0.000
       314   09 Jun 2027 06:24:01.041   09 Jun 2027 06:24:06.272             5.231          2152.937
       315   09 Jun 2027 06:24:29.716   09 Jun 2027 06:24:31.251             1.535           523.750
       316   09 Jun 2027 06:24:50.981   09 Jun 2027 06:24:51.400             0.419           100.156
       317   09 Jun 2027 06:26:42.075   09 Jun 2027 06:26:48.712             6.637          3155.063
       318   09 Jun 2027 06:27:16.921   09 Jun 2027 06:27:17.896             0.975           487.500
       319   09 Jun 2027 06:28:04.973   09 Jun 2027 06:28:09.862             4.889          1843.875
       320   09 Jun 2027 06:28:18.056   09 Jun 2027 06:28:18.602             0.546           114.406
       321   09 Jun 2027 06:28:50.647   09 Jun 2027 06:28:52.782             2.135          1001.406
       322   09 Jun 2027 06:29:11.634   09 Jun 2027 06:29:13.061             1.427           458.563
       323   09 Jun 2027 07:58:47.939   09 Jun 2027 07:59:22.735            34.796         16666.781
       324   09 Jun 2027 08:00:10.009   09 Jun 2027 08:00:11.138             1.129           406.344
       325   09 Jun 2027 08:00:33.409   09 Jun 2027 08:00:34.660             1.251           373.375
       326   09 Jun 2027 08:00:47.477   09 Jun 2027 08:00:51.907             4.430           383.250
       327   09 Jun 2027 08:01:05.826   09 Jun 2027 08:01:06.125             0.299           139.969
       328   09 Jun 2027 08:01:52.009   09 Jun 2027 08:01:55.033             3.024          1096.406
       329   09 Jun 2027 08:02:14.558   09 Jun 2027 08:02:15.784             1.226           610.156
       330   09 Jun 2027 08:02:30.319   09 Jun 2027 08:02:30.538             0.219            88.875
       331   09 Jun 2027 08:03:08.451   09 Jun 2027 08:03:11.528             3.077          1020.250
       332   09 Jun 2027 08:04:15.363   09 Jun 2027 08:04:18.121             2.758          1379.000
       333   09 Jun 2027 08:04:23.671   09 Jun 2027 08:04:25.338             1.667           789.281
       334   09 Jun 2027 08:04:55.379   09 Jun 2027 08:04:58.428             3.049           938.781
       335   09 Jun 2027 09:36:42.142   09 Jun 2027 09:37:00.083            17.941          8970.500
       336   09 Jun 2027 09:37:22.396   09 Jun 2027 09:37:25.208             2.812          1059.688
       337   09 Jun 2027 09:37:51.958   09 Jun 2027 09:37:54.082             2.124           723.688
       338   09 Jun 2027 09:38:01.007   09 Jun 2027 09:38:03.230             2.223            73.281
       339   09 Jun 2027 09:38:15.004   09 Jun 2027 09:38:16.246             1.242           273.188
       340   09 Jun 2027 09:38:40.085   09 Jun 2027 09:38:42.181             2.096           743.719
       341   09 Jun 2027 09:39:30.134   09 Jun 2027 09:39:32.460             2.326           821.531
       342   09 Jun 2027 09:39:36.643   09 Jun 2027 09:39:39.067             2.424           122.688
       343   09 Jun 2027 09:40:37.251   09 Jun 2027 09:40:41.798             4.547          1734.313
       344   09 Jun 2027 11:09:50.533   09 Jun 2027 11:10:07.124            16.591          7009.188
       345   09 Jun 2027 11:11:39.392   09 Jun 2027 11:11:45.438             6.046          1811.656
       346   09 Jun 2027 11:12:18.757   09 Jun 2027 11:12:21.134             2.377           901.656
       347   09 Jun 2027 11:12:54.204   09 Jun 2027 11:12:57.036             2.832           786.469
       348   09 Jun 2027 11:13:27.520   09 Jun 2027 11:13:28.996             1.476           540.687
       349   09 Jun 2027 11:14:11.179   09 Jun 2027 11:14:13.542             2.363           956.031
       350   09 Jun 2027 11:16:02.583   09 Jun 2027 11:16:10.249             7.666          2949.625
       351   09 Jun 2027 11:16:35.260   09 Jun 2027 11:16:37.974             2.714           369.563
       352   09 Jun 2027 11:17:18.686   09 Jun 2027 11:17:20.329             1.643           534.844
       353   10 Jun 2027 03:21:28.930   10 Jun 2027 03:21:36.957             8.027          4013.500
       354   10 Jun 2027 03:22:27.071   10 Jun 2027 03:22:35.479             8.408          4204.000
       355   10 Jun 2027 03:23:49.693   10 Jun 2027 03:24:43.397            53.704         26852.000
       356   10 Jun 2027 03:25:22.409   10 Jun 2027 03:25:35.833            13.424          6712.000
       357   10 Jun 2027 03:25:42.796   10 Jun 2027 03:25:42.796             0.000             0.000
       358   10 Jun 2027 03:25:52.040   10 Jun 2027 03:26:01.308             9.268          4634.000
       359   10 Jun 2027 03:26:07.031   10 Jun 2027 03:26:07.031             0.000             0.000
       360   10 Jun 2027 04:56:22.820   10 Jun 2027 04:58:25.562           122.742         61371.000
       361   10 Jun 2027 04:58:32.021   10 Jun 2027 04:59:36.730            64.709         32354.500
       362   10 Jun 2027 05:01:56.666   10 Jun 2027 05:02:24.223            27.557         13778.500
       363   10 Jun 2027 06:34:14.618   10 Jun 2027 06:34:52.340            37.722         18861.000
       364   10 Jun 2027 06:35:08.761   10 Jun 2027 06:35:15.009             6.248          1135.876
       365   10 Jun 2027 06:36:00.974   10 Jun 2027 06:36:03.002             2.028           306.187
       366   10 Jun 2027 06:36:19.403   10 Jun 2027 06:36:23.450             4.047           329.156
       367   10 Jun 2027 06:37:22.579   10 Jun 2027 06:37:24.254             1.675           837.500
       368   10 Jun 2027 06:38:40.615   10 Jun 2027 06:38:46.919             6.304          2434.875
       369   10 Jun 2027 06:38:56.201   10 Jun 2027 06:38:56.201             0.000             0.000
       370   10 Jun 2027 06:40:04.626   10 Jun 2027 06:40:10.398             5.772          2428.344
       371   10 Jun 2027 08:10:38.883   10 Jun 2027 08:11:07.821            28.938         13991.938
       372   10 Jun 2027 08:11:25.759   10 Jun 2027 08:11:26.257             0.498           152.813
       373   10 Jun 2027 08:12:07.979   10 Jun 2027 08:12:10.651             2.672          1303.813
       374   10 Jun 2027 08:13:28.348   10 Jun 2027 08:13:37.222             8.874           862.156
       375   10 Jun 2027 08:14:53.478   10 Jun 2027 08:14:56.112             2.634          1317.000
       376   10 Jun 2027 08:15:04.206   10 Jun 2027 08:15:10.577             6.371          1313.688
       377   10 Jun 2027 08:15:51.435   10 Jun 2027 08:15:54.188             2.753          1088.375
       378   10 Jun 2027 08:16:19.210   10 Jun 2027 08:16:20.654             1.444           655.375
       379   10 Jun 2027 09:48:42.016   10 Jun 2027 09:49:07.502            25.486         10788.531
       380   10 Jun 2027 09:50:08.613   10 Jun 2027 09:50:12.184             3.571          1546.281
       381   10 Jun 2027 09:50:35.924   10 Jun 2027 09:50:39.739             3.815           683.063
       382   10 Jun 2027 09:51:07.202   10 Jun 2027 09:51:08.414             1.212           323.125
       383   10 Jun 2027 09:51:40.343   10 Jun 2027 09:51:42.251             1.908           892.000
       384   10 Jun 2027 09:52:03.301   10 Jun 2027 09:52:04.629             1.328           391.656
       385   10 Jun 2027 09:52:21.545   10 Jun 2027 09:52:26.426             4.881           528.625
       386   10 Jun 2027 11:22:19.281   10 Jun 2027 11:22:23.565             4.284          1810.156
       387   10 Jun 2027 11:23:48.290   10 Jun 2027 11:23:54.505             6.215          2023.969
       388   10 Jun 2027 11:24:46.555   10 Jun 2027 11:24:50.621             4.066          1626.562
       389   10 Jun 2027 11:25:20.886   10 Jun 2027 11:25:22.948             2.062           814.750
       390   10 Jun 2027 11:26:07.483   10 Jun 2027 11:26:11.805             4.322           906.812
       391   10 Jun 2027 11:26:43.466   10 Jun 2027 11:26:46.454             2.988           965.094
       392   10 Jun 2027 11:27:48.736   10 Jun 2027 11:27:52.863             4.127          1528.625
       393   10 Jun 2027 11:29:22.054   10 Jun 2027 11:29:27.410             5.356          2601.812
       394   11 Jun 2027 03:32:58.178   11 Jun 2027 03:34:15.404            77.226         38613.000
       395   11 Jun 2027 03:34:59.473   11 Jun 2027 03:35:05.043             5.570          2785.000
       396   11 Jun 2027 03:36:45.510   11 Jun 2027 03:37:04.490            18.980          9490.000
       397   11 Jun 2027 03:37:08.763   11 Jun 2027 03:37:20.985            12.222          6111.000
       398   11 Jun 2027 05:07:53.477   11 Jun 2027 05:10:51.607           178.130         89065.000
       399   11 Jun 2027 05:10:58.687   11 Jun 2027 05:11:12.217            13.530          6765.000
       400   11 Jun 2027 05:14:06.681   11 Jun 2027 05:14:06.681             0.000             0.000
       401   11 Jun 2027 05:14:33.348   11 Jun 2027 05:14:52.034            18.686          9343.000
       402   11 Jun 2027 05:14:54.389   11 Jun 2027 05:14:54.389             0.000             0.000
       403   11 Jun 2027 06:45:50.313   11 Jun 2027 06:46:36.944            46.631         22218.437
       404   11 Jun 2027 06:47:11.731   11 Jun 2027 06:47:13.690             1.959           616.938
       405   11 Jun 2027 06:48:29.902   11 Jun 2027 06:48:35.775             5.873          1351.219
       406   11 Jun 2027 06:48:54.349   11 Jun 2027 06:48:54.349             0.000             0.000
       407   11 Jun 2027 06:49:07.713   11 Jun 2027 06:49:18.815            11.102           935.750
       408   11 Jun 2027 06:50:09.527   11 Jun 2027 06:50:14.211             4.684          1337.344
       409   11 Jun 2027 06:50:39.627   11 Jun 2027 06:50:43.640             4.013           378.125
       410   11 Jun 2027 06:52:18.500   11 Jun 2027 06:52:25.450             6.950          2946.781
       411   11 Jun 2027 08:22:43.905   11 Jun 2027 08:23:00.362            16.457          8228.500
       412   11 Jun 2027 08:23:13.617   11 Jun 2027 08:23:26.249            12.632          5279.000
       413   11 Jun 2027 08:24:21.285   11 Jun 2027 08:24:25.050             3.765          1026.094
       414   11 Jun 2027 08:25:05.796   11 Jun 2027 08:25:05.796             0.000             0.000
       415   11 Jun 2027 08:25:36.302   11 Jun 2027 08:25:42.275             5.973          1140.000
       416   11 Jun 2027 08:26:19.572   11 Jun 2027 08:26:22.549             2.977          1055.531
       417   11 Jun 2027 08:27:09.796   11 Jun 2027 08:27:13.941             4.145          1042.594
       418   11 Jun 2027 08:27:37.519   11 Jun 2027 08:27:39.552             2.033           705.969
       419   11 Jun 2027 08:27:40.681   11 Jun 2027 08:27:41.017             0.336            23.094
       420   11 Jun 2027 08:28:25.767   11 Jun 2027 08:28:29.489             3.722           864.156
       421   11 Jun 2027 08:28:41.063   11 Jun 2027 08:28:42.884             1.821           217.188
       422   11 Jun 2027 10:00:28.389   11 Jun 2027 10:00:51.525            23.136          9179.906
       423   11 Jun 2027 10:01:35.877   11 Jun 2027 10:01:40.767             4.890          1097.219
       424   11 Jun 2027 10:02:11.764   11 Jun 2027 10:02:16.623             4.859           880.719
       425   11 Jun 2027 10:02:27.067   11 Jun 2027 10:02:27.978             0.911           285.719
       426   11 Jun 2027 10:03:36.231   11 Jun 2027 10:03:40.704             4.473          1994.969
       427   11 Jun 2027 10:04:41.788   11 Jun 2027 10:04:46.335             4.547          1688.125
       428   11 Jun 2027 11:34:42.298   11 Jun 2027 11:34:48.555             6.257          2923.781
       429   11 Jun 2027 11:35:36.780   11 Jun 2027 11:35:41.944             5.164          1323.250
       430   11 Jun 2027 11:36:27.923   11 Jun 2027 11:36:29.132             1.209           158.563
       431   11 Jun 2027 11:36:58.180   11 Jun 2027 11:37:00.577             2.397           782.437
       432   11 Jun 2027 11:37:19.632   11 Jun 2027 11:37:20.769             1.137           464.781
       433   11 Jun 2027 11:38:14.096   11 Jun 2027 11:38:19.086             4.990          1613.156
       434   11 Jun 2027 11:39:00.031   11 Jun 2027 11:39:03.795             3.764          1279.531
       435   11 Jun 2027 11:39:34.407   11 Jun 2027 11:39:34.407             0.000             0.000
       436   11 Jun 2027 11:39:55.023   11 Jun 2027 11:39:57.302             2.279           839.750
       437   12 Jun 2027 03:47:01.699   12 Jun 2027 03:48:06.207            64.508         32254.000
       438   12 Jun 2027 03:49:08.939   12 Jun 2027 03:49:22.286            13.347          6673.500
       439   12 Jun 2027 03:50:01.039   12 Jun 2027 03:50:01.039             0.000             0.000
       440   12 Jun 2027 05:20:47.107   12 Jun 2027 05:22:34.389           107.282         53641.000
       441   12 Jun 2027 05:22:55.041   12 Jun 2027 05:23:53.446            58.405         29202.500
       442   12 Jun 2027 05:24:18.658   12 Jun 2027 05:24:54.824            36.166         18083.000
       443   12 Jun 2027 05:25:47.898   12 Jun 2027 05:25:51.873             3.975          1987.500
       444   12 Jun 2027 05:28:25.698   12 Jun 2027 05:28:44.840            19.142          9571.000
       445   12 Jun 2027 05:29:19.611   12 Jun 2027 05:29:20.601             0.990           495.000
       446   12 Jun 2027 06:58:11.009   12 Jun 2027 06:59:05.227            54.218         27082.406
       447   12 Jun 2027 06:59:28.196   12 Jun 2027 06:59:30.480             2.284           319.062
       448   12 Jun 2027 06:59:49.743   12 Jun 2027 06:59:51.946             2.203           536.750
       449   12 Jun 2027 07:01:11.005   12 Jun 2027 07:01:18.086             7.081          1715.219
       450   12 Jun 2027 07:01:38.822   12 Jun 2027 07:01:41.676             2.854           301.125
       451   12 Jun 2027 07:02:34.971   12 Jun 2027 07:02:42.875             7.904          1665.469
       452   12 Jun 2027 07:02:51.209   12 Jun 2027 07:02:53.212             2.003           187.844
       453   12 Jun 2027 07:03:02.557   12 Jun 2027 07:03:03.666             1.109            36.125
       454   12 Jun 2027 07:03:47.331   12 Jun 2027 07:03:52.476             5.145            49.531
       455   12 Jun 2027 07:04:14.378   12 Jun 2027 07:04:15.039             0.661           319.375
       456   12 Jun 2027 07:05:10.131   12 Jun 2027 07:05:11.959             1.828           914.000
       457   12 Jun 2027 08:35:14.969   12 Jun 2027 08:35:26.239            11.270          5635.000
       458   12 Jun 2027 08:35:31.325   12 Jun 2027 08:35:49.052            17.727          8084.594
       459   12 Jun 2027 08:36:24.984   12 Jun 2027 08:36:27.152             2.168            26.969
       460   12 Jun 2027 08:37:07.527   12 Jun 2027 08:37:13.351             5.824           627.250
       461   12 Jun 2027 08:38:32.559   12 Jun 2027 08:38:36.102             3.543          1771.500
       462   12 Jun 2027 08:38:39.926   12 Jun 2027 08:38:42.924             2.998           127.250
       463   12 Jun 2027 08:38:52.886   12 Jun 2027 08:38:59.657             6.771           216.437
       464   12 Jun 2027 08:39:27.996   12 Jun 2027 08:39:32.332             4.336           885.594
       465   12 Jun 2027 08:39:51.741   12 Jun 2027 08:39:54.446             2.705           279.813
       466   12 Jun 2027 08:40:33.576   12 Jun 2027 08:40:36.040             2.464          1015.969
       467   12 Jun 2027 10:11:59.553   12 Jun 2027 10:12:14.705            15.152          7469.250
       468   12 Jun 2027 10:13:02.144   12 Jun 2027 10:13:04.943             2.799          1336.906
       469   12 Jun 2027 10:14:02.959   12 Jun 2027 10:14:09.313             6.354          1394.906
       470   12 Jun 2027 10:14:46.903   12 Jun 2027 10:14:52.286             5.383           973.188
       471   12 Jun 2027 10:14:57.572   12 Jun 2027 10:14:58.676             1.104           165.188
       472   12 Jun 2027 10:15:54.120   12 Jun 2027 10:15:58.519             4.399          1555.094
       473   12 Jun 2027 10:16:28.030   12 Jun 2027 10:16:31.313             3.283           770.781
       474   12 Jun 2027 11:47:15.639   12 Jun 2027 11:47:21.756             6.117          1667.125
       475   12 Jun 2027 11:49:30.452   12 Jun 2027 11:49:35.703             5.251          2125.656
       476   12 Jun 2027 11:50:07.308   12 Jun 2027 11:50:13.209             5.901           987.656
       477   12 Jun 2027 11:50:52.600   12 Jun 2027 11:50:57.861             5.261          1153.438
       478   12 Jun 2027 11:51:04.608   12 Jun 2027 11:51:08.582             3.974           210.844
       479   13 Jun 2027 03:59:15.956   13 Jun 2027 04:00:36.598            80.642         40321.000
       480   13 Jun 2027 04:02:21.045   13 Jun 2027 04:02:21.045             0.000             0.000
       481   13 Jun 2027 04:02:43.283   13 Jun 2027 04:02:50.767             7.484          3742.000
       482   13 Jun 2027 05:33:19.929   13 Jun 2027 05:36:22.038           182.109         91054.500
       483   13 Jun 2027 05:36:52.484   13 Jun 2027 05:36:57.585             5.101          2550.500
       484   13 Jun 2027 05:40:57.693   13 Jun 2027 05:41:08.444            10.751          5375.500
       485   13 Jun 2027 05:41:15.346   13 Jun 2027 05:41:17.927             2.581          1290.500
       486   13 Jun 2027 07:10:24.515   13 Jun 2027 07:11:09.020            44.505         22252.500
       487   13 Jun 2027 07:12:01.056   13 Jun 2027 07:12:21.492            20.436          9226.438
       488   13 Jun 2027 07:13:17.926   13 Jun 2027 07:13:19.628             1.702           669.781
       489   13 Jun 2027 07:14:24.589   13 Jun 2027 07:14:28.122             3.533          1573.312
       490   13 Jun 2027 07:14:40.309   13 Jun 2027 07:14:41.872             1.563           296.844
       491   13 Jun 2027 07:15:09.647   13 Jun 2027 07:15:11.329             1.682           812.594
       492   13 Jun 2027 07:15:53.224   13 Jun 2027 07:15:55.262             2.038           458.187
       493   13 Jun 2027 07:16:37.556   13 Jun 2027 07:16:37.556             0.000             0.000
       494   13 Jun 2027 07:16:52.300   13 Jun 2027 07:16:55.284             2.984          1409.031
       495   13 Jun 2027 08:47:20.449   13 Jun 2027 08:47:49.537            29.088         13029.000
       496   13 Jun 2027 08:49:06.017   13 Jun 2027 08:49:09.234             3.217           953.656
       497   13 Jun 2027 08:49:35.303   13 Jun 2027 08:49:39.767             4.464           814.656
       498   13 Jun 2027 08:50:28.073   13 Jun 2027 08:50:32.449             4.376          1509.562
       499   13 Jun 2027 08:50:38.333   13 Jun 2027 08:50:38.333             0.000             0.000
       500   13 Jun 2027 08:51:28.503   13 Jun 2027 08:51:36.815             8.312          1705.531
       501   13 Jun 2027 08:52:04.174   13 Jun 2027 08:52:10.415             6.241           826.063
       502   13 Jun 2027 10:24:07.006   13 Jun 2027 10:24:21.790            14.784          6715.250
       503   13 Jun 2027 10:24:48.041   13 Jun 2027 10:24:50.070             2.029           312.219
       504   13 Jun 2027 10:25:51.594   13 Jun 2027 10:25:58.486             6.892          1716.562
       505   13 Jun 2027 10:26:16.103   13 Jun 2027 10:26:17.417             1.314           271.219
       506   13 Jun 2027 10:26:55.060   13 Jun 2027 10:26:57.475             2.415          1034.938
       507   13 Jun 2027 10:28:00.978   13 Jun 2027 10:28:05.473             4.495          1698.625
