uniorb/output/strategy_2/Camera/Camera_KinoSat_111003.txt

KinoSat_111003
-------------------------
    Access    *     Start Time (UTCG)     *     Stop Time (UTCG)  *   Duration (s) *   Data (Mbytes)
         1   01 Jun 2027 03:46:17.055   01 Jun 2027 03:47:39.106            82.051         41025.500
         2   01 Jun 2027 03:47:44.407   01 Jun 2027 03:47:44.407             0.000             0.000
         3   01 Jun 2027 03:47:58.744   01 Jun 2027 03:48:07.127             8.383          4191.500
         4   01 Jun 2027 05:22:38.690   01 Jun 2027 05:25:48.477           189.787         94893.500
         5   01 Jun 2027 06:56:08.220   01 Jun 2027 06:58:47.529           159.309         79654.500
         6   01 Jun 2027 06:59:40.769   01 Jun 2027 06:59:46.564             5.795          2897.500
         7   01 Jun 2027 07:00:32.402   01 Jun 2027 07:00:53.178            20.776         10388.000
         8   01 Jun 2027 07:01:15.223   01 Jun 2027 07:01:26.062            10.839          5419.500
         9   01 Jun 2027 07:04:37.057   01 Jun 2027 07:04:38.995             1.938           969.000
        10   01 Jun 2027 08:33:39.548   01 Jun 2027 08:36:24.606           165.058         82529.000
        11   01 Jun 2027 08:36:50.229   01 Jun 2027 08:37:23.030            32.801         16400.500
        12   01 Jun 2027 08:38:01.772   01 Jun 2027 08:38:06.864             5.092          2546.000
        13   01 Jun 2027 08:38:13.587   01 Jun 2027 08:38:20.688             7.101          3550.500
        14   01 Jun 2027 10:10:35.075   01 Jun 2027 10:10:56.615            21.540         10770.000
        15   01 Jun 2027 10:10:57.099   01 Jun 2027 10:12:50.925           113.826         56913.000
        16   01 Jun 2027 10:14:28.889   01 Jun 2027 10:14:42.944            14.055          7027.500
        17   01 Jun 2027 10:15:51.688   01 Jun 2027 10:16:01.604             9.916          4958.000
        18   01 Jun 2027 10:16:15.276   01 Jun 2027 10:16:16.838             1.562           781.000
        19   01 Jun 2027 11:47:25.543   01 Jun 2027 11:48:58.914            93.371         46685.500
        20   01 Jun 2027 11:50:57.338   01 Jun 2027 11:51:27.773            30.435         15217.500
        21   02 Jun 2027 03:58:08.080   02 Jun 2027 03:59:15.369            67.289         33644.500
        22   02 Jun 2027 03:59:53.015   02 Jun 2027 03:59:53.015             0.000             0.000
        23   02 Jun 2027 05:34:40.247   02 Jun 2027 05:36:36.150           115.903         57951.500
        24   02 Jun 2027 05:37:32.973   02 Jun 2027 05:38:13.526            40.553         20276.500
        25   02 Jun 2027 07:09:08.499   02 Jun 2027 07:13:03.992           235.493        117746.500
        26   02 Jun 2027 07:14:11.278   02 Jun 2027 07:14:11.278             0.000             0.000
        27   02 Jun 2027 07:14:21.492   02 Jun 2027 07:14:47.415            25.923         12961.500
        28   02 Jun 2027 07:16:27.910   02 Jun 2027 07:16:28.822             0.912           456.000
        29   02 Jun 2027 08:45:47.204   02 Jun 2027 08:47:32.904           105.700         52750.937
        30   02 Jun 2027 08:48:01.515   02 Jun 2027 08:48:03.933             2.418           495.063
        31   02 Jun 2027 08:48:47.197   02 Jun 2027 08:48:52.595             5.398           843.781
        32   02 Jun 2027 08:49:22.482   02 Jun 2027 08:49:25.544             3.062           543.437
        33   02 Jun 2027 08:50:33.084   02 Jun 2027 08:50:34.995             1.911           955.500
        34   02 Jun 2027 08:51:09.664   02 Jun 2027 08:51:14.687             5.023          2238.531
        35   02 Jun 2027 08:51:40.181   02 Jun 2027 08:51:46.968             6.787           325.000
        36   02 Jun 2027 08:52:13.046   02 Jun 2027 08:52:16.117             3.071           392.312
        37   02 Jun 2027 10:23:28.087   02 Jun 2027 10:23:47.462            19.375          9096.500
        38   02 Jun 2027 10:24:32.966   02 Jun 2027 10:24:41.178             8.212          1369.906
        39   02 Jun 2027 10:26:00.790   02 Jun 2027 10:26:05.861             5.071          2487.875
        40   02 Jun 2027 10:26:16.770   02 Jun 2027 10:26:18.313             1.543           340.906
        41   02 Jun 2027 10:26:37.193   02 Jun 2027 10:26:39.057             1.864           570.156
        42   02 Jun 2027 10:27:42.078   02 Jun 2027 10:27:46.396             4.318          1962.656
        43   02 Jun 2027 11:59:28.088   02 Jun 2027 11:59:50.703            22.615          9526.781
        44   03 Jun 2027 04:10:18.226   03 Jun 2027 04:11:31.361            73.135         36567.500
        45   03 Jun 2027 04:11:41.581   03 Jun 2027 04:11:57.411            15.830          7915.000
        46   03 Jun 2027 04:11:58.531   03 Jun 2027 04:12:11.672            13.141          6570.500
        47   03 Jun 2027 04:12:23.845   03 Jun 2027 04:12:58.691            34.846         17423.000
        48   03 Jun 2027 05:46:49.616   03 Jun 2027 05:49:07.131           137.515         68757.500
        49   03 Jun 2027 05:49:25.385   03 Jun 2027 05:49:43.990            18.605          9302.500
        50   03 Jun 2027 07:21:58.883   03 Jun 2027 07:22:38.964            40.081         20040.500
        51   03 Jun 2027 07:23:15.845   03 Jun 2027 07:23:17.064             1.219           609.500
        52   03 Jun 2027 07:24:01.752   03 Jun 2027 07:24:15.972            14.220          2557.531
        53   03 Jun 2027 07:24:52.689   03 Jun 2027 07:24:54.589             1.900           950.000
        54   03 Jun 2027 07:25:26.048   03 Jun 2027 07:25:29.615             3.567          1180.500
        55   03 Jun 2027 07:26:02.024   03 Jun 2027 07:26:04.875             2.851           816.875
        56   03 Jun 2027 07:27:16.208   03 Jun 2027 07:27:19.869             3.661          1497.688
        57   03 Jun 2027 07:27:55.376   03 Jun 2027 07:28:00.880             5.504          1108.406
        58   03 Jun 2027 07:28:09.426   03 Jun 2027 07:28:11.507             2.081            92.406
        59   03 Jun 2027 07:28:25.725   03 Jun 2027 07:28:30.110             4.385           398.844
        60   03 Jun 2027 08:58:22.089   03 Jun 2027 08:58:37.657            15.568          7343.250
        61   03 Jun 2027 08:59:15.658   03 Jun 2027 08:59:18.881             3.223           875.313
        62   03 Jun 2027 09:00:05.278   03 Jun 2027 09:00:12.171             6.893             0.562
        63   03 Jun 2027 09:00:48.567   03 Jun 2027 09:00:48.849             0.282            45.844
        64   03 Jun 2027 09:00:49.463   03 Jun 2027 09:00:53.726             4.263            19.187
        65   03 Jun 2027 09:01:09.459   03 Jun 2027 09:01:11.689             2.230           491.656
        66   03 Jun 2027 09:02:38.638   03 Jun 2027 09:02:46.690             8.052          2102.125
        67   03 Jun 2027 09:03:25.594   03 Jun 2027 09:03:30.760             5.166          1179.000
        68   03 Jun 2027 09:04:21.630   03 Jun 2027 09:04:33.185            11.555          1525.969
        69   03 Jun 2027 10:35:36.367   03 Jun 2027 10:35:52.657            16.290          7348.531
        70   03 Jun 2027 10:36:35.059   03 Jun 2027 10:36:38.424             3.365          1259.719
        71   03 Jun 2027 10:37:52.089   03 Jun 2027 10:37:54.690             2.601          1267.812
        72   03 Jun 2027 10:38:47.282   03 Jun 2027 10:38:50.423             3.141          1514.625
        73   03 Jun 2027 10:39:07.319   03 Jun 2027 10:39:08.755             1.436           102.625
        74   03 Jun 2027 10:39:28.205   03 Jun 2027 10:39:31.078             2.873           595.500
        75   03 Jun 2027 10:40:07.368   03 Jun 2027 10:40:10.251             2.883          1081.125
        76   03 Jun 2027 10:40:13.004   03 Jun 2027 10:40:14.049             1.045            46.656
        77   04 Jun 2027 03:00:00.126   04 Jun 2027 03:00:18.674            18.548          9274.000
        78   04 Jun 2027 03:00:44.340   04 Jun 2027 03:01:30.914            46.574         23287.000
        79   04 Jun 2027 03:02:11.750   04 Jun 2027 03:02:27.030            15.280          7640.000
        80   04 Jun 2027 04:22:56.891   04 Jun 2027 04:24:09.684            72.793         36396.500
        81   04 Jun 2027 05:58:43.093   04 Jun 2027 06:01:08.479           145.386         72693.000
        82   04 Jun 2027 07:33:40.832   04 Jun 2027 07:33:57.159            16.327          8034.094
        83   04 Jun 2027 07:34:12.417   04 Jun 2027 07:34:15.840             3.423           174.281
        84   04 Jun 2027 07:35:02.759   04 Jun 2027 07:35:05.018             2.259           694.281
        85   04 Jun 2027 07:36:00.080   04 Jun 2027 07:36:05.307             5.227          1576.281
        86   04 Jun 2027 07:36:21.041   04 Jun 2027 07:36:22.670             1.629           372.750
        87   04 Jun 2027 07:37:16.550   04 Jun 2027 07:37:20.357             3.807          1368.438
        88   04 Jun 2027 07:37:48.505   04 Jun 2027 07:37:52.378             3.873           806.844
        89   04 Jun 2027 07:38:12.269   04 Jun 2027 07:38:17.858             5.589           431.750
        90   04 Jun 2027 07:39:14.184   04 Jun 2027 07:39:17.482             3.298          1576.250
        91   04 Jun 2027 07:40:01.088   04 Jun 2027 07:40:01.088             0.000             0.000
        92   04 Jun 2027 07:40:06.765   04 Jun 2027 07:40:07.176             0.411           205.500
        93   04 Jun 2027 07:40:23.995   04 Jun 2027 07:40:28.400             4.405          1859.281
        94   04 Jun 2027 09:09:53.765   04 Jun 2027 09:10:12.998            19.233          8691.687
        95   04 Jun 2027 09:11:00.510   04 Jun 2027 09:11:04.872             4.362           107.563
        96   04 Jun 2027 09:11:53.214   04 Jun 2027 09:11:57.778             4.564          1096.594
        97   04 Jun 2027 09:12:19.330   04 Jun 2027 09:12:23.461             4.131           391.750
        98   04 Jun 2027 09:12:55.049   04 Jun 2027 09:12:56.112             1.063           433.031
        99   04 Jun 2027 09:13:34.246   04 Jun 2027 09:13:37.369             3.123           480.938
       100   04 Jun 2027 09:14:14.784   04 Jun 2027 09:14:17.922             3.138           802.844
       101   04 Jun 2027 09:14:26.879   04 Jun 2027 09:14:30.482             3.603           208.219
       102   04 Jun 2027 09:14:43.390   04 Jun 2027 09:14:45.663             2.273           127.313
       103   04 Jun 2027 10:48:14.137   04 Jun 2027 10:48:29.678            15.541          6436.031
       104   04 Jun 2027 10:49:06.255   04 Jun 2027 10:49:08.656             2.401          1143.031
       105   04 Jun 2027 10:49:57.326   04 Jun 2027 10:49:57.834             0.508           254.000
       106   04 Jun 2027 10:49:58.248   04 Jun 2027 10:50:02.847             4.599          1279.875
       107   04 Jun 2027 10:50:19.334   04 Jun 2027 10:50:24.471             5.137            28.750
       108   04 Jun 2027 10:50:48.510   04 Jun 2027 10:50:53.008             4.498           751.219
       109   04 Jun 2027 10:51:08.651   04 Jun 2027 10:51:09.752             1.101           488.844
       110   04 Jun 2027 10:52:03.220   04 Jun 2027 10:52:04.972             1.752           876.000
       111   05 Jun 2027 03:00:00.000   05 Jun 2027 03:00:25.976            25.976         12988.000
       112   05 Jun 2027 03:10:48.646   05 Jun 2027 03:13:35.211           166.565         83282.500
       113   05 Jun 2027 04:33:45.628   05 Jun 2027 04:34:25.519            39.891         19945.500
       114   05 Jun 2027 04:34:32.772   05 Jun 2027 04:34:40.557             7.785          3892.500
       115   05 Jun 2027 04:35:12.195   05 Jun 2027 04:35:12.195             0.000             0.000
       116   05 Jun 2027 04:36:02.419   05 Jun 2027 04:36:02.419             0.000             0.000
       117   05 Jun 2027 04:36:56.202   05 Jun 2027 04:37:09.492            13.290          6645.000
       118   05 Jun 2027 04:37:13.936   05 Jun 2027 04:37:32.075            18.139          9069.500
       119   05 Jun 2027 06:09:05.349   05 Jun 2027 06:09:30.250            24.901         12450.500
       120   05 Jun 2027 06:10:28.294   05 Jun 2027 06:11:00.476            32.182         16091.000
       121   05 Jun 2027 06:11:05.575   05 Jun 2027 06:11:06.337             0.762           381.000
       122   05 Jun 2027 06:12:01.269   05 Jun 2027 06:12:04.711             3.442          1721.000
       123   05 Jun 2027 06:13:29.689   05 Jun 2027 06:13:39.150             9.461          2702.031
       124   05 Jun 2027 06:14:24.841   05 Jun 2027 06:14:24.841             0.000             0.000
       125   05 Jun 2027 07:45:13.807   05 Jun 2027 07:45:24.427            10.620          4430.406
       126   05 Jun 2027 07:46:32.950   05 Jun 2027 07:46:37.075             4.125          1694.188
       127   05 Jun 2027 07:47:28.570   05 Jun 2027 07:47:31.490             2.920           378.625
       128   05 Jun 2027 07:48:01.731   05 Jun 2027 07:48:14.363            12.632           211.062
       129   05 Jun 2027 07:48:35.948   05 Jun 2027 07:48:37.338             1.390           628.250
       130   05 Jun 2027 07:49:24.708   05 Jun 2027 07:49:28.985             4.277          1428.438
       131   05 Jun 2027 07:49:52.955   05 Jun 2027 07:49:53.332             0.377           184.438
       132   05 Jun 2027 07:50:06.140   05 Jun 2027 07:50:13.384             7.244           212.781
       133   05 Jun 2027 07:50:39.191   05 Jun 2027 07:50:45.049             5.858           562.750
       134   05 Jun 2027 07:51:06.556   05 Jun 2027 07:51:08.198             1.642           371.781
       135   05 Jun 2027 07:51:40.229   05 Jun 2027 07:51:42.846             2.617           903.562
       136   05 Jun 2027 07:52:33.356   05 Jun 2027 07:52:41.399             8.043          1578.437
       137   05 Jun 2027 09:22:15.767   05 Jun 2027 09:22:35.115            19.348          9641.219
       138   05 Jun 2027 09:22:52.214   05 Jun 2027 09:22:54.812             2.598           415.469
       139   05 Jun 2027 09:23:44.405   05 Jun 2027 09:23:56.934            12.529          1549.781
       140   05 Jun 2027 09:24:38.674   05 Jun 2027 09:24:41.125             2.451          1193.344
       141   05 Jun 2027 09:25:29.983   05 Jun 2027 09:25:34.066             4.083          1464.063
       142   05 Jun 2027 09:25:50.935   05 Jun 2027 09:25:52.691             1.756           479.844
       143   05 Jun 2027 09:26:17.435   05 Jun 2027 09:26:21.141             3.706           743.500
       144   05 Jun 2027 09:26:47.375   05 Jun 2027 09:26:51.859             4.484           606.938
       145   05 Jun 2027 09:27:19.591   05 Jun 2027 09:27:25.625             6.034           687.437
       146   05 Jun 2027 09:27:56.367   05 Jun 2027 09:27:58.259             1.892           515.094
       147   05 Jun 2027 11:00:15.586   05 Jun 2027 11:00:29.911            14.325          7127.531
       148   05 Jun 2027 11:00:39.146   05 Jun 2027 11:00:50.227            11.081           288.594
       149   05 Jun 2027 11:01:58.254   05 Jun 2027 11:02:00.673             2.419          1209.500
       150   05 Jun 2027 11:02:23.596   05 Jun 2027 11:02:26.968             3.372          1406.500
       151   05 Jun 2027 11:03:21.243   05 Jun 2027 11:03:24.681             3.438          1528.531
       152   06 Jun 2027 03:11:07.826   06 Jun 2027 03:11:48.589            40.763         20381.500
       153   06 Jun 2027 03:12:29.408   06 Jun 2027 03:12:38.440             9.032          4516.000
       154   06 Jun 2027 03:22:50.144   06 Jun 2027 03:24:10.121            79.977         39988.500
       155   06 Jun 2027 04:45:03.151   06 Jun 2027 04:46:16.130            72.979         36489.500
       156   06 Jun 2027 04:47:05.212   06 Jun 2027 04:47:44.819            39.607         19803.500
       157   06 Jun 2027 04:48:09.783   06 Jun 2027 04:48:11.278             1.495           747.500
       158   06 Jun 2027 04:49:33.033   06 Jun 2027 04:49:52.070            19.037          9518.500
       159   06 Jun 2027 06:20:09.999   06 Jun 2027 06:21:00.497            50.498         24112.093
       160   06 Jun 2027 06:21:29.867   06 Jun 2027 06:21:32.297             2.430           872.469
       161   06 Jun 2027 06:22:37.091   06 Jun 2027 06:22:41.687             4.596          1975.219
       162   06 Jun 2027 06:23:00.130   06 Jun 2027 06:23:01.473             1.343           399.031
       163   06 Jun 2027 06:23:30.134   06 Jun 2027 06:23:34.114             3.980           885.687
       164   06 Jun 2027 06:25:10.245   06 Jun 2027 06:25:15.335             5.090          2545.000
       165   06 Jun 2027 06:25:49.026   06 Jun 2027 06:25:52.386             3.360          1404.656
       166   06 Jun 2027 06:26:28.420   06 Jun 2027 06:26:29.921             1.501           204.250
       167   06 Jun 2027 06:28:04.380   06 Jun 2027 06:28:09.386             5.006          2351.250
       168   06 Jun 2027 07:57:24.317   06 Jun 2027 07:57:36.834            12.517          5775.375
       169   06 Jun 2027 07:58:06.701   06 Jun 2027 07:58:08.632             1.931           837.875
       170   06 Jun 2027 07:58:51.257   06 Jun 2027 07:58:54.866             3.609           586.625
       171   06 Jun 2027 07:59:46.003   06 Jun 2027 07:59:51.092             5.089           951.469
       172   06 Jun 2027 08:00:46.060   06 Jun 2027 08:00:50.735             4.675          1233.156
       173   06 Jun 2027 08:00:59.363   06 Jun 2027 08:01:02.039             2.676           120.781
       174   06 Jun 2027 08:01:38.720   06 Jun 2027 08:01:43.274             4.554           653.438
       175   06 Jun 2027 08:01:49.446   06 Jun 2027 08:01:51.648             2.202            97.281
       176   06 Jun 2027 08:02:33.304   06 Jun 2027 08:02:38.896             5.592           796.906
       177   06 Jun 2027 08:02:53.654   06 Jun 2027 08:02:54.394             0.740           279.719
       178   06 Jun 2027 08:03:02.902   06 Jun 2027 08:03:04.005             1.103           265.875
       179   06 Jun 2027 08:03:32.837   06 Jun 2027 08:03:38.860             6.023           901.000
       180   06 Jun 2027 08:03:45.084   06 Jun 2027 08:03:45.941             0.857           128.937
       181   06 Jun 2027 08:04:47.726   06 Jun 2027 08:04:49.370             1.644           822.000
       182   06 Jun 2027 09:34:19.608   06 Jun 2027 09:34:38.476            18.868          8796.187
       183   06 Jun 2027 09:35:35.150   06 Jun 2027 09:35:38.088             2.938          1101.344
       184   06 Jun 2027 09:35:56.231   06 Jun 2027 09:35:58.894             2.663           549.906
       185   06 Jun 2027 09:36:53.149   06 Jun 2027 09:36:57.383             4.234           889.344
       186   06 Jun 2027 09:37:00.943   06 Jun 2027 09:37:05.097             4.154            29.406
       187   06 Jun 2027 09:37:28.793   06 Jun 2027 09:37:28.793             0.000             0.000
       188   06 Jun 2027 09:37:55.731   06 Jun 2027 09:38:00.349             4.618          1466.406
       189   06 Jun 2027 09:38:29.609   06 Jun 2027 09:38:39.454             9.845           914.375
       190   06 Jun 2027 09:38:53.571   06 Jun 2027 09:38:57.034             3.463           409.219
       191   06 Jun 2027 09:39:21.351   06 Jun 2027 09:39:40.732            19.381           627.937
       192   06 Jun 2027 09:40:06.880   06 Jun 2027 09:40:08.816             1.936           817.125
       193   06 Jun 2027 11:12:14.807   06 Jun 2027 11:12:32.727            17.920          8655.625
       194   06 Jun 2027 11:13:01.483   06 Jun 2027 11:13:05.995             4.512           886.656
       195   06 Jun 2027 11:13:39.446   06 Jun 2027 11:13:43.724             4.278           921.000
       196   06 Jun 2027 11:14:01.576   06 Jun 2027 11:14:07.253             5.677           487.719
       197   06 Jun 2027 11:14:41.943   06 Jun 2027 11:14:45.343             3.400          1035.156
       198   06 Jun 2027 11:14:51.598   06 Jun 2027 11:14:55.310             3.712           175.937
       199   06 Jun 2027 11:15:12.464   06 Jun 2027 11:15:18.034             5.570           536.063
       200   06 Jun 2027 11:15:59.876   06 Jun 2027 11:16:02.338             2.462          1026.125
       201   06 Jun 2027 11:16:13.923   06 Jun 2027 11:16:14.789             0.866           362.031
       202   07 Jun 2027 03:22:36.221   07 Jun 2027 03:23:15.704            39.483         19741.500
       203   07 Jun 2027 03:23:28.727   07 Jun 2027 03:23:53.824            25.097         12548.500
       204   07 Jun 2027 03:24:46.205   07 Jun 2027 03:24:48.177             1.972           986.000
       205   07 Jun 2027 03:34:46.895   07 Jun 2027 03:35:25.994            39.099         19549.500
       206   07 Jun 2027 04:56:48.699   07 Jun 2027 04:58:09.439            80.740         40370.000
       207   07 Jun 2027 04:58:51.445   07 Jun 2027 05:00:09.481            78.036         39018.000
       208   07 Jun 2027 05:01:54.238   07 Jun 2027 05:01:55.141             0.903           451.500
       209   07 Jun 2027 05:02:07.354   07 Jun 2027 05:02:07.354             0.000             0.000
       210   07 Jun 2027 06:31:39.395   07 Jun 2027 06:32:25.586            46.191         22880.156
       211   07 Jun 2027 06:33:00.482   07 Jun 2027 06:33:02.372             1.890           288.094
       212   07 Jun 2027 06:33:37.121   07 Jun 2027 06:33:37.121             0.000             0.000
       213   07 Jun 2027 06:33:42.290   07 Jun 2027 06:33:47.988             5.698           626.687
       214   07 Jun 2027 06:34:55.345   07 Jun 2027 06:34:58.649             3.304          1652.000
       215   07 Jun 2027 06:35:21.387   07 Jun 2027 06:35:24.282             2.895           845.937
       216   07 Jun 2027 06:35:26.647   07 Jun 2027 06:35:26.647             0.000             0.000
       217   07 Jun 2027 06:35:29.710   07 Jun 2027 06:35:31.599             1.889           169.625
       218   07 Jun 2027 06:37:10.148   07 Jun 2027 06:37:20.842            10.694          3079.656
       219   07 Jun 2027 06:38:18.848   07 Jun 2027 06:38:24.803             5.955          1635.187
       220   07 Jun 2027 06:38:30.699   07 Jun 2027 06:38:36.671             5.972            30.781
       221   07 Jun 2027 06:38:56.438   07 Jun 2027 06:39:00.308             3.870           538.750
       222   07 Jun 2027 08:09:25.590   07 Jun 2027 08:09:38.356            12.766          6197.938
       223   07 Jun 2027 08:10:10.365   07 Jun 2027 08:10:12.551             2.186           884.406
       224   07 Jun 2027 08:10:19.602   07 Jun 2027 08:10:22.236             2.634           125.844
       225   07 Jun 2027 08:10:33.091   07 Jun 2027 08:10:37.950             4.859            59.594
       226   07 Jun 2027 08:11:34.800   07 Jun 2027 08:11:36.020             1.220           594.375
       227   07 Jun 2027 08:12:31.857   07 Jun 2027 08:12:36.508             4.651          1722.531
       228   07 Jun 2027 08:13:16.699   07 Jun 2027 08:13:19.263             2.564          1176.688
       229   07 Jun 2027 08:14:09.869   07 Jun 2027 08:14:13.490             3.621          1313.531
       230   07 Jun 2027 08:15:04.440   07 Jun 2027 08:15:04.440             0.000             0.000
       231   07 Jun 2027 08:15:21.081   07 Jun 2027 08:15:22.401             1.320           660.000
       232   07 Jun 2027 08:15:34.971   07 Jun 2027 08:15:34.971             0.000             0.000
       233   07 Jun 2027 08:15:55.297   07 Jun 2027 08:16:08.350            13.053          1826.469
       234   07 Jun 2027 08:16:22.783   07 Jun 2027 08:16:24.591             1.808           266.031
       235   07 Jun 2027 08:16:42.227   07 Jun 2027 08:16:43.125             0.898           425.656
       236   07 Jun 2027 09:46:11.231   07 Jun 2027 09:46:29.523            18.292          9146.000
       237   07 Jun 2027 09:47:09.905   07 Jun 2027 09:47:13.169             3.264          1269.250
       238   07 Jun 2027 09:47:35.971   07 Jun 2027 09:47:44.015             8.044           712.562
       239   07 Jun 2027 09:48:45.266   07 Jun 2027 09:48:49.712             4.446           889.687
       240   07 Jun 2027 09:48:55.452   07 Jun 2027 09:48:56.226             0.774           179.375
       241   07 Jun 2027 09:49:12.869   07 Jun 2027 09:49:15.282             2.413           520.094
       242   07 Jun 2027 09:49:47.558   07 Jun 2027 09:49:51.953             4.395           870.875
       243   07 Jun 2027 09:50:25.185   07 Jun 2027 09:50:28.553             3.368          1038.500
       244   07 Jun 2027 09:50:31.756   07 Jun 2027 09:50:32.596             0.840            87.250
       245   07 Jun 2027 09:50:38.686   07 Jun 2027 09:50:43.844             5.158           173.969
       246   07 Jun 2027 09:50:56.941   07 Jun 2027 09:50:57.824             0.883           261.875
       247   07 Jun 2027 09:51:03.912   07 Jun 2027 09:51:04.295             0.383           125.688
       248   07 Jun 2027 09:51:26.410   07 Jun 2027 09:51:29.982             3.572           552.125
       249   07 Jun 2027 09:52:13.988   07 Jun 2027 09:52:19.513             5.525          1372.156
       250   07 Jun 2027 09:52:52.216   07 Jun 2027 09:52:54.588             2.372           650.219
       251   07 Jun 2027 11:24:16.249   07 Jun 2027 11:24:31.678            15.429          5682.594
       252   07 Jun 2027 11:25:01.983   07 Jun 2027 11:25:03.569             1.586           696.219
       253   07 Jun 2027 11:26:01.219   07 Jun 2027 11:26:02.016             0.797           398.500
       254   07 Jun 2027 11:26:12.466   07 Jun 2027 11:26:13.326             0.860           430.000
       255   07 Jun 2027 11:27:10.703   07 Jun 2027 11:27:16.060             5.357          2393.625
       256   07 Jun 2027 11:27:36.829   07 Jun 2027 11:27:38.419             1.590           487.562
       257   08 Jun 2027 03:34:38.083   08 Jun 2027 03:35:16.337            38.254         19127.000
       258   08 Jun 2027 03:35:16.817   08 Jun 2027 03:35:20.401             3.584          1792.000
       259   08 Jun 2027 03:35:49.115   08 Jun 2027 03:35:49.115             0.000             0.000
       260   08 Jun 2027 03:36:22.984   08 Jun 2027 03:36:42.569            19.585          9792.500
       261   08 Jun 2027 03:36:43.618   08 Jun 2027 03:36:44.425             0.807           403.500
       262   08 Jun 2027 05:10:35.673   08 Jun 2027 05:14:09.684           214.011        107005.500
       263   08 Jun 2027 06:44:25.193   08 Jun 2027 06:44:58.876            33.683         16765.062
       264   08 Jun 2027 06:46:10.159   08 Jun 2027 06:46:13.274             3.115           932.219
       265   08 Jun 2027 06:46:50.767   08 Jun 2027 06:46:51.141             0.374           187.000
       266   08 Jun 2027 06:47:08.727   08 Jun 2027 06:47:12.411             3.684          1256.906
       267   08 Jun 2027 06:47:46.516   08 Jun 2027 06:47:47.719             1.203           601.500
       268   08 Jun 2027 06:47:55.253   08 Jun 2027 06:48:02.525             7.272           616.531
       269   08 Jun 2027 06:48:57.226   08 Jun 2027 06:49:01.972             4.746          1709.406
       270   08 Jun 2027 06:49:29.478   08 Jun 2027 06:49:33.179             3.701           618.625
       271   08 Jun 2027 06:50:14.755   08 Jun 2027 06:50:20.158             5.403           717.437
       272   08 Jun 2027 06:51:20.804   08 Jun 2027 06:51:25.282             4.478          1895.188
       273   08 Jun 2027 06:52:12.956   08 Jun 2027 06:52:22.142             9.186          1390.875
       274   08 Jun 2027 06:52:46.055   08 Jun 2027 06:52:50.762             4.707           460.031
       275   08 Jun 2027 08:21:28.989   08 Jun 2027 08:21:43.963            14.974          6595.844
       276   08 Jun 2027 08:23:14.408   08 Jun 2027 08:23:18.299             3.891          1800.406
       277   08 Jun 2027 08:23:48.474   08 Jun 2027 08:23:51.145             2.671           871.437
       278   08 Jun 2027 08:24:17.076   08 Jun 2027 08:24:26.782             9.706           799.969
       279   08 Jun 2027 08:24:55.933   08 Jun 2027 08:25:03.036             7.103           910.969
       280   08 Jun 2027 08:25:38.875   08 Jun 2027 08:25:39.236             0.361           180.500
       281   08 Jun 2027 08:26:06.846   08 Jun 2027 08:26:07.546             0.700           350.000
       282   08 Jun 2027 08:26:37.829   08 Jun 2027 08:26:41.689             3.860          1541.031
       283   08 Jun 2027 08:26:50.325   08 Jun 2027 08:26:51.278             0.953            44.031
       284   08 Jun 2027 08:27:22.000   08 Jun 2027 08:27:24.133             2.133           869.031
       285   08 Jun 2027 08:27:47.059   08 Jun 2027 08:27:50.784             3.725           389.688
       286   08 Jun 2027 08:28:47.167   08 Jun 2027 08:28:48.359             1.192           596.000
       287   08 Jun 2027 09:58:24.032   08 Jun 2027 09:58:41.387            17.355          8326.562
       288   08 Jun 2027 09:58:57.190   08 Jun 2027 09:58:58.995             1.805           383.938
       289   08 Jun 2027 09:59:17.234   08 Jun 2027 09:59:19.025             1.791           397.219
       290   08 Jun 2027 10:00:17.362   08 Jun 2027 10:00:20.579             3.217          1277.656
       291   08 Jun 2027 10:01:11.329   08 Jun 2027 10:01:16.198             4.869           845.469
       292   08 Jun 2027 10:02:03.789   08 Jun 2027 10:02:06.627             2.838          1278.500
       293   08 Jun 2027 10:02:21.509   08 Jun 2027 10:02:23.589             2.080           169.656
       294   08 Jun 2027 10:02:46.731   08 Jun 2027 10:02:49.899             3.168           577.562
       295   08 Jun 2027 10:04:07.801   08 Jun 2027 10:04:12.625             4.824          2363.250
       296   08 Jun 2027 10:04:30.694   08 Jun 2027 10:04:38.284             7.590           499.312
       297   08 Jun 2027 10:04:39.472   08 Jun 2027 10:04:39.472             0.000             0.000
       298   08 Jun 2027 11:35:29.770   08 Jun 2027 11:35:46.278            16.508          7618.062
       299   08 Jun 2027 11:35:59.122   08 Jun 2027 11:36:02.239             3.117           149.781
       300   08 Jun 2027 11:37:00.614   08 Jun 2027 11:37:03.080             2.466          1233.000
       301   08 Jun 2027 11:37:13.338   08 Jun 2027 11:37:15.980             2.642           751.657
       302   08 Jun 2027 11:37:52.202   08 Jun 2027 11:37:55.487             3.285           785.562
       303   08 Jun 2027 11:38:37.431   08 Jun 2027 11:38:40.443             3.012          1310.750
       304   08 Jun 2027 11:39:13.147   08 Jun 2027 11:39:15.313             2.166          1022.000
       305   08 Jun 2027 11:39:43.404   08 Jun 2027 11:39:54.320            10.916           877.844
       306   08 Jun 2027 11:40:10.724   08 Jun 2027 11:40:18.084             7.360           512.625
       307   09 Jun 2027 03:46:32.074   09 Jun 2027 03:47:55.453            83.379         41689.500
       308   09 Jun 2027 03:48:27.885   09 Jun 2027 03:48:27.885             0.000             0.000
       309   09 Jun 2027 03:48:35.717   09 Jun 2027 03:48:38.007             2.290          1145.000
       310   09 Jun 2027 05:22:54.481   09 Jun 2027 05:25:57.503           183.022         91511.000
       311   09 Jun 2027 05:26:21.487   09 Jun 2027 05:26:21.489             0.002             1.000
       312   09 Jun 2027 06:56:23.317   09 Jun 2027 06:57:10.192            46.875         22299.000
       313   09 Jun 2027 06:57:43.472   09 Jun 2027 06:57:47.127             3.655           625.687
       314   09 Jun 2027 06:58:34.961   09 Jun 2027 06:58:38.218             3.257           969.000
       315   09 Jun 2027 06:58:42.551   09 Jun 2027 06:58:42.551             0.000             0.000
       316   09 Jun 2027 06:58:43.910   09 Jun 2027 06:58:44.608             0.698            94.219
       317   09 Jun 2027 06:59:43.863   09 Jun 2027 06:59:47.960             4.097          1594.469
       318   09 Jun 2027 07:01:42.061   09 Jun 2027 07:01:52.867            10.806          3283.250
       319   09 Jun 2027 07:02:43.792   09 Jun 2027 07:02:46.994             3.202          1591.406
       320   09 Jun 2027 07:03:24.215   09 Jun 2027 07:03:24.215             0.000             0.000
       321   09 Jun 2027 07:03:28.571   09 Jun 2027 07:03:35.986             7.415           476.531
       322   09 Jun 2027 07:04:34.820   09 Jun 2027 07:04:37.686             2.866          1433.000
       323   09 Jun 2027 08:33:55.375   09 Jun 2027 08:34:15.882            20.507          7782.469
       324   09 Jun 2027 08:35:32.879   09 Jun 2027 08:35:36.936             4.057          1955.844
       325   09 Jun 2027 08:35:57.331   09 Jun 2027 08:35:58.598             1.267           400.031
       326   09 Jun 2027 08:36:24.527   09 Jun 2027 08:36:27.904             3.377           716.031
       327   09 Jun 2027 08:37:07.988   09 Jun 2027 08:37:10.808             2.820           254.219
       328   09 Jun 2027 08:38:17.080   09 Jun 2027 08:38:19.825             2.745          1213.188
       329   09 Jun 2027 08:38:28.088   09 Jun 2027 08:38:28.166             0.078            39.000
       330   09 Jun 2027 08:38:53.478   09 Jun 2027 08:38:56.880             3.402           942.688
       331   09 Jun 2027 08:39:45.623   09 Jun 2027 08:39:53.687             8.064          1298.688
       332   09 Jun 2027 10:10:50.311   09 Jun 2027 10:11:09.280            18.969          8464.469
       333   09 Jun 2027 10:12:35.576   09 Jun 2027 10:12:41.547             5.971          2657.750
       334   09 Jun 2027 10:13:08.188   09 Jun 2027 10:13:11.579             3.391           786.000
       335   09 Jun 2027 10:14:18.443   09 Jun 2027 10:14:22.147             3.704          1379.031
       336   09 Jun 2027 10:14:45.987   09 Jun 2027 10:14:50.542             4.555           745.000
       337   09 Jun 2027 10:15:29.306   09 Jun 2027 10:15:34.155             4.849          1059.250
       338   09 Jun 2027 10:16:21.787   09 Jun 2027 10:16:25.685             3.898          1363.437
       339   09 Jun 2027 11:47:41.045   09 Jun 2027 11:47:59.100            18.055          7648.500
       340   09 Jun 2027 11:48:12.705   09 Jun 2027 11:48:14.029             1.324           411.187
       341   09 Jun 2027 11:48:20.557   09 Jun 2027 11:48:21.971             1.414           190.094
       342   09 Jun 2027 11:48:30.693   09 Jun 2027 11:48:31.998             1.305           272.563
       343   09 Jun 2027 11:49:16.809   09 Jun 2027 11:49:18.191             1.382           691.000
       344   09 Jun 2027 11:49:43.109   09 Jun 2027 11:49:55.814            12.705          1252.781
       345   09 Jun 2027 11:50:35.087   09 Jun 2027 11:50:35.940             0.853           426.500
       346   09 Jun 2027 11:51:08.792   09 Jun 2027 11:51:12.765             3.973          1825.781
       347   09 Jun 2027 11:51:42.406   09 Jun 2027 11:51:42.406             0.000             0.000
       348   09 Jun 2027 11:51:53.256   09 Jun 2027 11:51:56.820             3.564          1265.344
       349   10 Jun 2027 03:58:22.347   10 Jun 2027 03:59:20.656            58.309         29154.500
       350   10 Jun 2027 03:59:34.605   10 Jun 2027 03:59:56.608            22.003         11001.500
       351   10 Jun 2027 04:00:09.029   10 Jun 2027 04:00:09.029             0.000             0.000
       352   10 Jun 2027 05:34:56.342   10 Jun 2027 05:37:47.618           171.276         85638.000
       353   10 Jun 2027 05:38:18.241   10 Jun 2027 05:38:23.549             5.308          2654.000
       354   10 Jun 2027 07:09:25.493   10 Jun 2027 07:10:29.487            63.994         31868.469
       355   10 Jun 2027 07:10:53.857   10 Jun 2027 07:10:56.137             2.280           656.656
       356   10 Jun 2027 07:11:30.043   10 Jun 2027 07:11:34.984             4.941           307.062
       357   10 Jun 2027 07:12:03.807   10 Jun 2027 07:12:05.533             1.726           849.469
       358   10 Jun 2027 07:12:52.949   10 Jun 2027 07:12:55.168             2.219           688.781
       359   10 Jun 2027 07:13:31.307   10 Jun 2027 07:13:34.969             3.662          1123.812
       360   10 Jun 2027 07:14:10.370   10 Jun 2027 07:14:14.926             4.556          1106.281
       361   10 Jun 2027 07:14:31.298   10 Jun 2027 07:14:34.274             2.976            71.219
       362   10 Jun 2027 07:15:02.627   10 Jun 2027 07:15:04.958             2.331           742.875
       363   10 Jun 2027 07:15:31.813   10 Jun 2027 07:15:35.103             3.290           555.500
       364   10 Jun 2027 07:15:55.652   10 Jun 2027 07:15:55.652             0.000             0.000
       365   10 Jun 2027 07:16:22.237   10 Jun 2027 07:16:26.529             4.292          1440.562
       366   10 Jun 2027 07:16:43.313   10 Jun 2027 07:16:43.774             0.461           198.469
       367   10 Jun 2027 08:46:02.567   10 Jun 2027 08:46:20.700            18.133          8175.375
       368   10 Jun 2027 08:48:48.784   10 Jun 2027 08:48:56.964             8.180          1895.187
       369   10 Jun 2027 08:49:41.071   10 Jun 2027 08:49:44.224             3.153          1205.719
       370   10 Jun 2027 08:50:49.353   10 Jun 2027 08:50:57.341             7.988          1757.750
       371   10 Jun 2027 08:51:44.394   10 Jun 2027 08:51:48.581             4.187          1250.000
       372   10 Jun 2027 08:52:15.281   10 Jun 2027 08:52:18.497             3.216           834.375
       373   10 Jun 2027 08:52:23.152   10 Jun 2027 08:52:24.885             1.733           144.438
       374   10 Jun 2027 10:23:44.543   10 Jun 2027 10:24:00.309            15.766          7840.219
       375   10 Jun 2027 10:24:21.489   10 Jun 2027 10:24:23.652             2.163           545.906
       376   10 Jun 2027 10:24:32.493   10 Jun 2027 10:24:32.493             0.000             0.000
       377   10 Jun 2027 10:24:47.881   10 Jun 2027 10:24:56.891             9.010           691.094
       378   10 Jun 2027 10:25:29.402   10 Jun 2027 10:25:36.857             7.455          1015.969
       379   10 Jun 2027 10:26:03.310   10 Jun 2027 10:26:04.483             1.173           586.500
       380   10 Jun 2027 10:26:15.948   10 Jun 2027 10:26:19.642             3.694           598.437
       381   10 Jun 2027 10:26:19.955   10 Jun 2027 10:26:21.758             1.803             9.781
       382   10 Jun 2027 10:26:32.254   10 Jun 2027 10:26:36.108             3.854           280.562
       383   10 Jun 2027 10:26:52.925   10 Jun 2027 10:26:55.218             2.293           525.531
       384   10 Jun 2027 10:26:56.205   10 Jun 2027 10:26:57.223             1.018            30.844
       385   10 Jun 2027 10:27:16.004   10 Jun 2027 10:27:19.906             3.902           586.906
       386   10 Jun 2027 10:27:22.416   10 Jun 2027 10:27:24.918             2.502            78.438
       387   10 Jun 2027 10:27:39.041   10 Jun 2027 10:27:42.642             3.601           245.156
       388   10 Jun 2027 11:59:43.364   10 Jun 2027 12:00:00.000            16.636          8116.906
       389   11 Jun 2027 04:10:33.331   11 Jun 2027 04:12:27.521           114.190         57095.000
       390   11 Jun 2027 05:47:36.819   11 Jun 2027 05:48:08.017            31.198         15599.000
       391   11 Jun 2027 05:48:32.932   11 Jun 2027 05:48:52.910            19.978          9989.000
       392   11 Jun 2027 05:49:47.548   11 Jun 2027 05:50:38.129            50.581         25290.500
       393   11 Jun 2027 07:22:14.127   11 Jun 2027 07:24:04.371           110.244         55122.000
       394   11 Jun 2027 07:25:03.755   11 Jun 2027 07:25:08.654             4.899          2034.031
       395   11 Jun 2027 07:26:03.209   11 Jun 2027 07:26:12.288             9.079          1620.750
       396   11 Jun 2027 07:26:43.015   11 Jun 2027 07:26:48.478             5.463           492.781
       397   11 Jun 2027 07:27:14.145   11 Jun 2027 07:27:15.210             1.065           322.375
       398   11 Jun 2027 07:27:31.075   11 Jun 2027 07:27:34.170             3.095            89.437
       399   11 Jun 2027 07:27:47.853   11 Jun 2027 07:27:52.628             4.775           413.844
       400   11 Jun 2027 07:28:28.280   11 Jun 2027 07:28:29.507             1.227           613.500
       401   11 Jun 2027 07:28:31.708   11 Jun 2027 07:28:33.923             2.215            75.875
       402   11 Jun 2027 07:28:41.918   11 Jun 2027 07:28:45.980             4.062           249.844
       403   11 Jun 2027 08:58:37.793   11 Jun 2027 08:58:52.245            14.452          6807.094
       404   11 Jun 2027 09:00:11.959   11 Jun 2027 09:00:18.487             6.528          2287.344
       405   11 Jun 2027 09:00:44.213   11 Jun 2027 09:00:46.270             2.057           740.469
       406   11 Jun 2027 09:01:25.288   11 Jun 2027 09:01:27.005             1.717           681.531
       407   11 Jun 2027 09:01:46.778   11 Jun 2027 09:01:49.842             3.064           617.906
       408   11 Jun 2027 09:02:25.023   11 Jun 2027 09:02:27.247             2.224           853.187
       409   11 Jun 2027 09:03:01.734   11 Jun 2027 09:03:04.104             2.370           678.594
       410   11 Jun 2027 09:03:29.191   11 Jun 2027 09:03:29.191             0.000             0.000
       411   11 Jun 2027 10:35:51.589   11 Jun 2027 10:36:08.321            16.732          7616.313
       412   11 Jun 2027 10:36:50.803   11 Jun 2027 10:36:56.557             5.754          1245.031
       413   11 Jun 2027 10:37:25.962   11 Jun 2027 10:37:27.895             1.933           632.406
       414   11 Jun 2027 10:37:37.711   11 Jun 2027 10:37:44.951             7.240           306.750
       415   11 Jun 2027 10:38:08.758   11 Jun 2027 10:38:10.481             1.723           743.969
       416   11 Jun 2027 10:38:28.199   11 Jun 2027 10:38:30.298             2.099           444.250
       417   11 Jun 2027 10:38:33.381   11 Jun 2027 10:38:35.152             1.771            96.344
       418   11 Jun 2027 10:38:54.384   11 Jun 2027 10:38:58.930             4.546           572.500
       419   11 Jun 2027 10:39:02.790   11 Jun 2027 10:39:03.748             0.958           120.625
       420   11 Jun 2027 10:39:19.015   11 Jun 2027 10:39:22.127             3.112           477.094
       421   11 Jun 2027 10:39:23.884   11 Jun 2027 10:39:25.048             1.164            54.906
       422   11 Jun 2027 10:40:04.912   11 Jun 2027 10:40:10.821             5.909          1217.531
       423   11 Jun 2027 10:40:20.257   11 Jun 2027 10:40:22.929             2.672           294.875
       424   12 Jun 2027 03:00:15.212   12 Jun 2027 03:00:32.318            17.106          8553.000
       425   12 Jun 2027 03:00:45.961   12 Jun 2027 03:00:59.189            13.228          6614.000
       426   12 Jun 2027 03:01:46.598   12 Jun 2027 03:02:26.281            39.683         19841.500
       427   12 Jun 2027 04:23:09.776   12 Jun 2027 04:23:59.399            49.623         24811.500
       428   12 Jun 2027 04:24:00.825   12 Jun 2027 04:24:29.585            28.760         14380.000
       429   12 Jun 2027 05:58:58.069   12 Jun 2027 06:01:05.952           127.883         63941.500
       430   12 Jun 2027 06:01:23.855   12 Jun 2027 06:01:23.951             0.096            48.000
       431   12 Jun 2027 06:02:11.923   12 Jun 2027 06:02:30.131            18.208          9104.000
       432   12 Jun 2027 07:33:55.602   12 Jun 2027 07:34:18.650            23.048         10717.000
       433   12 Jun 2027 07:35:32.266   12 Jun 2027 07:35:38.664             6.398          2039.875
       434   12 Jun 2027 07:35:49.882   12 Jun 2027 07:35:53.390             3.508           196.625
       435   12 Jun 2027 07:36:44.471   12 Jun 2027 07:36:46.976             2.505           940.000
       436   12 Jun 2027 07:37:30.019   12 Jun 2027 07:37:35.308             5.289          1298.688
       437   12 Jun 2027 07:38:05.278   12 Jun 2027 07:38:07.049             1.771           799.125
       438   12 Jun 2027 07:38:13.725   12 Jun 2027 07:38:14.172             0.447            21.531
       439   12 Jun 2027 07:39:28.419   12 Jun 2027 07:39:32.347             3.928          1916.719
       440   12 Jun 2027 07:39:39.099   12 Jun 2027 07:39:46.219             7.120           205.375
       441   12 Jun 2027 07:40:21.286   12 Jun 2027 07:40:26.820             5.534           719.406
       442   12 Jun 2027 07:40:55.021   12 Jun 2027 07:40:58.558             3.537           714.062
       443   12 Jun 2027 09:10:09.541   12 Jun 2027 09:10:27.879            18.338          8801.844
       444   12 Jun 2027 09:11:32.818   12 Jun 2027 09:11:39.944             7.126          1953.500
       445   12 Jun 2027 09:12:44.141   12 Jun 2027 09:12:50.626             6.485          1105.344
       446   12 Jun 2027 09:13:46.932   12 Jun 2027 09:13:50.280             3.348          1267.000
       447   12 Jun 2027 09:14:04.609   12 Jun 2027 09:14:07.597             2.988           447.781
       448   12 Jun 2027 09:14:55.295   12 Jun 2027 09:14:55.295             0.000             0.000
       449   12 Jun 2027 09:15:27.326   12 Jun 2027 09:15:31.511             4.185          1811.906
       450   12 Jun 2027 10:48:29.588   12 Jun 2027 10:48:45.454            15.866          7196.062
       451   12 Jun 2027 10:49:21.228   12 Jun 2027 10:49:23.347             2.119          1059.500
       452   12 Jun 2027 10:50:12.506   12 Jun 2027 10:50:16.272             3.766          1594.656
       453   12 Jun 2027 10:50:36.644   12 Jun 2027 10:50:39.931             3.287            87.344
       454   12 Jun 2027 10:51:10.992   12 Jun 2027 10:51:12.476             1.484           607.844
       455   12 Jun 2027 10:51:17.295   12 Jun 2027 10:51:17.295             0.000             0.000
       456   12 Jun 2027 10:51:21.903   12 Jun 2027 10:51:23.113             1.210           247.125
       457   12 Jun 2027 10:52:18.949   12 Jun 2027 10:52:20.036             1.087           543.500
       458   13 Jun 2027 03:00:00.000   13 Jun 2027 03:00:09.699             9.699          4849.500
       459   13 Jun 2027 03:11:03.756   13 Jun 2027 03:13:53.575           169.819         84909.500
       460   13 Jun 2027 04:34:00.470   13 Jun 2027 04:34:41.251            40.781         20390.500
       461   13 Jun 2027 04:37:47.537   13 Jun 2027 04:38:06.985            19.448          9724.000
       462   13 Jun 2027 06:09:20.277   13 Jun 2027 06:09:46.190            25.913         12956.500
       463   13 Jun 2027 06:10:42.858   13 Jun 2027 06:10:52.523             9.665          4832.500
       464   13 Jun 2027 06:10:57.660   13 Jun 2027 06:11:50.200            52.540         25128.469
       465   13 Jun 2027 06:13:02.948   13 Jun 2027 06:13:02.948             0.000             0.000
       466   13 Jun 2027 06:14:21.163   13 Jun 2027 06:14:32.531            11.368          4717.594
       467   13 Jun 2027 07:45:28.611   13 Jun 2027 07:45:41.380            12.769          6157.094
       468   13 Jun 2027 07:46:04.918   13 Jun 2027 07:46:05.585             0.667           315.188
       469   13 Jun 2027 07:47:32.733   13 Jun 2027 07:47:38.382             5.649          2197.156
       470   13 Jun 2027 07:48:09.920   13 Jun 2027 07:48:11.667             1.747           871.844
       471   13 Jun 2027 07:48:41.141   13 Jun 2027 07:48:41.989             0.848           424.000
       472   13 Jun 2027 07:48:55.537   13 Jun 2027 07:49:01.094             5.557           795.594
       473   13 Jun 2027 07:49:20.500   13 Jun 2027 07:49:24.001             3.501           232.812
       474   13 Jun 2027 07:49:52.568   13 Jun 2027 07:49:53.551             0.983           438.781
       475   13 Jun 2027 07:50:09.883   13 Jun 2027 07:50:12.480             2.597           191.781
       476   13 Jun 2027 07:50:53.000   13 Jun 2027 07:50:56.737             3.737           946.281
       477   13 Jun 2027 07:51:09.256   13 Jun 2027 07:51:10.136             0.880           391.219
       478   13 Jun 2027 07:51:34.082   13 Jun 2027 07:51:34.640             0.558           279.000
       479   13 Jun 2027 07:51:45.513   13 Jun 2027 07:51:53.776             8.263           809.094
       480   13 Jun 2027 07:52:48.272   13 Jun 2027 07:52:55.753             7.481          1548.437
       481   13 Jun 2027 09:22:31.140   13 Jun 2027 09:22:51.535            20.395         10020.125
       482   13 Jun 2027 09:23:07.077   13 Jun 2027 09:23:11.390             4.313           390.156
       483   13 Jun 2027 09:24:00.050   13 Jun 2027 09:24:10.460            10.410          1520.625
       484   13 Jun 2027 09:24:56.226   13 Jun 2027 09:25:00.268             4.042          1272.000
       485   13 Jun 2027 09:26:09.242   13 Jun 2027 09:26:14.750             5.508          1947.063
       486   13 Jun 2027 09:26:49.590   13 Jun 2027 09:26:59.780            10.190           943.156
       487   13 Jun 2027 09:27:06.592   13 Jun 2027 09:27:08.749             2.157           212.875
       488   13 Jun 2027 09:27:35.295   13 Jun 2027 09:27:37.264             1.969           829.563
       489   13 Jun 2027 09:28:11.577   13 Jun 2027 09:28:13.511             1.934           533.344
       490   13 Jun 2027 09:28:23.912   13 Jun 2027 09:28:26.119             2.207            69.750
       491   13 Jun 2027 11:00:30.753   13 Jun 2027 11:00:43.904            13.151          6575.500
       492   13 Jun 2027 11:01:41.059   13 Jun 2027 11:01:53.155            12.096          2086.188
       493   13 Jun 2027 11:02:40.133   13 Jun 2027 11:02:42.842             2.709          1130.656
       494   13 Jun 2027 11:03:36.999   13 Jun 2027 11:03:46.537             9.538          1575.344
       495   13 Jun 2027 11:04:16.043   13 Jun 2027 11:04:16.043             0.000             0.000
