uniorb/output/strategy_2/Camera/Camera_KinoSat_111702.txt

KinoSat_111702
-------------------------
    Access    *     Start Time (UTCG)     *     Stop Time (UTCG)  *   Duration (s) *   Data (Mbytes)
         1   01 Jun 2027 03:39:21.857   01 Jun 2027 03:40:15.541            53.684         26842.000
         2   01 Jun 2027 03:40:25.028   01 Jun 2027 03:41:06.760            41.732         20866.000
         3   01 Jun 2027 03:41:07.357   01 Jun 2027 03:44:03.912           176.555         88277.500
         4   01 Jun 2027 03:44:11.249   01 Jun 2027 03:44:11.293             0.044            22.000
         5   01 Jun 2027 05:17:47.061   01 Jun 2027 05:18:28.890            41.829         20914.500
         6   01 Jun 2027 05:18:52.484   01 Jun 2027 05:20:00.592            68.108         34054.000
         7   01 Jun 2027 05:20:09.635   01 Jun 2027 05:20:40.918            31.283         15641.500
         8   01 Jun 2027 06:41:13.096   01 Jun 2027 06:42:02.040            48.944         24472.000
         9   01 Jun 2027 08:17:27.701   01 Jun 2027 08:20:19.849           172.148         86074.000
        10   01 Jun 2027 09:51:00.177   01 Jun 2027 09:52:38.746            98.569         49284.500
        11   01 Jun 2027 09:53:22.967   01 Jun 2027 09:53:33.005            10.038          5019.000
        12   01 Jun 2027 09:57:49.004   01 Jun 2027 09:57:49.004             0.000             0.000
        13   01 Jun 2027 09:58:45.044   01 Jun 2027 09:59:33.752            48.708         24354.000
        14   01 Jun 2027 11:28:32.805   01 Jun 2027 11:30:30.509           117.704         58852.000
        15   01 Jun 2027 11:32:29.568   01 Jun 2027 11:32:37.640             8.072          4036.000
        16   02 Jun 2027 03:51:22.770   02 Jun 2027 03:51:50.895            28.125         14062.500
        17   02 Jun 2027 03:51:53.238   02 Jun 2027 03:54:25.274           152.036         76018.000
        18   02 Jun 2027 03:54:39.143   02 Jun 2027 03:55:22.503            43.360         21680.000
        19   02 Jun 2027 03:55:48.822   02 Jun 2027 03:56:17.036            28.214         14107.000
        20   02 Jun 2027 03:56:18.073   02 Jun 2027 03:56:38.761            20.688         10344.000
        21   02 Jun 2027 05:29:25.744   02 Jun 2027 05:30:36.775            71.031         35515.500
        22   02 Jun 2027 05:30:40.928   02 Jun 2027 05:31:02.820            21.892         10946.000
        23   02 Jun 2027 05:31:04.349   02 Jun 2027 05:31:04.349             0.000             0.000
        24   02 Jun 2027 05:31:49.276   02 Jun 2027 05:33:00.637            71.361         35680.500
        25   02 Jun 2027 06:53:04.816   02 Jun 2027 06:54:04.954            60.138         30069.000
        26   02 Jun 2027 08:29:32.020   02 Jun 2027 08:31:12.501           100.481         50240.500
        27   02 Jun 2027 08:32:19.807   02 Jun 2027 08:32:19.807             0.000             0.000
        28   02 Jun 2027 10:01:46.620   02 Jun 2027 10:01:49.971             3.351          1675.500
        29   02 Jun 2027 10:03:39.415   02 Jun 2027 10:03:53.470            14.055          6499.344
        30   02 Jun 2027 10:06:38.226   02 Jun 2027 10:06:48.536            10.310          4702.063
        31   02 Jun 2027 10:09:42.344   02 Jun 2027 10:09:50.172             7.828          3914.000
        32   02 Jun 2027 10:10:29.920   02 Jun 2027 10:10:34.634             4.714          1421.438
        33   02 Jun 2027 10:10:47.469   02 Jun 2027 10:10:52.433             4.964           221.656
        34   02 Jun 2027 10:11:00.932   02 Jun 2027 10:11:03.063             2.131           265.594
        35   02 Jun 2027 10:11:28.451   02 Jun 2027 10:11:28.589             0.138            69.000
        36   02 Jun 2027 11:40:37.836   02 Jun 2027 11:40:53.955            16.119          7388.062
        37   02 Jun 2027 11:41:33.397   02 Jun 2027 11:41:40.054             6.657           898.656
        38   02 Jun 2027 11:42:27.656   02 Jun 2027 11:42:31.430             3.774          1344.219
        39   02 Jun 2027 11:42:50.600   02 Jun 2027 11:42:52.388             1.788           332.062
        40   02 Jun 2027 11:43:33.771   02 Jun 2027 11:43:36.429             2.658          1188.000
        41   02 Jun 2027 11:44:39.776   02 Jun 2027 11:44:46.467             6.691          1836.500
        42   02 Jun 2027 11:44:46.968   02 Jun 2027 11:44:47.946             0.978            15.656
        43   02 Jun 2027 11:44:56.225   02 Jun 2027 11:44:57.548             1.323            79.062
        44   02 Jun 2027 11:45:03.678   02 Jun 2027 11:45:03.762             0.084            42.000
        45   02 Jun 2027 11:45:47.510   02 Jun 2027 11:45:52.988             5.478          1516.688
        46   02 Jun 2027 11:46:19.735   02 Jun 2027 11:46:23.618             3.883           665.719
        47   02 Jun 2027 11:46:36.222   02 Jun 2027 11:46:37.537             1.315           283.031
        48   02 Jun 2027 11:47:14.941   02 Jun 2027 11:47:21.915             6.974           959.094
        49   03 Jun 2027 04:03:30.921   03 Jun 2027 04:04:31.286            60.365         30182.500
        50   03 Jun 2027 04:04:39.969   03 Jun 2027 04:07:47.182           187.213         93606.500
        51   03 Jun 2027 04:08:05.822   03 Jun 2027 04:08:07.519             1.697           848.500
        52   03 Jun 2027 04:08:12.224   03 Jun 2027 04:08:18.816             6.592          3296.000
        53   03 Jun 2027 04:08:50.304   03 Jun 2027 04:08:50.304             0.000             0.000
        54   03 Jun 2027 05:41:52.509   03 Jun 2027 05:42:17.196            24.687         12343.500
        55   03 Jun 2027 05:42:39.152   03 Jun 2027 05:43:39.435            60.283         27479.157
        56   03 Jun 2027 05:44:23.803   03 Jun 2027 05:44:26.267             2.464           715.438
        57   03 Jun 2027 05:44:34.168   03 Jun 2027 05:44:34.273             0.105            48.188
        58   03 Jun 2027 05:45:21.458   03 Jun 2027 05:45:21.458             0.000             0.000
        59   03 Jun 2027 07:05:13.154   03 Jun 2027 07:05:33.583            20.429          6948.281
        60   03 Jun 2027 07:06:07.733   03 Jun 2027 07:06:07.733             0.000             0.000
        61   03 Jun 2027 07:06:39.878   03 Jun 2027 07:06:45.653             5.775          1758.875
        62   03 Jun 2027 07:07:48.850   03 Jun 2027 07:07:51.733             2.883          1441.500
        63   03 Jun 2027 07:08:02.117   03 Jun 2027 07:08:02.960             0.843           407.469
        64   03 Jun 2027 08:41:42.371   03 Jun 2027 08:41:53.481            11.110          3570.625
        65   03 Jun 2027 08:43:24.762   03 Jun 2027 08:43:34.779            10.017          2677.094
        66   03 Jun 2027 08:44:41.787   03 Jun 2027 08:44:44.543             2.756          1173.500
        67   03 Jun 2027 10:16:53.740   03 Jun 2027 10:17:12.185            18.445          8594.594
        68   03 Jun 2027 10:18:47.533   03 Jun 2027 10:18:53.256             5.723          2845.375
        69   03 Jun 2027 10:21:50.878   03 Jun 2027 10:22:00.611             9.733          3777.125
        70   03 Jun 2027 10:23:11.254   03 Jun 2027 10:23:15.813             4.559          2108.063
        71   03 Jun 2027 10:23:22.580   03 Jun 2027 10:23:23.252             0.672           211.469
        72   03 Jun 2027 11:53:12.880   03 Jun 2027 11:53:27.152            14.272          5968.063
        73   03 Jun 2027 11:54:59.216   03 Jun 2027 11:55:06.867             7.651          2367.281
        74   03 Jun 2027 11:56:25.171   03 Jun 2027 11:56:28.452             3.281          1640.500
        75   03 Jun 2027 11:57:10.990   03 Jun 2027 11:57:16.467             5.477          2002.563
        76   03 Jun 2027 11:58:25.189   03 Jun 2027 11:58:30.002             4.813          2147.563
        77   04 Jun 2027 04:15:35.667   04 Jun 2027 04:15:51.237            15.570          7785.000
        78   04 Jun 2027 04:16:38.242   04 Jun 2027 04:20:17.673           219.431        109715.500
        79   04 Jun 2027 04:20:33.011   04 Jun 2027 04:20:43.793            10.782          5391.000
        80   04 Jun 2027 04:20:55.138   04 Jun 2027 04:21:01.354             6.216          3108.000
        81   04 Jun 2027 05:53:47.009   04 Jun 2027 05:54:06.943            19.934          9967.000
        82   04 Jun 2027 05:54:07.253   04 Jun 2027 05:54:24.678            17.425          8712.500
        83   04 Jun 2027 05:54:54.658   04 Jun 2027 05:55:50.014            55.356         26703.438
        84   04 Jun 2027 05:56:34.368   04 Jun 2027 05:56:37.700             3.332          1188.188
        85   04 Jun 2027 05:57:10.620   04 Jun 2027 05:57:10.620             0.000             0.000
        86   04 Jun 2027 07:17:55.981   04 Jun 2027 07:18:10.342            14.361          7131.469
        87   04 Jun 2027 07:18:36.103   04 Jun 2027 07:18:37.928             1.825           805.031
        88   04 Jun 2027 07:19:49.404   04 Jun 2027 07:19:57.485             8.081          2233.625
        89   04 Jun 2027 08:53:52.334   04 Jun 2027 08:54:03.328            10.994          5285.219
        90   04 Jun 2027 08:54:53.793   04 Jun 2027 08:54:57.439             3.646          1564.500
        91   04 Jun 2027 08:55:24.433   04 Jun 2027 08:55:25.862             1.429           488.406
        92   04 Jun 2027 10:28:38.084   04 Jun 2027 10:28:50.312            12.228          5607.594
        93   04 Jun 2027 10:30:31.295   04 Jun 2027 10:30:39.102             7.807          2742.250
        94   04 Jun 2027 10:35:14.612   04 Jun 2027 10:35:32.592            17.980          8016.563
        95   05 Jun 2027 04:28:41.139   05 Jun 2027 04:32:22.607           221.468        110734.000
        96   05 Jun 2027 04:32:34.320   05 Jun 2027 04:33:01.589            27.269         13634.500
        97   05 Jun 2027 04:35:39.062   05 Jun 2027 04:36:14.139            35.077         17538.500
        98   05 Jun 2027 05:54:43.975   05 Jun 2027 05:55:17.219            33.244         16622.000
        99   05 Jun 2027 06:05:43.329   05 Jun 2027 06:06:03.261            19.932          9620.281
       100   05 Jun 2027 06:06:33.154   05 Jun 2027 06:06:35.820             2.666           651.031
       101   05 Jun 2027 06:07:30.852   05 Jun 2027 06:07:44.983            14.131          1515.125
       102   05 Jun 2027 06:08:25.497   05 Jun 2027 06:08:29.531             4.034          1186.562
       103   05 Jun 2027 07:29:39.839   05 Jun 2027 07:29:52.530            12.691          5523.813
       104   05 Jun 2027 07:30:12.754   05 Jun 2027 07:30:15.879             3.125           494.812
       105   05 Jun 2027 07:31:42.298   05 Jun 2027 07:31:49.456             7.158          2301.406
       106   05 Jun 2027 07:32:10.047   05 Jun 2027 07:32:13.201             3.154           643.469
       107   05 Jun 2027 09:05:24.651   05 Jun 2027 09:05:39.405            14.754          6510.781
       108   05 Jun 2027 09:05:41.242   05 Jun 2027 09:05:42.175             0.933            57.406
       109   05 Jun 2027 09:07:45.039   05 Jun 2027 09:07:48.515             3.476          1738.000
       110   05 Jun 2027 09:08:22.079   05 Jun 2027 09:08:29.875             7.796          3129.219
       111   05 Jun 2027 10:40:10.894   05 Jun 2027 10:40:24.734            13.840          5920.969
       112   05 Jun 2027 10:41:01.645   05 Jun 2027 10:41:08.612             6.967           734.844
       113   05 Jun 2027 10:41:29.324   05 Jun 2027 10:41:37.676             8.352           145.312
       114   05 Jun 2027 10:42:42.040   05 Jun 2027 10:42:44.623             2.583           608.000
       115   05 Jun 2027 10:43:41.216   05 Jun 2027 10:43:41.216             0.000             0.000
       116   05 Jun 2027 10:45:50.561   05 Jun 2027 10:46:04.255            13.694          5264.000
       117   05 Jun 2027 10:46:13.319   05 Jun 2027 10:46:13.502             0.183            91.500
       118   05 Jun 2027 10:46:17.633   05 Jun 2027 10:46:21.579             3.946           263.813
       119   05 Jun 2027 10:46:42.246   05 Jun 2027 10:46:43.538             1.292           604.906
       120   05 Jun 2027 10:47:25.646   05 Jun 2027 10:47:28.215             2.569          1104.969
       121   06 Jun 2027 03:02:03.705   06 Jun 2027 03:03:01.809            58.104         29052.000
       122   06 Jun 2027 03:03:10.437   06 Jun 2027 03:03:12.682             2.245          1122.500
       123   06 Jun 2027 03:03:19.900   06 Jun 2027 03:03:20.944             1.044           522.000
       124   06 Jun 2027 03:03:22.700   06 Jun 2027 03:03:35.699            12.999          6499.500
       125   06 Jun 2027 03:04:10.935   06 Jun 2027 03:04:23.246            12.311          6155.500
       126   06 Jun 2027 03:05:09.575   06 Jun 2027 03:05:35.626            26.051         13025.500
       127   06 Jun 2027 03:06:58.968   06 Jun 2027 03:07:06.707             7.739          3869.500
       128   06 Jun 2027 03:07:19.973   06 Jun 2027 03:07:25.469             5.496          2748.000
       129   06 Jun 2027 03:07:44.664   06 Jun 2027 03:07:59.868            15.204          7602.000
       130   06 Jun 2027 03:08:16.814   06 Jun 2027 03:08:18.928             2.114          1057.000
       131   06 Jun 2027 04:41:07.115   06 Jun 2027 04:43:43.154           156.039         78019.500
       132   06 Jun 2027 04:47:54.561   06 Jun 2027 04:48:18.579            24.018         12009.000
       133   06 Jun 2027 06:06:04.182   06 Jun 2027 06:06:33.439            29.257         14526.032
       134   06 Jun 2027 06:17:45.558   06 Jun 2027 06:17:51.825             6.267          3133.500
       135   06 Jun 2027 06:18:29.382   06 Jun 2027 06:18:31.991             2.609          1304.500
       136   06 Jun 2027 07:40:00.077   06 Jun 2027 07:40:14.677            14.600          6654.813
       137   06 Jun 2027 07:40:31.795   06 Jun 2027 07:40:32.726             0.931           424.219
       138   06 Jun 2027 07:40:44.410   06 Jun 2027 07:40:48.063             3.653           285.781
       139   06 Jun 2027 07:42:28.480   06 Jun 2027 07:42:34.811             6.331          2314.219
       140   06 Jun 2027 07:43:48.912   06 Jun 2027 07:43:53.664             4.752          2111.469
       141   06 Jun 2027 07:44:28.957   06 Jun 2027 07:44:33.979             5.022           496.469
       142   06 Jun 2027 09:15:10.642   06 Jun 2027 09:15:20.104             9.462          3807.031
       143   06 Jun 2027 09:15:51.740   06 Jun 2027 09:15:55.237             3.497           709.406
       144   06 Jun 2027 09:17:29.257   06 Jun 2027 09:17:32.908             3.651          1799.219
       145   06 Jun 2027 09:18:43.991   06 Jun 2027 09:18:43.991             0.000             0.000
       146   06 Jun 2027 09:18:45.044   06 Jun 2027 09:18:48.472             3.428          1370.750
       147   06 Jun 2027 09:19:18.076   06 Jun 2027 09:19:21.595             3.519           886.625
       148   06 Jun 2027 09:19:36.311   06 Jun 2027 09:19:39.025             2.714           319.812
       149   06 Jun 2027 10:52:18.155   06 Jun 2027 10:52:32.338            14.183          6080.594
       150   06 Jun 2027 10:53:30.617   06 Jun 2027 10:53:40.909            10.292          1142.906
       151   06 Jun 2027 10:54:24.732   06 Jun 2027 10:54:37.201            12.469           876.031
       152   06 Jun 2027 10:54:46.968   06 Jun 2027 10:54:47.897             0.929           305.219
       153   06 Jun 2027 10:55:47.134   06 Jun 2027 10:55:52.362             5.228           674.562
       154   06 Jun 2027 10:56:48.949   06 Jun 2027 10:56:50.430             1.481           202.719
       155   06 Jun 2027 10:57:08.227   06 Jun 2027 10:57:09.310             1.083           498.344
       156   06 Jun 2027 10:58:48.935   06 Jun 2027 10:58:54.904             5.969          2875.281
       157   06 Jun 2027 10:59:17.678   06 Jun 2027 10:59:19.391             1.713           711.688
       158   06 Jun 2027 10:59:32.136   06 Jun 2027 10:59:40.563             8.427           396.125
       159   07 Jun 2027 03:14:21.536   07 Jun 2027 03:16:55.372           153.836         76918.000
       160   07 Jun 2027 03:17:04.158   07 Jun 2027 03:17:41.187            37.029         18514.500
       161   07 Jun 2027 03:18:49.150   07 Jun 2027 03:18:52.247             3.097          1548.500
       162   07 Jun 2027 03:18:56.915   07 Jun 2027 03:19:08.722            11.807          5903.500
       163   07 Jun 2027 03:19:17.685   07 Jun 2027 03:19:22.059             4.374          2187.000
       164   07 Jun 2027 03:20:12.888   07 Jun 2027 03:20:16.913             4.025          2012.500
       165   07 Jun 2027 04:53:22.372   07 Jun 2027 04:54:53.581            91.209         44844.062
       166   07 Jun 2027 04:55:29.709   07 Jun 2027 04:55:32.261             2.552          1099.937
       167   07 Jun 2027 04:56:28.662   07 Jun 2027 04:56:32.403             3.741          1594.219
       168   07 Jun 2027 04:57:17.466   07 Jun 2027 04:57:17.466             0.000             0.000
       169   07 Jun 2027 04:58:59.082   07 Jun 2027 04:58:59.082             0.000             0.000
       170   07 Jun 2027 04:59:25.214   07 Jun 2027 04:59:32.463             7.249          3624.500
       171   07 Jun 2027 06:17:29.209   07 Jun 2027 06:17:45.346            16.137          6456.719
       172   07 Jun 2027 06:18:39.478   07 Jun 2027 06:18:45.805             6.327          1657.719
       173   07 Jun 2027 06:19:26.370   07 Jun 2027 06:19:35.759             9.389           545.469
       174   07 Jun 2027 06:29:42.577   07 Jun 2027 06:29:47.802             5.225          1786.813
       175   07 Jun 2027 06:30:06.316   07 Jun 2027 06:30:06.316             0.000             0.000
       176   07 Jun 2027 07:51:45.003   07 Jun 2027 07:52:00.960            15.957          7226.594
       177   07 Jun 2027 07:52:21.450   07 Jun 2027 07:52:22.992             1.542           427.687
       178   07 Jun 2027 07:52:58.575   07 Jun 2027 07:52:58.575             0.000             0.000
       179   07 Jun 2027 07:53:50.764   07 Jun 2027 07:53:55.536             4.772          2022.406
       180   07 Jun 2027 07:54:46.869   07 Jun 2027 07:54:53.101             6.232           938.344
       181   07 Jun 2027 07:56:36.138   07 Jun 2027 07:56:36.138             0.000             0.000
       182   07 Jun 2027 09:26:37.584   07 Jun 2027 09:26:49.822            12.238          4947.281
       183   07 Jun 2027 09:28:09.678   07 Jun 2027 09:28:12.940             3.262          1527.156
       184   07 Jun 2027 09:28:23.321   07 Jun 2027 09:28:29.727             6.406           278.750
       185   07 Jun 2027 09:29:08.583   07 Jun 2027 09:29:12.639             4.056          1206.281
       186   07 Jun 2027 09:32:12.305   07 Jun 2027 09:32:31.124            18.819          5614.563
       187   07 Jun 2027 09:33:47.458   07 Jun 2027 09:33:47.458             0.000             0.000
       188   07 Jun 2027 11:07:55.195   07 Jun 2027 11:08:19.566            24.371         12185.500
       189   07 Jun 2027 11:10:27.618   07 Jun 2027 11:10:37.344             9.726          4606.437
       190   07 Jun 2027 11:10:46.051   07 Jun 2027 11:10:47.750             1.699           272.094
       191   07 Jun 2027 11:11:19.036   07 Jun 2027 11:11:28.755             9.719           713.594
       192   08 Jun 2027 03:27:07.572   08 Jun 2027 03:27:32.397            24.825         12412.500
       193   08 Jun 2027 03:27:34.990   08 Jun 2027 03:30:36.093           181.103         90551.500
       194   08 Jun 2027 03:31:08.222   08 Jun 2027 03:31:08.222             0.000             0.000
       195   08 Jun 2027 03:31:17.221   08 Jun 2027 03:31:31.417            14.196          7098.000
       196   08 Jun 2027 03:32:07.599   08 Jun 2027 03:32:10.291             2.692          1346.000
       197   08 Jun 2027 03:32:29.857   08 Jun 2027 03:32:36.125             6.268          3134.000
       198   08 Jun 2027 05:06:20.294   08 Jun 2027 05:07:43.281            82.987         41332.188
       199   08 Jun 2027 05:08:25.377   08 Jun 2027 05:08:27.985             2.608           643.188
       200   08 Jun 2027 05:08:37.446   08 Jun 2027 05:08:37.446             0.000             0.000
       201   08 Jun 2027 05:09:19.580   08 Jun 2027 05:09:22.897             3.317          1612.344
       202   08 Jun 2027 05:10:01.729   08 Jun 2027 05:10:05.716             3.987           896.000
       203   08 Jun 2027 05:10:58.782   08 Jun 2027 05:11:00.702             1.920           901.906
       204   08 Jun 2027 06:29:34.394   08 Jun 2027 06:29:51.772            17.378          7057.906
       205   08 Jun 2027 06:30:20.962   08 Jun 2027 06:30:20.962             0.000             0.000
       206   08 Jun 2027 06:30:26.447   08 Jun 2027 06:30:29.790             3.343           869.531
       207   08 Jun 2027 06:31:31.434   08 Jun 2027 06:31:35.193             3.759          1575.219
       208   08 Jun 2027 08:03:20.889   08 Jun 2027 08:03:38.052            17.163          8398.844
       209   08 Jun 2027 08:04:24.579   08 Jun 2027 08:04:24.579             0.000             0.000
       210   08 Jun 2027 08:05:13.091   08 Jun 2027 08:05:19.156             6.065          2049.875
       211   08 Jun 2027 08:05:41.173   08 Jun 2027 08:05:42.607             1.434           688.031
       212   08 Jun 2027 08:06:18.439   08 Jun 2027 08:06:24.592             6.153          1119.750
       213   08 Jun 2027 08:07:08.637   08 Jun 2027 08:07:11.722             3.085          1323.406
       214   08 Jun 2027 08:08:36.900   08 Jun 2027 08:08:43.820             6.920          2610.656
       215   08 Jun 2027 09:39:21.162   08 Jun 2027 09:39:31.177            10.015          4661.344
       216   08 Jun 2027 09:40:57.616   08 Jun 2027 09:40:57.616             0.000             0.000
       217   08 Jun 2027 09:41:25.710   08 Jun 2027 09:41:31.002             5.292          1912.719
       218   08 Jun 2027 09:42:56.259   08 Jun 2027 09:43:02.620             6.361          2327.500
       219   08 Jun 2027 09:43:09.640   08 Jun 2027 09:43:12.927             3.287            59.656
       220   08 Jun 2027 09:43:42.879   08 Jun 2027 09:43:44.704             1.825           876.969
       221   08 Jun 2027 09:47:14.097   08 Jun 2027 09:47:26.296            12.199          6037.563
       222   08 Jun 2027 11:16:23.669   08 Jun 2027 11:16:51.570            27.901          7115.594
       223   08 Jun 2027 11:19:11.709   08 Jun 2027 11:19:11.709             0.000             0.000
       224   08 Jun 2027 11:21:08.819   08 Jun 2027 11:21:27.062            18.243          7660.500
       225   08 Jun 2027 11:21:41.873   08 Jun 2027 11:21:43.899             2.026           462.844
       226   08 Jun 2027 11:21:53.978   08 Jun 2027 11:21:55.483             1.505           314.969
       227   08 Jun 2027 11:22:20.422   08 Jun 2027 11:22:23.745             3.323           757.375
       228   08 Jun 2027 11:22:28.533   08 Jun 2027 11:22:30.923             2.390           149.625
       229   08 Jun 2027 11:22:55.146   08 Jun 2027 11:22:56.698             1.552           679.625
       230   08 Jun 2027 11:23:27.801   08 Jun 2027 11:23:34.418             6.617           940.437
       231   09 Jun 2027 03:39:41.948   09 Jun 2027 03:40:31.535            49.587         24793.500
       232   09 Jun 2027 03:40:41.646   09 Jun 2027 03:41:23.858            42.212         21106.000
       233   09 Jun 2027 03:41:24.485   09 Jun 2027 03:43:43.269           138.784         69392.000
       234   09 Jun 2027 03:44:27.188   09 Jun 2027 03:44:34.671             7.483          3741.500
       235   09 Jun 2027 03:44:44.151   09 Jun 2027 03:44:56.187            12.036          6018.000
       236   09 Jun 2027 05:18:04.304   09 Jun 2027 05:18:43.049            38.745         19372.500
       237   09 Jun 2027 05:19:07.292   09 Jun 2027 05:19:33.414            26.122         12934.531
       238   09 Jun 2027 05:20:19.115   09 Jun 2027 05:20:20.254             1.139           151.469
       239   09 Jun 2027 05:21:47.945   09 Jun 2027 05:21:54.732             6.787          1854.562
       240   09 Jun 2027 05:22:19.603   09 Jun 2027 05:22:22.141             2.538           602.562
       241   09 Jun 2027 06:41:29.403   09 Jun 2027 06:41:45.784            16.381          4643.594
       242   09 Jun 2027 06:42:42.435   09 Jun 2027 06:42:50.366             7.931          1551.937
       243   09 Jun 2027 06:42:59.943   09 Jun 2027 06:42:59.943             0.000             0.000
       244   09 Jun 2027 06:43:30.910   09 Jun 2027 06:43:33.985             3.075          1267.000
       245   09 Jun 2027 06:43:43.423   09 Jun 2027 06:43:45.081             1.658           163.156
       246   09 Jun 2027 08:17:48.281   09 Jun 2027 08:18:10.583            22.302         10764.406
       247   09 Jun 2027 08:19:06.065   09 Jun 2027 08:19:20.929            14.864          1449.875
       248   09 Jun 2027 08:20:37.288   09 Jun 2027 08:20:37.288             0.000             0.000
       249   09 Jun 2027 09:51:18.079   09 Jun 2027 09:51:28.945            10.866          4770.937
       250   09 Jun 2027 09:54:50.060   09 Jun 2027 09:55:01.492            11.432          4525.844
       251   09 Jun 2027 09:55:46.666   09 Jun 2027 09:55:50.193             3.527            62.219
       252   09 Jun 2027 09:58:48.362   09 Jun 2027 09:58:48.937             0.575           287.500
       253   09 Jun 2027 09:58:49.159   09 Jun 2027 09:59:02.309            13.150          5242.000
       254   09 Jun 2027 09:59:28.445   09 Jun 2027 09:59:28.445             0.000             0.000
       255   09 Jun 2027 09:59:32.698   09 Jun 2027 09:59:36.442             3.744           949.656
       256   09 Jun 2027 09:59:46.479   09 Jun 2027 09:59:47.389             0.910            53.813
       257   09 Jun 2027 11:28:49.997   09 Jun 2027 11:29:03.552            13.555          6627.156
       258   09 Jun 2027 11:29:22.961   09 Jun 2027 11:29:28.002             5.041           447.281
       259   09 Jun 2027 11:31:06.571   09 Jun 2027 11:31:10.292             3.721           462.531
       260   09 Jun 2027 11:31:28.621   09 Jun 2027 11:31:30.450             1.829           462.594
       261   09 Jun 2027 11:31:49.076   09 Jun 2027 11:31:50.970             1.894           247.344
       262   09 Jun 2027 11:33:34.975   09 Jun 2027 11:33:41.190             6.215          2908.500
       263   09 Jun 2027 11:33:49.982   09 Jun 2027 11:33:53.024             3.042           138.969
       264   09 Jun 2027 11:34:35.760   09 Jun 2027 11:34:40.368             4.608          1098.656
       265   09 Jun 2027 11:35:07.622   09 Jun 2027 11:35:09.498             1.876           771.375
       266   09 Jun 2027 11:35:26.013   09 Jun 2027 11:35:29.327             3.314           516.094
       267   10 Jun 2027 03:51:39.821   10 Jun 2027 03:51:47.120             7.299          3649.500
       268   10 Jun 2027 03:51:55.565   10 Jun 2027 03:54:08.714           133.149         66574.500
       269   10 Jun 2027 03:54:30.235   10 Jun 2027 03:55:20.770            50.535         25267.500
       270   10 Jun 2027 03:55:40.146   10 Jun 2027 03:56:28.927            48.781         24390.500
       271   10 Jun 2027 03:56:53.068   10 Jun 2027 03:57:02.217             9.149          4574.500
       272   10 Jun 2027 05:29:43.205   10 Jun 2027 05:30:33.517            50.312         25156.000
       273   10 Jun 2027 05:31:15.388   10 Jun 2027 05:31:50.640            35.252         17463.687
       274   10 Jun 2027 05:32:15.246   10 Jun 2027 05:32:18.545             3.299           678.469
       275   10 Jun 2027 05:33:15.561   10 Jun 2027 05:33:22.070             6.509          1683.844
       276   10 Jun 2027 06:53:21.282   10 Jun 2027 06:53:35.568            14.286          5837.187
       277   10 Jun 2027 06:54:43.639   10 Jun 2027 06:54:52.470             8.831          1841.594
       278   10 Jun 2027 08:29:49.919   10 Jun 2027 08:30:01.995            12.076          5829.250
       279   10 Jun 2027 08:30:28.183   10 Jun 2027 08:30:29.284             1.101           240.813
       280   10 Jun 2027 08:30:58.434   10 Jun 2027 08:31:01.336             2.902           857.688
       281   10 Jun 2027 08:31:20.008   10 Jun 2027 08:31:20.508             0.500            95.594
       282   10 Jun 2027 08:31:38.164   10 Jun 2027 08:31:38.164             0.000             0.000
       283   10 Jun 2027 08:32:23.446   10 Jun 2027 08:32:28.917             5.471          1716.781
       284   10 Jun 2027 10:04:25.429   10 Jun 2027 10:04:45.622            20.193          7508.656
       285   10 Jun 2027 10:05:47.540   10 Jun 2027 10:05:47.540             0.000             0.000
       286   10 Jun 2027 10:06:01.280   10 Jun 2027 10:06:09.248             7.968           594.406
       287   10 Jun 2027 10:07:32.735   10 Jun 2027 10:07:37.751             5.016          1296.094
       288   10 Jun 2027 10:08:00.871   10 Jun 2027 10:08:05.021             4.150           456.437
       289   10 Jun 2027 10:08:54.457   10 Jun 2027 10:08:54.457             0.000             0.000
       290   10 Jun 2027 10:10:08.162   10 Jun 2027 10:10:16.310             8.148          3700.062
       291   10 Jun 2027 10:10:38.940   10 Jun 2027 10:10:40.957             2.017           589.781
       292   10 Jun 2027 10:10:55.957   10 Jun 2027 10:10:57.717             1.760           302.906
       293   10 Jun 2027 10:11:16.797   10 Jun 2027 10:11:16.797             0.000             0.000
       294   10 Jun 2027 10:11:41.670   10 Jun 2027 10:11:45.209             3.539          1291.063
       295   10 Jun 2027 11:40:56.426   10 Jun 2027 11:41:10.652            14.226          6842.125
       296   10 Jun 2027 11:41:29.921   10 Jun 2027 11:41:32.412             2.491           375.844
       297   10 Jun 2027 11:42:02.793   10 Jun 2027 11:42:05.947             3.154           622.125
       298   10 Jun 2027 11:43:30.872   10 Jun 2027 11:43:32.303             1.431           705.469
       299   10 Jun 2027 11:43:49.522   10 Jun 2027 11:43:55.376             5.854           538.094
       300   10 Jun 2027 11:45:37.207   10 Jun 2027 11:45:43.400             6.193          2873.563
       301   10 Jun 2027 11:46:49.428   10 Jun 2027 11:46:54.014             4.586          1769.687
       302   10 Jun 2027 11:47:31.917   10 Jun 2027 11:47:37.448             5.531           958.188
       303   11 Jun 2027 04:03:48.250   11 Jun 2027 04:04:47.991            59.741         29870.500
       304   11 Jun 2027 04:04:57.460   11 Jun 2027 04:06:22.120            84.660         42330.000
       305   11 Jun 2027 04:06:40.824   11 Jun 2027 04:07:52.416            71.592         35796.000
       306   11 Jun 2027 04:08:35.054   11 Jun 2027 04:09:25.243            50.189         25094.500
       307   11 Jun 2027 04:09:39.360   11 Jun 2027 04:09:41.220             1.860           930.000
       308   11 Jun 2027 05:42:07.464   11 Jun 2027 05:42:35.874            28.410         14205.000
       309   11 Jun 2027 05:42:55.952   11 Jun 2027 05:43:11.038            15.086          7543.000
       310   11 Jun 2027 05:43:21.366   11 Jun 2027 05:43:53.943            32.577         14738.031
       311   11 Jun 2027 05:44:16.642   11 Jun 2027 05:44:18.903             2.261           709.344
       312   11 Jun 2027 05:45:25.918   11 Jun 2027 05:45:25.918             0.000             0.000
       313   11 Jun 2027 07:05:30.114   11 Jun 2027 07:05:48.162            18.048          6531.375
       314   11 Jun 2027 07:06:24.802   11 Jun 2027 07:06:26.484             1.682           807.531
       315   11 Jun 2027 07:06:56.268   11 Jun 2027 07:06:56.268             0.000             0.000
       316   11 Jun 2027 07:07:14.529   11 Jun 2027 07:07:21.310             6.781          1501.406
       317   11 Jun 2027 07:07:47.904   11 Jun 2027 07:07:50.866             2.962           812.812
       318   11 Jun 2027 07:08:19.910   11 Jun 2027 07:08:21.420             1.510           386.813
       319   11 Jun 2027 07:08:26.245   11 Jun 2027 07:08:31.227             4.982           150.781
       320   11 Jun 2027 08:42:00.529   11 Jun 2027 08:42:13.904            13.375          5426.594
       321   11 Jun 2027 08:42:40.634   11 Jun 2027 08:42:44.015             3.381           784.250
       322   11 Jun 2027 08:43:18.684   11 Jun 2027 08:43:25.564             6.880           419.188
       323   11 Jun 2027 08:43:36.894   11 Jun 2027 08:43:37.075             0.181            90.500
       324   11 Jun 2027 08:44:22.123   11 Jun 2027 08:44:24.493             2.370          1185.000
       325   11 Jun 2027 08:44:36.538   11 Jun 2027 08:44:39.548             3.010           727.437
       326   11 Jun 2027 10:17:10.692   11 Jun 2027 10:17:30.423            19.731          9265.594
       327   11 Jun 2027 10:18:24.242   11 Jun 2027 10:18:29.184             4.942          1615.000
       328   11 Jun 2027 10:19:06.461   11 Jun 2027 10:19:06.461             0.000             0.000
       329   11 Jun 2027 10:22:08.818   11 Jun 2027 10:22:26.376            17.558          6860.719
       330   11 Jun 2027 10:22:58.887   11 Jun 2027 10:23:04.447             5.560          1015.969
       331   11 Jun 2027 10:23:07.309   11 Jun 2027 10:23:09.496             2.187            81.469
       332   11 Jun 2027 10:23:36.507   11 Jun 2027 10:23:39.193             2.686           844.094
       333   11 Jun 2027 11:53:32.853   11 Jun 2027 11:53:52.243            19.390          6232.437
       334   11 Jun 2027 11:54:57.172   11 Jun 2027 11:55:01.929             4.757          1784.844
       335   11 Jun 2027 11:57:17.811   11 Jun 2027 11:57:24.555             6.744          3372.000
       336   11 Jun 2027 11:57:45.593   11 Jun 2027 11:57:47.915             2.322          1096.813
       337   12 Jun 2027 04:15:53.212   12 Jun 2027 04:16:05.413            12.201          6100.500
       338   12 Jun 2027 04:16:55.295   12 Jun 2027 04:20:33.780           218.485        109242.500
       339   12 Jun 2027 04:20:47.907   12 Jun 2027 04:21:07.586            19.679          9839.500
       340   12 Jun 2027 05:54:03.999   12 Jun 2027 05:54:42.293            38.294         19147.000
       341   12 Jun 2027 05:55:11.027   12 Jun 2027 05:56:05.443            54.416         23513.594
       342   12 Jun 2027 05:56:42.641   12 Jun 2027 05:56:49.307             6.666          1006.188
       343   12 Jun 2027 05:56:52.598   12 Jun 2027 05:56:52.598             0.000             0.000
       344   12 Jun 2027 07:18:10.271   12 Jun 2027 07:18:30.297            20.026          9153.188
       345   12 Jun 2027 07:20:03.527   12 Jun 2027 07:20:05.391             1.864           932.000
       346   12 Jun 2027 07:20:24.631   12 Jun 2027 07:20:33.220             8.589          2115.531
       347   12 Jun 2027 08:54:08.613   12 Jun 2027 08:54:19.477            10.864          5055.156
       348   12 Jun 2027 08:55:11.082   12 Jun 2027 08:55:16.336             5.254          1579.000
       349   12 Jun 2027 08:55:42.246   12 Jun 2027 08:55:44.714             2.468           559.719
       350   12 Jun 2027 08:55:48.622   12 Jun 2027 08:55:52.210             3.588           104.469
       351   12 Jun 2027 08:56:27.136   12 Jun 2027 08:56:27.136             0.000             0.000
       352   12 Jun 2027 08:57:08.138   12 Jun 2027 08:57:13.994             5.856          2207.875
       353   12 Jun 2027 10:28:53.006   12 Jun 2027 10:29:05.373            12.367          5374.688
       354   12 Jun 2027 10:30:51.096   12 Jun 2027 10:30:58.745             7.649          2867.625
       355   12 Jun 2027 10:34:08.922   12 Jun 2027 10:34:21.975            13.053          5321.625
       356   12 Jun 2027 10:34:55.036   12 Jun 2027 10:34:57.346             2.310           499.875
       357   12 Jun 2027 10:35:38.187   12 Jun 2027 10:35:48.508            10.321          1260.125
       358   13 Jun 2027 04:28:58.567   13 Jun 2027 04:32:43.154           224.587        112293.500
       359   13 Jun 2027 04:33:08.957   13 Jun 2027 04:34:02.069            53.112         26556.000
       360   13 Jun 2027 05:54:57.869   13 Jun 2027 05:55:21.190            23.321         11660.500
       361   13 Jun 2027 06:06:00.351   13 Jun 2027 06:06:38.333            37.982         17891.125
       362   13 Jun 2027 06:07:10.440   13 Jun 2027 06:07:13.703             3.263           869.813
       363   13 Jun 2027 06:08:00.585   13 Jun 2027 06:08:03.161             2.576           952.250
       364   13 Jun 2027 06:08:29.489   13 Jun 2027 06:08:31.859             2.370           822.750
       365   13 Jun 2027 06:08:54.337   13 Jun 2027 06:08:55.278             0.941           461.375
       366   13 Jun 2027 07:28:59.506   13 Jun 2027 07:29:11.505            11.999          5268.625
       367   13 Jun 2027 07:29:53.350   13 Jun 2027 07:29:57.384             4.034          1182.469
       368   13 Jun 2027 07:30:10.746   13 Jun 2027 07:30:14.733             3.987           414.625
       369   13 Jun 2027 07:30:55.072   13 Jun 2027 07:31:00.851             5.779           790.125
       370   13 Jun 2027 07:31:57.941   13 Jun 2027 07:32:01.637             3.696          1183.969
       371   13 Jun 2027 07:32:27.751   13 Jun 2027 07:32:30.915             3.164           698.031
       372   13 Jun 2027 09:04:31.618   13 Jun 2027 09:04:39.646             8.028          4014.000
       373   13 Jun 2027 09:05:41.870   13 Jun 2027 09:05:46.034             4.164          1997.063
       374   13 Jun 2027 09:08:00.741   13 Jun 2027 09:08:00.741             0.000             0.000
       375   13 Jun 2027 09:08:05.087   13 Jun 2027 09:08:16.280            11.193          3943.313
       376   13 Jun 2027 09:09:35.046   13 Jun 2027 09:09:40.566             5.520          2461.437
       377   13 Jun 2027 10:40:26.747   13 Jun 2027 10:40:41.552            14.805          6984.875
       378   13 Jun 2027 10:41:41.882   13 Jun 2027 10:41:41.882             0.000             0.000
       379   13 Jun 2027 10:43:34.409   13 Jun 2027 10:43:44.327             9.918          4914.594
       380   13 Jun 2027 10:43:58.573   13 Jun 2027 10:44:00.308             1.735           445.187
       381   13 Jun 2027 10:47:19.972   13 Jun 2027 10:47:31.490            11.518          5654.188
       382   13 Jun 2027 10:47:59.642   13 Jun 2027 10:48:00.948             1.306           653.000
