uniorb/output/strategy_2/Camera/Camera_KinoSat_110305.txt

KinoSat_110305
-------------------------
    Access    *     Start Time (UTCG)     *     Stop Time (UTCG)  *   Duration (s) *   Data (Mbytes)
         1   01 Jun 2027 03:56:13.158   01 Jun 2027 03:56:33.484            20.326         10163.000
         2   01 Jun 2027 03:57:46.196   01 Jun 2027 03:57:52.722             6.526          3263.000
         3   01 Jun 2027 03:58:34.989   01 Jun 2027 03:58:44.187             9.198          4599.000
         4   01 Jun 2027 03:59:52.612   01 Jun 2027 03:59:53.451             0.839           419.500
         5   01 Jun 2027 04:00:19.656   01 Jun 2027 04:00:20.508             0.852           426.000
         6   01 Jun 2027 04:00:48.752   01 Jun 2027 04:00:54.410             5.658          2829.000
         7   01 Jun 2027 04:01:29.639   01 Jun 2027 04:01:46.449            16.810          8405.000
         8   01 Jun 2027 04:03:11.332   01 Jun 2027 04:03:12.492             1.160           580.000
         9   01 Jun 2027 04:03:25.125   01 Jun 2027 04:03:30.109             4.984          2492.000
        10   01 Jun 2027 05:33:19.237   01 Jun 2027 05:33:33.652            14.415          7207.500
        11   01 Jun 2027 05:34:46.364   01 Jun 2027 05:34:46.938             0.574           287.000
        12   01 Jun 2027 05:36:28.235   01 Jun 2027 05:36:31.106             2.871          1435.500
        13   01 Jun 2027 05:36:58.013   01 Jun 2027 05:36:59.996             1.983           991.500
        14   01 Jun 2027 05:38:07.605   01 Jun 2027 05:38:08.777             1.172           586.000
        15   01 Jun 2027 05:38:43.908   01 Jun 2027 05:38:50.795             6.887          3443.500
        16   01 Jun 2027 07:11:14.738   01 Jun 2027 07:11:16.597             1.859           929.500
        17   01 Jun 2027 07:11:48.696   01 Jun 2027 07:11:55.072             6.376          3188.000
        18   01 Jun 2027 07:12:24.873   01 Jun 2027 07:12:26.159             1.286           643.000
        19   01 Jun 2027 07:12:47.405   01 Jun 2027 07:12:47.818             0.413           206.500
        20   01 Jun 2027 07:13:06.155   01 Jun 2027 07:13:12.213             6.058          3029.000
        21   01 Jun 2027 07:13:42.414   01 Jun 2027 07:13:43.001             0.587           293.500
        22   01 Jun 2027 07:14:08.278   01 Jun 2027 07:14:13.144             4.866          2433.000
        23   01 Jun 2027 08:44:20.334   01 Jun 2027 08:44:47.271            26.937         13468.500
        24   01 Jun 2027 08:46:44.587   01 Jun 2027 08:47:01.080            16.493          8246.500
        25   01 Jun 2027 08:48:14.549   01 Jun 2027 08:48:24.789            10.240          5120.000
        26   01 Jun 2027 08:49:38.413   01 Jun 2027 08:49:41.533             3.120          1560.000
        27   01 Jun 2027 08:49:57.296   01 Jun 2027 08:49:59.408             2.112          1056.000
        28   01 Jun 2027 08:50:06.051   01 Jun 2027 08:50:06.377             0.326           163.000
        29   01 Jun 2027 08:50:18.054   01 Jun 2027 08:50:21.069             3.015          1507.500
        30   01 Jun 2027 08:51:22.344   01 Jun 2027 08:51:26.268             3.924          1962.000
        31   01 Jun 2027 08:52:17.890   01 Jun 2027 08:52:21.881             3.991          1995.500
        32   02 Jun 2027 04:08:30.577   02 Jun 2027 04:08:39.683             9.106          4553.000
        33   02 Jun 2027 04:09:31.142   02 Jun 2027 04:09:34.756             3.614          1807.000
        34   02 Jun 2027 04:09:38.674   02 Jun 2027 04:09:38.674             0.000             0.000
        35   02 Jun 2027 04:09:50.622   02 Jun 2027 04:10:09.603            18.981          9490.500
        36   02 Jun 2027 04:12:03.304   02 Jun 2027 04:12:09.116             5.812          2906.000
        37   02 Jun 2027 04:12:37.242   02 Jun 2027 04:12:38.371             1.129           564.500
        38   02 Jun 2027 04:13:01.303   02 Jun 2027 04:13:08.418             7.115          3557.500
        39   02 Jun 2027 04:13:49.031   02 Jun 2027 04:14:03.565            14.534          7267.000
        40   02 Jun 2027 04:14:29.900   02 Jun 2027 04:14:29.900             0.000             0.000
        41   02 Jun 2027 04:14:40.806   02 Jun 2027 04:14:55.392            14.586          7293.000
        42   02 Jun 2027 05:45:15.291   02 Jun 2027 05:45:36.507            21.216         10608.000
        43   02 Jun 2027 05:47:07.538   02 Jun 2027 05:47:09.627             2.089          1044.500
        44   02 Jun 2027 05:47:28.628   02 Jun 2027 05:47:34.978             6.350          3175.000
        45   02 Jun 2027 05:48:08.373   02 Jun 2027 05:48:19.362            10.989          5494.500
        46   02 Jun 2027 05:49:16.293   02 Jun 2027 05:49:21.891             5.598          2799.000
        47   02 Jun 2027 05:49:45.165   02 Jun 2027 05:49:46.378             1.213           606.500
        48   02 Jun 2027 05:49:50.717   02 Jun 2027 05:49:55.570             4.853          2426.500
        49   02 Jun 2027 05:50:19.851   02 Jun 2027 05:50:33.243            13.392          6696.000
        50   02 Jun 2027 05:50:34.584   02 Jun 2027 05:50:42.968             8.384          4192.000
        51   02 Jun 2027 07:23:14.031   02 Jun 2027 07:23:16.549             2.518          1259.000
        52   02 Jun 2027 07:23:31.813   02 Jun 2027 07:23:37.113             5.300          2650.000
        53   02 Jun 2027 07:23:59.534   02 Jun 2027 07:24:14.442            14.908          7454.000
        54   02 Jun 2027 07:25:32.818   02 Jun 2027 07:25:33.143             0.325           162.500
        55   02 Jun 2027 07:25:45.987   02 Jun 2027 07:25:55.946             9.959          4979.500
        56   02 Jun 2027 07:27:09.379   02 Jun 2027 07:27:12.254             2.875          1437.500
        57   02 Jun 2027 08:56:51.543   02 Jun 2027 08:57:04.915            13.372          6686.000
        58   02 Jun 2027 08:58:48.384   02 Jun 2027 08:58:51.871             3.487          1743.500
        59   02 Jun 2027 08:59:09.936   02 Jun 2027 08:59:17.797             7.861          3930.500
        60   02 Jun 2027 08:59:55.350   02 Jun 2027 09:00:02.230             6.880          3440.000
        61   02 Jun 2027 09:00:45.313   02 Jun 2027 09:00:48.343             3.030          1515.000
        62   02 Jun 2027 09:01:13.393   02 Jun 2027 09:01:19.893             6.500          3250.000
        63   02 Jun 2027 09:01:46.488   02 Jun 2027 09:01:50.026             3.538          1769.000
        64   02 Jun 2027 09:02:09.604   02 Jun 2027 09:02:17.622             8.018          4009.000
        65   02 Jun 2027 09:02:52.596   02 Jun 2027 09:02:55.156             2.560          1280.000
        66   02 Jun 2027 09:03:44.541   02 Jun 2027 09:03:53.438             8.897          4448.500
        67   03 Jun 2027 04:20:24.463   03 Jun 2027 04:20:26.114             1.651           825.500
        68   03 Jun 2027 04:20:43.148   03 Jun 2027 04:20:45.025             1.877           938.500
        69   03 Jun 2027 04:21:24.589   03 Jun 2027 04:21:41.742            17.153          8576.500
        70   03 Jun 2027 04:22:14.879   03 Jun 2027 04:22:19.876             4.997          2498.500
        71   03 Jun 2027 04:23:01.237   03 Jun 2027 04:23:02.973             1.736           868.000
        72   03 Jun 2027 04:23:50.208   03 Jun 2027 04:23:55.759             5.551          2775.500
        73   03 Jun 2027 04:24:39.744   03 Jun 2027 04:24:46.961             7.217          3608.500
        74   03 Jun 2027 04:26:10.463   03 Jun 2027 04:26:10.573             0.110            55.000
        75   03 Jun 2027 04:26:14.266   03 Jun 2027 04:26:17.302             3.036          1518.000
        76   03 Jun 2027 04:26:26.214   03 Jun 2027 04:26:30.751             4.537          2268.500
        77   03 Jun 2027 04:26:54.187   03 Jun 2027 04:26:58.032             3.845          1922.500
        78   03 Jun 2027 04:27:17.128   03 Jun 2027 04:27:29.131            12.003          6001.500
        79   03 Jun 2027 05:57:08.732   03 Jun 2027 05:57:10.021             1.289           644.500
        80   03 Jun 2027 05:57:23.008   03 Jun 2027 05:57:32.094             9.086          4543.000
        81   03 Jun 2027 05:58:37.136   03 Jun 2027 05:59:06.697            29.561         14780.500
        82   03 Jun 2027 06:01:39.020   03 Jun 2027 06:01:43.467             4.447          2223.500
        83   03 Jun 2027 06:02:15.248   03 Jun 2027 06:02:17.886             2.638          1319.000
        84   03 Jun 2027 06:02:34.273   03 Jun 2027 06:02:34.485             0.212           106.000
        85   03 Jun 2027 06:02:38.711   03 Jun 2027 06:02:53.004            14.293          7146.500
        86   03 Jun 2027 06:02:54.901   03 Jun 2027 06:02:59.414             4.513          2256.500
        87   03 Jun 2027 07:35:02.152   03 Jun 2027 07:35:04.522             2.370          1185.000
        88   03 Jun 2027 07:35:23.641   03 Jun 2027 07:35:36.361            12.720          6360.000
        89   03 Jun 2027 07:36:27.268   03 Jun 2027 07:36:32.367             5.099          2549.500
        90   03 Jun 2027 07:37:17.599   03 Jun 2027 07:37:19.826             2.227          1113.500
        91   03 Jun 2027 07:37:36.185   03 Jun 2027 07:37:44.013             7.828          3914.000
        92   03 Jun 2027 07:38:17.193   03 Jun 2027 07:38:19.582             2.389          1194.500
        93   03 Jun 2027 07:39:02.480   03 Jun 2027 07:39:15.127            12.647          6323.500
        94   03 Jun 2027 09:11:00.043   03 Jun 2027 09:11:09.226             9.183          4591.500
        95   03 Jun 2027 09:12:03.707   03 Jun 2027 09:12:15.959            12.252          6126.000
        96   03 Jun 2027 09:13:13.698   03 Jun 2027 09:13:25.771            12.073          6036.500
        97   03 Jun 2027 09:13:58.365   03 Jun 2027 09:14:08.031             9.666          4833.000
        98   04 Jun 2027 03:00:00.000   04 Jun 2027 03:00:03.429             3.429          1714.500
        99   04 Jun 2027 03:00:41.410   04 Jun 2027 03:00:46.481             5.071          2535.500
       100   04 Jun 2027 03:01:39.334   04 Jun 2027 03:01:49.270             9.936          4968.000
       101   04 Jun 2027 03:03:10.915   04 Jun 2027 03:03:12.566             1.651           825.500
       102   04 Jun 2027 03:03:38.637   04 Jun 2027 03:03:42.742             4.105          2052.500
       103   04 Jun 2027 04:32:33.364   04 Jun 2027 04:32:53.822            20.458         10229.000
       104   04 Jun 2027 04:33:36.015   04 Jun 2027 04:33:37.722             1.707           853.500
       105   04 Jun 2027 04:34:18.668   04 Jun 2027 04:34:28.125             9.457          4728.500
       106   04 Jun 2027 04:35:16.143   04 Jun 2027 04:35:17.856             1.713           856.500
       107   04 Jun 2027 04:35:26.642   04 Jun 2027 04:35:41.251            14.609          7304.500
       108   04 Jun 2027 04:37:05.709   04 Jun 2027 04:37:11.133             5.424          2712.000
       109   04 Jun 2027 04:37:28.238   04 Jun 2027 04:37:29.787             1.549           774.500
       110   04 Jun 2027 04:38:08.716   04 Jun 2027 04:38:17.940             9.224          4612.000
       111   04 Jun 2027 04:39:11.505   04 Jun 2027 04:39:15.930             4.425          2212.500
       112   04 Jun 2027 04:39:20.273   04 Jun 2027 04:39:27.255             6.982          3491.000
       113   04 Jun 2027 06:09:47.471   04 Jun 2027 06:10:20.039            32.568         16284.000
       114   04 Jun 2027 06:12:34.700   04 Jun 2027 06:12:38.530             3.830          1915.000
       115   04 Jun 2027 06:13:17.734   04 Jun 2027 06:13:19.343             1.609           804.500
       116   04 Jun 2027 06:13:39.949   04 Jun 2027 06:13:51.949            12.000          6000.000
       117   04 Jun 2027 06:14:51.574   04 Jun 2027 06:14:52.545             0.971           485.500
       118   04 Jun 2027 06:15:17.746   04 Jun 2027 06:15:20.147             2.401          1200.500
       119   04 Jun 2027 07:46:28.061   04 Jun 2027 07:46:30.869             2.808          1404.000
       120   04 Jun 2027 07:47:06.665   04 Jun 2027 07:47:09.535             2.870          1435.000
       121   04 Jun 2027 07:47:32.102   04 Jun 2027 07:47:35.581             3.479          1739.500
       122   04 Jun 2027 07:47:50.717   04 Jun 2027 07:47:52.817             2.100          1050.000
       123   04 Jun 2027 07:48:28.076   04 Jun 2027 07:48:29.842             1.766           883.000
       124   04 Jun 2027 07:48:48.150   04 Jun 2027 07:48:49.614             1.464           732.000
       125   04 Jun 2027 07:49:07.114   04 Jun 2027 07:49:16.124             9.010          4505.000
       126   04 Jun 2027 07:50:06.056   04 Jun 2027 07:50:10.054             3.998          1999.000
       127   04 Jun 2027 07:50:29.439   04 Jun 2027 07:50:34.344             4.905          2452.500
       128   04 Jun 2027 07:51:17.754   04 Jun 2027 07:51:20.544             2.790          1395.000
       129   04 Jun 2027 09:21:40.807   04 Jun 2027 09:21:54.509            13.702          6851.000
       130   04 Jun 2027 09:23:26.436   04 Jun 2027 09:23:41.306            14.870          7435.000
       131   04 Jun 2027 09:24:48.395   04 Jun 2027 09:24:51.330             2.935          1467.500
       132   04 Jun 2027 09:25:03.212   04 Jun 2027 09:25:04.185             0.973           486.500
       133   04 Jun 2027 09:25:56.527   04 Jun 2027 09:26:10.393            13.866          6933.000
       134   05 Jun 2027 03:06:08.801   05 Jun 2027 03:06:17.831             9.030          4515.000
       135   05 Jun 2027 03:07:50.415   05 Jun 2027 03:08:06.141            15.726          7863.000
       136   05 Jun 2027 03:08:49.841   05 Jun 2027 03:08:49.841             0.000             0.000
       137   05 Jun 2027 03:09:29.617   05 Jun 2027 03:09:33.427             3.810          1905.000
       138   05 Jun 2027 03:10:27.888   05 Jun 2027 03:10:29.461             1.573           786.500
       139   05 Jun 2027 03:11:22.641   05 Jun 2027 03:11:24.768             2.127          1063.500
       140   05 Jun 2027 03:12:10.249   05 Jun 2027 03:12:15.929             5.680          2840.000
       141   05 Jun 2027 03:13:24.464   05 Jun 2027 03:13:31.310             6.846          3423.000
       142   05 Jun 2027 03:14:05.005   05 Jun 2027 03:14:14.875             9.870          4935.000
       143   05 Jun 2027 03:14:55.567   05 Jun 2027 03:15:01.840             6.273          3136.500
       144   05 Jun 2027 03:15:43.557   05 Jun 2027 03:15:51.908             8.351          4175.500
       145   05 Jun 2027 04:44:57.582   05 Jun 2027 04:44:59.325             1.743           871.500
       146   05 Jun 2027 04:45:04.900   05 Jun 2027 04:45:07.841             2.941          1470.500
       147   05 Jun 2027 04:45:32.603   05 Jun 2027 04:45:34.232             1.629           814.500
       148   05 Jun 2027 04:46:36.466   05 Jun 2027 04:46:48.595            12.129          6064.500
       149   05 Jun 2027 04:47:43.074   05 Jun 2027 04:48:13.357            30.283         15141.500
       150   05 Jun 2027 04:49:55.181   05 Jun 2027 04:49:59.126             3.945          1972.500
       151   05 Jun 2027 04:50:27.400   05 Jun 2027 04:50:32.017             4.617          2308.500
       152   05 Jun 2027 04:51:08.415   05 Jun 2027 04:51:24.151            15.736          7868.000
       153   05 Jun 2027 06:21:55.423   05 Jun 2027 06:22:04.171             8.748          4374.000
       154   05 Jun 2027 06:22:15.639   05 Jun 2027 06:22:45.779            30.140         15070.000
       155   05 Jun 2027 06:25:24.471   05 Jun 2027 06:25:32.095             7.624          3812.000
       156   05 Jun 2027 06:26:12.704   05 Jun 2027 06:26:17.183             4.479          2239.500
       157   05 Jun 2027 06:26:42.778   05 Jun 2027 06:26:44.370             1.592           796.000
       158   05 Jun 2027 07:58:42.780   05 Jun 2027 07:58:53.691            10.911          5455.500
       159   05 Jun 2027 07:59:37.455   05 Jun 2027 07:59:49.176            11.721          5860.500
       160   05 Jun 2027 08:00:39.874   05 Jun 2027 08:00:54.281            14.407          7203.500
       161   05 Jun 2027 08:01:31.627   05 Jun 2027 08:01:36.973             5.346          2673.000
       162   05 Jun 2027 08:01:57.979   05 Jun 2027 08:02:06.496             8.517          4258.500
       163   05 Jun 2027 08:02:34.178   05 Jun 2027 08:02:44.746            10.568          5284.000
       164   05 Jun 2027 09:36:53.164   05 Jun 2027 09:36:55.283             2.119          1059.500
       165   05 Jun 2027 09:37:15.082   05 Jun 2027 09:37:23.842             8.760          4380.000
       166   06 Jun 2027 03:21:02.584   06 Jun 2027 03:21:06.583             3.999          1999.500
       167   06 Jun 2027 03:21:29.676   06 Jun 2027 03:21:40.344            10.668          5334.000
       168   06 Jun 2027 03:22:39.971   06 Jun 2027 03:22:42.061             2.090          1045.000
       169   06 Jun 2027 03:23:08.545   06 Jun 2027 03:23:22.455            13.910          6955.000
       170   06 Jun 2027 03:24:29.247   06 Jun 2027 03:24:35.337             6.090          3045.000
       171   06 Jun 2027 03:25:14.967   06 Jun 2027 03:25:20.433             5.466          2733.000
       172   06 Jun 2027 03:25:30.212   06 Jun 2027 03:25:35.592             5.380          2690.000
       173   06 Jun 2027 03:26:15.411   06 Jun 2027 03:26:18.299             2.888          1444.000
       174   06 Jun 2027 03:26:57.870   06 Jun 2027 03:27:02.054             4.184          2092.000
       175   06 Jun 2027 03:27:43.514   06 Jun 2027 03:27:46.734             3.220          1610.000
       176   06 Jun 2027 04:57:23.093   06 Jun 2027 04:57:26.450             3.357          1678.500
       177   06 Jun 2027 04:58:07.082   06 Jun 2027 04:58:07.849             0.767           383.500
       178   06 Jun 2027 04:58:42.628   06 Jun 2027 04:58:57.309            14.681          7340.500
       179   06 Jun 2027 05:00:41.101   06 Jun 2027 05:00:47.621             6.520          3260.000
       180   06 Jun 2027 05:01:22.006   06 Jun 2027 05:01:22.135             0.129            64.500
       181   06 Jun 2027 05:02:15.597   06 Jun 2027 05:02:20.087             4.490          2245.000
       182   06 Jun 2027 05:02:35.998   06 Jun 2027 05:02:42.552             6.554          3277.000
       183   06 Jun 2027 05:03:17.265   06 Jun 2027 05:03:35.336            18.071          9035.500
       184   06 Jun 2027 06:34:57.153   06 Jun 2027 06:34:58.631             1.478           739.000
       185   06 Jun 2027 06:35:12.487   06 Jun 2027 06:35:12.815             0.328           164.000
       186   06 Jun 2027 06:35:17.104   06 Jun 2027 06:35:19.887             2.783          1391.500
       187   06 Jun 2027 06:35:39.607   06 Jun 2027 06:35:39.634             0.027            13.500
       188   06 Jun 2027 06:35:49.875   06 Jun 2027 06:35:53.644             3.769          1884.500
       189   06 Jun 2027 06:36:49.258   06 Jun 2027 06:36:58.904             9.646          4823.000
       190   06 Jun 2027 06:37:53.182   06 Jun 2027 06:37:53.522             0.340           170.000
       191   06 Jun 2027 06:37:59.698   06 Jun 2027 06:38:03.522             3.824          1912.000
       192   06 Jun 2027 06:38:30.115   06 Jun 2027 06:38:31.719             1.604           802.000
       193   06 Jun 2027 06:38:49.314   06 Jun 2027 06:39:00.872            11.558          5779.000
       194   06 Jun 2027 08:11:00.505   06 Jun 2027 08:11:13.685            13.180          6590.000
       195   06 Jun 2027 08:11:51.291   06 Jun 2027 08:12:10.545            19.254          9627.000
       196   06 Jun 2027 08:13:48.540   06 Jun 2027 08:13:51.479             2.939          1469.500
       197   06 Jun 2027 08:14:46.146   06 Jun 2027 08:14:47.275             1.129           564.500
       198   07 Jun 2027 03:33:14.568   07 Jun 2027 03:33:19.266             4.698          2349.000
       199   07 Jun 2027 03:34:01.941   07 Jun 2027 03:34:03.325             1.384           692.000
       200   07 Jun 2027 03:34:20.594   07 Jun 2027 03:34:21.453             0.859           429.500
       201   07 Jun 2027 03:34:44.845   07 Jun 2027 03:34:49.403             4.558          2279.000
       202   07 Jun 2027 03:35:00.596   07 Jun 2027 03:35:03.860             3.264          1632.000
       203   07 Jun 2027 03:35:33.285   07 Jun 2027 03:35:42.028             8.743          4371.500
       204   07 Jun 2027 03:36:23.676   07 Jun 2027 03:36:25.682             2.006          1003.000
       205   07 Jun 2027 03:36:34.907   07 Jun 2027 03:36:37.445             2.538          1269.000
       206   07 Jun 2027 03:36:55.680   07 Jun 2027 03:37:01.407             5.727          2863.500
       207   07 Jun 2027 03:37:41.666   07 Jun 2027 03:37:47.914             6.248          3124.000
       208   07 Jun 2027 03:38:42.700   07 Jun 2027 03:38:42.993             0.293           146.500
       209   07 Jun 2027 03:39:36.192   07 Jun 2027 03:39:36.594             0.402           201.000
       210   07 Jun 2027 03:39:43.752   07 Jun 2027 03:39:50.352             6.600          3300.000
       211   07 Jun 2027 05:09:32.831   07 Jun 2027 05:10:03.489            30.658         15329.000
       212   07 Jun 2027 05:11:55.671   07 Jun 2027 05:12:14.834            19.163          9581.500
       213   07 Jun 2027 05:13:34.808   07 Jun 2027 05:13:40.138             5.330          2665.000
       214   07 Jun 2027 05:14:05.322   07 Jun 2027 05:14:07.743             2.421          1210.500
       215   07 Jun 2027 05:14:25.717   07 Jun 2027 05:14:28.563             2.846          1423.000
       216   07 Jun 2027 05:15:26.287   07 Jun 2027 05:15:27.747             1.460           730.000
       217   07 Jun 2027 05:15:35.469   07 Jun 2027 05:15:37.590             2.121          1060.500
       218   07 Jun 2027 06:47:01.272   07 Jun 2027 06:47:03.594             2.322          1161.000
       219   07 Jun 2027 06:47:54.607   07 Jun 2027 06:48:01.439             6.832          3416.000
       220   07 Jun 2027 06:48:36.034   07 Jun 2027 06:48:39.160             3.126          1563.000
       221   07 Jun 2027 06:49:19.593   07 Jun 2027 06:49:19.954             0.361           180.500
       222   07 Jun 2027 06:50:02.366   07 Jun 2027 06:50:03.967             1.601           800.500
       223   07 Jun 2027 06:50:29.025   07 Jun 2027 06:50:32.032             3.007          1503.500
       224   07 Jun 2027 06:50:53.412   07 Jun 2027 06:50:54.113             0.701           350.500
       225   07 Jun 2027 08:23:04.656   07 Jun 2027 08:23:14.627             9.971          4985.500
       226   07 Jun 2027 08:24:14.016   07 Jun 2027 08:24:17.002             2.986          1493.000
       227   07 Jun 2027 08:24:56.327   07 Jun 2027 08:24:58.284             1.957           978.500
       228   07 Jun 2027 08:25:28.998   07 Jun 2027 08:25:35.526             6.528          3264.000
       229   07 Jun 2027 08:26:06.519   07 Jun 2027 08:26:20.045            13.526          6763.000
       230   07 Jun 2027 08:27:09.359   07 Jun 2027 08:27:11.081             1.722           861.000
       231   07 Jun 2027 08:27:27.668   07 Jun 2027 08:27:29.601             1.933           966.500
       232   07 Jun 2027 08:27:43.363   07 Jun 2027 08:27:47.027             3.664          1832.000
       233   07 Jun 2027 08:27:57.338   07 Jun 2027 08:27:57.583             0.245           122.500
       234   08 Jun 2027 03:44:43.493   08 Jun 2027 03:44:45.645             2.152          1076.000
       235   08 Jun 2027 03:45:33.542   08 Jun 2027 03:45:35.743             2.201          1100.500
       236   08 Jun 2027 03:45:41.421   08 Jun 2027 03:45:41.421             0.000             0.000
       237   08 Jun 2027 03:46:01.547   08 Jun 2027 03:46:04.217             2.670          1335.000
       238   08 Jun 2027 03:46:33.910   08 Jun 2027 03:46:47.681            13.771          6885.500
       239   08 Jun 2027 03:48:12.950   08 Jun 2027 03:48:13.825             0.875           437.500
       240   08 Jun 2027 03:48:21.885   08 Jun 2027 03:48:29.397             7.512          3756.000
       241   08 Jun 2027 03:49:25.621   08 Jun 2027 03:49:32.605             6.984          3492.000
       242   08 Jun 2027 03:50:12.019   08 Jun 2027 03:50:14.662             2.643          1321.500
       243   08 Jun 2027 03:50:28.679   08 Jun 2027 03:50:43.347            14.668          7334.000
       244   08 Jun 2027 03:51:26.451   08 Jun 2027 03:51:32.159             5.708          2854.000
       245   08 Jun 2027 05:21:14.048   08 Jun 2027 05:21:35.613            21.565         10782.500
       246   08 Jun 2027 05:22:56.950   08 Jun 2027 05:23:02.421             5.471          2735.500
       247   08 Jun 2027 05:24:23.734   08 Jun 2027 05:24:27.621             3.887          1943.500
       248   08 Jun 2027 05:25:02.720   08 Jun 2027 05:25:18.952            16.232          8116.000
       249   08 Jun 2027 05:26:27.488   08 Jun 2027 05:26:30.132             2.644          1322.000
       250   08 Jun 2027 05:27:16.996   08 Jun 2027 05:27:32.187            15.191          7595.500
       251   08 Jun 2027 06:59:32.313   08 Jun 2027 06:59:42.850            10.537          5268.500
       252   08 Jun 2027 07:00:17.606   08 Jun 2027 07:00:29.468            11.862          5931.000
       253   08 Jun 2027 07:01:23.481   08 Jun 2027 07:01:31.493             8.012          4006.000
       254   08 Jun 2027 07:02:01.500   08 Jun 2027 07:02:01.917             0.417           208.500
       255   08 Jun 2027 07:02:11.568   08 Jun 2027 07:02:17.142             5.574          2787.000
       256   08 Jun 2027 07:02:49.125   08 Jun 2027 07:02:54.027             4.902          2451.000
       257   08 Jun 2027 08:34:57.401   08 Jun 2027 08:35:07.887            10.486          5243.000
       258   08 Jun 2027 08:36:05.004   08 Jun 2027 08:36:09.911             4.907          2453.500
       259   08 Jun 2027 08:36:34.019   08 Jun 2027 08:36:39.725             5.706          2853.000
       260   08 Jun 2027 08:38:13.669   08 Jun 2027 08:38:16.724             3.055          1527.500
       261   08 Jun 2027 08:38:32.753   08 Jun 2027 08:38:38.620             5.867          2933.500
       262   08 Jun 2027 08:39:21.371   08 Jun 2027 08:39:24.945             3.574          1787.000
       263   08 Jun 2027 08:39:28.645   08 Jun 2027 08:39:31.833             3.188          1594.000
       264   08 Jun 2027 08:40:08.317   08 Jun 2027 08:40:13.918             5.601          2800.500
       265   09 Jun 2027 03:56:27.962   09 Jun 2027 03:56:48.575            20.613         10306.500
       266   09 Jun 2027 03:58:34.919   09 Jun 2027 03:58:38.156             3.237          1618.500
       267   09 Jun 2027 03:58:41.194   09 Jun 2027 03:58:43.487             2.293          1146.500
       268   09 Jun 2027 03:59:06.572   09 Jun 2027 03:59:11.688             5.116          2558.000
       269   09 Jun 2027 03:59:29.574   09 Jun 2027 03:59:39.040             9.466          4733.000
       270   09 Jun 2027 03:59:57.389   09 Jun 2027 04:00:03.907             6.518          3259.000
       271   09 Jun 2027 04:01:12.982   09 Jun 2027 04:01:14.446             1.464           732.000
       272   09 Jun 2027 04:01:35.567   09 Jun 2027 04:01:39.096             3.529          1764.500
       273   09 Jun 2027 04:02:36.276   09 Jun 2027 04:02:44.739             8.463          4231.500
       274   09 Jun 2027 04:03:13.347   09 Jun 2027 04:03:28.130            14.783          7391.500
       275   09 Jun 2027 05:33:33.980   09 Jun 2027 05:33:52.130            18.150          9075.000
       276   09 Jun 2027 05:35:00.471   09 Jun 2027 05:35:05.371             4.900          2450.000
       277   09 Jun 2027 05:36:43.077   09 Jun 2027 05:36:44.510             1.433           716.500
       278   09 Jun 2027 05:36:53.794   09 Jun 2027 05:36:53.986             0.192            96.000
       279   09 Jun 2027 05:36:59.594   09 Jun 2027 05:37:02.892             3.298          1649.000
       280   09 Jun 2027 05:37:23.826   09 Jun 2027 05:37:42.255            18.429          9214.500
       281   09 Jun 2027 05:39:06.892   09 Jun 2027 05:39:18.227            11.335          5667.500
       282   09 Jun 2027 07:11:29.526   09 Jun 2027 07:11:38.896             9.370          4685.000
       283   09 Jun 2027 07:12:36.935   09 Jun 2027 07:12:40.791             3.856          1928.000
       284   09 Jun 2027 07:13:02.304   09 Jun 2027 07:13:04.028             1.724           862.000
       285   09 Jun 2027 07:13:12.138   09 Jun 2027 07:13:23.018            10.880          5440.000
       286   09 Jun 2027 07:14:40.513   09 Jun 2027 07:14:41.853             1.340           670.000
       287   09 Jun 2027 08:44:35.420   09 Jun 2027 08:45:02.793            27.373         13686.500
       288   09 Jun 2027 08:46:59.509   09 Jun 2027 08:47:15.886            16.377          8188.500
       289   09 Jun 2027 08:48:29.751   09 Jun 2027 08:48:38.867             9.116          4558.000
       290   09 Jun 2027 08:49:52.700   09 Jun 2027 08:49:57.758             5.058          2529.000
       291   09 Jun 2027 08:50:36.890   09 Jun 2027 08:50:41.723             4.833          2416.500
       292   09 Jun 2027 08:51:37.106   09 Jun 2027 08:51:39.136             2.030          1015.000
       293   09 Jun 2027 08:51:49.564   09 Jun 2027 08:52:05.601            16.037          8018.500
       294   10 Jun 2027 04:08:45.102   10 Jun 2027 04:08:56.957            11.855          5927.500
       295   10 Jun 2027 04:09:51.244   10 Jun 2027 04:09:53.429             2.185          1092.500
       296   10 Jun 2027 04:10:05.430   10 Jun 2027 04:10:35.633            30.203         15101.500
       297   10 Jun 2027 04:12:52.061   10 Jun 2027 04:12:55.757             3.696          1848.000
       298   10 Jun 2027 04:13:17.965   10 Jun 2027 04:13:23.287             5.322          2661.000
       299   10 Jun 2027 04:14:03.676   10 Jun 2027 04:14:04.367             0.691           345.500
       300   10 Jun 2027 04:14:23.311   10 Jun 2027 04:14:32.558             9.247          4623.500
       301   10 Jun 2027 04:15:18.900   10 Jun 2027 04:15:19.474             0.574           287.000
       302   10 Jun 2027 04:15:29.432   10 Jun 2027 04:15:37.015             7.583          3791.500
       303   10 Jun 2027 04:15:47.634   10 Jun 2027 04:15:56.975             9.341          4670.500
       304   10 Jun 2027 05:45:29.936   10 Jun 2027 05:45:30.004             0.068            34.000
       305   10 Jun 2027 05:46:00.267   10 Jun 2027 05:46:06.842             6.575          3287.500
       306   10 Jun 2027 05:46:44.104   10 Jun 2027 05:47:14.907            30.803         15401.500
       307   10 Jun 2027 05:49:24.376   10 Jun 2027 05:49:26.288             1.912           956.000
       308   10 Jun 2027 05:49:36.869   10 Jun 2027 05:49:41.661             4.792          2396.000
       309   10 Jun 2027 05:50:02.288   10 Jun 2027 05:50:07.733             5.445          2722.500
       310   10 Jun 2027 05:50:33.908   10 Jun 2027 05:50:35.626             1.718           859.000
       311   10 Jun 2027 05:51:12.289   10 Jun 2027 05:51:19.823             7.534          3767.000
       312   10 Jun 2027 05:51:59.670   10 Jun 2027 05:52:03.267             3.597          1798.500
       313   10 Jun 2027 07:23:28.750   10 Jun 2027 07:23:33.951             5.201          2600.500
       314   10 Jun 2027 07:24:10.886   10 Jun 2027 07:24:13.425             2.539          1269.500
       315   10 Jun 2027 07:25:01.691   10 Jun 2027 07:25:04.363             2.672          1336.000
       316   10 Jun 2027 07:25:23.859   10 Jun 2027 07:25:29.834             5.975          2987.500
       317   10 Jun 2027 07:26:20.023   10 Jun 2027 07:26:22.718             2.695          1347.500
       318   10 Jun 2027 07:26:37.608   10 Jun 2027 07:26:38.284             0.676           338.000
       319   10 Jun 2027 08:57:06.322   10 Jun 2027 08:57:14.695             8.373          4186.500
       320   10 Jun 2027 08:57:30.924   10 Jun 2027 08:57:38.665             7.741          3870.500
       321   10 Jun 2027 08:58:34.826   10 Jun 2027 08:58:51.263            16.437          8218.500
       322   10 Jun 2027 09:00:16.781   10 Jun 2027 09:00:25.275             8.494          4247.000
       323   10 Jun 2027 09:01:00.044   10 Jun 2027 09:01:03.368             3.324          1662.000
       324   10 Jun 2027 09:01:28.014   10 Jun 2027 09:01:54.383            26.369         13184.500
       325   10 Jun 2027 09:03:05.134   10 Jun 2027 09:03:07.724             2.590          1295.000
       326   11 Jun 2027 04:20:39.217   11 Jun 2027 04:20:41.791             2.574          1287.000
       327   11 Jun 2027 04:20:59.610   11 Jun 2027 04:21:08.819             9.209          4604.500
       328   11 Jun 2027 04:22:11.809   11 Jun 2027 04:22:30.789            18.980          9490.000
       329   11 Jun 2027 04:23:16.054   11 Jun 2027 04:23:18.108             2.054          1027.000
       330   11 Jun 2027 04:24:05.143   11 Jun 2027 04:24:09.945             4.802          2401.000
       331   11 Jun 2027 04:24:54.393   11 Jun 2027 04:25:04.413            10.020          5010.000
       332   11 Jun 2027 04:26:25.389   11 Jun 2027 04:26:25.413             0.024            12.000
       333   11 Jun 2027 04:26:28.518   11 Jun 2027 04:26:31.521             3.003          1501.500
       334   11 Jun 2027 04:26:44.125   11 Jun 2027 04:26:45.318             1.193           596.500
       335   11 Jun 2027 04:27:08.850   11 Jun 2027 04:27:33.166            24.316         12158.000
       336   11 Jun 2027 05:57:23.825   11 Jun 2027 05:57:36.123            12.298          6149.000
       337   11 Jun 2027 05:58:39.317   11 Jun 2027 05:58:40.450             1.133           566.500
       338   11 Jun 2027 05:59:21.319   11 Jun 2027 05:59:25.946             4.627          2313.500
       339   11 Jun 2027 06:00:28.335   11 Jun 2027 06:00:33.458             5.123          2561.500
       340   11 Jun 2027 06:01:16.006   11 Jun 2027 06:01:16.478             0.472           236.000
       341   11 Jun 2027 06:01:37.526   11 Jun 2027 06:01:53.391            15.865          7932.500
       342   11 Jun 2027 06:02:43.815   11 Jun 2027 06:02:47.142             3.327          1663.500
       343   11 Jun 2027 06:03:41.639   11 Jun 2027 06:03:42.886             1.247           623.500
       344   11 Jun 2027 06:03:59.324   11 Jun 2027 06:04:00.644             1.320           660.000
       345   11 Jun 2027 07:35:16.741   11 Jun 2027 07:35:20.397             3.656          1828.000
       346   11 Jun 2027 07:35:38.198   11 Jun 2027 07:35:52.143            13.945          6972.500
       347   11 Jun 2027 07:36:12.534   11 Jun 2027 07:36:12.534             0.000             0.000
       348   11 Jun 2027 07:36:55.839   11 Jun 2027 07:37:00.231             4.392          2196.000
       349   11 Jun 2027 07:37:40.876   11 Jun 2027 07:37:50.766             9.890          4945.000
       350   11 Jun 2027 07:38:34.366   11 Jun 2027 07:38:35.278             0.912           456.000
       351   11 Jun 2027 07:39:17.114   11 Jun 2027 07:39:29.156            12.042          6021.000
       352   11 Jun 2027 09:11:14.813   11 Jun 2027 09:11:17.378             2.565          1282.500
       353   11 Jun 2027 09:12:16.773   11 Jun 2027 09:12:31.016            14.243          7121.500
       354   11 Jun 2027 09:13:28.321   11 Jun 2027 09:13:40.119            11.798          5899.000
       355   11 Jun 2027 09:14:13.171   11 Jun 2027 09:14:24.528            11.357          5678.500
       356   12 Jun 2027 03:00:00.000   12 Jun 2027 03:00:01.442             1.442           721.000
       357   12 Jun 2027 03:00:36.604   12 Jun 2027 03:00:36.768             0.164            82.000
       358   12 Jun 2027 03:01:26.259   12 Jun 2027 03:01:29.557             3.298          1649.000
       359   12 Jun 2027 03:01:49.634   12 Jun 2027 03:01:57.458             7.824          3912.000
       360   12 Jun 2027 03:02:31.774   12 Jun 2027 03:02:37.866             6.092          3046.000
       361   12 Jun 2027 03:03:13.456   12 Jun 2027 03:03:15.660             2.204          1102.000
       362   12 Jun 2027 03:03:39.863   12 Jun 2027 03:03:53.831            13.968          6984.000
       363   12 Jun 2027 04:32:48.718   12 Jun 2027 04:33:11.538            22.820         11410.000
       364   12 Jun 2027 04:34:49.015   12 Jun 2027 04:34:58.936             9.921          4960.500
       365   12 Jun 2027 04:35:47.113   12 Jun 2027 04:35:56.320             9.207          4603.500
       366   12 Jun 2027 04:36:51.160   12 Jun 2027 04:36:54.416             3.256          1628.000
       367   12 Jun 2027 04:37:20.375   12 Jun 2027 04:37:25.986             5.611          2805.500
       368   12 Jun 2027 04:37:42.013   12 Jun 2027 04:37:43.499             1.486           743.000
       369   12 Jun 2027 04:38:36.104   12 Jun 2027 04:38:36.592             0.488           244.000
       370   12 Jun 2027 04:38:43.930   12 Jun 2027 04:38:49.339             5.409          2704.500
       371   12 Jun 2027 04:39:53.155   12 Jun 2027 04:40:03.880            10.725          5362.500
       372   12 Jun 2027 06:10:02.534   12 Jun 2027 06:10:34.277            31.743         15871.500
       373   12 Jun 2027 06:12:42.103   12 Jun 2027 06:12:49.417             7.314          3657.000
       374   12 Jun 2027 06:13:34.440   12 Jun 2027 06:13:38.319             3.879          1939.500
       375   12 Jun 2027 06:14:21.895   12 Jun 2027 06:14:32.027            10.132          5066.000
       376   12 Jun 2027 06:15:34.807   12 Jun 2027 06:15:35.394             0.587           293.500
       377   12 Jun 2027 07:46:42.992   12 Jun 2027 07:46:48.221             5.229          2614.500
       378   12 Jun 2027 07:47:13.932   12 Jun 2027 07:47:18.529             4.597          2298.500
       379   12 Jun 2027 07:48:13.285   12 Jun 2027 07:48:23.930            10.645          5322.500
       380   12 Jun 2027 07:48:41.639   12 Jun 2027 07:48:44.443             2.804          1402.000
       381   12 Jun 2027 07:49:34.180   12 Jun 2027 07:49:47.500            13.320          6660.000
       382   12 Jun 2027 07:51:10.963   12 Jun 2027 07:51:27.105            16.142          8071.000
       383   12 Jun 2027 09:21:55.806   12 Jun 2027 09:22:09.377            13.571          6785.500
       384   12 Jun 2027 09:23:42.149   12 Jun 2027 09:23:55.877            13.728          6864.000
       385   12 Jun 2027 09:25:03.128   12 Jun 2027 09:25:06.351             3.223          1611.500
       386   12 Jun 2027 09:25:19.307   12 Jun 2027 09:25:22.351             3.044          1522.000
       387   12 Jun 2027 09:26:11.322   12 Jun 2027 09:26:12.533             1.211           605.500
       388   12 Jun 2027 09:26:24.791   12 Jun 2027 09:26:26.258             1.467           733.500
       389   13 Jun 2027 03:06:24.292   13 Jun 2027 03:06:32.492             8.200          4100.000
       390   13 Jun 2027 03:08:05.357   13 Jun 2027 03:08:21.988            16.631          8315.500
       391   13 Jun 2027 03:09:44.544   13 Jun 2027 03:09:47.331             2.787          1393.500
       392   13 Jun 2027 03:10:42.693   13 Jun 2027 03:10:47.341             4.648          2324.000
       393   13 Jun 2027 03:11:06.820   13 Jun 2027 03:11:15.306             8.486          4243.000
       394   13 Jun 2027 03:11:59.456   13 Jun 2027 03:12:01.668             2.212          1106.000
       395   13 Jun 2027 03:12:35.807   13 Jun 2027 03:12:37.136             1.329           664.500
       396   13 Jun 2027 03:13:10.817   13 Jun 2027 03:13:14.589             3.772          1886.000
       397   13 Jun 2027 03:13:27.366   13 Jun 2027 03:13:36.273             8.907          4453.500
       398   13 Jun 2027 03:14:35.201   13 Jun 2027 03:14:47.349            12.148          6074.000
       399   13 Jun 2027 03:16:03.657   13 Jun 2027 03:16:06.552             2.895          1447.500
       400   13 Jun 2027 04:45:12.288   13 Jun 2027 04:45:13.513             1.225           612.500
       401   13 Jun 2027 04:45:19.931   13 Jun 2027 04:45:21.303             1.372           686.000
       402   13 Jun 2027 04:45:49.797   13 Jun 2027 04:46:34.006            44.209         22104.500
       403   13 Jun 2027 04:46:53.121   13 Jun 2027 04:46:54.647             1.526           763.000
       404   13 Jun 2027 04:48:50.255   13 Jun 2027 04:48:52.180             1.925           962.500
       405   13 Jun 2027 04:50:13.534   13 Jun 2027 04:50:25.289            11.755          5877.500
       406   13 Jun 2027 04:50:40.908   13 Jun 2027 04:50:44.400             3.492          1746.000
       407   13 Jun 2027 04:51:53.972   13 Jun 2027 04:51:54.403             0.431           215.500
       408   13 Jun 2027 06:22:09.973   13 Jun 2027 06:22:18.879             8.906          4453.000
       409   13 Jun 2027 06:22:30.511   13 Jun 2027 06:22:59.952            29.441         14720.500
       410   13 Jun 2027 06:25:38.846   13 Jun 2027 06:25:46.731             7.885          3942.500
       411   13 Jun 2027 06:26:20.162   13 Jun 2027 06:26:24.091             3.929          1964.500
       412   13 Jun 2027 06:26:57.566   13 Jun 2027 06:26:58.351             0.785           392.500
       413   13 Jun 2027 07:58:57.646   13 Jun 2027 07:59:08.576            10.930          5465.000
       414   13 Jun 2027 08:00:04.835   13 Jun 2027 08:00:06.660             1.825           912.500
       415   13 Jun 2027 08:00:46.035   13 Jun 2027 08:00:51.287             5.252          2626.000
       416   13 Jun 2027 08:01:35.530   13 Jun 2027 08:01:36.635             1.105           552.500
       417   13 Jun 2027 08:01:46.225   13 Jun 2027 08:01:59.392            13.167          6583.500
       418   13 Jun 2027 09:37:07.789   13 Jun 2027 09:37:11.330             3.541          1770.500
       419   13 Jun 2027 09:37:29.710   13 Jun 2027 09:37:43.640            13.930          6965.000
