uniorb/output/strategy_2/Camera/Camera_KinoSat_111605.txt

KinoSat_111605
-------------------------
    Access    *     Start Time (UTCG)     *     Stop Time (UTCG)  *   Duration (s) *   Data (Mbytes)
         1   01 Jun 2027 03:13:58.604   01 Jun 2027 03:14:00.134             1.530           765.000
         2   01 Jun 2027 03:14:39.544   01 Jun 2027 03:15:18.621            39.077         19538.500
         3   01 Jun 2027 03:15:24.468   01 Jun 2027 03:16:06.028            41.560         20780.000
         4   01 Jun 2027 03:16:06.165   01 Jun 2027 03:17:22.172            76.007         38003.500
         5   01 Jun 2027 03:18:17.766   01 Jun 2027 03:18:34.697            16.931          8465.500
         6   01 Jun 2027 03:19:04.748   01 Jun 2027 03:19:36.527            31.779         15889.500
         7   01 Jun 2027 04:52:46.086   01 Jun 2027 04:53:49.048            62.962         31481.000
         8   01 Jun 2027 04:54:22.449   01 Jun 2027 04:54:30.903             8.454          4227.000
         9   01 Jun 2027 04:54:53.477   01 Jun 2027 04:57:14.154           140.677         70338.500
        10   01 Jun 2027 06:16:12.830   01 Jun 2027 06:16:43.561            30.731         15365.500
        11   01 Jun 2027 07:52:26.242   01 Jun 2027 07:54:52.210           145.968         72984.000
        12   01 Jun 2027 07:55:32.070   01 Jun 2027 07:55:32.070             0.000             0.000
        13   01 Jun 2027 09:25:59.217   01 Jun 2027 09:28:24.781           145.564         72782.000
        14   01 Jun 2027 09:34:31.888   01 Jun 2027 09:34:32.928             1.040           520.000
        15   01 Jun 2027 11:03:31.764   01 Jun 2027 11:05:25.908           114.144         57072.000
        16   01 Jun 2027 11:07:31.222   01 Jun 2027 11:07:52.339            21.117         10558.500
        17   01 Jun 2027 11:08:01.379   01 Jun 2027 11:08:04.284             2.905          1452.500
        18   01 Jun 2027 11:09:36.818   01 Jun 2027 11:09:46.007             9.189          4594.500
        19   01 Jun 2027 11:10:03.767   01 Jun 2027 11:10:15.756            11.989          5994.500
        20   02 Jun 2027 03:26:22.197   02 Jun 2027 03:26:50.303            28.106         14053.000
        21   02 Jun 2027 03:26:53.965   02 Jun 2027 03:27:37.048            43.083         21541.500
        22   02 Jun 2027 03:27:54.604   02 Jun 2027 03:28:35.753            41.149         20574.500
        23   02 Jun 2027 03:29:26.954   02 Jun 2027 03:29:30.800             3.846          1923.000
        24   02 Jun 2027 03:29:41.152   02 Jun 2027 03:29:53.226            12.074          6037.000
        25   02 Jun 2027 03:30:08.997   02 Jun 2027 03:30:51.234            42.237         21118.500
        26   02 Jun 2027 03:31:14.565   02 Jun 2027 03:31:15.787             1.222           611.000
        27   02 Jun 2027 03:31:28.208   02 Jun 2027 03:31:44.383            16.175          8087.500
        28   02 Jun 2027 03:31:52.452   02 Jun 2027 03:32:19.409            26.957         13478.500
        29   02 Jun 2027 05:04:24.920   02 Jun 2027 05:06:00.194            95.274         47637.000
        30   02 Jun 2027 05:06:15.685   02 Jun 2027 05:06:26.378            10.693          5346.500
        31   02 Jun 2027 05:07:24.545   02 Jun 2027 05:07:44.734            20.189         10094.500
        32   02 Jun 2027 06:28:03.997   02 Jun 2027 06:29:02.935            58.938         29469.000
        33   02 Jun 2027 06:29:29.018   02 Jun 2027 06:29:42.360            13.342          6671.000
        34   02 Jun 2027 08:04:31.243   02 Jun 2027 08:07:05.534           154.291         77145.500
        35   02 Jun 2027 08:07:59.532   02 Jun 2027 08:08:03.736             4.204          1911.874
        36   02 Jun 2027 09:36:39.526   02 Jun 2027 09:36:49.523             9.997          4998.500
        37   02 Jun 2027 09:39:12.111   02 Jun 2027 09:39:12.111             0.000             0.000
        38   02 Jun 2027 09:40:24.061   02 Jun 2027 09:40:37.076            13.015          6392.906
        39   02 Jun 2027 09:41:48.140   02 Jun 2027 09:41:53.814             5.674          2005.594
        40   02 Jun 2027 09:42:10.643   02 Jun 2027 09:42:12.664             2.021            75.375
        41   02 Jun 2027 09:43:45.493   02 Jun 2027 09:43:45.493             0.000             0.000
        42   02 Jun 2027 09:44:42.641   02 Jun 2027 09:44:51.772             9.131          4294.875
        43   02 Jun 2027 09:45:00.498   02 Jun 2027 09:45:01.804             1.306           272.687
        44   02 Jun 2027 09:46:16.863   02 Jun 2027 09:46:23.456             6.593          2317.250
        45   02 Jun 2027 11:15:36.654   02 Jun 2027 11:15:50.052            13.398          5561.750
        46   02 Jun 2027 11:16:47.279   02 Jun 2027 11:16:50.147             2.868          1093.594
        47   02 Jun 2027 11:17:43.140   02 Jun 2027 11:17:47.452             4.312          1474.219
        48   02 Jun 2027 11:18:19.690   02 Jun 2027 11:18:21.756             2.066          1007.438
        49   02 Jun 2027 11:19:38.412   02 Jun 2027 11:19:44.975             6.563          2030.500
        50   02 Jun 2027 11:19:50.972   02 Jun 2027 11:19:53.925             2.953           187.406
        51   02 Jun 2027 11:20:00.772   02 Jun 2027 11:20:02.811             2.039            92.406
        52   02 Jun 2027 11:20:10.038   02 Jun 2027 11:20:10.648             0.610           225.844
        53   02 Jun 2027 11:20:33.021   02 Jun 2027 11:20:34.121             1.100           442.906
        54   02 Jun 2027 11:21:36.098   02 Jun 2027 11:21:40.925             4.827          1781.781
        55   02 Jun 2027 11:21:57.146   02 Jun 2027 11:21:59.613             2.467           468.344
        56   03 Jun 2027 03:38:30.055   03 Jun 2027 03:39:30.594            60.539         30269.500
        57   03 Jun 2027 03:39:39.109   03 Jun 2027 03:39:55.272            16.163          8081.500
        58   03 Jun 2027 03:40:22.100   03 Jun 2027 03:42:03.846           101.746         50873.000
        59   03 Jun 2027 03:43:19.051   03 Jun 2027 03:43:29.495            10.444          5222.000
        60   03 Jun 2027 03:43:59.157   03 Jun 2027 03:44:24.315            25.158         12579.000
        61   03 Jun 2027 05:17:38.210   03 Jun 2027 05:17:44.705             6.495          3247.500
        62   03 Jun 2027 05:18:09.854   03 Jun 2027 05:19:25.272            75.418         37709.000
        63   03 Jun 2027 05:19:44.528   03 Jun 2027 05:19:58.280            13.752          6876.000
        64   03 Jun 2027 05:20:07.742   03 Jun 2027 05:20:16.120             8.378          2640.218
        65   03 Jun 2027 05:20:31.327   03 Jun 2027 05:20:33.080             1.753           330.562
        66   03 Jun 2027 05:21:03.761   03 Jun 2027 05:21:03.761             0.000             0.000
        67   03 Jun 2027 06:40:12.361   03 Jun 2027 06:40:23.097            10.736          5368.000
        68   03 Jun 2027 06:41:25.534   03 Jun 2027 06:41:31.796             6.262          2722.000
        69   03 Jun 2027 06:42:31.681   03 Jun 2027 06:42:42.887            11.206          1871.406
        70   03 Jun 2027 06:43:05.238   03 Jun 2027 06:43:05.238             0.000             0.000
        71   03 Jun 2027 08:16:41.272   03 Jun 2027 08:16:50.396             9.124          3031.250
        72   03 Jun 2027 08:17:28.551   03 Jun 2027 08:17:30.750             2.199           983.062
        73   03 Jun 2027 08:19:20.335   03 Jun 2027 08:19:29.071             8.736          3066.281
        74   03 Jun 2027 09:52:14.796   03 Jun 2027 09:52:27.961            13.165          6275.125
        75   03 Jun 2027 09:53:26.072   03 Jun 2027 09:53:30.496             4.424          1367.000
        76   03 Jun 2027 09:54:08.254   03 Jun 2027 09:54:09.558             1.304           496.750
        77   03 Jun 2027 09:54:31.303   03 Jun 2027 09:54:32.179             0.876           163.812
        78   03 Jun 2027 09:54:49.346   03 Jun 2027 09:54:51.062             1.716           451.219
        79   03 Jun 2027 09:56:59.217   03 Jun 2027 09:56:59.217             0.000             0.000
        80   03 Jun 2027 09:57:58.015   03 Jun 2027 09:58:12.380            14.365          5840.500
        81   03 Jun 2027 11:28:11.488   03 Jun 2027 11:28:23.539            12.051          5416.750
        82   03 Jun 2027 11:28:41.481   03 Jun 2027 11:28:43.257             1.776           331.500
        83   03 Jun 2027 11:30:04.958   03 Jun 2027 11:30:07.509             2.551          1238.594
        84   03 Jun 2027 11:30:12.988   03 Jun 2027 11:30:15.319             2.331           166.031
        85   03 Jun 2027 11:30:16.596   03 Jun 2027 11:30:16.977             0.381            36.906
        86   03 Jun 2027 11:31:40.539   03 Jun 2027 11:31:46.512             5.973          2440.031
        87   03 Jun 2027 11:32:10.949   03 Jun 2027 11:32:13.322             2.373           411.781
        88   03 Jun 2027 11:32:38.915   03 Jun 2027 11:32:40.062             1.147           573.500
        89   03 Jun 2027 11:32:42.172   03 Jun 2027 11:32:42.910             0.738           255.812
        90   03 Jun 2027 11:33:39.933   03 Jun 2027 11:33:41.875             1.942           971.000
        91   03 Jun 2027 11:33:48.069   03 Jun 2027 11:33:49.683             1.614           595.188
        92   03 Jun 2027 11:33:54.017   03 Jun 2027 11:33:56.439             2.422           129.938
        93   03 Jun 2027 11:34:19.653   03 Jun 2027 11:34:22.590             2.937           725.438
        94   04 Jun 2027 03:50:34.899   04 Jun 2027 03:50:52.971            18.072          9036.000
        95   04 Jun 2027 03:51:37.637   04 Jun 2027 03:53:01.885            84.248         42124.000
        96   04 Jun 2027 03:53:25.390   04 Jun 2027 03:55:09.029           103.639         51819.500
        97   04 Jun 2027 03:55:55.521   04 Jun 2027 03:55:55.521             0.000             0.000
        98   04 Jun 2027 03:58:52.153   04 Jun 2027 03:59:19.598            27.445         13722.500
        99   04 Jun 2027 05:28:46.585   04 Jun 2027 05:29:23.640            37.055         18527.500
       100   04 Jun 2027 05:29:52.644   04 Jun 2027 05:30:05.177            12.533          6266.500
       101   04 Jun 2027 05:30:39.437   04 Jun 2027 05:30:55.390            15.953          7976.500
       102   04 Jun 2027 05:31:34.063   04 Jun 2027 05:31:34.063             0.000             0.000
       103   04 Jun 2027 05:31:43.955   04 Jun 2027 05:32:01.577            17.622          8659.969
       104   04 Jun 2027 05:32:14.647   04 Jun 2027 05:32:17.504             2.857           154.000
       105   04 Jun 2027 06:52:55.054   04 Jun 2027 06:53:08.170            13.116          6277.094
       106   04 Jun 2027 06:53:27.508   04 Jun 2027 06:53:33.538             6.030           602.781
       107   04 Jun 2027 06:54:48.101   04 Jun 2027 06:54:55.761             7.660          2330.094
       108   04 Jun 2027 06:55:19.954   04 Jun 2027 06:55:22.628             2.674           441.531
       109   04 Jun 2027 08:28:39.158   04 Jun 2027 08:28:46.801             7.643          2938.375
       110   04 Jun 2027 08:29:14.427   04 Jun 2027 08:29:16.234             1.807           852.688
       111   04 Jun 2027 08:29:34.124   04 Jun 2027 08:29:37.021             2.897           559.062
       112   04 Jun 2027 08:29:52.002   04 Jun 2027 08:29:53.401             1.399           275.312
       113   04 Jun 2027 08:30:09.067   04 Jun 2027 08:30:09.067             0.000             0.000
       114   04 Jun 2027 08:30:25.710   04 Jun 2027 08:30:27.475             1.765           777.094
       115   04 Jun 2027 08:31:10.882   04 Jun 2027 08:31:17.783             6.901          1085.906
       116   04 Jun 2027 10:03:42.988   04 Jun 2027 10:03:58.796            15.808          5816.125
       117   04 Jun 2027 10:04:07.199   04 Jun 2027 10:04:09.277             2.078           262.594
       118   04 Jun 2027 10:04:34.438   04 Jun 2027 10:04:37.991             3.553           786.281
       119   04 Jun 2027 10:05:46.659   04 Jun 2027 10:05:53.174             6.515          2080.906
       120   04 Jun 2027 10:06:47.372   04 Jun 2027 10:06:54.401             7.029          1693.687
       121   04 Jun 2027 10:07:24.233   04 Jun 2027 10:07:33.107             8.874           430.094
       122   04 Jun 2027 10:08:10.321   04 Jun 2027 10:08:13.384             3.063           838.625
       123   04 Jun 2027 10:08:21.204   04 Jun 2027 10:08:25.759             4.555           244.375
       124   04 Jun 2027 10:08:36.189   04 Jun 2027 10:08:41.113             4.924           325.937
       125   04 Jun 2027 10:10:13.761   04 Jun 2027 10:10:19.503             5.742          2329.344
       126   04 Jun 2027 11:39:48.554   04 Jun 2027 11:40:02.070            13.516          6323.125
       127   04 Jun 2027 11:41:09.289   04 Jun 2027 11:41:12.964             3.675          1583.156
       128   04 Jun 2027 11:41:46.823   04 Jun 2027 11:41:48.708             1.885           234.562
       129   04 Jun 2027 11:42:19.631   04 Jun 2027 11:42:22.090             2.459           647.656
       130   04 Jun 2027 11:43:42.676   04 Jun 2027 11:43:47.667             4.991          2285.312
       131   04 Jun 2027 11:44:16.832   04 Jun 2027 11:44:19.207             2.375           911.406
       132   04 Jun 2027 11:44:44.494   04 Jun 2027 11:44:48.381             3.887           479.531
       133   04 Jun 2027 11:45:26.301   04 Jun 2027 11:45:35.046             8.745           791.594
       134   05 Jun 2027 04:03:40.036   05 Jun 2027 04:06:06.496           146.460         73230.000
       135   05 Jun 2027 04:07:05.325   05 Jun 2027 04:07:28.019            22.694         11347.000
       136   05 Jun 2027 04:08:01.024   05 Jun 2027 04:08:32.008            30.984         15492.000
       137   05 Jun 2027 04:09:09.938   05 Jun 2027 04:09:18.816             8.878          4439.000
       138   05 Jun 2027 04:09:49.619   05 Jun 2027 04:09:54.134             4.515          2257.500
       139   05 Jun 2027 04:10:34.717   05 Jun 2027 04:10:34.717             0.000             0.000
       140   05 Jun 2027 04:10:37.506   05 Jun 2027 04:11:17.935            40.429         20214.500
       141   05 Jun 2027 05:29:43.788   05 Jun 2027 05:29:56.767            12.979          6489.500
       142   05 Jun 2027 05:40:42.600   05 Jun 2027 05:41:34.753            52.153         26076.500
       143   05 Jun 2027 05:42:01.573   05 Jun 2027 05:42:04.546             2.973          1486.500
       144   05 Jun 2027 05:42:48.125   05 Jun 2027 05:42:57.377             9.252          4192.750
       145   05 Jun 2027 05:43:34.049   05 Jun 2027 05:43:34.049             0.000             0.000
       146   05 Jun 2027 05:43:41.111   05 Jun 2027 05:43:46.318             5.207          1366.688
       147   05 Jun 2027 07:04:01.359   05 Jun 2027 07:04:14.626            13.267          5963.312
       148   05 Jun 2027 07:06:10.511   05 Jun 2027 07:06:17.008             6.497          3184.000
       149   05 Jun 2027 07:07:34.965   05 Jun 2027 07:07:34.965             0.000             0.000
       150   05 Jun 2027 08:39:16.858   05 Jun 2027 08:39:19.036             2.178          1089.000
       151   05 Jun 2027 08:40:40.992   05 Jun 2027 08:40:51.316            10.324          4559.313
       152   05 Jun 2027 08:42:59.674   05 Jun 2027 08:43:08.460             8.786          3716.813
       153   05 Jun 2027 10:15:09.862   05 Jun 2027 10:15:24.368            14.506          6858.563
       154   05 Jun 2027 10:15:38.911   05 Jun 2027 10:15:40.709             1.798           216.875
       155   05 Jun 2027 10:18:04.074   05 Jun 2027 10:18:13.213             9.139          4371.875
       156   05 Jun 2027 10:20:58.569   05 Jun 2027 10:21:08.210             9.641          4754.844
       157   05 Jun 2027 10:22:05.478   05 Jun 2027 10:22:10.432             4.954          1421.219
       158   05 Jun 2027 11:51:59.937   05 Jun 2027 11:52:12.153            12.216          6083.687
       159   05 Jun 2027 11:52:16.199   05 Jun 2027 11:52:18.158             1.959            69.281
       160   05 Jun 2027 11:53:25.490   05 Jun 2027 11:53:30.041             4.551          1904.563
       161   05 Jun 2027 11:53:50.386   05 Jun 2027 11:53:54.844             4.458           635.781
       162   05 Jun 2027 11:54:36.245   05 Jun 2027 11:54:40.869             4.624          1053.750
       163   05 Jun 2027 11:55:54.160   05 Jun 2027 11:55:59.977             5.817          2008.875
       164   05 Jun 2027 11:56:20.595   05 Jun 2027 11:56:22.176             1.581           644.313
       165   05 Jun 2027 11:56:45.499   05 Jun 2027 11:56:47.485             1.986           541.906
       166   05 Jun 2027 11:57:24.373   05 Jun 2027 11:57:28.998             4.625          1127.656
       167   05 Jun 2027 11:57:42.046   05 Jun 2027 11:57:45.849             3.803           391.938
       168   05 Jun 2027 11:57:56.250   05 Jun 2027 11:57:59.485             3.235           250.062
       169   06 Jun 2027 04:16:03.736   06 Jun 2027 04:18:56.741           173.005         86502.500
       170   06 Jun 2027 04:19:29.426   06 Jun 2027 04:20:14.523            45.097         22548.500
       171   06 Jun 2027 04:22:22.034   06 Jun 2027 04:22:22.743             0.709           354.500
       172   06 Jun 2027 05:41:03.507   06 Jun 2027 05:41:35.589            32.082         16041.000
       173   06 Jun 2027 05:41:58.740   06 Jun 2027 05:42:08.395             9.655          4827.500
       174   06 Jun 2027 05:52:44.281   06 Jun 2027 05:53:40.114            55.833         27916.500
       175   06 Jun 2027 05:53:40.858   06 Jun 2027 05:53:40.858             0.000             0.000
       176   06 Jun 2027 05:54:02.053   06 Jun 2027 05:54:04.584             2.531          1265.500
       177   06 Jun 2027 07:14:59.531   06 Jun 2027 07:15:18.915            19.384          6937.782
       178   06 Jun 2027 07:16:06.950   06 Jun 2027 07:16:10.973             4.023           698.875
       179   06 Jun 2027 07:17:26.227   06 Jun 2027 07:17:30.323             4.096          1670.500
       180   06 Jun 2027 07:18:34.779   06 Jun 2027 07:18:43.953             9.174          1796.125
       181   06 Jun 2027 07:19:14.435   06 Jun 2027 07:19:14.435             0.000             0.000
       182   06 Jun 2027 07:19:33.567   06 Jun 2027 07:19:36.231             2.664          1332.000
       183   06 Jun 2027 08:50:11.496   06 Jun 2027 08:50:18.637             7.141          3300.344
       184   06 Jun 2027 08:50:28.887   06 Jun 2027 08:50:28.981             0.094            47.000
       185   06 Jun 2027 08:51:35.701   06 Jun 2027 08:51:35.701             0.000             0.000
       186   06 Jun 2027 08:52:20.855   06 Jun 2027 08:52:27.582             6.727          3363.500
       187   06 Jun 2027 08:53:32.531   06 Jun 2027 08:53:32.531             0.000             0.000
       188   06 Jun 2027 08:54:08.401   06 Jun 2027 08:54:15.224             6.823          3314.344
       189   06 Jun 2027 08:54:35.151   06 Jun 2027 08:54:36.940             1.789           300.219
       190   06 Jun 2027 08:54:42.711   06 Jun 2027 08:54:46.106             3.395           178.969
       191   06 Jun 2027 10:27:16.889   06 Jun 2027 10:27:31.019            14.130          4797.250
       192   06 Jun 2027 10:28:17.626   06 Jun 2027 10:28:20.744             3.118          1063.281
       193   06 Jun 2027 10:28:41.162   06 Jun 2027 10:28:42.182             1.020           483.031
       194   06 Jun 2027 10:29:22.242   06 Jun 2027 10:29:28.503             6.261           868.844
       195   06 Jun 2027 10:30:48.574   06 Jun 2027 10:30:50.180             1.606           706.344
       196   06 Jun 2027 10:31:44.849   06 Jun 2027 10:31:53.353             8.504          1708.406
       197   06 Jun 2027 10:32:08.853   06 Jun 2027 10:32:09.619             0.766           115.375
       198   06 Jun 2027 10:33:48.190   06 Jun 2027 10:33:56.340             8.150          3080.344
       199   06 Jun 2027 10:33:59.510   06 Jun 2027 10:33:59.510             0.000             0.000
       200   06 Jun 2027 10:34:18.521   06 Jun 2027 10:34:20.095             1.574           693.156
       201   07 Jun 2027 04:28:22.638   07 Jun 2027 04:31:29.678           187.040         93520.000
       202   07 Jun 2027 04:31:58.914   07 Jun 2027 04:31:58.914             0.000             0.000
       203   07 Jun 2027 04:32:08.305   07 Jun 2027 04:32:57.906            49.601         24800.500
       204   07 Jun 2027 04:33:24.573   07 Jun 2027 04:33:28.585             4.012          2006.000
       205   07 Jun 2027 04:34:09.173   07 Jun 2027 04:34:09.173             0.000             0.000
       206   07 Jun 2027 04:35:01.717   07 Jun 2027 04:35:21.023            19.306          9653.000
       207   07 Jun 2027 05:52:27.747   07 Jun 2027 05:52:59.701            31.954         15977.000
       208   07 Jun 2027 06:04:41.272   07 Jun 2027 06:05:20.415            39.143         19571.500
       209   07 Jun 2027 07:26:43.136   07 Jun 2027 07:27:00.941            17.805          6846.594
       210   07 Jun 2027 07:27:44.424   07 Jun 2027 07:27:48.491             4.067          1343.688
       211   07 Jun 2027 07:27:55.005   07 Jun 2027 07:27:57.133             2.128           143.375
       212   07 Jun 2027 07:29:08.186   07 Jun 2027 07:29:08.186             0.000             0.000
       213   07 Jun 2027 07:29:14.586   07 Jun 2027 07:29:19.373             4.787          1460.719
       214   07 Jun 2027 07:31:37.248   07 Jun 2027 07:31:47.204             9.956          4118.250
       215   07 Jun 2027 07:31:57.753   07 Jun 2027 07:32:00.207             2.454           240.594
       216   07 Jun 2027 09:01:37.804   07 Jun 2027 09:01:46.798             8.994          3738.594
       217   07 Jun 2027 09:03:06.744   07 Jun 2027 09:03:10.819             4.075          1475.594
       218   07 Jun 2027 09:03:27.699   07 Jun 2027 09:03:27.699             0.000             0.000
       219   07 Jun 2027 09:04:14.043   07 Jun 2027 09:04:18.067             4.024          1975.750
       220   07 Jun 2027 09:05:53.041   07 Jun 2027 09:05:54.355             1.314           657.000
       221   07 Jun 2027 09:07:52.010   07 Jun 2027 09:07:59.113             7.103          3551.500
       222   07 Jun 2027 09:08:25.818   07 Jun 2027 09:08:30.614             4.796          2279.438
       223   07 Jun 2027 09:09:03.283   07 Jun 2027 09:09:08.055             4.772           993.937
       224   07 Jun 2027 09:10:13.320   07 Jun 2027 09:10:17.236             3.916          1842.031
       225   07 Jun 2027 10:39:19.076   07 Jun 2027 10:39:31.001            11.925          5909.844
       226   07 Jun 2027 10:40:07.621   07 Jun 2027 10:40:09.945             2.324           912.719
       227   07 Jun 2027 10:40:56.917   07 Jun 2027 10:41:02.941             6.024           345.656
       228   07 Jun 2027 10:41:27.469   07 Jun 2027 10:41:29.076             1.607           661.875
       229   07 Jun 2027 10:42:21.497   07 Jun 2027 10:42:25.423             3.926           553.688
       230   07 Jun 2027 10:43:07.941   07 Jun 2027 10:43:14.850             6.909          1328.688
       231   07 Jun 2027 10:44:54.731   07 Jun 2027 10:45:01.378             6.647          2908.281
       232   07 Jun 2027 10:45:59.689   07 Jun 2027 10:46:04.430             4.741          1757.656
       233   07 Jun 2027 10:46:08.022   07 Jun 2027 10:46:11.351             3.329           112.250
       234   07 Jun 2027 10:46:44.539   07 Jun 2027 10:46:46.172             1.633           816.500
       235   08 Jun 2027 03:01:44.608   08 Jun 2027 03:01:46.242             1.634           817.000
       236   08 Jun 2027 03:02:06.059   08 Jun 2027 03:02:31.677            25.618         12809.000
       237   08 Jun 2027 03:02:33.889   08 Jun 2027 03:03:46.210            72.321         36160.500
       238   08 Jun 2027 03:03:51.746   08 Jun 2027 03:03:51.746             0.000             0.000
       239   08 Jun 2027 03:04:06.303   08 Jun 2027 03:04:14.063             7.760          3880.000
       240   08 Jun 2027 03:04:20.185   08 Jun 2027 03:04:36.165            15.980          7990.000
       241   08 Jun 2027 03:07:04.924   08 Jun 2027 03:07:10.826             5.902          2951.000
       242   08 Jun 2027 04:40:27.118   08 Jun 2027 04:42:38.430           131.312         65656.000
       243   08 Jun 2027 04:43:33.697   08 Jun 2027 04:44:18.580            44.883         22441.500
       244   08 Jun 2027 04:44:45.201   08 Jun 2027 04:44:57.759            12.558          5809.906
       245   08 Jun 2027 04:45:27.335   08 Jun 2027 04:45:29.897             2.562           868.469
       246   08 Jun 2027 04:45:56.250   08 Jun 2027 04:45:59.201             2.951           712.906
       247   08 Jun 2027 06:04:33.463   08 Jun 2027 06:04:53.198            19.735          9718.438
       248   08 Jun 2027 06:05:27.234   08 Jun 2027 06:05:29.378             2.144           701.344
       249   08 Jun 2027 06:05:45.597   08 Jun 2027 06:05:48.812             3.215           333.000
       250   08 Jun 2027 07:38:20.673   08 Jun 2027 07:38:40.539            19.866          8473.125
       251   08 Jun 2027 07:39:53.584   08 Jun 2027 07:39:53.584             0.000             0.000
       252   08 Jun 2027 07:40:14.131   08 Jun 2027 07:40:18.605             4.474          1404.406
       253   08 Jun 2027 07:41:07.634   08 Jun 2027 07:41:11.607             3.973          1452.500
       254   08 Jun 2027 07:41:16.146   08 Jun 2027 07:41:17.051             0.905           141.844
       255   08 Jun 2027 07:42:08.417   08 Jun 2027 07:42:11.204             2.787          1388.156
       256   08 Jun 2027 07:43:37.951   08 Jun 2027 07:43:43.970             6.019          2346.375
       257   08 Jun 2027 09:13:12.656   08 Jun 2027 09:13:18.977             6.321          3160.500
       258   08 Jun 2027 09:14:03.334   08 Jun 2027 09:14:10.491             7.157          2431.500
       259   08 Jun 2027 09:15:54.332   08 Jun 2027 09:15:58.635             4.303           798.094
       260   08 Jun 2027 09:19:01.573   08 Jun 2027 09:19:01.573             0.000             0.000
       261   08 Jun 2027 09:20:18.289   08 Jun 2027 09:20:33.927            15.638          7803.875
       262   08 Jun 2027 09:20:52.042   08 Jun 2027 09:20:55.166             3.124           494.469
       263   08 Jun 2027 09:21:57.852   08 Jun 2027 09:22:00.692             2.840          1370.875
       264   08 Jun 2027 09:22:13.914   08 Jun 2027 09:22:14.510             0.596           183.406
       265   08 Jun 2027 09:22:45.789   08 Jun 2027 09:22:49.056             3.267           768.563
       266   08 Jun 2027 10:51:22.223   08 Jun 2027 10:51:41.716            19.493          7088.969
       267   08 Jun 2027 10:54:12.276   08 Jun 2027 10:54:12.276             0.000             0.000
       268   08 Jun 2027 10:55:34.299   08 Jun 2027 10:55:49.519            15.220          6689.719
       269   08 Jun 2027 10:56:51.183   08 Jun 2027 10:56:51.183             0.000             0.000
       270   08 Jun 2027 10:56:53.832   08 Jun 2027 10:57:01.051             7.219          1337.094
       271   08 Jun 2027 10:57:19.953   08 Jun 2027 10:57:23.361             3.408           568.563
       272   08 Jun 2027 10:57:50.266   08 Jun 2027 10:57:52.329             2.063           674.437
       273   08 Jun 2027 10:58:15.764   08 Jun 2027 10:58:17.722             1.958           718.062
       274   08 Jun 2027 10:58:19.272   08 Jun 2027 10:58:20.766             1.494            48.437
       275   08 Jun 2027 10:58:28.901   08 Jun 2027 10:58:29.777             0.876           115.281
       276   09 Jun 2027 03:14:38.253   09 Jun 2027 03:15:31.339            53.086         26543.000
       277   09 Jun 2027 03:15:41.099   09 Jun 2027 03:16:22.922            41.823         20911.500
       278   09 Jun 2027 03:16:23.493   09 Jun 2027 03:17:46.835            83.342         41671.000
       279   09 Jun 2027 03:18:16.589   09 Jun 2027 03:18:31.774            15.185          7592.500
       280   09 Jun 2027 03:18:45.592   09 Jun 2027 03:18:52.001             6.409          3204.500
       281   09 Jun 2027 03:19:51.134   09 Jun 2027 03:19:51.134             0.000             0.000
       282   09 Jun 2027 04:53:03.152   09 Jun 2027 04:54:04.237            61.085         30542.500
       283   09 Jun 2027 04:54:36.975   09 Jun 2027 04:55:18.195            41.220         17837.156
       284   09 Jun 2027 04:55:46.762   09 Jun 2027 04:55:46.762             0.000             0.000
       285   09 Jun 2027 04:56:00.035   09 Jun 2027 04:56:07.949             7.914          1240.031
       286   09 Jun 2027 04:56:20.657   09 Jun 2027 04:56:20.657             0.000             0.000
       287   09 Jun 2027 06:16:28.566   09 Jun 2027 06:16:48.067            19.501          8981.437
       288   09 Jun 2027 06:18:14.762   09 Jun 2027 06:18:20.844             6.082          2381.875
       289   09 Jun 2027 07:52:44.154   09 Jun 2027 07:53:02.383            18.229          7502.562
       290   09 Jun 2027 07:53:15.007   09 Jun 2027 07:53:17.342             2.335           256.750
       291   09 Jun 2027 07:53:40.729   09 Jun 2027 07:53:42.704             1.975           730.844
       292   09 Jun 2027 07:53:44.133   09 Jun 2027 07:53:44.133             0.000             0.000
       293   09 Jun 2027 07:54:31.185   09 Jun 2027 07:54:37.158             5.973          1503.031
       294   09 Jun 2027 07:54:46.229   09 Jun 2027 07:54:46.919             0.690           108.125
       295   09 Jun 2027 07:55:22.367   09 Jun 2027 07:55:31.189             8.822           502.062
       296   09 Jun 2027 09:26:16.541   09 Jun 2027 09:26:25.204             8.663          3575.156
       297   09 Jun 2027 09:27:03.144   09 Jun 2027 09:27:09.225             6.081           240.406
       298   09 Jun 2027 09:28:46.624   09 Jun 2027 09:28:52.110             5.486          2474.375
       299   09 Jun 2027 09:29:20.207   09 Jun 2027 09:29:23.006             2.799           878.031
       300   09 Jun 2027 09:32:47.907   09 Jun 2027 09:33:00.376            12.469          6075.969
       301   09 Jun 2027 09:34:09.207   09 Jun 2027 09:34:13.231             4.024          1681.469
       302   09 Jun 2027 09:34:34.585   09 Jun 2027 09:34:37.604             3.019           489.625
       303   09 Jun 2027 09:34:44.408   09 Jun 2027 09:34:48.497             4.089             8.000
       304   09 Jun 2027 11:03:48.986   09 Jun 2027 11:04:06.121            17.135          7145.781
       305   09 Jun 2027 11:04:31.076   09 Jun 2027 11:04:33.095             2.019           477.156
       306   09 Jun 2027 11:04:56.972   09 Jun 2027 11:04:59.364             2.392           746.156
       307   09 Jun 2027 11:05:09.848   09 Jun 2027 11:05:12.770             2.922           327.625
       308   09 Jun 2027 11:06:11.615   09 Jun 2027 11:06:16.328             4.713          1612.344
       309   09 Jun 2027 11:06:54.971   09 Jun 2027 11:07:03.122             8.151           613.969
       310   09 Jun 2027 11:07:05.724   09 Jun 2027 11:07:08.904             3.180            81.313
       311   09 Jun 2027 11:08:13.598   09 Jun 2027 11:08:17.793             4.195          1926.250
       312   09 Jun 2027 11:08:46.125   09 Jun 2027 11:08:50.124             3.999           885.375
       313   09 Jun 2027 11:09:52.055   09 Jun 2027 11:09:56.337             4.282          1907.281
       314   09 Jun 2027 11:10:16.112   09 Jun 2027 11:10:18.505             2.393           595.531
       315   10 Jun 2027 03:26:38.875   10 Jun 2027 03:27:07.005            28.130         14065.000
       316   10 Jun 2027 03:27:09.240   10 Jun 2027 03:28:09.605            60.365         30182.500
       317   10 Jun 2027 03:28:33.202   10 Jun 2027 03:29:39.094            65.892         32946.000
       318   10 Jun 2027 03:29:45.774   10 Jun 2027 03:29:55.726             9.952          4976.000
       319   10 Jun 2027 03:30:10.112   10 Jun 2027 03:31:28.984            78.872         39436.000
       320   10 Jun 2027 05:04:41.923   10 Jun 2027 05:05:51.384            69.461         34730.500
       321   10 Jun 2027 05:06:16.981   10 Jun 2027 05:06:19.903             2.922          1461.000
       322   10 Jun 2027 05:07:03.382   10 Jun 2027 05:07:03.653             0.271           135.500
       323   10 Jun 2027 05:07:40.685   10 Jun 2027 05:07:49.552             8.867          3422.156
       324   10 Jun 2027 05:08:22.722   10 Jun 2027 05:08:24.425             1.703           148.719
       325   10 Jun 2027 05:08:33.756   10 Jun 2027 05:08:36.137             2.381           291.594
       326   10 Jun 2027 06:28:20.428   10 Jun 2027 06:28:27.207             6.779          3389.500
       327   10 Jun 2027 06:28:49.929   10 Jun 2027 06:28:57.661             7.732          2702.500
       328   10 Jun 2027 06:29:19.691   10 Jun 2027 06:29:19.691             0.000             0.000
       329   10 Jun 2027 06:29:44.777   10 Jun 2027 06:29:48.253             3.476          1072.500
       330   10 Jun 2027 06:30:57.711   10 Jun 2027 06:31:00.804             3.093          1546.500
       331   10 Jun 2027 08:04:48.239   10 Jun 2027 08:04:55.480             7.241          3620.500
       332   10 Jun 2027 08:05:18.193   10 Jun 2027 08:05:22.677             4.484          1817.063
       333   10 Jun 2027 08:06:41.740   10 Jun 2027 08:06:47.940             6.200          2435.031
       334   10 Jun 2027 08:07:52.301   10 Jun 2027 08:07:52.301             0.000             0.000
       335   10 Jun 2027 09:38:56.283   10 Jun 2027 09:39:05.601             9.318          3588.906
       336   10 Jun 2027 09:41:02.711   10 Jun 2027 09:41:11.635             8.924          2911.937
       337   10 Jun 2027 09:43:52.769   10 Jun 2027 09:44:01.244             8.475          4237.500
       338   10 Jun 2027 09:44:52.765   10 Jun 2027 09:44:59.482             6.717          2077.500
       339   10 Jun 2027 09:45:18.613   10 Jun 2027 09:45:21.217             2.604           597.844
       340   10 Jun 2027 09:46:03.879   10 Jun 2027 09:46:07.141             3.262           963.375
       341   10 Jun 2027 09:46:29.676   10 Jun 2027 09:46:32.236             2.560           704.219
       342   10 Jun 2027 09:46:36.934   10 Jun 2027 09:46:39.496             2.562           146.812
       343   10 Jun 2027 11:15:54.883   10 Jun 2027 11:16:10.247            15.364          6926.562
       344   10 Jun 2027 11:17:03.284   10 Jun 2027 11:17:06.907             3.623          1091.969
       345   10 Jun 2027 11:18:07.639   10 Jun 2027 11:18:14.175             6.536           986.937
       346   10 Jun 2027 11:18:37.561   10 Jun 2027 11:18:39.577             2.016           730.813
       347   10 Jun 2027 11:19:54.482   10 Jun 2027 11:19:59.799             5.317          2079.219
       348   10 Jun 2027 11:20:17.468   10 Jun 2027 11:20:19.162             1.694           552.156
       349   10 Jun 2027 11:20:48.199   10 Jun 2027 11:20:51.279             3.080           907.406
       350   10 Jun 2027 11:20:53.547   10 Jun 2027 11:20:55.184             1.637            70.875
       351   10 Jun 2027 11:21:03.559   10 Jun 2027 11:21:03.559             0.000             0.000
       352   10 Jun 2027 11:22:00.618   10 Jun 2027 11:22:14.985            14.367          2044.812
       353   10 Jun 2027 11:22:29.092   10 Jun 2027 11:22:32.957             3.865           440.844
       354   11 Jun 2027 03:38:47.043   11 Jun 2027 03:39:47.313            60.270         30135.000
       355   11 Jun 2027 03:39:56.100   11 Jun 2027 03:41:42.143           106.043         53021.500
       356   11 Jun 2027 03:42:20.236   11 Jun 2027 03:43:33.634            73.398         36699.000
       357   11 Jun 2027 03:43:35.122   11 Jun 2027 03:43:35.682             0.560           280.000
       358   11 Jun 2027 03:44:14.141   11 Jun 2027 03:44:16.690             2.549          1274.500
       359   11 Jun 2027 03:45:03.259   11 Jun 2027 03:45:07.743             4.484          2242.000
       360   11 Jun 2027 05:17:07.576   11 Jun 2027 05:17:14.465             6.889          3444.500
       361   11 Jun 2027 05:18:00.722   11 Jun 2027 05:19:02.761            62.039         28885.281
       362   11 Jun 2027 05:19:34.817   11 Jun 2027 05:19:37.537             2.720           750.562
       363   11 Jun 2027 05:20:24.759   11 Jun 2027 05:20:30.847             6.088          1300.281
       364   11 Jun 2027 05:20:47.427   11 Jun 2027 05:20:50.096             2.669           372.500
       365   11 Jun 2027 06:40:29.073   11 Jun 2027 06:40:44.191            15.118          7160.375
       366   11 Jun 2027 06:41:13.339   11 Jun 2027 06:41:13.339             0.000             0.000
       367   11 Jun 2027 06:42:10.333   11 Jun 2027 06:42:16.824             6.491          2018.625
       368   11 Jun 2027 06:43:05.219   11 Jun 2027 06:43:07.660             2.441          1220.500
       369   11 Jun 2027 06:43:09.662   11 Jun 2027 06:43:09.662             0.000             0.000
       370   11 Jun 2027 06:43:16.205   11 Jun 2027 06:43:17.855             1.650           292.812
       371   11 Jun 2027 08:16:59.108   11 Jun 2027 08:17:05.838             6.730          2935.594
       372   11 Jun 2027 08:18:09.845   11 Jun 2027 08:18:13.403             3.558          1767.531
       373   11 Jun 2027 08:18:32.385   11 Jun 2027 08:18:32.385             0.000             0.000
       374   11 Jun 2027 08:18:33.439   11 Jun 2027 08:18:34.364             0.925           257.844
       375   11 Jun 2027 08:19:23.469   11 Jun 2027 08:19:26.464             2.995          1437.812
       376   11 Jun 2027 08:19:58.112   11 Jun 2027 08:20:02.322             4.210           987.000
       377   11 Jun 2027 09:52:09.449   11 Jun 2027 09:52:20.596            11.147          5573.500
       378   11 Jun 2027 09:52:51.692   11 Jun 2027 09:52:59.230             7.538          1090.719
       379   11 Jun 2027 09:53:24.221   11 Jun 2027 09:53:25.680             1.459            10.563
       380   11 Jun 2027 09:55:08.025   11 Jun 2027 09:55:08.025             0.000             0.000
       381   11 Jun 2027 09:55:32.155   11 Jun 2027 09:55:41.219             9.064          3952.344
       382   11 Jun 2027 09:56:09.160   11 Jun 2027 09:56:11.266             2.106           347.469
       383   11 Jun 2027 09:56:26.489   11 Jun 2027 09:56:29.808             3.319            91.438
       384   11 Jun 2027 09:56:40.185   11 Jun 2027 09:56:40.550             0.365           182.500
       385   11 Jun 2027 09:57:46.522   11 Jun 2027 09:57:52.456             5.934          2178.375
       386   11 Jun 2027 09:58:15.848   11 Jun 2027 09:58:17.287             1.439           162.187
       387   11 Jun 2027 09:58:38.097   11 Jun 2027 09:58:41.020             2.923           650.313
       388   11 Jun 2027 11:28:31.122   11 Jun 2027 11:28:49.530            18.408          5916.344
       389   11 Jun 2027 11:30:21.495   11 Jun 2027 11:30:30.595             9.100          2610.969
       390   11 Jun 2027 11:31:08.896   11 Jun 2027 11:31:17.289             8.393          1196.906
       391   11 Jun 2027 11:32:30.468   11 Jun 2027 11:32:35.895             5.427          1530.375
       392   11 Jun 2027 11:32:46.615   11 Jun 2027 11:32:50.890             4.275           335.000
       393   11 Jun 2027 11:33:57.757   11 Jun 2027 11:34:02.930             5.173          1942.531
       394   11 Jun 2027 11:34:42.207   11 Jun 2027 11:34:44.620             2.413          1206.500
       395   12 Jun 2027 03:50:51.750   12 Jun 2027 03:51:06.891            15.141          7570.500
       396   12 Jun 2027 03:51:54.269   12 Jun 2027 03:53:09.934            75.665         37832.500
       397   12 Jun 2027 03:53:46.326   12 Jun 2027 03:54:07.353            21.027         10513.500
       398   12 Jun 2027 03:54:09.694   12 Jun 2027 03:55:23.600            73.906         36953.000
       399   12 Jun 2027 03:56:11.000   12 Jun 2027 03:56:17.741             6.741          3370.500
       400   12 Jun 2027 03:56:55.817   12 Jun 2027 03:56:57.504             1.687           843.500
       401   12 Jun 2027 03:59:05.534   12 Jun 2027 03:59:43.234            37.700         18850.000
       402   12 Jun 2027 05:29:03.023   12 Jun 2027 05:29:40.818            37.795         18897.500
       403   12 Jun 2027 05:30:10.616   12 Jun 2027 05:30:46.985            36.369         17564.718
       404   12 Jun 2027 05:31:19.410   12 Jun 2027 05:31:19.527             0.117            58.500
       405   12 Jun 2027 05:32:01.124   12 Jun 2027 05:32:08.259             7.135          2244.719
       406   12 Jun 2027 05:32:37.890   12 Jun 2027 05:32:38.081             0.191            95.500
       407   12 Jun 2027 06:53:12.087   12 Jun 2027 06:53:28.878            16.791          8031.187
       408   12 Jun 2027 06:53:51.622   12 Jun 2027 06:53:51.622             0.000             0.000
       409   12 Jun 2027 06:55:03.580   12 Jun 2027 06:55:12.039             8.459          2525.812
       410   12 Jun 2027 06:55:24.842   12 Jun 2027 06:55:25.815             0.973           400.094
       411   12 Jun 2027 08:28:55.019   12 Jun 2027 08:29:02.400             7.381          3690.500
       412   12 Jun 2027 08:29:28.729   12 Jun 2027 08:29:31.819             3.090          1545.000
       413   12 Jun 2027 08:29:49.080   12 Jun 2027 08:29:51.646             2.566           729.437
       414   12 Jun 2027 08:30:24.377   12 Jun 2027 08:30:25.090             0.713           199.781
       415   12 Jun 2027 08:31:20.896   12 Jun 2027 08:31:23.977             3.081          1387.000
       416   12 Jun 2027 08:32:06.610   12 Jun 2027 08:32:12.555             5.945          1201.750
       417   12 Jun 2027 10:03:52.476   12 Jun 2027 10:04:07.033            14.557          4850.031
       418   12 Jun 2027 10:05:25.164   12 Jun 2027 10:05:30.489             5.325          2110.531
       419   12 Jun 2027 10:07:54.093   12 Jun 2027 10:08:05.287            11.194          4260.469
       420   12 Jun 2027 10:08:41.814   12 Jun 2027 10:08:46.457             4.643           554.750
       421   12 Jun 2027 10:09:21.708   12 Jun 2027 10:09:24.160             2.452           909.594
       422   12 Jun 2027 10:09:58.170   12 Jun 2027 10:10:00.044             1.874           635.750
       423   12 Jun 2027 10:10:13.654   12 Jun 2027 10:10:14.972             1.318           425.313
       424   12 Jun 2027 10:10:17.356   12 Jun 2027 10:10:23.674             6.318            74.500
       425   12 Jun 2027 10:10:29.019   12 Jun 2027 10:10:29.968             0.949            91.875
       426   12 Jun 2027 11:40:04.624   12 Jun 2027 11:40:16.345            11.721          5753.281
       427   12 Jun 2027 11:41:05.311   12 Jun 2027 11:41:08.361             3.050          1466.844
       428   12 Jun 2027 11:42:10.166   12 Jun 2027 11:42:14.932             4.766          1578.781
       429   12 Jun 2027 11:42:46.483   12 Jun 2027 11:42:49.273             2.790           893.250
       430   12 Jun 2027 11:43:07.798   12 Jun 2027 11:43:10.564             2.766           546.188
       431   12 Jun 2027 11:43:25.886   12 Jun 2027 11:43:27.759             1.873           478.812
       432   12 Jun 2027 11:44:04.454   12 Jun 2027 11:44:08.303             3.849          1039.594
       433   12 Jun 2027 11:44:33.584   12 Jun 2027 11:44:37.196             3.612           671.781
       434   12 Jun 2027 11:45:28.145   12 Jun 2027 11:45:28.982             0.837           418.500
       435   12 Jun 2027 11:45:41.669   12 Jun 2027 11:45:42.379             0.710           355.000
       436   13 Jun 2027 04:03:57.200   13 Jun 2027 04:07:43.485           226.285        113142.500
       437   13 Jun 2027 04:08:29.637   13 Jun 2027 04:08:46.493            16.856          8428.000
       438   13 Jun 2027 04:10:55.481   13 Jun 2027 04:11:33.500            38.019         19009.500
       439   13 Jun 2027 05:29:57.752   13 Jun 2027 05:30:18.283            20.531         10265.500
       440   13 Jun 2027 05:40:59.252   13 Jun 2027 05:41:46.934            47.682         22050.875
       441   13 Jun 2027 05:42:37.847   13 Jun 2027 05:42:40.894             3.047          1509.531
       442   13 Jun 2027 05:43:55.323   13 Jun 2027 05:43:58.359             3.036          1518.000
       443   13 Jun 2027 07:03:59.214   13 Jun 2027 07:04:21.901            22.687          7605.313
       444   13 Jun 2027 07:05:42.988   13 Jun 2027 07:05:49.054             6.066          1764.969
       445   13 Jun 2027 07:07:05.657   13 Jun 2027 07:07:17.249            11.592          2288.375
       446   13 Jun 2027 08:39:31.020   13 Jun 2027 08:39:37.164             6.144          3072.000
       447   13 Jun 2027 08:40:40.724   13 Jun 2027 08:40:43.451             2.727          1324.938
       448   13 Jun 2027 08:41:04.120   13 Jun 2027 08:41:06.691             2.571           325.375
       449   13 Jun 2027 08:41:27.906   13 Jun 2027 08:41:29.157             1.251           334.000
       450   13 Jun 2027 08:43:27.836   13 Jun 2027 08:43:32.906             5.070          2535.000
       451   13 Jun 2027 08:44:32.024   13 Jun 2027 08:44:40.210             8.186          2386.593
       452   13 Jun 2027 10:15:43.565   13 Jun 2027 10:15:55.153            11.588          5115.531
       453   13 Jun 2027 10:16:21.939   13 Jun 2027 10:16:24.149             2.210           837.062
       454   13 Jun 2027 10:17:18.378   13 Jun 2027 10:17:23.877             5.499            59.531
       455   13 Jun 2027 10:18:58.823   13 Jun 2027 10:18:58.823             0.000             0.000
       456   13 Jun 2027 10:21:16.147   13 Jun 2027 10:21:33.056            16.909          7192.000
       457   13 Jun 2027 10:22:20.694   13 Jun 2027 10:22:25.381             4.687          1386.063
       458   13 Jun 2027 11:52:26.163   13 Jun 2027 11:52:41.491            15.328          7519.062
       459   13 Jun 2027 11:53:41.893   13 Jun 2027 11:53:44.918             3.025          1512.500
       460   13 Jun 2027 11:54:09.156   13 Jun 2027 11:54:11.503             2.347          1102.250
       461   13 Jun 2027 11:54:44.784   13 Jun 2027 11:54:52.479             7.695           789.156
       462   13 Jun 2027 11:56:00.862   13 Jun 2027 11:56:03.848             2.986          1493.000
       463   13 Jun 2027 11:56:39.752   13 Jun 2027 11:56:44.707             4.955          1740.969
       464   13 Jun 2027 11:57:53.699   13 Jun 2027 11:58:00.110             6.411          2156.000
       465   13 Jun 2027 11:58:14.194   13 Jun 2027 11:58:14.994             0.800           289.000
