uniorb/output/strategy_2/Camera/Camera_KinoSat_111805.txt

KinoSat_111805
-------------------------
    Access    *     Start Time (UTCG)     *     Stop Time (UTCG)  *   Duration (s) *   Data (Mbytes)
         1   01 Jun 2027 03:04:36.342   01 Jun 2027 03:06:49.693           133.351         66675.500
         2   01 Jun 2027 03:09:22.474   01 Jun 2027 03:09:35.336            12.862          6431.000
         3   01 Jun 2027 03:10:31.949   01 Jun 2027 03:10:50.603            18.654          9327.000
         4   01 Jun 2027 04:42:52.642   01 Jun 2027 04:43:00.187             7.545          3772.500
         5   01 Jun 2027 04:43:53.749   01 Jun 2027 04:46:06.027           132.278         66139.000
         6   01 Jun 2027 04:46:27.664   01 Jun 2027 04:46:38.716            11.052          5526.000
         7   01 Jun 2027 04:47:08.617   01 Jun 2027 04:47:37.161            28.544         14272.000
         8   01 Jun 2027 04:48:57.984   01 Jun 2027 04:49:01.213             3.229          1614.500
         9   01 Jun 2027 04:50:55.729   01 Jun 2027 04:51:49.936            54.207         27103.500
        10   01 Jun 2027 06:21:02.404   01 Jun 2027 06:21:41.399            38.995         19497.500
        11   01 Jun 2027 06:22:05.053   01 Jun 2027 06:23:45.819           100.766         50383.000
        12   01 Jun 2027 06:24:29.380   01 Jun 2027 06:24:29.380             0.000             0.000
        13   01 Jun 2027 07:45:08.670   01 Jun 2027 07:45:43.349            34.679         17339.500
        14   01 Jun 2027 07:45:57.120   01 Jun 2027 07:46:49.681            52.561         26280.500
        15   01 Jun 2027 07:47:06.953   01 Jun 2027 07:47:08.315             1.362           681.000
        16   01 Jun 2027 09:20:53.818   01 Jun 2027 09:22:25.887            92.069         46034.500
        17   01 Jun 2027 09:23:22.257   01 Jun 2027 09:23:30.517             8.260          4130.000
        18   01 Jun 2027 09:24:19.271   01 Jun 2027 09:24:19.271             0.000             0.000
        19   01 Jun 2027 10:55:51.280   01 Jun 2027 10:57:45.829           114.549         57274.500
        20   01 Jun 2027 10:58:56.372   01 Jun 2027 10:58:56.372             0.000             0.000
        21   01 Jun 2027 11:02:29.235   01 Jun 2027 11:02:53.088            23.853         11926.500
        22   02 Jun 2027 03:17:13.863   02 Jun 2027 03:19:57.485           163.622         81811.000
        23   02 Jun 2027 03:20:59.442   02 Jun 2027 03:21:32.139            32.697         16348.500
        24   02 Jun 2027 03:22:32.712   02 Jun 2027 03:22:32.712             0.000             0.000
        25   02 Jun 2027 03:22:39.644   02 Jun 2027 03:22:41.778             2.134          1067.000
        26   02 Jun 2027 03:22:55.018   02 Jun 2027 03:22:58.240             3.222          1611.000
        27   02 Jun 2027 04:55:57.591   02 Jun 2027 04:57:30.657            93.066         46533.000
        28   02 Jun 2027 04:57:55.688   02 Jun 2027 04:58:08.988            13.300          6650.000
        29   02 Jun 2027 04:58:18.643   02 Jun 2027 04:59:02.325            43.682         21841.000
        30   02 Jun 2027 04:59:10.856   02 Jun 2027 04:59:12.025             1.169           584.500
        31   02 Jun 2027 05:00:22.473   02 Jun 2027 05:00:29.371             6.898          3449.000
        32   02 Jun 2027 05:02:01.771   02 Jun 2027 05:02:07.440             5.669          2834.500
        33   02 Jun 2027 05:02:15.918   02 Jun 2027 05:02:33.350            17.432          8716.000
        34   02 Jun 2027 05:03:32.060   02 Jun 2027 05:03:36.647             4.587          2293.500
        35   02 Jun 2027 06:21:54.000   02 Jun 2027 06:22:24.976            30.976         15488.000
        36   02 Jun 2027 06:32:58.927   02 Jun 2027 06:34:05.881            66.954         33477.000
        37   02 Jun 2027 06:34:35.776   02 Jun 2027 06:34:39.994             4.218          2109.000
        38   02 Jun 2027 06:35:06.148   02 Jun 2027 06:35:10.846             4.698          2349.000
        39   02 Jun 2027 06:35:36.822   02 Jun 2027 06:35:49.492            12.670          6335.000
        40   02 Jun 2027 07:55:56.493   02 Jun 2027 07:57:31.216            94.723         47361.500
        41   02 Jun 2027 07:57:58.181   02 Jun 2027 07:57:58.181             0.000             0.000
        42   02 Jun 2027 07:59:22.752   02 Jun 2027 07:59:46.488            23.736         11868.000
        43   02 Jun 2027 09:31:16.025   02 Jun 2027 09:31:41.324            25.299         12649.500
        44   02 Jun 2027 09:32:59.008   02 Jun 2027 09:32:59.008             0.000             0.000
        45   02 Jun 2027 11:07:24.387   02 Jun 2027 11:07:59.391            35.004         17301.658
        46   02 Jun 2027 11:10:17.014   02 Jun 2027 11:10:25.451             8.437          4218.500
        47   02 Jun 2027 11:10:29.822   02 Jun 2027 11:10:31.468             1.646           218.812
        48   02 Jun 2027 11:14:17.996   02 Jun 2027 11:14:34.463            16.467          6605.344
        49   02 Jun 2027 11:14:36.915   02 Jun 2027 11:14:38.523             1.608            73.750
        50   02 Jun 2027 11:14:43.484   02 Jun 2027 11:14:47.853             4.369           155.031
        51   03 Jun 2027 03:29:20.970   03 Jun 2027 03:32:18.959           177.989         88994.500
        52   03 Jun 2027 03:32:35.078   03 Jun 2027 03:32:55.656            20.578         10289.000
        53   03 Jun 2027 03:33:40.046   03 Jun 2027 03:33:40.046             0.000             0.000
        54   03 Jun 2027 03:34:18.330   03 Jun 2027 03:35:06.774            48.444         24222.000
        55   03 Jun 2027 05:08:27.356   03 Jun 2027 05:09:13.529            46.173         23086.500
        56   03 Jun 2027 05:09:15.694   03 Jun 2027 05:09:31.237            15.543          7771.500
        57   03 Jun 2027 05:10:10.260   03 Jun 2027 05:10:13.216             2.956          1478.000
        58   03 Jun 2027 05:10:38.151   03 Jun 2027 05:10:45.940             7.789          3714.750
        59   03 Jun 2027 05:12:31.406   03 Jun 2027 05:12:35.840             4.434          1633.750
        60   03 Jun 2027 05:12:59.508   03 Jun 2027 05:13:00.797             1.289           374.781
        61   03 Jun 2027 05:13:13.377   03 Jun 2027 05:13:13.377             0.000             0.000
        62   03 Jun 2027 05:13:50.988   03 Jun 2027 05:13:55.739             4.751          1496.344
        63   03 Jun 2027 05:14:22.536   03 Jun 2027 05:14:25.696             3.160           738.719
        64   03 Jun 2027 06:33:18.892   03 Jun 2027 06:33:31.756            12.864          6045.625
        65   03 Jun 2027 06:45:01.692   03 Jun 2027 06:45:14.390            12.698          4065.250
        66   03 Jun 2027 08:07:14.496   03 Jun 2027 08:07:26.690            12.194          6097.000
        67   03 Jun 2027 08:07:38.049   03 Jun 2027 08:07:38.049             0.000             0.000
        68   03 Jun 2027 08:07:52.997   03 Jun 2027 08:07:57.587             4.590          1321.531
        69   03 Jun 2027 08:09:16.409   03 Jun 2027 08:09:21.602             5.193          1671.094
        70   03 Jun 2027 08:11:07.673   03 Jun 2027 08:11:20.602            12.929          2945.938
        71   03 Jun 2027 08:12:09.971   03 Jun 2027 08:12:14.420             4.449          1379.813
        72   03 Jun 2027 09:42:20.611   03 Jun 2027 09:42:30.621            10.010          4592.500
        73   03 Jun 2027 09:42:57.630   03 Jun 2027 09:43:01.590             3.960           296.563
        74   03 Jun 2027 09:43:30.307   03 Jun 2027 09:43:30.307             0.000             0.000
        75   03 Jun 2027 09:44:22.988   03 Jun 2027 09:44:32.377             9.389          1926.344
        76   03 Jun 2027 09:45:59.496   03 Jun 2027 09:45:59.496             0.000             0.000
        77   03 Jun 2027 09:47:24.580   03 Jun 2027 09:47:24.965             0.385           192.500
        78   03 Jun 2027 09:47:33.577   03 Jun 2027 09:47:44.971            11.394          5443.969
        79   03 Jun 2027 09:48:25.653   03 Jun 2027 09:48:27.515             1.862           877.750
        80   03 Jun 2027 09:48:33.866   03 Jun 2027 09:48:36.661             2.795           139.156
        81   03 Jun 2027 11:26:02.451   03 Jun 2027 11:26:41.547            39.096         18871.562
        82   04 Jun 2027 03:41:40.143   04 Jun 2027 03:42:49.582            69.439         34719.500
        83   04 Jun 2027 03:43:07.551   04 Jun 2027 03:43:52.585            45.034         22517.000
        84   04 Jun 2027 03:44:13.554   04 Jun 2027 03:45:42.568            89.014         44507.000
        85   04 Jun 2027 03:46:19.901   04 Jun 2027 03:46:25.145             5.244          2622.000
        86   04 Jun 2027 03:47:11.080   04 Jun 2027 03:47:40.110            29.030         14515.000
        87   04 Jun 2027 05:20:27.971   04 Jun 2027 05:21:43.009            75.038         37137.500
        88   04 Jun 2027 05:22:21.414   04 Jun 2027 05:22:21.414             0.000             0.000
        89   04 Jun 2027 05:22:33.845   04 Jun 2027 05:22:40.322             6.477          1277.812
        90   04 Jun 2027 05:23:13.660   04 Jun 2027 05:23:16.523             2.863           798.313
        91   04 Jun 2027 05:24:55.132   04 Jun 2027 05:25:02.083             6.951          2101.875
        92   04 Jun 2027 05:25:19.552   04 Jun 2027 05:25:24.038             4.486           455.531
        93   04 Jun 2027 05:27:09.749   04 Jun 2027 05:27:17.830             8.081          2656.781
        94   04 Jun 2027 06:44:47.664   04 Jun 2027 06:45:02.736            15.072          6344.531
        95   04 Jun 2027 06:45:16.978   04 Jun 2027 06:45:18.103             1.125           445.062
        96   04 Jun 2027 06:46:41.961   04 Jun 2027 06:46:54.291            12.330          2292.438
        97   04 Jun 2027 06:57:03.230   04 Jun 2027 06:57:11.486             8.256          3085.281
        98   04 Jun 2027 08:19:00.134   04 Jun 2027 08:19:16.247            16.113          7582.969
        99   04 Jun 2027 08:21:02.894   04 Jun 2027 08:21:04.419             1.525           762.500
       100   04 Jun 2027 08:21:45.824   04 Jun 2027 08:21:53.026             7.202          2220.906
       101   04 Jun 2027 08:22:08.026   04 Jun 2027 08:22:08.908             0.882             2.688
       102   04 Jun 2027 08:23:48.945   04 Jun 2027 08:23:55.427             6.482          2137.031
       103   04 Jun 2027 08:24:06.401   04 Jun 2027 08:24:09.462             3.061           159.437
       104   04 Jun 2027 09:54:38.129   04 Jun 2027 09:54:51.379            13.250          5483.937
       105   04 Jun 2027 09:55:37.554   04 Jun 2027 09:55:38.277             0.723           175.531
       106   04 Jun 2027 09:56:26.130   04 Jun 2027 09:56:29.782             3.652          1445.750
       107   04 Jun 2027 09:56:35.470   04 Jun 2027 09:56:36.620             1.150            73.094
       108   04 Jun 2027 09:58:04.766   04 Jun 2027 09:58:10.651             5.885          2123.031
       109   04 Jun 2027 09:58:37.474   04 Jun 2027 09:58:38.862             1.388           115.875
       110   04 Jun 2027 10:00:42.964   04 Jun 2027 10:00:42.964             0.000             0.000
       111   04 Jun 2027 10:01:11.703   04 Jun 2027 10:01:21.414             9.711          3830.844
       112   04 Jun 2027 11:34:18.233   04 Jun 2027 11:34:36.819            18.586          9293.000
       113   04 Jun 2027 11:37:39.932   04 Jun 2027 11:37:55.386            15.454          7620.125
       114   04 Jun 2027 11:38:14.591   04 Jun 2027 11:38:26.011            11.420           600.156
       115   04 Jun 2027 11:38:27.771   04 Jun 2027 11:38:29.787             2.016             5.844
       116   05 Jun 2027 03:54:24.665   05 Jun 2027 03:56:04.453            99.788         49894.000
       117   05 Jun 2027 03:56:26.296   05 Jun 2027 03:58:21.346           115.050         57525.000
       118   05 Jun 2027 03:59:07.389   05 Jun 2027 03:59:20.120            12.731          6365.500
       119   05 Jun 2027 05:32:47.787   05 Jun 2027 05:33:17.659            29.872         14936.000
       120   05 Jun 2027 05:33:42.886   05 Jun 2027 05:34:45.348            62.462         31231.000
       121   05 Jun 2027 05:35:53.472   05 Jun 2027 05:36:06.014            12.542          6031.437
       122   05 Jun 2027 05:36:39.465   05 Jun 2027 05:36:40.395             0.930           118.969
       123   05 Jun 2027 05:37:39.200   05 Jun 2027 05:37:39.200             0.000             0.000
       124   05 Jun 2027 05:37:56.390   05 Jun 2027 05:37:56.390             0.000             0.000
       125   05 Jun 2027 06:56:49.738   05 Jun 2027 06:57:02.878            13.140          5711.000
       126   05 Jun 2027 06:57:38.873   05 Jun 2027 06:57:42.587             3.714           818.844
       127   05 Jun 2027 06:58:53.830   05 Jun 2027 06:58:54.229             0.399           199.500
       128   05 Jun 2027 08:32:47.578   05 Jun 2027 08:33:06.291            18.713          7940.812
       129   05 Jun 2027 08:33:36.899   05 Jun 2027 08:33:44.267             7.368           956.500
       130   05 Jun 2027 08:35:49.735   05 Jun 2027 08:36:01.343            11.608          3920.875
       131   05 Jun 2027 10:06:36.633   05 Jun 2027 10:06:54.865            18.232          6244.375
       132   05 Jun 2027 10:08:04.962   05 Jun 2027 10:08:04.962             0.000             0.000
       133   05 Jun 2027 10:11:24.911   05 Jun 2027 10:11:39.900            14.989          7241.813
       134   05 Jun 2027 10:14:27.481   05 Jun 2027 10:14:37.903            10.422          4901.844
       135   05 Jun 2027 11:43:42.495   05 Jun 2027 11:43:59.194            16.699          6895.656
       136   05 Jun 2027 11:44:21.531   05 Jun 2027 11:44:23.480             1.949           399.312
       137   05 Jun 2027 11:44:26.671   05 Jun 2027 11:44:28.791             2.120            99.719
       138   05 Jun 2027 11:49:03.501   05 Jun 2027 11:49:28.044            24.543          8485.219
       139   05 Jun 2027 11:49:59.729   05 Jun 2027 11:50:02.093             2.364           990.156
       140   05 Jun 2027 11:50:21.917   05 Jun 2027 11:50:22.776             0.859           362.219
       141   06 Jun 2027 04:07:02.369   06 Jun 2027 04:07:08.417             6.048          3024.000
       142   06 Jun 2027 04:07:22.054   06 Jun 2027 04:07:45.300            23.246         11623.000
       143   06 Jun 2027 04:07:50.858   06 Jun 2027 04:08:37.955            47.097         23548.500
       144   06 Jun 2027 04:08:40.033   06 Jun 2027 04:10:22.629           102.596         51298.000
       145   06 Jun 2027 04:10:38.695   06 Jun 2027 04:11:34.055            55.360         27680.000
       146   06 Jun 2027 05:45:22.538   06 Jun 2027 05:46:36.565            74.027         37013.500
       147   06 Jun 2027 05:47:16.996   06 Jun 2027 05:47:43.676            26.680         13340.000
       148   06 Jun 2027 05:49:22.034   06 Jun 2027 05:49:22.034             0.000             0.000
       149   06 Jun 2027 05:49:34.368   06 Jun 2027 05:49:46.796            12.428          5265.843
       150   06 Jun 2027 07:08:44.111   06 Jun 2027 07:08:57.684            13.573          6667.719
       151   06 Jun 2027 07:10:00.961   06 Jun 2027 07:10:05.113             4.152          1695.687
       152   06 Jun 2027 07:10:24.644   06 Jun 2027 07:10:26.216             1.572           307.469
       153   06 Jun 2027 07:10:48.945   06 Jun 2027 07:10:50.860             1.915            77.188
       154   06 Jun 2027 08:45:07.009   06 Jun 2027 08:45:28.074            21.065          9589.500
       155   06 Jun 2027 08:45:38.105   06 Jun 2027 08:45:38.251             0.146            73.000
       156   06 Jun 2027 08:45:41.789   06 Jun 2027 08:45:41.789             0.000             0.000
       157   06 Jun 2027 08:45:48.907   06 Jun 2027 08:45:52.138             3.231           494.188
       158   06 Jun 2027 08:47:50.139   06 Jun 2027 08:47:57.553             7.414          3528.875
       159   06 Jun 2027 10:18:35.116   06 Jun 2027 10:18:47.562            12.446          4162.719
       160   06 Jun 2027 10:20:36.793   06 Jun 2027 10:20:36.793             0.000             0.000
       161   06 Jun 2027 10:23:24.105   06 Jun 2027 10:23:39.209            15.104          7192.063
       162   06 Jun 2027 10:24:40.989   06 Jun 2027 10:24:49.035             8.046           730.500
       163   06 Jun 2027 10:25:34.630   06 Jun 2027 10:25:36.794             2.164           935.563
       164   06 Jun 2027 10:25:55.613   06 Jun 2027 10:25:56.047             0.434           217.000
       165   06 Jun 2027 10:26:08.370   06 Jun 2027 10:26:11.181             2.811           715.438
       166   06 Jun 2027 10:27:05.100   06 Jun 2027 10:27:06.656             1.556           778.000
       167   06 Jun 2027 11:56:09.123   06 Jun 2027 11:56:20.103            10.980          5439.437
       168   06 Jun 2027 11:58:10.829   06 Jun 2027 11:58:14.776             3.947          1973.500
       169   06 Jun 2027 11:58:23.560   06 Jun 2027 11:58:24.804             1.244           405.531
       170   06 Jun 2027 11:59:22.336   06 Jun 2027 11:59:27.277             4.941           737.844
       171   07 Jun 2027 04:18:55.707   07 Jun 2027 04:19:00.597             4.890          2445.000
       172   07 Jun 2027 04:19:25.416   07 Jun 2027 04:23:26.572           241.156        120578.000
       173   07 Jun 2027 05:57:39.202   07 Jun 2027 05:58:48.243            69.041         34520.500
       174   07 Jun 2027 05:59:16.606   07 Jun 2027 05:59:39.620            23.014         11507.000
       175   07 Jun 2027 06:00:25.909   07 Jun 2027 06:00:25.909             0.000             0.000
       176   07 Jun 2027 06:01:09.165   07 Jun 2027 06:01:12.529             3.364          1682.000
       177   07 Jun 2027 07:20:33.187   07 Jun 2027 07:20:51.865            18.678          6998.000
       178   07 Jun 2027 07:22:42.714   07 Jun 2027 07:22:52.201             9.487          3258.813
       179   07 Jun 2027 08:57:38.114   07 Jun 2027 08:57:38.114             0.000             0.000
       180   07 Jun 2027 08:57:53.689   07 Jun 2027 08:57:59.174             5.485          2742.500
       181   07 Jun 2027 08:59:50.066   07 Jun 2027 09:00:02.093            12.027          5225.781
       182   07 Jun 2027 10:32:02.655   07 Jun 2027 10:32:19.569            16.914          7786.656
       183   07 Jun 2027 10:34:56.115   07 Jun 2027 10:35:05.249             9.134          3660.156
       184   07 Jun 2027 10:35:11.790   07 Jun 2027 10:35:13.099             1.309           197.594
       185   07 Jun 2027 10:36:30.303   07 Jun 2027 10:36:41.139            10.836          2412.625
       186   07 Jun 2027 10:36:47.729   07 Jun 2027 10:36:55.461             7.732           205.938
       187   07 Jun 2027 10:37:12.705   07 Jun 2027 10:37:14.180             1.475           114.594
       188   07 Jun 2027 10:37:39.595   07 Jun 2027 10:37:47.578             7.983           744.937
       189   07 Jun 2027 10:38:06.399   07 Jun 2027 10:38:07.237             0.838           419.000
       190   07 Jun 2027 10:38:26.266   07 Jun 2027 10:38:26.266             0.000             0.000
       191   07 Jun 2027 10:38:31.072   07 Jun 2027 10:38:33.057             1.985           867.812
       192   07 Jun 2027 10:38:55.068   07 Jun 2027 10:38:58.006             2.938           282.313
       193   08 Jun 2027 03:00:00.000   08 Jun 2027 03:00:09.893             9.893          4946.500
       194   08 Jun 2027 04:31:04.545   08 Jun 2027 04:32:06.706            62.161         31080.500
       195   08 Jun 2027 04:32:13.264   08 Jun 2027 04:34:24.618           131.354         65677.000
       196   08 Jun 2027 04:34:31.494   08 Jun 2027 04:34:39.947             8.453          4226.500
       197   08 Jun 2027 04:35:32.888   08 Jun 2027 04:35:55.339            22.451         11225.500
       198   08 Jun 2027 04:36:23.557   08 Jun 2027 04:36:26.702             3.145          1572.500
       199   08 Jun 2027 06:09:22.985   08 Jun 2027 06:09:54.699            31.714         15857.000
       200   08 Jun 2027 06:10:12.584   08 Jun 2027 06:11:01.517            48.933         23484.375
       201   08 Jun 2027 06:12:03.063   08 Jun 2027 06:12:07.159             4.096          1523.156
       202   08 Jun 2027 06:12:56.457   08 Jun 2027 06:13:00.464             4.007          1327.719
       203   08 Jun 2027 07:32:45.752   08 Jun 2027 07:33:03.939            18.187          6522.187
       204   08 Jun 2027 07:33:38.059   08 Jun 2027 07:33:40.566             2.507           774.594
       205   08 Jun 2027 07:34:05.984   08 Jun 2027 07:34:09.001             3.017           701.219
       206   08 Jun 2027 07:35:34.305   08 Jun 2027 07:35:39.317             5.012          2331.219
       207   08 Jun 2027 09:09:32.889   08 Jun 2027 09:09:47.385            14.496          6807.719
       208   08 Jun 2027 09:12:04.957   08 Jun 2027 09:12:14.416             9.459          3186.000
       209   08 Jun 2027 10:44:48.737   08 Jun 2027 10:45:08.054            19.317          7745.219
       210   08 Jun 2027 10:45:56.925   08 Jun 2027 10:45:59.038             2.113           563.781
       211   08 Jun 2027 10:46:02.450   08 Jun 2027 10:46:07.485             5.035           106.625
       212   08 Jun 2027 10:46:23.498   08 Jun 2027 10:46:24.866             1.368           400.531
       213   08 Jun 2027 10:46:54.171   08 Jun 2027 10:46:55.866             1.695           331.563
       214   08 Jun 2027 10:48:02.553   08 Jun 2027 10:48:02.553             0.000             0.000
       215   08 Jun 2027 10:50:41.059   08 Jun 2027 10:50:54.316            13.257          6287.406
       216   09 Jun 2027 03:04:54.067   09 Jun 2027 03:07:06.843           132.776         66388.000
       217   09 Jun 2027 03:08:40.900   09 Jun 2027 03:08:59.436            18.536          9268.000
       218   09 Jun 2027 03:11:05.612   09 Jun 2027 03:11:27.300            21.688         10844.000
       219   09 Jun 2027 04:44:11.266   09 Jun 2027 04:46:20.531           129.265         64632.500
       220   09 Jun 2027 04:46:44.697   09 Jun 2027 04:47:03.862            19.165          7980.312
       221   09 Jun 2027 04:47:53.592   09 Jun 2027 04:47:56.800             3.208           887.937
       222   09 Jun 2027 04:50:55.948   09 Jun 2027 04:51:06.925            10.977          5123.625
       223   09 Jun 2027 06:21:22.132   09 Jun 2027 06:21:38.254            16.122          6685.781
       224   09 Jun 2027 06:22:32.493   09 Jun 2027 06:22:37.562             5.069          1646.781
       225   09 Jun 2027 06:23:27.914   09 Jun 2027 06:23:31.505             3.591          1422.000
       226   09 Jun 2027 06:24:02.957   09 Jun 2027 06:24:04.952             1.995           846.562
       227   09 Jun 2027 06:24:44.018   09 Jun 2027 06:24:44.018             0.000             0.000
       228   09 Jun 2027 07:45:21.939   09 Jun 2027 07:45:33.181            11.242          5472.437
       229   09 Jun 2027 07:45:57.733   09 Jun 2027 07:46:03.767             6.034           361.844
       230   09 Jun 2027 07:47:21.839   09 Jun 2027 07:47:30.452             8.613          2439.750
       231   09 Jun 2027 09:21:10.719   09 Jun 2027 09:21:22.010            11.291          3536.531
       232   09 Jun 2027 09:23:48.019   09 Jun 2027 09:23:48.019             0.000             0.000
       233   09 Jun 2027 09:24:34.624   09 Jun 2027 09:24:47.427            12.803          5908.438
       234   09 Jun 2027 10:56:07.343   09 Jun 2027 10:56:20.585            13.242          6155.750
       235   09 Jun 2027 10:56:39.277   09 Jun 2027 10:56:47.433             8.156           474.375
       236   09 Jun 2027 10:57:35.559   09 Jun 2027 10:57:41.192             5.633           308.594
       237   09 Jun 2027 10:57:56.828   09 Jun 2027 10:57:59.190             2.362           488.625
       238   09 Jun 2027 11:02:45.842   09 Jun 2027 11:03:04.013            18.171          8742.125
       239   09 Jun 2027 11:03:07.028   09 Jun 2027 11:03:08.038             1.010            19.906
       240   10 Jun 2027 03:17:32.964   10 Jun 2027 03:19:41.009           128.045         64022.500
       241   10 Jun 2027 03:20:55.605   10 Jun 2027 03:21:30.716            35.111         17555.500
       242   10 Jun 2027 03:21:59.168   10 Jun 2027 03:22:23.314            24.146         12073.000
       243   10 Jun 2027 03:22:39.937   10 Jun 2027 03:22:49.684             9.747          4873.500
       244   10 Jun 2027 04:56:15.095   10 Jun 2027 04:57:35.159            80.064         40032.000
       245   10 Jun 2027 04:58:14.866   10 Jun 2027 04:58:43.305            28.439         13587.719
       246   10 Jun 2027 04:58:58.566   10 Jun 2027 04:59:01.003             2.437           476.906
       247   10 Jun 2027 05:00:55.080   10 Jun 2027 05:00:59.955             4.875          2437.500
       248   10 Jun 2027 05:02:27.169   10 Jun 2027 05:02:27.404             0.235           117.500
       249   10 Jun 2027 05:02:32.193   10 Jun 2027 05:02:36.310             4.117          2058.500
       250   10 Jun 2027 05:03:16.126   10 Jun 2027 05:03:21.209             5.083          2302.656
       251   10 Jun 2027 06:22:07.770   10 Jun 2027 06:22:19.406            11.636          5737.406
       252   10 Jun 2027 06:33:16.006   10 Jun 2027 06:33:23.365             7.359          3109.312
       253   10 Jun 2027 06:34:00.474   10 Jun 2027 06:34:02.880             2.406            46.188
       254   10 Jun 2027 06:34:18.957   10 Jun 2027 06:34:21.026             2.069            81.062
       255   10 Jun 2027 06:34:51.008   10 Jun 2027 06:34:56.419             5.411           936.937
       256   10 Jun 2027 06:35:50.750   10 Jun 2027 06:35:50.750             0.000             0.000
       257   10 Jun 2027 06:36:12.478   10 Jun 2027 06:36:17.108             4.630          1626.844
       258   10 Jun 2027 07:56:00.681   10 Jun 2027 07:56:14.306            13.625          5882.656
       259   10 Jun 2027 07:56:31.119   10 Jun 2027 07:56:33.189             2.070           461.625
       260   10 Jun 2027 07:58:04.000   10 Jun 2027 07:58:04.000             0.000             0.000
       261   10 Jun 2027 07:59:15.914   10 Jun 2027 07:59:24.551             8.637          4279.500
       262   10 Jun 2027 07:59:40.731   10 Jun 2027 07:59:43.003             2.272           505.625
       263   10 Jun 2027 09:31:29.801   10 Jun 2027 09:31:31.305             1.504           752.000
       264   10 Jun 2027 09:31:46.442   10 Jun 2027 09:31:53.834             7.392          3265.656
       265   10 Jun 2027 09:35:20.316   10 Jun 2027 09:35:37.165            16.849          6389.000
       266   10 Jun 2027 09:35:47.443   10 Jun 2027 09:35:47.907             0.464           188.406
       267   10 Jun 2027 09:36:37.684   10 Jun 2027 09:36:40.382             2.698          1331.187
       268   10 Jun 2027 11:10:37.692   10 Jun 2027 11:10:58.181            20.489          9640.094
       269   10 Jun 2027 11:11:10.691   10 Jun 2027 11:11:10.691             0.000             0.000
       270   10 Jun 2027 11:11:51.728   10 Jun 2027 11:12:09.607            17.879          1580.063
       271   10 Jun 2027 11:12:29.405   10 Jun 2027 11:12:37.139             7.734           403.188
       272   10 Jun 2027 11:12:48.072   10 Jun 2027 11:12:49.118             1.046           201.313
       273   10 Jun 2027 11:13:41.403   10 Jun 2027 11:13:44.723             3.320          1603.688
       274   10 Jun 2027 11:13:52.295   10 Jun 2027 11:13:52.851             0.556           199.562
       275   10 Jun 2027 11:14:20.792   10 Jun 2027 11:14:23.254             2.462           547.906
       276   10 Jun 2027 11:14:38.975   10 Jun 2027 11:14:45.840             6.865           443.563
       277   10 Jun 2027 11:14:53.770   10 Jun 2027 11:14:54.345             0.575           142.156
       278   11 Jun 2027 03:29:39.084   11 Jun 2027 03:31:22.356           103.272         51636.000
       279   11 Jun 2027 03:31:23.808   11 Jun 2027 03:31:52.533            28.725         14362.500
       280   11 Jun 2027 03:31:58.841   11 Jun 2027 03:32:47.504            48.663         24331.500
       281   11 Jun 2027 03:32:50.870   11 Jun 2027 03:33:13.143            22.273         11136.500
       282   11 Jun 2027 03:33:56.011   11 Jun 2027 03:33:59.507             3.496          1748.000
       283   11 Jun 2027 03:34:14.208   11 Jun 2027 03:34:33.821            19.613          9806.500
       284   11 Jun 2027 03:34:50.828   11 Jun 2027 03:35:08.628            17.800          8900.000
       285   11 Jun 2027 03:35:30.400   11 Jun 2027 03:35:32.265             1.865           932.500
       286   11 Jun 2027 03:35:37.615   11 Jun 2027 03:35:40.912             3.297          1648.500
       287   11 Jun 2027 05:08:44.538   11 Jun 2027 05:09:27.860            43.322         21661.000
       288   11 Jun 2027 05:10:04.056   11 Jun 2027 05:10:38.563            34.507         17056.657
       289   11 Jun 2027 05:11:14.137   11 Jun 2027 05:11:16.267             2.130           827.031
       290   11 Jun 2027 05:12:00.818   11 Jun 2027 05:12:04.138             3.320          1315.625
       291   11 Jun 2027 05:12:49.029   11 Jun 2027 05:12:51.970             2.941          1401.375
       292   11 Jun 2027 05:13:14.812   11 Jun 2027 05:13:16.835             2.023           379.969
       293   11 Jun 2027 05:14:03.219   11 Jun 2027 05:14:06.046             2.827          1403.438
       294   11 Jun 2027 05:14:15.057   11 Jun 2027 05:14:26.647            11.590            12.000
       295   11 Jun 2027 05:14:37.596   11 Jun 2027 05:14:37.924             0.328           110.469
       296   11 Jun 2027 05:14:48.230   11 Jun 2027 05:14:52.034             3.804           314.188
       297   11 Jun 2027 06:33:36.730   11 Jun 2027 06:33:45.840             9.110          4555.000
       298   11 Jun 2027 06:33:50.071   11 Jun 2027 06:33:54.956             4.885           576.344
       299   11 Jun 2027 06:34:49.827   11 Jun 2027 06:34:49.827             0.000             0.000
       300   11 Jun 2027 06:45:18.816   11 Jun 2027 06:45:25.540             6.724          2983.906
       301   11 Jun 2027 06:46:18.564   11 Jun 2027 06:46:20.424             1.860           930.000
       302   11 Jun 2027 08:07:32.461   11 Jun 2027 08:07:42.963            10.502          5251.000
       303   11 Jun 2027 08:07:56.819   11 Jun 2027 08:08:03.276             6.457          2746.000
       304   11 Jun 2027 08:09:33.294   11 Jun 2027 08:09:36.478             3.184          1237.500
       305   11 Jun 2027 08:10:18.971   11 Jun 2027 08:10:23.079             4.108           882.625
       306   11 Jun 2027 08:12:05.629   11 Jun 2027 08:12:05.629             0.000             0.000
       307   11 Jun 2027 09:42:36.469   11 Jun 2027 09:42:45.354             8.885          4065.187
       308   11 Jun 2027 09:43:16.592   11 Jun 2027 09:43:18.424             1.832           388.563
       309   11 Jun 2027 09:43:48.382   11 Jun 2027 09:43:51.453             3.071           484.156
       310   11 Jun 2027 09:47:42.260   11 Jun 2027 09:47:42.260             0.000             0.000
       311   11 Jun 2027 09:47:54.458   11 Jun 2027 09:48:09.403            14.945          7429.781
       312   11 Jun 2027 11:21:03.362   11 Jun 2027 11:21:13.494            10.132          5066.000
       313   11 Jun 2027 11:26:18.306   11 Jun 2027 11:26:45.881            27.575         13462.625
       314   11 Jun 2027 11:26:54.197   11 Jun 2027 11:26:56.408             2.211           240.281
       315   12 Jun 2027 03:41:58.752   12 Jun 2027 03:42:35.777            37.025         18512.500
       316   12 Jun 2027 03:43:10.046   12 Jun 2027 03:44:07.667            57.621         28810.500
       317   12 Jun 2027 03:44:29.378   12 Jun 2027 03:46:35.384           126.006         63003.000
       318   12 Jun 2027 03:47:34.541   12 Jun 2027 03:47:58.005            23.464         11732.000
       319   12 Jun 2027 05:20:46.282   12 Jun 2027 05:22:00.627            74.345         35555.907
       320   12 Jun 2027 05:22:36.173   12 Jun 2027 05:22:38.251             2.078           792.750
       321   12 Jun 2027 05:23:03.170   12 Jun 2027 05:23:05.187             2.017           384.812
       322   12 Jun 2027 05:23:41.262   12 Jun 2027 05:23:46.320             5.058           612.156
       323   12 Jun 2027 05:24:51.149   12 Jun 2027 05:24:51.149             0.000             0.000
       324   12 Jun 2027 05:25:10.305   12 Jun 2027 05:25:16.093             5.788          2068.594
       325   12 Jun 2027 05:26:02.406   12 Jun 2027 05:26:02.406             0.000             0.000
       326   12 Jun 2027 05:27:24.244   12 Jun 2027 05:27:32.894             8.650          3681.875
       327   12 Jun 2027 05:27:44.303   12 Jun 2027 05:27:44.695             0.392           131.688
       328   12 Jun 2027 06:45:07.007   12 Jun 2027 06:45:20.880            13.873          6280.812
       329   12 Jun 2027 06:46:15.234   12 Jun 2027 06:46:17.986             2.752          1376.000
       330   12 Jun 2027 06:46:30.619   12 Jun 2027 06:46:36.423             5.804           717.344
       331   12 Jun 2027 06:47:14.673   12 Jun 2027 06:47:16.071             1.398           483.781
       332   12 Jun 2027 06:57:20.993   12 Jun 2027 06:57:28.889             7.896          3147.656
       333   12 Jun 2027 08:19:16.765   12 Jun 2027 08:19:31.988            15.223          7531.250
       334   12 Jun 2027 08:20:12.732   12 Jun 2027 08:20:15.686             2.954          1094.719
       335   12 Jun 2027 08:22:02.875   12 Jun 2027 08:22:09.121             6.246          2741.313
       336   12 Jun 2027 08:23:22.488   12 Jun 2027 08:23:26.084             3.596          1786.094
       337   12 Jun 2027 08:24:16.198   12 Jun 2027 08:24:18.537             2.339           922.188
       338   12 Jun 2027 09:54:04.723   12 Jun 2027 09:54:14.794            10.071          4487.250
       339   12 Jun 2027 09:55:49.976   12 Jun 2027 09:55:49.976             0.000             0.000
       340   12 Jun 2027 09:56:44.875   12 Jun 2027 09:56:52.064             7.189          3466.188
       341   12 Jun 2027 09:57:21.039   12 Jun 2027 09:57:24.196             3.157           193.719
       342   12 Jun 2027 10:01:27.604   12 Jun 2027 10:01:47.694            20.090          7557.563
       343   12 Jun 2027 10:02:25.362   12 Jun 2027 10:02:26.468             1.106           154.750
       344   12 Jun 2027 11:37:55.001   12 Jun 2027 11:38:31.871            36.870         16555.031
       345   12 Jun 2027 11:38:42.193   12 Jun 2027 11:38:43.342             1.149           322.563
       346   13 Jun 2027 03:54:42.730   13 Jun 2027 03:56:04.907            82.177         41088.500
       347   13 Jun 2027 03:56:05.058   13 Jun 2027 03:56:20.940            15.882          7941.000
       348   13 Jun 2027 03:56:45.711   13 Jun 2027 03:58:53.898           128.187         64093.500
       349   13 Jun 2027 03:59:21.872   13 Jun 2027 03:59:35.138            13.266          6633.000
       350   13 Jun 2027 03:59:46.782   13 Jun 2027 03:59:48.456             1.674           837.000
       351   13 Jun 2027 05:33:08.863   13 Jun 2027 05:34:19.101            70.238         35119.000
       352   13 Jun 2027 05:34:52.811   13 Jun 2027 05:34:57.071             4.260          1383.531
       353   13 Jun 2027 05:35:30.012   13 Jun 2027 05:35:32.588             2.576          1029.406
       354   13 Jun 2027 05:35:56.301   13 Jun 2027 05:35:59.095             2.794           665.031
       355   13 Jun 2027 05:36:29.454   13 Jun 2027 05:36:29.454             0.000             0.000
       356   13 Jun 2027 05:36:53.321   13 Jun 2027 05:36:54.156             0.835           417.500
       357   13 Jun 2027 05:37:01.128   13 Jun 2027 05:37:05.147             4.019          1384.844
       358   13 Jun 2027 06:57:06.370   13 Jun 2027 06:57:21.461            15.091          5824.875
       359   13 Jun 2027 06:58:16.802   13 Jun 2027 06:58:28.090            11.288          1520.750
       360   13 Jun 2027 06:58:49.019   13 Jun 2027 06:58:49.019             0.000             0.000
       361   13 Jun 2027 06:58:50.431   13 Jun 2027 06:58:51.773             1.342           131.781
       362   13 Jun 2027 08:33:03.121   13 Jun 2027 08:33:21.729            18.608          8923.375
       363   13 Jun 2027 08:33:54.163   13 Jun 2027 08:33:59.594             5.431           949.906
       364   13 Jun 2027 10:06:53.700   13 Jun 2027 10:07:10.352            16.652          6396.469
       365   13 Jun 2027 10:08:24.363   13 Jun 2027 10:08:26.680             2.317          1037.344
       366   13 Jun 2027 10:08:39.689   13 Jun 2027 10:08:41.383             1.694             1.719
       367   13 Jun 2027 10:08:58.467   13 Jun 2027 10:08:58.467             0.000             0.000
       368   13 Jun 2027 10:09:16.721   13 Jun 2027 10:09:19.722             3.001           839.094
       369   13 Jun 2027 10:12:53.642   13 Jun 2027 10:13:07.403            13.761          6397.812
       370   13 Jun 2027 10:13:53.657   13 Jun 2027 10:13:56.196             2.539          1269.500
       371   13 Jun 2027 10:14:24.620   13 Jun 2027 10:14:26.014             1.394           697.000
       372   13 Jun 2027 10:14:50.443   13 Jun 2027 10:14:52.407             1.964           966.844
       373   13 Jun 2027 10:15:05.023   13 Jun 2027 10:15:09.913             4.890           389.500
       374   13 Jun 2027 11:44:00.843   13 Jun 2027 11:44:15.303            14.460          6849.344
       375   13 Jun 2027 11:44:37.600   13 Jun 2027 11:44:37.679             0.079            39.500
       376   13 Jun 2027 11:44:43.671   13 Jun 2027 11:44:44.916             1.245           459.625
       377   13 Jun 2027 11:46:24.108   13 Jun 2027 11:46:24.108             0.000             0.000
       378   13 Jun 2027 11:48:47.915   13 Jun 2027 11:49:00.401            12.486          6243.000
       379   13 Jun 2027 11:49:16.687   13 Jun 2027 11:49:17.878             1.191           595.500
       380   13 Jun 2027 11:50:03.433   13 Jun 2027 11:50:09.317             5.884          2315.656
       381   13 Jun 2027 11:50:35.542   13 Jun 2027 11:50:37.353             1.811           700.313
