uniorb/output/strategy_2/Camera/Camera_KinoSat_110609.txt

KinoSat_110609
-------------------------
    Access    *     Start Time (UTCG)     *     Stop Time (UTCG)  *   Duration (s) *   Data (Mbytes)
         1   01 Jun 2027 03:03:17.403   01 Jun 2027 03:03:34.709            17.306          8653.000
         2   01 Jun 2027 03:04:17.469   01 Jun 2027 03:04:24.210             6.741          3370.500
         3   01 Jun 2027 03:05:25.031   01 Jun 2027 03:05:37.230            12.199          6099.500
         4   01 Jun 2027 03:06:38.440   01 Jun 2027 03:06:54.669            16.229          8114.500
         5   01 Jun 2027 03:07:19.043   01 Jun 2027 03:07:19.043             0.000             0.000
         6   01 Jun 2027 04:38:09.981   01 Jun 2027 04:41:27.324           197.343         98671.500
         7   01 Jun 2027 04:43:09.770   01 Jun 2027 04:43:14.747             4.977          2488.500
         8   01 Jun 2027 04:43:42.966   01 Jun 2027 04:43:56.336            13.370          6685.000
         9   01 Jun 2027 04:44:09.502   01 Jun 2027 04:44:11.647             2.145          1072.500
        10   01 Jun 2027 04:46:59.583   01 Jun 2027 04:46:59.583             0.000             0.000
        11   01 Jun 2027 04:47:06.286   01 Jun 2027 04:47:27.123            20.837         10418.500
        12   01 Jun 2027 06:16:16.646   01 Jun 2027 06:17:52.109            95.463         47731.500
        13   01 Jun 2027 06:18:23.186   01 Jun 2027 06:20:21.430           118.244         59122.000
        14   01 Jun 2027 06:20:23.892   01 Jun 2027 06:20:29.536             5.644          2822.000
        15   01 Jun 2027 06:21:11.236   01 Jun 2027 06:21:15.295             4.059          2029.500
        16   01 Jun 2027 06:21:51.031   01 Jun 2027 06:22:25.451            34.420         17210.000
        17   01 Jun 2027 07:53:11.612   01 Jun 2027 07:55:55.622           164.010         82005.000
        18   01 Jun 2027 07:55:55.681   01 Jun 2027 07:55:59.877             4.196          2098.000
        19   01 Jun 2027 07:56:22.469   01 Jun 2027 07:56:30.832             8.363          4181.500
        20   01 Jun 2027 07:57:38.438   01 Jun 2027 07:57:42.788             4.350          2175.000
        21   01 Jun 2027 07:58:28.356   01 Jun 2027 07:58:28.765             0.409           204.500
        22   01 Jun 2027 09:30:19.258   01 Jun 2027 09:31:58.992            99.734         49867.000
        23   01 Jun 2027 09:32:33.824   01 Jun 2027 09:33:11.918            38.094         19047.000
        24   01 Jun 2027 09:34:06.607   01 Jun 2027 09:34:16.421             9.814          4907.000
        25   01 Jun 2027 09:34:45.420   01 Jun 2027 09:34:46.138             0.718           359.000
        26   01 Jun 2027 11:05:12.563   01 Jun 2027 11:06:15.171            62.608         31304.000
        27   01 Jun 2027 11:07:01.351   01 Jun 2027 11:07:33.928            32.577         16288.500
        28   01 Jun 2027 11:07:52.339   01 Jun 2027 11:08:01.379             9.040          4520.000
        29   01 Jun 2027 11:09:46.007   01 Jun 2027 11:09:58.668            12.661          6330.500
        30   01 Jun 2027 11:10:15.756   01 Jun 2027 11:10:22.301             6.545          3272.500
        31   02 Jun 2027 03:17:38.875   02 Jun 2027 03:18:06.177            27.302         13651.000
        32   02 Jun 2027 03:18:40.664   02 Jun 2027 03:18:44.378             3.714          1857.000
        33   02 Jun 2027 03:18:50.972   02 Jun 2027 03:18:51.566             0.594           297.000
        34   02 Jun 2027 03:18:53.707   02 Jun 2027 03:18:59.795             6.088          3044.000
        35   02 Jun 2027 03:19:38.284   02 Jun 2027 03:19:50.697            12.413          6206.500
        36   02 Jun 2027 03:19:54.813   02 Jun 2027 03:20:01.355             6.542          3271.000
        37   02 Jun 2027 04:51:11.168   02 Jun 2027 04:53:36.753           145.585         72792.500
        38   02 Jun 2027 04:54:13.839   02 Jun 2027 04:54:27.326            13.487          6743.500
        39   02 Jun 2027 04:54:38.546   02 Jun 2027 04:55:11.070            32.524         16262.000
        40   02 Jun 2027 04:57:34.882   02 Jun 2027 04:57:40.391             5.509          2754.500
        41   02 Jun 2027 04:58:40.536   02 Jun 2027 04:58:40.802             0.266           133.000
        42   02 Jun 2027 04:58:44.129   02 Jun 2027 04:58:51.237             7.108          3554.000
        43   02 Jun 2027 04:59:22.677   02 Jun 2027 04:59:22.677             0.000             0.000
        44   02 Jun 2027 04:59:39.976   02 Jun 2027 04:59:44.319             4.343          2171.500
        45   02 Jun 2027 06:28:43.750   02 Jun 2027 06:32:03.609           199.859         99929.500
        46   02 Jun 2027 06:33:59.452   02 Jun 2027 06:34:26.668            27.216         13608.000
        47   02 Jun 2027 06:34:51.353   02 Jun 2027 06:35:04.549            13.196          6598.000
        48   02 Jun 2027 06:35:09.734   02 Jun 2027 06:35:28.703            18.969          9484.500
        49   02 Jun 2027 08:05:38.510   02 Jun 2027 08:08:02.598           144.088         72044.000
        50   02 Jun 2027 08:09:45.383   02 Jun 2027 08:09:53.359             7.976          3796.282
        51   02 Jun 2027 08:10:38.355   02 Jun 2027 08:10:41.591             3.236          1260.906
        52   02 Jun 2027 08:10:56.254   02 Jun 2027 08:11:00.112             3.858           456.250
        53   02 Jun 2027 08:11:24.134   02 Jun 2027 08:11:25.422             1.288           556.625
        54   02 Jun 2027 09:42:33.156   02 Jun 2027 09:42:53.695            20.539         10040.094
        55   02 Jun 2027 09:43:03.958   02 Jun 2027 09:43:04.896             0.938           259.719
        56   02 Jun 2027 09:43:28.789   02 Jun 2027 09:43:28.789             0.000             0.000
        57   02 Jun 2027 09:43:36.629   02 Jun 2027 09:43:38.162             1.533           753.094
        58   02 Jun 2027 09:44:29.027   02 Jun 2027 09:44:33.535             4.508          1562.406
        59   02 Jun 2027 09:44:53.955   02 Jun 2027 09:44:58.651             4.696           554.687
        60   02 Jun 2027 09:45:01.804   02 Jun 2027 09:45:02.711             0.907            40.812
        61   02 Jun 2027 09:46:58.636   02 Jun 2027 09:47:06.150             7.514          2552.469
        62   02 Jun 2027 11:19:42.440   02 Jun 2027 11:19:50.262             7.822          3713.031
        63   02 Jun 2027 11:20:02.811   02 Jun 2027 11:20:02.811             0.000             0.000
        64   02 Jun 2027 11:20:05.529   02 Jun 2027 11:20:06.289             0.760           380.000
        65   02 Jun 2027 11:20:54.214   02 Jun 2027 11:20:58.923             4.709          1572.562
        66   02 Jun 2027 11:21:27.994   02 Jun 2027 11:21:28.848             0.854           234.031
        67   03 Jun 2027 03:29:42.872   03 Jun 2027 03:30:23.819            40.947         20473.500
        68   03 Jun 2027 03:30:43.150   03 Jun 2027 03:30:51.580             8.430          4215.000
        69   03 Jun 2027 03:30:55.851   03 Jun 2027 03:31:10.752            14.901          7450.500
        70   03 Jun 2027 03:32:16.866   03 Jun 2027 03:32:16.866             0.000             0.000
        71   03 Jun 2027 03:32:42.694   03 Jun 2027 03:33:11.812            29.118         14559.000
        72   03 Jun 2027 05:01:50.666   03 Jun 2027 05:02:01.402            10.736          5368.000
        73   03 Jun 2027 05:03:49.814   03 Jun 2027 05:06:14.158           144.344         72172.000
        74   03 Jun 2027 05:06:32.583   03 Jun 2027 05:06:33.268             0.685           342.500
        75   03 Jun 2027 05:07:12.206   03 Jun 2027 05:07:29.352            17.146          8573.000
        76   03 Jun 2027 05:08:46.733   03 Jun 2027 05:08:46.733             0.000             0.000
        77   03 Jun 2027 05:08:54.756   03 Jun 2027 05:09:02.787             8.031          4015.500
        78   03 Jun 2027 05:10:36.584   03 Jun 2027 05:10:36.584             0.000             0.000
        79   03 Jun 2027 05:10:43.170   03 Jun 2027 05:10:46.961             3.791          1895.500
        80   03 Jun 2027 05:11:12.555   03 Jun 2027 05:11:20.547             7.992          3996.000
        81   03 Jun 2027 05:11:38.063   03 Jun 2027 05:11:38.536             0.473           236.500
        82   03 Jun 2027 06:40:48.277   03 Jun 2027 06:41:55.261            66.984         33492.000
        83   03 Jun 2027 06:42:55.724   03 Jun 2027 06:43:08.115            12.391          6126.718
        84   03 Jun 2027 06:44:29.053   03 Jun 2027 06:44:33.482             4.429          1908.562
        85   03 Jun 2027 06:44:42.846   03 Jun 2027 06:44:43.261             0.415           194.312
        86   03 Jun 2027 06:45:25.075   03 Jun 2027 06:45:28.749             3.674          1306.688
        87   03 Jun 2027 06:46:21.712   03 Jun 2027 06:46:25.736             4.024          1610.000
        88   03 Jun 2027 06:46:56.126   03 Jun 2027 06:47:02.931             6.805           889.813
        89   03 Jun 2027 08:18:18.662   03 Jun 2027 08:18:50.363            31.701         15474.156
        90   03 Jun 2027 08:19:51.705   03 Jun 2027 08:19:55.325             3.620          1733.000
        91   03 Jun 2027 08:20:52.729   03 Jun 2027 08:20:56.455             3.726          1701.500
        92   03 Jun 2027 08:21:51.063   03 Jun 2027 08:21:56.868             5.805          1706.500
        93   03 Jun 2027 08:22:09.542   03 Jun 2027 08:22:18.400             8.858           162.625
        94   03 Jun 2027 08:22:20.944   03 Jun 2027 08:22:21.735             0.791            79.500
        95   03 Jun 2027 08:22:46.275   03 Jun 2027 08:22:46.467             0.192            96.000
        96   03 Jun 2027 09:54:37.125   03 Jun 2027 09:54:55.333            18.208          8965.594
        97   03 Jun 2027 09:55:18.608   03 Jun 2027 09:55:22.636             4.028           587.875
        98   03 Jun 2027 09:55:56.410   03 Jun 2027 09:55:59.285             2.875           932.906
        99   03 Jun 2027 09:56:32.959   03 Jun 2027 09:56:36.593             3.634          1052.312
       100   03 Jun 2027 09:56:45.076   03 Jun 2027 09:56:45.860             0.784           265.094
       101   03 Jun 2027 09:57:47.384   03 Jun 2027 09:57:53.426             6.042          1903.750
       102   03 Jun 2027 09:58:13.003   03 Jun 2027 09:58:14.514             1.511           592.750
       103   03 Jun 2027 09:59:08.965   03 Jun 2027 09:59:08.965             0.000             0.000
       104   03 Jun 2027 11:32:52.051   03 Jun 2027 11:32:58.456             6.405          2709.813
       105   04 Jun 2027 03:41:52.803   04 Jun 2027 03:42:22.062            29.259         14629.500
       106   04 Jun 2027 03:42:27.717   04 Jun 2027 03:42:38.878            11.161          5580.500
       107   04 Jun 2027 03:44:00.438   04 Jun 2027 03:44:00.438             0.000             0.000
       108   04 Jun 2027 03:45:21.436   04 Jun 2027 03:45:29.991             8.555          4277.500
       109   04 Jun 2027 05:17:03.778   04 Jun 2027 05:19:04.832           121.054         60527.000
       110   04 Jun 2027 05:19:55.693   04 Jun 2027 05:20:51.204            55.511         27755.500
       111   04 Jun 2027 05:21:32.744   04 Jun 2027 05:22:14.866            42.122         21061.000
       112   04 Jun 2027 05:22:49.950   04 Jun 2027 05:23:08.473            18.523          9261.500
       113   04 Jun 2027 05:23:31.779   04 Jun 2027 05:23:40.843             9.064          4532.000
       114   04 Jun 2027 06:53:22.745   04 Jun 2027 06:54:24.672            61.927         30837.750
       115   04 Jun 2027 06:54:40.561   04 Jun 2027 06:54:40.952             0.391           116.531
       116   04 Jun 2027 06:55:30.660   04 Jun 2027 06:55:33.500             2.840          1312.594
       117   04 Jun 2027 06:55:45.063   04 Jun 2027 06:55:48.968             3.905           179.469
       118   04 Jun 2027 06:56:09.489   04 Jun 2027 06:56:11.723             2.234           281.250
       119   04 Jun 2027 06:56:35.233   04 Jun 2027 06:56:37.053             1.820           734.687
       120   04 Jun 2027 06:56:51.940   04 Jun 2027 06:56:53.763             1.823           465.219
       121   04 Jun 2027 06:57:58.230   04 Jun 2027 06:57:58.230             0.000             0.000
       122   04 Jun 2027 06:58:28.369   04 Jun 2027 06:58:30.241             1.872           936.000
       123   04 Jun 2027 06:59:10.402   04 Jun 2027 06:59:10.402             0.000             0.000
       124   04 Jun 2027 08:30:45.837   04 Jun 2027 08:31:17.783            31.946         12702.375
       125   04 Jun 2027 08:32:06.045   04 Jun 2027 08:32:11.230             5.185           834.062
       126   04 Jun 2027 08:32:41.808   04 Jun 2027 08:32:42.094             0.286           143.000
       127   04 Jun 2027 08:33:04.532   04 Jun 2027 08:33:04.532             0.000             0.000
       128   04 Jun 2027 08:33:18.713   04 Jun 2027 08:33:21.783             3.070          1535.000
       129   04 Jun 2027 08:34:05.965   04 Jun 2027 08:34:13.569             7.604          1734.375
       130   04 Jun 2027 08:34:21.930   04 Jun 2027 08:34:24.358             2.428           208.125
       131   04 Jun 2027 08:34:25.684   04 Jun 2027 08:34:25.813             0.129            41.437
       132   04 Jun 2027 08:35:00.079   04 Jun 2027 08:35:05.001             4.922           831.687
       133   04 Jun 2027 10:06:55.041   04 Jun 2027 10:07:09.791            14.750          7200.562
       134   04 Jun 2027 10:08:26.585   04 Jun 2027 10:08:31.073             4.488           948.875
       135   04 Jun 2027 10:09:41.570   04 Jun 2027 10:09:45.172             3.602          1698.656
       136   04 Jun 2027 10:10:00.139   04 Jun 2027 10:10:01.232             1.093            42.750
       137   04 Jun 2027 10:10:31.786   04 Jun 2027 10:10:34.709             2.923           954.812
       138   05 Jun 2027 03:53:50.161   05 Jun 2027 03:54:34.813            44.652         22326.000
       139   05 Jun 2027 03:54:43.815   05 Jun 2027 03:55:19.547            35.732         17866.000
       140   05 Jun 2027 03:55:49.541   05 Jun 2027 03:55:59.129             9.588          4794.000
       141   05 Jun 2027 05:28:54.541   05 Jun 2027 05:31:10.023           135.482         67741.000
       142   05 Jun 2027 05:33:16.636   05 Jun 2027 05:34:22.384            65.748         32874.000
       143   05 Jun 2027 05:35:23.437   05 Jun 2027 05:35:47.630            24.193         12096.500
       144   05 Jun 2027 07:05:00.083   05 Jun 2027 07:06:05.907            65.824         32768.094
       145   05 Jun 2027 07:07:37.012   05 Jun 2027 07:07:42.101             5.089          1401.781
       146   05 Jun 2027 07:08:41.652   05 Jun 2027 07:08:42.482             0.830           415.000
       147   05 Jun 2027 07:09:36.745   05 Jun 2027 07:09:43.573             6.828          2918.188
       148   05 Jun 2027 07:10:57.536   05 Jun 2027 07:11:02.965             5.429          2210.000
       149   05 Jun 2027 08:42:58.446   05 Jun 2027 08:43:23.395            24.949         11089.187
       150   05 Jun 2027 08:43:34.262   05 Jun 2027 08:43:35.381             1.119           339.594
       151   05 Jun 2027 08:43:49.048   05 Jun 2027 08:43:49.488             0.440           212.219
       152   05 Jun 2027 08:44:30.822   05 Jun 2027 08:44:32.951             2.129           528.594
       153   05 Jun 2027 08:45:02.868   05 Jun 2027 08:45:05.284             2.416           934.906
       154   05 Jun 2027 08:45:32.698   05 Jun 2027 08:45:36.263             3.565           856.687
       155   05 Jun 2027 08:46:05.649   05 Jun 2027 08:46:11.367             5.718           756.500
       156   05 Jun 2027 08:46:14.977   05 Jun 2027 08:46:17.122             2.145            71.094
       157   05 Jun 2027 08:46:20.131   05 Jun 2027 08:46:21.001             0.870            94.031
       158   05 Jun 2027 08:47:04.725   05 Jun 2027 08:47:08.484             3.759          1262.406
       159   05 Jun 2027 10:18:49.621   05 Jun 2027 10:19:06.230            16.609          7847.156
       160   05 Jun 2027 10:19:58.988   05 Jun 2027 10:20:00.254             1.266           633.000
       161   05 Jun 2027 10:20:09.554   05 Jun 2027 10:20:09.947             0.393           196.500
       162   05 Jun 2027 10:20:57.850   05 Jun 2027 10:21:05.139             7.289          2520.937
       163   05 Jun 2027 10:21:43.811   05 Jun 2027 10:21:46.474             2.663          1208.500
       164   05 Jun 2027 10:21:59.649   05 Jun 2027 10:22:02.987             3.338           302.406
       165   05 Jun 2027 10:22:24.775   05 Jun 2027 10:22:25.831             1.056           397.812
       166   05 Jun 2027 10:22:28.043   05 Jun 2027 10:22:30.050             2.007            32.656
       167   05 Jun 2027 10:23:43.310   05 Jun 2027 10:23:46.825             3.515          1431.594
       168   05 Jun 2027 10:24:01.870   05 Jun 2027 10:24:04.428             2.558           464.344
       169   06 Jun 2027 04:05:34.854   06 Jun 2027 04:06:45.996            71.142         35571.000
       170   06 Jun 2027 04:07:51.260   06 Jun 2027 04:08:48.730            57.470         28735.000
       171   06 Jun 2027 04:08:55.702   06 Jun 2027 04:08:55.702             0.000             0.000
       172   06 Jun 2027 04:09:09.213   06 Jun 2027 04:09:16.281             7.068          3534.000
       173   06 Jun 2027 05:40:20.667   06 Jun 2027 05:43:06.619           165.952         82976.000
       174   06 Jun 2027 05:43:13.602   06 Jun 2027 05:43:25.165            11.563          5781.500
       175   06 Jun 2027 05:45:52.198   06 Jun 2027 05:45:52.902             0.704           352.000
       176   06 Jun 2027 05:46:02.959   06 Jun 2027 05:46:22.537            19.578          9789.000
       177   06 Jun 2027 05:47:49.235   06 Jun 2027 05:47:53.439             4.204          2102.000
       178   06 Jun 2027 07:17:10.179   06 Jun 2027 07:18:22.328            72.149         35544.781
       179   06 Jun 2027 07:19:13.102   06 Jun 2027 07:19:14.435             1.333             3.031
       180   06 Jun 2027 07:20:13.327   06 Jun 2027 07:20:15.864             2.537          1243.281
       181   06 Jun 2027 07:20:27.440   06 Jun 2027 07:20:28.130             0.690           208.312
       182   06 Jun 2027 07:21:40.883   06 Jun 2027 07:21:46.042             5.159          2148.469
       183   06 Jun 2027 07:21:56.613   06 Jun 2027 07:21:58.881             2.268           235.594
       184   06 Jun 2027 07:22:20.522   06 Jun 2027 07:22:22.416             1.894           676.281
       185   06 Jun 2027 07:22:28.863   06 Jun 2027 07:22:31.092             2.229            96.156
       186   06 Jun 2027 07:22:44.681   06 Jun 2027 07:22:44.681             0.000             0.000
       187   06 Jun 2027 08:55:20.623   06 Jun 2027 08:55:42.955            22.332         10929.875
       188   06 Jun 2027 08:55:49.259   06 Jun 2027 08:55:51.663             2.404           197.000
       189   06 Jun 2027 08:56:17.006   06 Jun 2027 08:56:19.015             2.009           674.938
       190   06 Jun 2027 08:56:37.783   06 Jun 2027 08:56:42.575             4.792           586.500
       191   06 Jun 2027 08:56:45.727   06 Jun 2027 08:56:50.955             5.228            88.844
       192   06 Jun 2027 08:57:56.166   06 Jun 2027 08:58:00.181             4.015          1769.906
       193   06 Jun 2027 08:58:15.561   06 Jun 2027 08:58:16.969             1.408           480.625
       194   06 Jun 2027 08:59:06.151   06 Jun 2027 08:59:10.556             4.405          1536.937
       195   06 Jun 2027 10:28:38.109   06 Jun 2027 10:28:54.439            16.330          7382.094
       196   06 Jun 2027 10:29:57.540   06 Jun 2027 10:29:59.727             2.187           907.406
       197   06 Jun 2027 10:30:30.285   06 Jun 2027 10:30:35.044             4.759           954.938
       198   06 Jun 2027 10:31:55.939   06 Jun 2027 10:31:59.949             4.010          2005.000
       199   06 Jun 2027 10:32:49.325   06 Jun 2027 10:32:56.674             7.349          1742.969
       200   06 Jun 2027 10:34:32.104   06 Jun 2027 10:34:41.287             9.183          2859.781
       201   06 Jun 2027 10:35:41.236   06 Jun 2027 10:35:45.442             4.206          1490.031
       202   06 Jun 2027 10:36:26.059   06 Jun 2027 10:36:26.889             0.830           335.406
       203   07 Jun 2027 04:15:22.856   07 Jun 2027 04:16:47.647            84.791         42395.500
       204   07 Jun 2027 04:17:18.920   07 Jun 2027 04:17:31.019            12.099          6049.500
       205   07 Jun 2027 04:17:52.575   07 Jun 2027 04:17:55.159             2.584          1292.000
       206   07 Jun 2027 04:18:03.804   07 Jun 2027 04:18:11.517             7.713          3856.500
       207   07 Jun 2027 04:19:01.359   07 Jun 2027 04:19:10.278             8.919          4459.500
       208   07 Jun 2027 04:19:52.006   07 Jun 2027 04:19:53.999             1.993           996.500
       209   07 Jun 2027 04:21:01.976   07 Jun 2027 04:21:02.321             0.345           172.500
       210   07 Jun 2027 04:21:52.303   07 Jun 2027 04:21:55.402             3.099          1549.500
       211   07 Jun 2027 04:23:14.120   07 Jun 2027 04:23:17.000             2.880          1440.000
       212   07 Jun 2027 05:52:27.533   07 Jun 2027 05:54:04.509            96.976         48488.000
       213   07 Jun 2027 05:54:45.901   07 Jun 2027 05:56:04.844            78.943         39471.500
       214   07 Jun 2027 05:56:55.973   07 Jun 2027 05:56:58.608             2.635          1317.500
       215   07 Jun 2027 05:58:42.970   07 Jun 2027 05:58:50.428             7.458          3729.000
       216   07 Jun 2027 05:58:57.181   07 Jun 2027 05:59:14.009            16.828          8414.000
       217   07 Jun 2027 05:59:53.313   07 Jun 2027 05:59:53.839             0.526           263.000
       218   07 Jun 2027 07:29:25.652   07 Jun 2027 07:30:38.540            72.888         34558.282
       219   07 Jun 2027 07:31:05.313   07 Jun 2027 07:31:13.023             7.710           512.625
       220   07 Jun 2027 07:31:28.004   07 Jun 2027 07:31:32.662             4.658           414.031
       221   07 Jun 2027 07:32:45.941   07 Jun 2027 07:32:50.658             4.717          1429.187
       222   07 Jun 2027 07:32:55.424   07 Jun 2027 07:32:57.230             1.806           140.969
       223   07 Jun 2027 07:33:22.360   07 Jun 2027 07:33:24.184             1.824           632.750
       224   07 Jun 2027 07:34:31.952   07 Jun 2027 07:34:38.914             6.962          1758.781
       225   07 Jun 2027 07:35:32.234   07 Jun 2027 07:35:34.187             1.953           740.000
       226   07 Jun 2027 09:07:21.938   07 Jun 2027 09:07:44.933            22.995          9850.000
       227   07 Jun 2027 09:08:38.066   07 Jun 2027 09:08:42.380             4.314          1262.250
       228   07 Jun 2027 09:09:34.201   07 Jun 2027 09:09:37.590             3.389          1349.313
       229   07 Jun 2027 09:10:22.760   07 Jun 2027 09:10:24.023             1.263           631.500
       230   07 Jun 2027 09:10:56.346   07 Jun 2027 09:11:03.123             6.777          1624.531
       231   07 Jun 2027 09:11:10.613   07 Jun 2027 09:11:14.721             4.108           135.031
       232   07 Jun 2027 10:40:43.489   07 Jun 2027 10:40:53.322             9.833          4756.937
       233   07 Jun 2027 10:42:16.533   07 Jun 2027 10:42:21.497             4.964          1492.188
       234   07 Jun 2027 10:42:54.118   07 Jun 2027 10:42:55.375             1.257           281.312
       235   07 Jun 2027 10:43:53.848   07 Jun 2027 10:43:58.633             4.785          1827.281
       236   07 Jun 2027 10:44:50.622   07 Jun 2027 10:44:54.352             3.730          1563.250
       237   07 Jun 2027 10:45:45.551   07 Jun 2027 10:45:50.587             5.036          1597.875
       238   07 Jun 2027 10:46:13.006   07 Jun 2027 10:46:16.607             3.601           416.156
       239   07 Jun 2027 10:46:35.695   07 Jun 2027 10:46:44.539             8.844            57.219
       240   07 Jun 2027 10:46:50.903   07 Jun 2027 10:46:50.903             0.000             0.000
       241   07 Jun 2027 10:47:39.659   07 Jun 2027 10:47:45.198             5.539          1722.500
       242   08 Jun 2027 04:26:50.628   08 Jun 2027 04:29:59.140           188.512         94256.000
       243   08 Jun 2027 04:30:14.615   08 Jun 2027 04:30:40.988            26.373         13186.500
       244   08 Jun 2027 04:32:00.099   08 Jun 2027 04:32:00.099             0.000             0.000
       245   08 Jun 2027 04:33:21.447   08 Jun 2027 04:33:21.447             0.000             0.000
       246   08 Jun 2027 04:33:57.249   08 Jun 2027 04:34:23.906            26.657         13328.500
       247   08 Jun 2027 04:35:08.743   08 Jun 2027 04:35:14.046             5.303          2651.500
       248   08 Jun 2027 06:04:29.581   08 Jun 2027 06:05:58.424            88.843         44421.500
       249   08 Jun 2027 06:06:17.248   08 Jun 2027 06:06:44.404            27.156         12037.594
       250   08 Jun 2027 06:07:27.252   08 Jun 2027 06:07:30.174             2.922           807.000
       251   08 Jun 2027 06:07:40.491   08 Jun 2027 06:07:41.418             0.927           179.781
       252   08 Jun 2027 06:09:41.692   08 Jun 2027 06:09:50.875             9.183          2850.000
       253   08 Jun 2027 06:11:12.062   08 Jun 2027 06:11:20.667             8.605          2537.094
       254   08 Jun 2027 07:41:16.388   08 Jun 2027 07:42:07.669            51.281         25525.250
       255   08 Jun 2027 07:43:22.130   08 Jun 2027 07:43:23.842             1.712           560.469
       256   08 Jun 2027 07:44:33.877   08 Jun 2027 07:44:41.797             7.920          1900.719
       257   08 Jun 2027 07:44:53.783   08 Jun 2027 07:44:55.832             2.049           351.000
       258   08 Jun 2027 07:45:05.604   08 Jun 2027 07:45:07.174             1.570           226.438
       259   08 Jun 2027 07:45:43.103   08 Jun 2027 07:45:55.457            12.354           810.969
       260   08 Jun 2027 07:46:27.865   08 Jun 2027 07:46:33.409             5.544           921.062
       261   08 Jun 2027 07:46:47.773   08 Jun 2027 07:46:49.504             1.731           219.125
       262   08 Jun 2027 07:47:31.871   08 Jun 2027 07:47:33.196             1.325           380.625
       263   08 Jun 2027 09:19:19.010   08 Jun 2027 09:19:43.284            24.274         10558.656
       264   08 Jun 2027 09:20:05.917   08 Jun 2027 09:20:06.690             0.773           386.500
       265   08 Jun 2027 09:20:13.489   08 Jun 2027 09:20:15.614             2.125           533.250
       266   08 Jun 2027 09:20:30.513   08 Jun 2027 09:20:30.513             0.000             0.000
       267   08 Jun 2027 09:20:43.272   08 Jun 2027 09:20:47.738             4.466           829.437
       268   08 Jun 2027 09:21:26.236   08 Jun 2027 09:21:31.485             5.249          1197.156
       269   08 Jun 2027 09:23:08.619   08 Jun 2027 09:23:16.099             7.480          2932.312
       270   08 Jun 2027 09:23:27.506   08 Jun 2027 09:23:29.311             1.805           356.469
       271   08 Jun 2027 10:53:09.747   08 Jun 2027 10:53:14.119             4.372          1883.625
       272   08 Jun 2027 10:54:21.089   08 Jun 2027 10:54:34.006            12.917          1812.688
       273   08 Jun 2027 10:55:21.376   08 Jun 2027 10:55:26.830             5.454          1358.562
       274   08 Jun 2027 10:56:12.035   08 Jun 2027 10:56:14.500             2.465          1232.500
       275   08 Jun 2027 10:56:31.477   08 Jun 2027 10:56:35.697             4.220           534.750
       276   08 Jun 2027 10:56:47.143   08 Jun 2027 10:56:48.282             1.139            29.781
       277   08 Jun 2027 10:56:52.055   08 Jun 2027 10:56:53.697             1.642            36.188
       278   08 Jun 2027 10:57:19.953   08 Jun 2027 10:57:23.361             3.408           568.563
       279   08 Jun 2027 10:58:11.987   08 Jun 2027 10:58:13.823             1.836           831.031
       280   08 Jun 2027 10:59:39.803   08 Jun 2027 10:59:43.777             3.974          1906.188
       281   09 Jun 2027 03:03:31.739   09 Jun 2027 03:04:06.654            34.915         17457.500
       282   09 Jun 2027 03:05:40.648   09 Jun 2027 03:05:51.718            11.070          5535.000
       283   09 Jun 2027 03:06:25.162   09 Jun 2027 03:06:25.162             0.000             0.000
       284   09 Jun 2027 03:07:20.967   09 Jun 2027 03:07:20.967             0.000             0.000
       285   09 Jun 2027 03:07:31.742   09 Jun 2027 03:07:34.560             2.818          1409.000
       286   09 Jun 2027 03:08:09.964   09 Jun 2027 03:08:14.776             4.812          2406.000
       287   09 Jun 2027 03:08:15.890   09 Jun 2027 03:09:33.003            77.113         38556.500
       288   09 Jun 2027 04:38:52.717   09 Jun 2027 04:40:20.873            88.156         44078.000
       289   09 Jun 2027 04:40:46.553   09 Jun 2027 04:41:32.289            45.736         22868.000
       290   09 Jun 2027 04:41:44.003   09 Jun 2027 04:41:46.636             2.633          1316.500
       291   09 Jun 2027 04:41:52.128   09 Jun 2027 04:41:56.784             4.656          2328.000
       292   09 Jun 2027 04:43:00.214   09 Jun 2027 04:43:00.214             0.000             0.000
       293   09 Jun 2027 04:43:52.150   09 Jun 2027 04:44:11.367            19.217          9608.500
       294   09 Jun 2027 04:46:59.725   09 Jun 2027 04:47:15.037            15.312          7656.000
       295   09 Jun 2027 04:47:20.656   09 Jun 2027 04:47:33.464            12.808          6404.000
       296   09 Jun 2027 04:47:42.178   09 Jun 2027 04:47:42.178             0.000             0.000
       297   09 Jun 2027 06:16:31.523   09 Jun 2027 06:17:57.437            85.914         41448.406
       298   09 Jun 2027 06:19:00.315   09 Jun 2027 06:19:03.036             2.721          1360.500
       299   09 Jun 2027 06:19:09.307   09 Jun 2027 06:19:10.798             1.491           587.469
       300   09 Jun 2027 06:19:41.175   09 Jun 2027 06:19:45.700             4.525           780.312
       301   09 Jun 2027 06:20:14.617   09 Jun 2027 06:20:16.811             2.194           624.906
       302   09 Jun 2027 06:20:38.426   09 Jun 2027 06:20:40.064             1.638           339.781
       303   09 Jun 2027 06:21:38.254   09 Jun 2027 06:21:38.993             0.739           369.500
       304   09 Jun 2027 06:23:36.471   09 Jun 2027 06:23:53.973            17.502          5120.125
       305   09 Jun 2027 07:53:26.545   09 Jun 2027 07:53:51.376            24.831         12415.500
       306   09 Jun 2027 07:53:58.860   09 Jun 2027 07:54:13.077            14.217          6974.875
       307   09 Jun 2027 07:55:31.189   09 Jun 2027 07:55:36.705             5.516          2138.750
       308   09 Jun 2027 07:55:46.056   09 Jun 2027 07:55:49.075             3.019            47.062
       309   09 Jun 2027 07:56:32.834   09 Jun 2027 07:56:36.054             3.220          1187.719
       310   09 Jun 2027 07:57:02.718   09 Jun 2027 07:57:02.718             0.000             0.000
       311   09 Jun 2027 07:57:27.261   09 Jun 2027 07:57:32.421             5.160          1207.750
       312   09 Jun 2027 07:57:47.333   09 Jun 2027 07:57:48.733             1.400           365.281
       313   09 Jun 2027 07:58:07.314   09 Jun 2027 07:58:08.459             1.145           541.344
       314   09 Jun 2027 07:58:15.147   09 Jun 2027 07:58:17.364             2.217           181.063
       315   09 Jun 2027 07:59:09.291   09 Jun 2027 07:59:12.753             3.462          1330.500
       316   09 Jun 2027 07:59:35.011   09 Jun 2027 07:59:40.548             5.537           571.531
       317   09 Jun 2027 09:30:33.863   09 Jun 2027 09:30:55.867            22.004          9664.312
       318   09 Jun 2027 09:31:07.364   09 Jun 2027 09:31:08.781             1.417           314.313
       319   09 Jun 2027 09:32:14.674   09 Jun 2027 09:32:18.018             3.344          1672.000
       320   09 Jun 2027 09:32:28.722   09 Jun 2027 09:32:30.741             2.019           721.656
       321   09 Jun 2027 09:33:44.820   09 Jun 2027 09:33:48.339             3.519          1759.500
       322   09 Jun 2027 09:35:01.482   09 Jun 2027 09:35:07.525             6.043          2668.219
       323   09 Jun 2027 11:05:27.891   09 Jun 2027 11:05:40.995            13.104          4569.000
       324   09 Jun 2027 11:05:50.527   09 Jun 2027 11:05:51.901             1.374           202.813
       325   09 Jun 2027 11:07:16.211   09 Jun 2027 11:07:24.212             8.001          1075.469
       326   09 Jun 2027 11:07:39.272   09 Jun 2027 11:07:43.610             4.338           293.781
       327   09 Jun 2027 11:08:00.646   09 Jun 2027 11:08:04.931             4.285           356.000
       328   09 Jun 2027 11:08:18.799   09 Jun 2027 11:08:19.110             0.311            86.281
       329   09 Jun 2027 11:09:35.485   09 Jun 2027 11:09:44.443             8.958          1880.781
       330   10 Jun 2027 03:17:53.538   10 Jun 2027 03:17:55.219             1.681           840.500
       331   10 Jun 2027 03:18:22.295   10 Jun 2027 03:18:56.493            34.198         17099.000
       332   10 Jun 2027 03:19:14.438   10 Jun 2027 03:19:31.052            16.614          8307.000
       333   10 Jun 2027 03:19:31.640   10 Jun 2027 03:19:47.555            15.915          7957.500
       334   10 Jun 2027 04:51:25.945   10 Jun 2027 04:53:43.789           137.844         68922.000
       335   10 Jun 2027 04:53:55.931   10 Jun 2027 04:54:53.477            57.546         28773.000
       336   10 Jun 2027 04:58:33.541   10 Jun 2027 04:58:56.328            22.787         11393.500
       337   10 Jun 2027 04:59:54.918   10 Jun 2027 04:59:58.946             4.028          2014.000
       338   10 Jun 2027 06:28:58.554   10 Jun 2027 06:30:19.093            80.539         39915.657
       339   10 Jun 2027 06:30:43.878   10 Jun 2027 06:30:45.773             1.895           255.625
       340   10 Jun 2027 06:31:04.317   10 Jun 2027 06:31:05.617             1.300           175.500
       341   10 Jun 2027 06:31:22.605   10 Jun 2027 06:31:31.606             9.001           442.813
       342   10 Jun 2027 06:31:55.849   10 Jun 2027 06:31:57.522             1.673           757.594
       343   10 Jun 2027 06:32:25.607   10 Jun 2027 06:32:28.600             2.993           733.531
       344   10 Jun 2027 06:32:35.439   10 Jun 2027 06:32:36.485             1.046           186.375
       345   10 Jun 2027 06:34:38.324   10 Jun 2027 06:34:43.613             5.289          2644.500
       346   10 Jun 2027 06:35:05.906   10 Jun 2027 06:35:15.009             9.103          1859.625
       347   10 Jun 2027 08:05:53.153   10 Jun 2027 08:06:30.615            37.462         17189.875
       348   10 Jun 2027 08:08:21.002   10 Jun 2027 08:08:27.940             6.938          2134.906
       349   10 Jun 2027 08:08:49.581   10 Jun 2027 08:08:53.912             4.331           676.281
       350   10 Jun 2027 08:08:59.061   10 Jun 2027 08:09:00.718             1.657            44.437
       351   10 Jun 2027 08:10:04.439   10 Jun 2027 08:10:08.550             4.111          1854.656
       352   10 Jun 2027 08:10:20.150   10 Jun 2027 08:10:22.205             2.055           232.531
       353   10 Jun 2027 09:42:46.843   10 Jun 2027 09:43:06.586            19.743          9336.281
       354   10 Jun 2027 09:43:44.540   10 Jun 2027 09:43:51.278             6.738           493.063
       355   10 Jun 2027 09:44:09.750   10 Jun 2027 09:44:10.939             1.189           577.250
       356   10 Jun 2027 09:44:52.652   10 Jun 2027 09:44:59.482             6.830          1301.406
       357   10 Jun 2027 09:45:52.646   10 Jun 2027 09:45:55.907             3.261          1626.187
       358   10 Jun 2027 09:46:27.172   10 Jun 2027 09:46:29.676             2.504           907.813
       359   10 Jun 2027 09:46:39.496   10 Jun 2027 09:46:41.261             1.765           306.875
       360   10 Jun 2027 09:47:03.693   10 Jun 2027 09:47:03.693             0.000             0.000
       361   10 Jun 2027 11:19:56.948   10 Jun 2027 11:20:02.520             5.572          2554.500
       362   10 Jun 2027 11:20:26.727   10 Jun 2027 11:20:28.798             2.071           289.344
       363   10 Jun 2027 11:20:55.184   10 Jun 2027 11:20:55.184             0.000             0.000
       364   10 Jun 2027 11:21:03.559   10 Jun 2027 11:21:10.335             6.776           586.969
       365   10 Jun 2027 11:21:35.923   10 Jun 2027 11:21:37.949             2.026           799.625
       366   10 Jun 2027 11:22:17.506   10 Jun 2027 11:22:20.568             3.062          1091.469
       367   11 Jun 2027 03:29:57.522   11 Jun 2027 03:30:28.711            31.189         15594.500
       368   11 Jun 2027 03:31:08.940   11 Jun 2027 03:31:12.824             3.884          1942.000
       369   11 Jun 2027 03:31:44.568   11 Jun 2027 03:32:09.627            25.059         12529.500
       370   11 Jun 2027 05:02:05.640   11 Jun 2027 05:02:15.906            10.266          5133.000
       371   11 Jun 2027 05:04:04.598   11 Jun 2027 05:06:51.681           167.083         83541.500
       372   11 Jun 2027 05:07:26.605   11 Jun 2027 05:07:47.465            20.860         10430.000
       373   11 Jun 2027 05:08:41.905   11 Jun 2027 05:08:42.287             0.382           191.000
       374   11 Jun 2027 05:09:23.715   11 Jun 2027 05:09:31.707             7.992          3996.000
       375   11 Jun 2027 05:09:52.650   11 Jun 2027 05:09:52.650             0.000             0.000
       376   11 Jun 2027 05:09:59.351   11 Jun 2027 05:10:21.123            21.772         10886.000
       377   11 Jun 2027 05:10:36.534   11 Jun 2027 05:10:36.534             0.000             0.000
       378   11 Jun 2027 05:10:51.607   11 Jun 2027 05:10:52.452             0.845           422.500
       379   11 Jun 2027 05:10:55.621   11 Jun 2027 05:11:04.076             8.455          4227.500
       380   11 Jun 2027 05:11:27.600   11 Jun 2027 05:11:36.852             9.252          4626.000
       381   11 Jun 2027 06:41:03.027   11 Jun 2027 06:42:05.100            62.073         31036.500
       382   11 Jun 2027 06:42:35.205   11 Jun 2027 06:42:41.859             6.654          1381.125
       383   11 Jun 2027 06:43:29.884   11 Jun 2027 06:43:31.184             1.300           606.937
       384   11 Jun 2027 06:44:44.224   11 Jun 2027 06:44:49.275             5.051          1921.250
       385   11 Jun 2027 06:44:58.571   11 Jun 2027 06:44:59.662             1.091           219.750
       386   11 Jun 2027 06:45:25.540   11 Jun 2027 06:45:29.055             3.515           808.687
       387   11 Jun 2027 06:45:45.459   11 Jun 2027 06:45:46.297             0.838           273.063
       388   11 Jun 2027 06:46:57.684   11 Jun 2027 06:47:02.337             4.653          2230.844
       389   11 Jun 2027 06:47:18.442   11 Jun 2027 06:47:25.043             6.601           203.094
       390   11 Jun 2027 08:18:34.762   11 Jun 2027 08:19:06.053            31.291         15465.906
       391   11 Jun 2027 08:19:14.384   11 Jun 2027 08:19:19.188             4.804           113.812
       392   11 Jun 2027 08:20:13.765   11 Jun 2027 08:20:23.462             9.697          1614.719
       393   11 Jun 2027 08:21:00.182   11 Jun 2027 08:21:04.137             3.955          1131.938
       394   11 Jun 2027 08:21:28.833   11 Jun 2027 08:21:30.273             1.440           720.000
       395   11 Jun 2027 08:21:32.834   11 Jun 2027 08:21:33.270             0.436           129.188
       396   11 Jun 2027 08:21:38.350   11 Jun 2027 08:21:39.564             1.214            83.250
       397   11 Jun 2027 08:21:58.462   11 Jun 2027 08:22:03.590             5.128           438.625
       398   11 Jun 2027 08:22:24.648   11 Jun 2027 08:22:27.042             2.394           173.937
       399   11 Jun 2027 08:22:35.951   11 Jun 2027 08:22:37.319             1.368            36.219
       400   11 Jun 2027 08:23:01.175   11 Jun 2027 08:23:01.290             0.115            57.500
       401   11 Jun 2027 09:54:52.762   11 Jun 2027 09:55:16.040            23.278         10686.875
       402   11 Jun 2027 09:55:34.393   11 Jun 2027 09:55:37.959             3.566           573.531
       403   11 Jun 2027 09:56:11.266   11 Jun 2027 09:56:13.956             2.690           938.969
       404   11 Jun 2027 09:57:01.117   11 Jun 2027 09:57:04.717             3.600          1254.781
       405   11 Jun 2027 09:58:10.658   11 Jun 2027 09:58:12.263             1.605           263.031
       406   11 Jun 2027 09:58:55.197   11 Jun 2027 09:59:02.987             7.790          1229.656
       407   11 Jun 2027 11:33:06.728   11 Jun 2027 11:33:10.139             3.411          1502.438
       408   12 Jun 2027 03:42:07.599   12 Jun 2027 03:42:19.600            12.001          6000.500
       409   12 Jun 2027 03:42:24.495   12 Jun 2027 03:42:59.393            34.898         17449.000
       410   12 Jun 2027 03:43:01.658   12 Jun 2027 03:43:08.236             6.578          3289.000
       411   12 Jun 2027 03:44:07.667   12 Jun 2027 03:44:15.130             7.463          3731.500
       412   12 Jun 2027 03:45:37.782   12 Jun 2027 03:45:42.889             5.107          2553.500
       413   12 Jun 2027 05:17:18.586   12 Jun 2027 05:19:16.012           117.426         58713.000
       414   12 Jun 2027 05:20:10.333   12 Jun 2027 05:21:06.452            56.119         28059.500
       415   12 Jun 2027 05:22:15.817   12 Jun 2027 05:22:30.227            14.410          7205.000
       416   12 Jun 2027 05:23:00.859   12 Jun 2027 05:23:23.558            22.699         11349.500
       417   12 Jun 2027 05:23:36.049   12 Jun 2027 05:23:55.479            19.430          9715.000
       418   12 Jun 2027 06:53:37.584   12 Jun 2027 06:54:33.405            55.821         27506.969
       419   12 Jun 2027 06:54:51.429   12 Jun 2027 06:54:55.599             4.170           253.156
       420   12 Jun 2027 06:55:25.304   12 Jun 2027 06:55:28.129             2.825           928.281
       421   12 Jun 2027 06:56:04.913   12 Jun 2027 06:56:09.698             4.785           340.844
       422   12 Jun 2027 06:56:33.587   12 Jun 2027 06:56:38.357             4.770           746.531
       423   12 Jun 2027 06:56:50.951   12 Jun 2027 06:56:51.656             0.705            30.875
       424   12 Jun 2027 06:57:06.878   12 Jun 2027 06:57:08.571             1.693           439.719
       425   12 Jun 2027 06:58:16.603   12 Jun 2027 06:58:22.642             6.039          1576.031
       426   12 Jun 2027 06:59:17.986   12 Jun 2027 06:59:23.158             5.172          1561.813
       427   12 Jun 2027 08:31:00.250   12 Jun 2027 08:31:34.664            34.414         15590.438
       428   12 Jun 2027 08:32:33.173   12 Jun 2027 08:32:45.248            12.075          1556.125
       429   12 Jun 2027 08:35:02.660   12 Jun 2027 08:35:12.053             9.393          4294.125
       430   12 Jun 2027 10:07:09.797   12 Jun 2027 10:07:09.997             0.200           100.000
       431   12 Jun 2027 10:08:10.765   12 Jun 2027 10:08:30.509            19.744          9750.219
       432   12 Jun 2027 10:09:37.826   12 Jun 2027 10:09:40.217             2.391          1123.687
       433   12 Jun 2027 10:10:10.317   12 Jun 2027 10:10:13.654             3.337           395.969
       434   12 Jun 2027 10:10:14.972   12 Jun 2027 10:10:17.356             2.384            41.187
       435   12 Jun 2027 10:10:47.456   12 Jun 2027 10:10:49.982             2.526           940.625
       436   13 Jun 2027 03:54:04.541   13 Jun 2027 03:54:59.162            54.621         27310.500
       437   13 Jun 2027 03:55:04.453   13 Jun 2027 03:55:35.306            30.853         15426.500
       438   13 Jun 2027 03:56:07.167   13 Jun 2027 03:56:13.809             6.642          3321.000
       439   13 Jun 2027 03:57:33.027   13 Jun 2027 03:57:36.874             3.847          1923.500
       440   13 Jun 2027 05:29:08.735   13 Jun 2027 05:31:46.470           157.735         78867.500
       441   13 Jun 2027 05:32:12.040   13 Jun 2027 05:32:51.104            39.064         19532.000
       442   13 Jun 2027 05:35:37.945   13 Jun 2027 05:36:02.424            24.479         12239.500
       443   13 Jun 2027 07:05:14.429   13 Jun 2027 07:05:41.903            27.474         13737.000
       444   13 Jun 2027 07:06:35.195   13 Jun 2027 07:07:23.518            48.323         23548.375
       445   13 Jun 2027 07:07:27.929   13 Jun 2027 07:07:28.877             0.948            52.969
       446   13 Jun 2027 07:07:47.295   13 Jun 2027 07:07:48.455             1.160           148.000
       447   13 Jun 2027 07:08:26.318   13 Jun 2027 07:08:28.741             2.423          1082.344
       448   13 Jun 2027 07:09:08.496   13 Jun 2027 07:09:12.280             3.784          1099.531
       449   13 Jun 2027 07:09:46.072   13 Jun 2027 07:09:49.086             3.014           990.719
       450   13 Jun 2027 07:10:45.667   13 Jun 2027 07:10:49.222             3.555          1686.125
       451   13 Jun 2027 07:11:12.576   13 Jun 2027 07:11:12.576             0.000             0.000
       452   13 Jun 2027 08:43:13.174   13 Jun 2027 08:43:38.188            25.014         11744.406
       453   13 Jun 2027 08:44:16.254   13 Jun 2027 08:44:17.929             1.675           510.844
       454   13 Jun 2027 08:45:10.541   13 Jun 2027 08:45:15.380             4.839          1506.375
       455   13 Jun 2027 08:45:28.303   13 Jun 2027 08:45:30.324             2.021           403.844
       456   13 Jun 2027 08:46:01.020   13 Jun 2027 08:46:02.502             1.482           420.063
       457   13 Jun 2027 08:46:32.198   13 Jun 2027 08:46:34.871             2.673           418.938
       458   13 Jun 2027 08:47:32.057   13 Jun 2027 08:47:37.087             5.030          1620.281
       459   13 Jun 2027 10:19:04.107   13 Jun 2027 10:19:21.760            17.653          7943.219
       460   13 Jun 2027 10:20:13.840   13 Jun 2027 10:20:18.280             4.440          1567.781
       461   13 Jun 2027 10:20:31.676   13 Jun 2027 10:20:34.525             2.849           303.094
       462   13 Jun 2027 10:21:29.935   13 Jun 2027 10:21:36.340             6.405          1654.781
       463   13 Jun 2027 10:21:48.269   13 Jun 2027 10:21:53.211             4.942            86.812
       464   13 Jun 2027 10:22:14.486   13 Jun 2027 10:22:15.561             1.075           261.063
       465   13 Jun 2027 10:22:40.478   13 Jun 2027 10:22:42.830             2.352           422.594
       466   13 Jun 2027 10:22:57.618   13 Jun 2027 10:22:59.370             1.752           462.125
       467   13 Jun 2027 10:23:58.463   13 Jun 2027 10:24:02.132             3.669          1447.375
