uniorb/output/strategy_2/Camera/Camera_KinoSat_111810.txt

KinoSat_111810
-------------------------
    Access    *     Start Time (UTCG)     *     Stop Time (UTCG)  *   Duration (s) *   Data (Mbytes)
         1   01 Jun 2027 03:54:15.685   01 Jun 2027 03:54:38.846            23.161         11580.500
         2   01 Jun 2027 03:54:42.305   01 Jun 2027 03:55:56.636            74.331         37165.500
         3   01 Jun 2027 03:56:16.827   01 Jun 2027 03:58:09.974           113.147         56573.500
         4   01 Jun 2027 03:58:17.199   01 Jun 2027 03:58:17.414             0.215           107.500
         5   01 Jun 2027 03:58:55.338   01 Jun 2027 03:59:12.608            17.270          8635.000
         6   01 Jun 2027 03:59:14.867   01 Jun 2027 03:59:23.223             8.356          4178.000
         7   01 Jun 2027 05:33:10.221   01 Jun 2027 05:34:34.471            84.250         42125.000
         8   01 Jun 2027 05:35:34.365   01 Jun 2027 05:36:28.235            53.870         26935.000
         9   01 Jun 2027 05:36:32.119   01 Jun 2027 05:36:38.641             6.522          3261.000
        10   01 Jun 2027 05:37:31.882   01 Jun 2027 05:37:31.882             0.000             0.000
        11   01 Jun 2027 06:56:41.256   01 Jun 2027 06:58:22.224           100.968         50484.000
        12   01 Jun 2027 08:32:38.498   01 Jun 2027 08:35:22.525           164.027         82013.500
        13   01 Jun 2027 08:36:24.606   01 Jun 2027 08:36:31.913             7.307          3653.500
        14   01 Jun 2027 10:06:28.180   01 Jun 2027 10:07:55.267            87.087         43543.500
        15   01 Jun 2027 10:08:19.964   01 Jun 2027 10:08:24.538             4.574          2287.000
        16   01 Jun 2027 10:14:19.654   01 Jun 2027 10:14:58.301            38.647         19323.500
        17   01 Jun 2027 11:43:32.127   01 Jun 2027 11:44:19.651            47.524         23762.000
        18   01 Jun 2027 11:48:56.811   01 Jun 2027 11:50:01.306            64.495         32247.500
        19   02 Jun 2027 04:06:53.246   02 Jun 2027 04:07:37.263            44.017         22008.500
        20   02 Jun 2027 04:07:44.234   02 Jun 2027 04:08:29.563            45.329         22664.500
        21   02 Jun 2027 04:08:31.392   02 Jun 2027 04:10:46.777           135.385         67692.500
        22   02 Jun 2027 04:11:01.163   02 Jun 2027 04:11:12.140            10.977          5488.500
        23   02 Jun 2027 04:11:14.257   02 Jun 2027 04:11:24.161             9.904          4952.000
        24   02 Jun 2027 04:11:27.226   02 Jun 2027 04:11:32.917             5.691          2845.500
        25   02 Jun 2027 05:45:13.268   02 Jun 2027 05:45:45.530            32.262         16131.000
        26   02 Jun 2027 05:46:56.375   02 Jun 2027 05:47:35.624            39.249         19624.500
        27   02 Jun 2027 05:48:05.945   02 Jun 2027 05:48:28.882            22.937         11468.500
        28   02 Jun 2027 05:49:14.716   02 Jun 2027 05:49:51.130            36.414         18207.000
        29   02 Jun 2027 07:08:35.553   02 Jun 2027 07:10:39.090           123.537         61768.500
        30   02 Jun 2027 08:44:57.421   02 Jun 2027 08:45:50.056            52.635         26317.500
        31   02 Jun 2027 08:47:41.296   02 Jun 2027 08:47:41.296             0.000             0.000
        32   02 Jun 2027 10:18:26.516   02 Jun 2027 10:19:33.502            66.986         33493.000
        33   02 Jun 2027 10:23:15.319   02 Jun 2027 10:23:30.626            15.307          7109.970
        34   02 Jun 2027 10:23:50.027   02 Jun 2027 10:23:59.071             9.044           594.156
        35   02 Jun 2027 10:24:09.293   02 Jun 2027 10:24:11.105             1.812           204.906
        36   02 Jun 2027 10:24:28.055   02 Jun 2027 10:24:31.608             3.553           333.781
        37   02 Jun 2027 10:24:42.082   02 Jun 2027 10:24:46.876             4.794           288.187
        38   02 Jun 2027 10:25:33.709   02 Jun 2027 10:25:36.034             2.325           213.313
        39   02 Jun 2027 10:25:43.167   02 Jun 2027 10:25:45.235             2.068           222.906
        40   02 Jun 2027 10:26:56.550   02 Jun 2027 10:26:57.971             1.421           710.500
        41   02 Jun 2027 11:55:58.945   02 Jun 2027 11:56:14.940            15.995          7641.344
        42   02 Jun 2027 11:56:54.956   02 Jun 2027 11:56:57.845             2.889          1088.406
        43   02 Jun 2027 11:58:02.796   02 Jun 2027 11:58:05.812             3.016          1508.000
        44   02 Jun 2027 11:58:55.199   02 Jun 2027 11:59:03.961             8.762          2065.063
        45   03 Jun 2027 04:18:46.832   03 Jun 2027 04:18:52.158             5.326          2663.000
        46   03 Jun 2027 04:19:46.543   03 Jun 2027 04:23:19.153           212.610        106305.000
        47   03 Jun 2027 04:24:13.851   03 Jun 2027 04:24:13.851             0.000             0.000
        48   03 Jun 2027 05:57:28.056   03 Jun 2027 05:58:37.136            69.080         34540.000
        49   03 Jun 2027 05:59:07.270   03 Jun 2027 05:59:35.838            28.568         14284.000
        50   03 Jun 2027 05:59:46.985   03 Jun 2027 05:59:56.410             9.425          4712.500
        51   03 Jun 2027 06:00:58.839   03 Jun 2027 06:01:09.845            11.006          4786.625
        52   03 Jun 2027 07:20:26.727   03 Jun 2027 07:20:42.508            15.781          7690.687
        53   03 Jun 2027 08:56:59.604   03 Jun 2027 08:57:11.501            11.897          4531.437
        54   03 Jun 2027 08:57:49.342   03 Jun 2027 08:57:49.342             0.000             0.000
        55   03 Jun 2027 08:59:41.245   03 Jun 2027 08:59:49.855             8.610          4110.406
        56   03 Jun 2027 10:31:30.214   03 Jun 2027 10:31:46.060            15.846          7828.125
        57   03 Jun 2027 10:32:27.259   03 Jun 2027 10:32:29.258             1.999           577.687
        58   03 Jun 2027 10:36:02.356   03 Jun 2027 10:36:14.396            12.040          5987.625
        59   03 Jun 2027 10:36:46.513   03 Jun 2027 10:36:48.587             2.074           838.000
        60   03 Jun 2027 10:37:04.821   03 Jun 2027 10:37:06.857             2.036           136.281
        61   03 Jun 2027 10:37:31.328   03 Jun 2027 10:37:39.815             8.487           753.531
        62   03 Jun 2027 10:38:47.282   03 Jun 2027 10:38:51.937             4.655          2082.250
        63   04 Jun 2027 03:00:00.000   04 Jun 2027 03:00:04.003             4.003          2001.500
        64   04 Jun 2027 04:30:55.698   04 Jun 2027 04:31:57.749            62.051         31025.500
        65   04 Jun 2027 04:32:04.738   04 Jun 2027 04:35:15.775           191.037         95518.500
        66   04 Jun 2027 06:09:14.372   04 Jun 2027 06:09:45.463            31.091         15545.500
        67   04 Jun 2027 06:10:03.907   04 Jun 2027 06:10:34.841            30.934         15467.000
        68   04 Jun 2027 06:11:26.352   04 Jun 2027 06:11:26.352             0.000             0.000
        69   04 Jun 2027 06:11:36.116   04 Jun 2027 06:11:41.360             5.244          2566.375
        70   04 Jun 2027 06:12:33.370   04 Jun 2027 06:12:36.428             3.058          1470.156
        71   04 Jun 2027 07:32:37.257   04 Jun 2027 07:32:49.496            12.239          5912.281
        72   04 Jun 2027 07:33:29.940   04 Jun 2027 07:33:31.967             2.027           764.844
        73   04 Jun 2027 07:34:06.840   04 Jun 2027 07:34:09.517             2.677           999.531
        74   04 Jun 2027 07:35:15.958   04 Jun 2027 07:35:20.937             4.979          1985.656
        75   04 Jun 2027 07:35:35.098   04 Jun 2027 07:35:35.098             0.000             0.000
        76   04 Jun 2027 09:09:24.559   04 Jun 2027 09:09:39.637            15.078          7258.656
        77   04 Jun 2027 09:11:53.790   04 Jun 2027 09:12:04.485            10.695          3148.406
        78   04 Jun 2027 10:44:18.160   04 Jun 2027 10:44:33.681            15.521          5312.812
        79   04 Jun 2027 10:45:43.291   04 Jun 2027 10:45:46.579             3.288          1644.000
        80   04 Jun 2027 10:50:30.847   04 Jun 2027 10:50:48.510            17.663          8831.500
        81   05 Jun 2027 03:04:45.239   05 Jun 2027 03:07:18.247           153.008         76504.000
        82   05 Jun 2027 03:10:22.656   05 Jun 2027 03:10:33.714            11.058          5529.000
        83   05 Jun 2027 03:10:50.298   05 Jun 2027 03:11:11.560            21.262         10631.000
        84   05 Jun 2027 04:44:02.502   05 Jun 2027 04:46:10.917           128.415         64166.312
        85   05 Jun 2027 04:47:51.624   05 Jun 2027 04:47:52.856             1.232           616.000
        86   05 Jun 2027 04:48:21.898   05 Jun 2027 04:48:31.781             9.883          2649.094
        87   05 Jun 2027 04:50:36.013   05 Jun 2027 04:50:42.983             6.970          3024.125
        88   05 Jun 2027 04:50:49.422   05 Jun 2027 04:50:49.567             0.145            25.562
        89   05 Jun 2027 06:21:11.432   05 Jun 2027 06:21:22.497            11.065          5334.594
        90   05 Jun 2027 06:23:19.955   05 Jun 2027 06:23:28.525             8.570          3540.406
        91   05 Jun 2027 06:24:05.460   05 Jun 2027 06:24:07.215             1.755           326.813
        92   05 Jun 2027 07:45:14.172   05 Jun 2027 07:45:29.532            15.360          5858.312
        93   05 Jun 2027 07:45:50.541   05 Jun 2027 07:45:55.175             4.634           408.375
        94   05 Jun 2027 07:47:13.852   05 Jun 2027 07:47:19.437             5.585          2458.656
        95   05 Jun 2027 09:21:02.201   05 Jun 2027 09:21:14.137            11.936          5656.000
        96   05 Jun 2027 09:23:39.268   05 Jun 2027 09:23:56.934            17.666          4436.000
        97   05 Jun 2027 10:55:59.369   05 Jun 2027 10:56:23.237            23.868          8591.188
        98   05 Jun 2027 10:57:55.958   05 Jun 2027 10:57:55.958             0.000             0.000
        99   05 Jun 2027 10:58:37.518   05 Jun 2027 10:58:46.772             9.254          4087.000
       100   05 Jun 2027 10:58:56.818   05 Jun 2027 10:59:02.096             5.278            51.219
       101   05 Jun 2027 11:02:37.540   05 Jun 2027 11:02:52.016            14.476          6700.938
       102   05 Jun 2027 11:02:58.302   05 Jun 2027 11:02:59.081             0.779           196.438
       103   06 Jun 2027 03:17:23.615   06 Jun 2027 03:20:15.087           171.472         85736.000
       104   06 Jun 2027 03:20:40.247   06 Jun 2027 03:20:48.311             8.064          4032.000
       105   06 Jun 2027 03:21:23.175   06 Jun 2027 03:21:40.156            16.981          8490.500
       106   06 Jun 2027 03:22:07.711   06 Jun 2027 03:22:11.858             4.147          2073.500
       107   06 Jun 2027 03:22:24.405   06 Jun 2027 03:22:41.199            16.794          8397.000
       108   06 Jun 2027 03:23:28.454   06 Jun 2027 03:23:28.454             0.000             0.000
       109   06 Jun 2027 03:23:53.082   06 Jun 2027 03:23:57.769             4.687          2343.500
       110   06 Jun 2027 04:56:06.309   06 Jun 2027 04:56:50.703            44.394         22197.000
       111   06 Jun 2027 04:57:11.586   06 Jun 2027 04:58:00.421            48.835         24165.937
       112   06 Jun 2027 04:59:15.156   06 Jun 2027 04:59:19.205             4.049          2024.500
       113   06 Jun 2027 05:00:29.883   06 Jun 2027 05:00:38.105             8.222          2316.406
       114   06 Jun 2027 05:01:22.135   06 Jun 2027 05:01:23.250             1.115           557.500
       115   06 Jun 2027 05:02:20.087   06 Jun 2027 05:02:23.219             3.132          1566.000
       116   06 Jun 2027 05:02:41.242   06 Jun 2027 05:02:43.276             2.034          1014.781
       117   06 Jun 2027 06:22:00.891   06 Jun 2027 06:22:13.818            12.927          6229.719
       118   06 Jun 2027 06:33:07.467   06 Jun 2027 06:33:15.229             7.762          3825.844
       119   06 Jun 2027 06:34:13.454   06 Jun 2027 06:34:16.329             2.875          1437.500
       120   06 Jun 2027 06:35:17.390   06 Jun 2027 06:35:20.012             2.622          1311.000
       121   06 Jun 2027 06:35:44.155   06 Jun 2027 06:35:49.875             5.720           817.656
       122   06 Jun 2027 07:56:04.801   06 Jun 2027 07:56:18.026            13.225          5787.844
       123   06 Jun 2027 07:57:55.426   06 Jun 2027 07:58:04.427             9.001          2054.219
       124   06 Jun 2027 07:59:16.424   06 Jun 2027 07:59:25.180             8.756          2178.844
       125   06 Jun 2027 09:31:21.401   06 Jun 2027 09:31:33.062            11.661          5029.062
       126   06 Jun 2027 09:32:46.887   06 Jun 2027 09:32:52.853             5.966          1244.812
       127   06 Jun 2027 09:33:15.614   06 Jun 2027 09:33:18.644             3.030           379.563
       128   06 Jun 2027 09:34:22.536   06 Jun 2027 09:34:26.525             3.989          1664.344
       129   06 Jun 2027 09:37:13.635   06 Jun 2027 09:37:16.352             2.717          1358.500
       130   06 Jun 2027 11:08:07.060   06 Jun 2027 11:08:10.876             3.816          1908.000
       131   06 Jun 2027 11:10:27.349   06 Jun 2027 11:10:50.918            23.569          9006.375
       132   06 Jun 2027 11:11:40.424   06 Jun 2027 11:12:02.309            21.885          1454.156
       133   06 Jun 2027 11:12:09.102   06 Jun 2027 11:12:10.305             1.203           132.813
       134   06 Jun 2027 11:12:14.729   06 Jun 2027 11:12:17.038             2.309           138.250
       135   06 Jun 2027 11:12:37.017   06 Jun 2027 11:12:38.434             1.417           597.313
       136   06 Jun 2027 11:12:41.809   06 Jun 2027 11:12:51.633             9.824            24.563
       137   06 Jun 2027 11:13:09.974   06 Jun 2027 11:13:13.552             3.578            33.656
       138   06 Jun 2027 11:13:48.092   06 Jun 2027 11:13:50.366             2.274          1028.750
       139   06 Jun 2027 11:14:45.968   06 Jun 2027 11:14:51.264             5.296          1572.156
       140   06 Jun 2027 11:14:55.310   06 Jun 2027 11:15:04.332             9.022           116.000
       141   07 Jun 2027 03:29:29.995   07 Jun 2027 03:31:14.187           104.192         52096.000
       142   07 Jun 2027 03:31:16.147   07 Jun 2027 03:32:29.141            72.994         36497.000
       143   07 Jun 2027 03:32:42.289   07 Jun 2027 03:33:04.400            22.111         11055.500
       144   07 Jun 2027 03:34:15.954   07 Jun 2027 03:34:32.646            16.692          8346.000
       145   07 Jun 2027 03:35:24.761   07 Jun 2027 03:35:44.001            19.240          9620.000
       146   07 Jun 2027 05:08:35.917   07 Jun 2027 05:09:51.734            75.817         36199.532
       147   07 Jun 2027 05:10:17.975   07 Jun 2027 05:10:20.349             2.374           820.031
       148   07 Jun 2027 05:10:40.329   07 Jun 2027 05:10:42.615             2.286             1.281
       149   07 Jun 2027 05:10:58.001   07 Jun 2027 05:10:59.048             1.047           480.813
       150   07 Jun 2027 05:12:55.078   07 Jun 2027 05:13:05.442            10.364          3199.969
       151   07 Jun 2027 05:13:23.821   07 Jun 2027 05:13:29.125             5.304           520.594
       152   07 Jun 2027 05:14:06.726   07 Jun 2027 05:14:07.743             1.017           425.063
       153   07 Jun 2027 05:14:28.563   07 Jun 2027 05:14:30.358             1.795            88.938
       154   07 Jun 2027 05:14:38.551   07 Jun 2027 05:14:40.495             1.944           256.031
       155   07 Jun 2027 06:33:27.998   07 Jun 2027 06:33:47.988            19.990          8157.250
       156   07 Jun 2027 06:45:10.178   07 Jun 2027 06:45:21.723            11.545          3974.562
       157   07 Jun 2027 06:46:10.986   07 Jun 2027 06:46:12.674             1.688           844.000
       158   07 Jun 2027 08:07:23.704   07 Jun 2027 08:07:34.827            11.123          5561.500
       159   07 Jun 2027 08:07:47.433   07 Jun 2027 08:07:52.108             4.675          2238.813
       160   07 Jun 2027 08:07:57.407   07 Jun 2027 08:07:57.407             0.000             0.000
       161   07 Jun 2027 08:09:55.189   07 Jun 2027 08:10:04.317             9.128          3064.687
       162   07 Jun 2027 08:11:15.780   07 Jun 2027 08:11:28.291            12.511          2044.219
       163   07 Jun 2027 08:12:18.501   07 Jun 2027 08:12:18.501             0.000             0.000
       164   07 Jun 2027 08:12:21.942   07 Jun 2027 08:12:27.470             5.528          1473.187
       165   07 Jun 2027 09:42:28.617   07 Jun 2027 09:42:43.063            14.446          4953.031
       166   07 Jun 2027 09:43:07.110   07 Jun 2027 09:43:08.920             1.810           342.469
       167   07 Jun 2027 09:46:07.131   07 Jun 2027 09:46:26.270            19.139          4857.344
       168   07 Jun 2027 09:48:56.418   07 Jun 2027 09:48:59.965             3.547          1773.500
       169   07 Jun 2027 11:19:47.568   07 Jun 2027 11:20:10.716            23.148          6707.313
       170   07 Jun 2027 11:21:24.021   07 Jun 2027 11:21:37.038            13.017          2290.781
       171   07 Jun 2027 11:22:51.739   07 Jun 2027 11:22:54.931             3.192          1596.000
       172   07 Jun 2027 11:26:10.384   07 Jun 2027 11:26:28.793            18.409          6326.250
       173   08 Jun 2027 03:41:49.408   08 Jun 2027 03:42:28.284            38.876         19438.000
       174   08 Jun 2027 03:43:00.738   08 Jun 2027 03:44:00.579            59.841         29920.500
       175   08 Jun 2027 03:44:02.516   08 Jun 2027 03:45:49.859           107.343         53671.500
       176   08 Jun 2027 03:46:27.643   08 Jun 2027 03:47:03.590            35.947         17973.500
       177   08 Jun 2027 03:47:12.393   08 Jun 2027 03:47:27.301            14.908          7454.000
       178   08 Jun 2027 05:20:37.113   08 Jun 2027 05:21:33.715            56.602         28301.000
       179   08 Jun 2027 05:21:44.338   08 Jun 2027 05:21:50.623             6.285          1986.469
       180   08 Jun 2027 05:22:26.833   08 Jun 2027 05:22:26.833             0.000             0.000
       181   08 Jun 2027 05:22:28.794   08 Jun 2027 05:22:31.787             2.993           841.000
       182   08 Jun 2027 05:22:55.786   08 Jun 2027 05:22:56.907             1.121           419.875
       183   08 Jun 2027 05:23:34.014   08 Jun 2027 05:23:39.051             5.037           685.281
       184   08 Jun 2027 05:24:35.631   08 Jun 2027 05:24:40.527             4.896          1468.656
       185   08 Jun 2027 05:24:51.158   08 Jun 2027 05:24:53.724             2.566           286.344
       186   08 Jun 2027 05:25:18.952   08 Jun 2027 05:25:18.952             0.000             0.000
       187   08 Jun 2027 05:25:52.042   08 Jun 2027 05:25:55.093             3.051          1525.500
       188   08 Jun 2027 05:26:27.488   08 Jun 2027 05:26:27.488             0.000             0.000
       189   08 Jun 2027 05:26:30.132   08 Jun 2027 05:26:34.222             4.090          1110.781
       190   08 Jun 2027 05:27:32.187   08 Jun 2027 05:27:33.488             1.301           474.719
       191   08 Jun 2027 06:44:57.409   08 Jun 2027 06:45:08.820            11.411          5705.500
       192   08 Jun 2027 06:45:24.743   08 Jun 2027 06:45:33.739             8.996           798.719
       193   08 Jun 2027 06:46:06.594   08 Jun 2027 06:46:09.136             2.542           916.094
       194   08 Jun 2027 06:46:22.674   08 Jun 2027 06:46:27.080             4.406           391.094
       195   08 Jun 2027 06:57:12.104   08 Jun 2027 06:57:18.828             6.724          3298.344
       196   08 Jun 2027 08:19:08.618   08 Jun 2027 08:19:29.621            21.003          8199.375
       197   08 Jun 2027 08:21:11.291   08 Jun 2027 08:21:16.443             5.152          1697.469
       198   08 Jun 2027 08:22:16.636   08 Jun 2027 08:22:25.559             8.923          1021.031
       199   08 Jun 2027 08:22:48.398   08 Jun 2027 08:22:51.134             2.736           106.313
       200   08 Jun 2027 08:24:08.751   08 Jun 2027 08:24:15.025             6.274          1698.219
       201   08 Jun 2027 09:53:56.846   08 Jun 2027 09:54:04.522             7.676          3610.375
       202   08 Jun 2027 09:54:54.897   08 Jun 2027 09:54:56.755             1.858           647.813
       203   08 Jun 2027 09:59:33.882   08 Jun 2027 09:59:51.190            17.308          7278.875
       204   08 Jun 2027 10:00:24.665   08 Jun 2027 10:00:25.536             0.871           332.938
       205   08 Jun 2027 10:00:54.123   08 Jun 2027 10:00:54.123             0.000             0.000
       206   08 Jun 2027 10:01:01.289   08 Jun 2027 10:01:03.798             2.509           643.031
       207   08 Jun 2027 10:02:16.735   08 Jun 2027 10:02:20.655             3.920          1752.656
       208   08 Jun 2027 11:35:46.278   08 Jun 2027 11:36:13.323            27.045         12821.937
       209   08 Jun 2027 11:36:18.496   08 Jun 2027 11:36:19.809             1.313           161.656
       210   08 Jun 2027 11:36:32.480   08 Jun 2027 11:36:35.515             3.035           293.969
       211   08 Jun 2027 11:37:08.640   08 Jun 2027 11:37:10.290             1.650           825.000
       212   08 Jun 2027 11:38:09.141   08 Jun 2027 11:38:15.052             5.911          1973.156
       213   08 Jun 2027 11:38:34.891   08 Jun 2027 11:38:37.431             2.540           364.344
       214   08 Jun 2027 11:38:40.443   08 Jun 2027 11:38:40.443             0.000             0.000
       215   09 Jun 2027 03:54:33.682   09 Jun 2027 03:55:57.306            83.624         41812.000
       216   09 Jun 2027 03:55:57.504   09 Jun 2027 03:56:12.593            15.089          7544.500
       217   09 Jun 2027 03:56:35.874   09 Jun 2027 03:58:45.393           129.519         64759.500
       218   09 Jun 2027 03:59:14.629   09 Jun 2027 03:59:40.047            25.418         12709.000
       219   09 Jun 2027 05:32:59.006   09 Jun 2027 05:33:25.100            26.094         13047.000
       220   09 Jun 2027 05:33:52.130   09 Jun 2027 05:34:36.410            44.280         21795.781
       221   09 Jun 2027 05:35:22.046   09 Jun 2027 05:35:25.415             3.369          1141.375
       222   09 Jun 2027 05:35:48.989   09 Jun 2027 05:35:51.737             2.748           671.406
       223   09 Jun 2027 05:36:21.455   09 Jun 2027 05:36:23.744             2.289           841.187
       224   09 Jun 2027 05:36:53.986   09 Jun 2027 05:36:57.826             3.840           340.906
       225   09 Jun 2027 05:38:04.950   09 Jun 2027 05:38:08.135             3.185          1481.563
       226   09 Jun 2027 06:56:57.861   09 Jun 2027 06:57:13.847            15.986          7098.969
       227   09 Jun 2027 06:57:47.452   09 Jun 2027 06:57:49.991             2.539           845.125
       228   09 Jun 2027 06:58:08.169   09 Jun 2027 06:58:11.751             3.582           285.719
       229   09 Jun 2027 06:58:40.895   09 Jun 2027 06:58:42.551             1.656            83.656
       230   09 Jun 2027 06:58:43.910   09 Jun 2027 06:58:43.910             0.000             0.000
       231   09 Jun 2027 08:32:55.356   09 Jun 2027 08:33:08.147            12.791          6395.500
       232   09 Jun 2027 08:33:15.029   09 Jun 2027 08:33:15.029             0.000             0.000
       233   09 Jun 2027 08:33:45.533   09 Jun 2027 08:33:52.708             7.175          1932.312
       234   09 Jun 2027 08:35:58.598   09 Jun 2027 08:36:10.121            11.523          3932.406
       235   09 Jun 2027 10:07:42.172   09 Jun 2027 10:07:55.854            13.682          6668.687
       236   09 Jun 2027 10:11:33.729   09 Jun 2027 10:11:47.458            13.729          6220.875
       237   09 Jun 2027 10:13:05.645   09 Jun 2027 10:13:11.579             5.934          2102.281
       238   09 Jun 2027 11:43:52.094   09 Jun 2027 11:44:06.572            14.478          7217.031
       239   09 Jun 2027 11:44:18.191   09 Jun 2027 11:44:20.445             2.254           224.062
       240   09 Jun 2027 11:44:54.227   09 Jun 2027 11:44:56.182             1.955           770.687
       241   09 Jun 2027 11:45:12.852   09 Jun 2027 11:45:18.523             5.671           434.875
       242   09 Jun 2027 11:45:55.452   09 Jun 2027 11:45:58.360             2.908           861.094
       243   09 Jun 2027 11:46:40.373   09 Jun 2027 11:46:42.785             2.412           947.312
       244   09 Jun 2027 11:47:23.196   09 Jun 2027 11:47:27.091             3.895           613.625
       245   09 Jun 2027 11:47:44.777   09 Jun 2027 11:47:46.491             1.714           466.313
       246   09 Jun 2027 11:48:14.474   09 Jun 2027 11:48:16.076             1.602           796.125
       247   09 Jun 2027 11:48:30.895   09 Jun 2027 11:48:31.998             1.103           323.063
       248   09 Jun 2027 11:49:10.130   09 Jun 2027 11:49:14.997             4.867          1047.312
       249   09 Jun 2027 11:50:07.354   09 Jun 2027 11:50:13.905             6.551          1579.531
       250   10 Jun 2027 04:07:20.939   10 Jun 2027 04:07:29.646             8.707          4353.500
       251   10 Jun 2027 04:07:58.165   10 Jun 2027 04:08:46.268            48.103         24051.500
       252   10 Jun 2027 04:08:48.819   10 Jun 2027 04:11:49.651           180.832         90416.000
       253   10 Jun 2027 05:45:29.642   10 Jun 2027 05:46:00.267            30.625         15312.500
       254   10 Jun 2027 05:46:15.228   10 Jun 2027 05:46:21.709             6.481          3240.500
       255   10 Jun 2027 05:47:14.907   10 Jun 2027 05:48:07.079            52.172         26086.000
       256   10 Jun 2027 05:48:10.118   10 Jun 2027 05:48:12.832             2.714           798.344
       257   10 Jun 2027 05:49:26.288   10 Jun 2027 05:49:29.346             3.058          1529.000
       258   10 Jun 2027 05:49:54.055   10 Jun 2027 05:49:58.413             4.358          1538.375
       259   10 Jun 2027 05:50:09.470   10 Jun 2027 05:50:10.277             0.807           224.437
       260   10 Jun 2027 07:08:52.675   10 Jun 2027 07:09:07.975            15.300          7429.344
       261   10 Jun 2027 07:10:09.589   10 Jun 2027 07:10:14.292             4.703          1724.875
       262   10 Jun 2027 07:10:32.844   10 Jun 2027 07:10:35.311             2.467           315.406
       263   10 Jun 2027 07:10:56.996   10 Jun 2027 07:10:58.033             1.037            98.094
       264   10 Jun 2027 08:45:16.344   10 Jun 2027 08:45:39.450            23.106          9397.125
       265   10 Jun 2027 08:45:46.722   10 Jun 2027 08:45:47.962             1.240           227.250
       266   10 Jun 2027 08:45:50.240   10 Jun 2027 08:45:50.240             0.000             0.000
       267   10 Jun 2027 08:45:58.842   10 Jun 2027 08:46:00.090             1.248           340.000
       268   10 Jun 2027 08:47:58.981   10 Jun 2027 08:48:06.287             7.306          3582.000
       269   10 Jun 2027 10:19:35.145   10 Jun 2027 10:19:42.934             7.789          3894.500
       270   10 Jun 2027 10:20:46.671   10 Jun 2027 10:20:56.287             9.616          4508.031
       271   10 Jun 2027 10:23:32.884   10 Jun 2027 10:23:32.884             0.000             0.000
       272   10 Jun 2027 10:24:33.959   10 Jun 2027 10:24:34.969             1.010           505.000
       273   10 Jun 2027 10:25:55.512   10 Jun 2027 10:26:12.870            17.358          8525.719
       274   10 Jun 2027 10:27:11.861   10 Jun 2027 10:27:15.343             3.482          1741.000
       275   10 Jun 2027 11:56:18.219   10 Jun 2027 11:56:33.943            15.724          6155.250
       276   10 Jun 2027 11:57:12.011   10 Jun 2027 11:57:19.256             7.245          1089.844
       277   10 Jun 2027 11:58:26.897   10 Jun 2027 11:58:31.412             4.515          1938.844
       278   10 Jun 2027 11:59:14.707   10 Jun 2027 11:59:18.622             3.915          1352.969
       279   10 Jun 2027 11:59:37.957   10 Jun 2027 11:59:43.364             5.407           243.437
       280   11 Jun 2027 04:19:04.711   11 Jun 2027 04:19:09.044             4.333          2166.500
       281   11 Jun 2027 04:19:34.002   11 Jun 2027 04:22:03.026           149.024         74512.000
       282   11 Jun 2027 04:22:31.462   11 Jun 2027 04:23:57.490            86.028         43014.000
       283   11 Jun 2027 04:24:42.919   11 Jun 2027 04:24:43.364             0.445           222.500
       284   11 Jun 2027 04:24:53.236   11 Jun 2027 04:24:55.183             1.947           973.500
       285   11 Jun 2027 04:25:06.166   11 Jun 2027 04:25:18.594            12.428          6214.000
       286   11 Jun 2027 05:57:45.460   11 Jun 2027 05:57:46.306             0.846           423.000
       287   11 Jun 2027 05:58:59.551   11 Jun 2027 06:00:22.114            82.563         41281.500
       288   11 Jun 2027 06:00:33.458   11 Jun 2027 06:00:33.458             0.000             0.000
       289   11 Jun 2027 06:00:48.856   11 Jun 2027 06:00:54.646             5.790          2704.406
       290   11 Jun 2027 06:01:20.074   11 Jun 2027 06:01:21.403             1.329           237.844
       291   11 Jun 2027 06:01:46.224   11 Jun 2027 06:01:46.257             0.033            16.500
       292   11 Jun 2027 07:20:40.235   11 Jun 2027 07:20:48.058             7.823          3911.500
       293   11 Jun 2027 07:21:06.067   11 Jun 2027 07:21:13.103             7.036          2698.718
       294   11 Jun 2027 07:22:27.042   11 Jun 2027 07:22:33.095             6.053          1174.875
       295   11 Jun 2027 08:57:46.512   11 Jun 2027 08:57:58.048            11.536          4887.781
       296   11 Jun 2027 10:32:13.401   11 Jun 2027 10:32:27.003            13.602          5884.813
       297   11 Jun 2027 10:33:23.840   11 Jun 2027 10:33:24.342             0.502           251.000
       298   11 Jun 2027 10:34:16.998   11 Jun 2027 10:34:26.176             9.178          1913.782
       299   11 Jun 2027 10:34:55.384   11 Jun 2027 10:34:57.767             2.383           682.313
       300   11 Jun 2027 10:35:15.681   11 Jun 2027 10:35:20.012             4.331           476.500
       301   11 Jun 2027 10:35:58.101   11 Jun 2027 10:36:00.695             2.594          1190.281
       302   11 Jun 2027 10:36:46.030   11 Jun 2027 10:36:49.147             3.117          1416.719
       303   11 Jun 2027 10:37:20.592   11 Jun 2027 10:37:20.848             0.256            93.094
       304   11 Jun 2027 10:37:47.862   11 Jun 2027 10:37:55.344             7.482           736.156
       305   11 Jun 2027 10:38:13.983   11 Jun 2027 10:38:15.531             1.548           516.344
       306   11 Jun 2027 10:38:37.188   11 Jun 2027 10:38:40.653             3.465           623.125
       307   11 Jun 2027 10:39:04.098   11 Jun 2027 10:39:05.590             1.492           316.281
       308   12 Jun 2027 03:00:00.000   12 Jun 2027 03:00:18.810            18.810          9405.000
       309   12 Jun 2027 04:31:13.408   12 Jun 2027 04:32:15.368            61.960         30980.000
       310   12 Jun 2027 04:32:21.833   12 Jun 2027 04:34:32.345           130.512         65256.000
       311   12 Jun 2027 04:34:51.146   12 Jun 2027 04:35:08.273            17.127          8563.500
       312   12 Jun 2027 04:35:25.517   12 Jun 2027 04:35:41.624            16.107          8053.500
       313   12 Jun 2027 04:36:30.204   12 Jun 2027 04:36:31.582             1.378           689.000
       314   12 Jun 2027 06:09:31.866   12 Jun 2027 06:10:04.065            32.199         16099.500
       315   12 Jun 2027 06:10:21.039   12 Jun 2027 06:11:11.114            50.075         24977.907
       316   12 Jun 2027 06:11:28.036   12 Jun 2027 06:11:29.699             1.663           199.625
       317   12 Jun 2027 06:11:52.220   12 Jun 2027 06:11:55.190             2.970           614.750
       318   12 Jun 2027 06:12:21.945   12 Jun 2027 06:12:21.945             0.000             0.000
       319   12 Jun 2027 06:12:50.983   12 Jun 2027 06:12:53.997             3.014          1442.062
       320   12 Jun 2027 07:32:54.341   12 Jun 2027 07:33:07.415            13.074          5884.875
       321   12 Jun 2027 07:33:46.177   12 Jun 2027 07:33:47.897             1.720           784.437
       322   12 Jun 2027 07:34:23.551   12 Jun 2027 07:34:26.990             3.439           978.750
       323   12 Jun 2027 07:35:32.266   12 Jun 2027 07:35:34.985             2.719          1359.500
       324   12 Jun 2027 07:35:53.390   12 Jun 2027 07:35:56.705             3.315          1255.531
       325   12 Jun 2027 09:09:26.235   12 Jun 2027 09:09:38.384            12.149          4424.250
       326   12 Jun 2027 09:12:16.177   12 Jun 2027 09:12:25.653             9.476          4738.000
       327   12 Jun 2027 10:44:36.285   12 Jun 2027 10:44:53.674            17.389          8653.937
       328   12 Jun 2027 10:45:29.783   12 Jun 2027 10:45:32.325             2.542          1128.406
       329   12 Jun 2027 10:47:28.553   12 Jun 2027 10:47:34.877             6.324          3115.937
       330   12 Jun 2027 10:47:59.169   12 Jun 2027 10:48:01.104             1.935           355.219
       331   12 Jun 2027 10:50:51.277   12 Jun 2027 10:50:53.301             2.024          1012.000
       332   12 Jun 2027 10:51:02.719   12 Jun 2027 10:51:12.476             9.757          4338.344
       333   13 Jun 2027 03:05:02.930   13 Jun 2027 03:05:29.744            26.814         13407.000
       334   13 Jun 2027 03:05:35.413   13 Jun 2027 03:07:05.146            89.733         44866.500
       335   13 Jun 2027 03:07:56.617   13 Jun 2027 03:08:17.607            20.990         10495.000
       336   13 Jun 2027 03:08:21.337   13 Jun 2027 03:08:35.744            14.407          7203.500
       337   13 Jun 2027 03:10:29.822   13 Jun 2027 03:10:29.822             0.000             0.000
       338   13 Jun 2027 03:10:57.366   13 Jun 2027 03:11:05.521             8.155          4077.500
       339   13 Jun 2027 04:44:20.024   13 Jun 2027 04:46:52.292           152.268         76122.594
       340   13 Jun 2027 04:48:01.807   13 Jun 2027 04:48:04.105             2.298           886.094
       341   13 Jun 2027 04:50:57.664   13 Jun 2027 04:51:07.290             9.626          4702.500
       342   13 Jun 2027 06:21:28.365   13 Jun 2027 06:21:45.569            17.204          7220.281
       343   13 Jun 2027 06:21:58.226   13 Jun 2027 06:22:03.603             5.377           395.531
       344   13 Jun 2027 06:23:35.870   13 Jun 2027 06:23:43.207             7.337          2579.438
       345   13 Jun 2027 06:24:13.367   13 Jun 2027 06:24:13.666             0.299            89.969
       346   13 Jun 2027 06:24:53.034   13 Jun 2027 06:24:55.125             2.091           988.781
       347   13 Jun 2027 07:45:24.730   13 Jun 2027 07:45:30.895             6.165          3082.500
       348   13 Jun 2027 07:45:54.832   13 Jun 2027 07:46:02.006             7.174          2442.813
       349   13 Jun 2027 07:46:22.424   13 Jun 2027 07:46:31.131             8.707           547.063
       350   13 Jun 2027 09:21:19.476   13 Jun 2027 09:21:33.781            14.305          6211.688
       351   13 Jun 2027 09:24:42.285   13 Jun 2027 09:24:55.162            12.877          5890.750
       352   13 Jun 2027 09:25:06.936   13 Jun 2027 09:25:09.845             2.909           334.688
       353   13 Jun 2027 10:56:15.300   13 Jun 2027 10:56:29.922            14.622          7284.281
       354   13 Jun 2027 10:56:46.964   13 Jun 2027 10:56:54.893             7.929           447.000
       355   13 Jun 2027 10:57:43.440   13 Jun 2027 10:57:48.548             5.108           281.688
       356   13 Jun 2027 10:57:53.867   13 Jun 2027 10:57:54.343             0.476           148.969
       357   13 Jun 2027 10:58:58.940   13 Jun 2027 10:58:58.940             0.000             0.000
       358   13 Jun 2027 11:02:54.135   13 Jun 2027 11:03:14.018            19.883          8684.344
