uniorb/output/strategy_2/Camera/Camera_KinoSat_110805.txt

KinoSat_110805
-------------------------
    Access    *     Start Time (UTCG)     *     Stop Time (UTCG)  *   Duration (s) *   Data (Mbytes)
         1   01 Jun 2027 03:34:35.397   01 Jun 2027 03:35:22.423            47.026         23513.000
         2   01 Jun 2027 03:35:43.744   01 Jun 2027 03:35:49.668             5.924          2962.000
         3   01 Jun 2027 03:36:28.683   01 Jun 2027 03:36:31.282             2.599          1299.500
         4   01 Jun 2027 03:37:46.269   01 Jun 2027 03:37:46.269             0.000             0.000
         5   01 Jun 2027 03:38:04.186   01 Jun 2027 03:38:04.186             0.000             0.000
         6   01 Jun 2027 03:38:29.226   01 Jun 2027 03:38:35.253             6.027          3013.500
         7   01 Jun 2027 05:10:07.597   01 Jun 2027 05:10:13.986             6.389          3194.500
         8   01 Jun 2027 05:11:17.298   01 Jun 2027 05:13:20.536           123.238         61619.000
         9   01 Jun 2027 05:13:23.623   01 Jun 2027 05:14:31.723            68.100         34050.000
        10   01 Jun 2027 05:15:27.486   01 Jun 2027 05:15:34.321             6.835          3417.500
        11   01 Jun 2027 06:46:02.851   01 Jun 2027 06:48:12.711           129.860         64930.000
        12   01 Jun 2027 06:48:34.599   01 Jun 2027 06:49:12.117            37.518         18759.000
        13   01 Jun 2027 06:49:36.121   01 Jun 2027 06:50:02.873            26.752         13376.000
        14   01 Jun 2027 06:51:23.605   01 Jun 2027 06:51:38.676            15.071          7535.500
        15   01 Jun 2027 06:52:53.941   01 Jun 2027 06:53:13.866            19.925          9962.500
        16   01 Jun 2027 08:23:02.729   01 Jun 2027 08:24:12.412            69.683         34841.500
        17   01 Jun 2027 08:24:39.200   01 Jun 2027 08:25:50.364            71.164         35582.000
        18   01 Jun 2027 08:26:40.023   01 Jun 2027 08:27:48.854            68.831         34415.500
        19   01 Jun 2027 10:01:03.813   01 Jun 2027 10:03:44.764           160.951         80475.500
        20   01 Jun 2027 11:34:18.514   01 Jun 2027 11:35:50.145            91.631         45815.500
        21   01 Jun 2027 11:36:20.154   01 Jun 2027 11:36:25.971             5.817          2908.500
        22   01 Jun 2027 11:36:37.116   01 Jun 2027 11:36:37.116             0.000             0.000
        23   01 Jun 2027 11:37:26.442   01 Jun 2027 11:37:38.308            11.866          5933.000
        24   01 Jun 2027 11:41:52.061   01 Jun 2027 11:41:54.544             2.483          1241.500
        25   01 Jun 2027 11:42:02.898   01 Jun 2027 11:42:09.889             6.991          3495.500
        26   02 Jun 2027 03:45:51.681   02 Jun 2027 03:46:23.140            31.459         15729.500
        27   02 Jun 2027 03:47:01.448   02 Jun 2027 03:47:05.295             3.847          1923.500
        28   02 Jun 2027 03:47:52.033   02 Jun 2027 03:48:43.586            51.553         25776.500
        29   02 Jun 2027 03:50:04.952   02 Jun 2027 03:50:04.952             0.000             0.000
        30   02 Jun 2027 03:50:21.382   02 Jun 2027 03:50:28.018             6.636          3318.000
        31   02 Jun 2027 03:50:28.934   02 Jun 2027 03:50:33.699             4.765          2382.500
        32   02 Jun 2027 05:20:59.735   02 Jun 2027 05:22:32.238            92.503         46251.500
        33   02 Jun 2027 05:23:22.226   02 Jun 2027 05:24:40.145            77.919         38959.500
        34   02 Jun 2027 05:26:20.837   02 Jun 2027 05:26:39.730            18.893          9446.500
        35   02 Jun 2027 06:58:10.903   02 Jun 2027 06:59:17.263            66.360         33180.000
        36   02 Jun 2027 06:59:46.744   02 Jun 2027 07:00:15.087            28.343         14171.500
        37   02 Jun 2027 07:00:37.534   02 Jun 2027 07:02:07.515            89.981         44990.500
        38   02 Jun 2027 07:03:18.405   02 Jun 2027 07:03:41.482            23.077         11538.500
        39   02 Jun 2027 07:04:38.404   02 Jun 2027 07:04:44.737             6.333          3166.500
        40   02 Jun 2027 07:04:44.772   02 Jun 2027 07:04:45.516             0.744           372.000
        41   02 Jun 2027 08:35:08.216   02 Jun 2027 08:37:15.672           127.456         59782.874
        42   02 Jun 2027 08:37:51.982   02 Jun 2027 08:37:56.695             4.713           917.250
        43   02 Jun 2027 08:38:40.386   02 Jun 2027 08:38:40.386             0.000             0.000
        44   02 Jun 2027 08:38:45.235   02 Jun 2027 08:38:56.505            11.270          1472.562
        45   02 Jun 2027 08:39:10.384   02 Jun 2027 08:39:13.546             3.162           433.719
        46   02 Jun 2027 08:40:35.247   02 Jun 2027 08:40:41.797             6.550          2542.781
        47   02 Jun 2027 10:13:01.234   02 Jun 2027 10:13:23.692            22.458         10057.187
        48   02 Jun 2027 10:13:42.137   02 Jun 2027 10:13:50.769             8.632           407.812
        49   02 Jun 2027 10:14:26.428   02 Jun 2027 10:14:29.373             2.945          1113.031
        50   02 Jun 2027 10:14:59.343   02 Jun 2027 10:15:01.200             1.857           781.938
        51   02 Jun 2027 10:15:44.061   02 Jun 2027 10:15:47.238             3.177           996.094
        52   02 Jun 2027 10:16:25.366   02 Jun 2027 10:16:27.122             1.756           878.000
        53   02 Jun 2027 10:16:36.921   02 Jun 2027 10:16:37.931             1.010           342.750
        54   02 Jun 2027 10:16:47.940   02 Jun 2027 10:16:48.422             0.482           218.000
        55   02 Jun 2027 11:46:29.029   02 Jun 2027 11:46:33.513             4.484          1893.375
        56   02 Jun 2027 11:47:13.898   02 Jun 2027 11:47:14.941             1.043           307.625
        57   02 Jun 2027 11:48:05.404   02 Jun 2027 11:48:12.449             7.045          1553.469
        58   02 Jun 2027 11:48:49.108   02 Jun 2027 11:48:54.001             4.893          1072.500
        59   02 Jun 2027 11:49:28.109   02 Jun 2027 11:49:35.929             7.820           932.469
        60   02 Jun 2027 11:49:43.262   02 Jun 2027 11:49:52.478             9.216           229.156
        61   02 Jun 2027 11:49:59.375   02 Jun 2027 11:50:01.722             2.347           215.531
        62   02 Jun 2027 11:51:15.099   02 Jun 2027 11:51:21.919             6.820          2271.062
        63   02 Jun 2027 11:52:31.344   02 Jun 2027 11:52:31.976             0.632           316.000
        64   02 Jun 2027 11:52:43.813   02 Jun 2027 11:52:45.308             1.495           747.500
        65   02 Jun 2027 11:53:23.379   02 Jun 2027 11:53:25.382             2.003          1001.500
        66   02 Jun 2027 11:53:53.518   02 Jun 2027 11:54:00.377             6.859          2429.407
        67   03 Jun 2027 03:57:36.639   03 Jun 2027 03:58:20.902            44.263         22131.500
        68   03 Jun 2027 03:58:54.466   03 Jun 2027 03:58:55.892             1.426           713.000
        69   03 Jun 2027 03:59:39.734   03 Jun 2027 04:00:03.429            23.695         11847.500
        70   03 Jun 2027 04:00:42.001   03 Jun 2027 04:00:54.146            12.145          6072.500
        71   03 Jun 2027 04:01:47.324   03 Jun 2027 04:02:06.143            18.819          9409.500
        72   03 Jun 2027 04:02:40.123   03 Jun 2027 04:02:40.123             0.000             0.000
        73   03 Jun 2027 05:32:29.154   03 Jun 2027 05:35:47.562           198.408         99204.000
        74   03 Jun 2027 05:36:11.643   03 Jun 2027 05:36:11.643             0.000             0.000
        75   03 Jun 2027 05:37:37.047   03 Jun 2027 05:37:39.497             2.450          1225.000
        76   03 Jun 2027 05:37:47.479   03 Jun 2027 05:37:54.421             6.942          3471.000
        77   03 Jun 2027 05:41:18.826   03 Jun 2027 05:41:25.704             6.878          3439.000
        78   03 Jun 2027 07:10:12.211   03 Jun 2027 07:10:51.095            38.884         19135.687
        79   03 Jun 2027 07:12:16.670   03 Jun 2027 07:12:18.321             1.651           634.000
        80   03 Jun 2027 07:12:25.548   03 Jun 2027 07:12:26.574             1.026           192.906
        81   03 Jun 2027 07:12:40.716   03 Jun 2027 07:12:43.563             2.847           384.437
        82   03 Jun 2027 07:14:18.236   03 Jun 2027 07:14:20.448             2.212          1106.000
        83   03 Jun 2027 07:14:30.700   03 Jun 2027 07:14:35.569             4.869          1783.937
        84   03 Jun 2027 07:14:42.909   03 Jun 2027 07:14:46.764             3.855            74.344
        85   03 Jun 2027 07:15:14.134   03 Jun 2027 07:15:15.118             0.984           408.625
        86   03 Jun 2027 07:15:32.068   03 Jun 2027 07:15:35.872             3.804           491.750
        87   03 Jun 2027 07:16:23.725   03 Jun 2027 07:16:28.289             4.564          1495.406
        88   03 Jun 2027 07:17:08.803   03 Jun 2027 07:17:11.417             2.614          1231.906
        89   03 Jun 2027 07:17:38.125   03 Jun 2027 07:17:38.741             0.616           308.000
        90   03 Jun 2027 08:47:00.408   03 Jun 2027 08:47:33.502            33.094         13559.344
        91   03 Jun 2027 08:48:28.347   03 Jun 2027 08:48:30.462             2.115           670.750
        92   03 Jun 2027 08:49:44.392   03 Jun 2027 08:49:48.436             4.044          2022.000
        93   03 Jun 2027 08:50:41.663   03 Jun 2027 08:50:47.631             5.968          1951.656
        94   03 Jun 2027 08:51:13.265   03 Jun 2027 08:51:16.098             2.833           702.500
        95   03 Jun 2027 08:51:51.971   03 Jun 2027 08:51:54.263             2.292          1085.250
        96   03 Jun 2027 08:52:07.180   03 Jun 2027 08:52:08.386             1.206           394.406
        97   03 Jun 2027 08:52:22.053   03 Jun 2027 08:52:22.705             0.652           216.687
        98   03 Jun 2027 08:53:02.924   03 Jun 2027 08:53:05.582             2.658           995.125
        99   03 Jun 2027 08:53:18.029   03 Jun 2027 08:53:18.576             0.547           184.219
       100   03 Jun 2027 10:25:02.469   03 Jun 2027 10:25:18.675            16.206          7315.781
       101   03 Jun 2027 10:26:12.346   03 Jun 2027 10:26:16.617             4.271          1297.531
       102   03 Jun 2027 10:27:01.418   03 Jun 2027 10:27:05.466             4.048          1020.219
       103   03 Jun 2027 10:27:39.375   03 Jun 2027 10:27:44.877             5.502          1059.656
       104   03 Jun 2027 10:28:08.412   03 Jun 2027 10:28:10.104             1.692           735.469
       105   03 Jun 2027 10:28:25.870   03 Jun 2027 10:28:27.788             1.918           434.469
       106   03 Jun 2027 10:28:48.383   03 Jun 2027 10:28:51.525             3.142           586.875
       107   03 Jun 2027 11:59:05.962   03 Jun 2027 11:59:14.143             8.181          2338.687
       108   04 Jun 2027 04:11:23.407   04 Jun 2027 04:12:39.596            76.189         38094.500
       109   04 Jun 2027 04:13:54.501   04 Jun 2027 04:14:36.716            42.215         21107.500
       110   04 Jun 2027 04:15:02.513   04 Jun 2027 04:15:16.824            14.311          7155.500
       111   04 Jun 2027 05:45:12.839   04 Jun 2027 05:47:28.293           135.454         67727.000
       112   04 Jun 2027 05:48:04.054   04 Jun 2027 05:48:06.561             2.507          1253.500
       113   04 Jun 2027 05:49:15.542   04 Jun 2027 05:49:36.747            21.205         10602.500
       114   04 Jun 2027 05:51:42.622   04 Jun 2027 05:51:58.252            15.630          7815.000
       115   04 Jun 2027 05:53:14.194   04 Jun 2027 05:53:28.295            14.101          7050.500
       116   04 Jun 2027 07:22:15.548   04 Jun 2027 07:22:52.461            36.913         17981.907
       117   04 Jun 2027 07:23:32.252   04 Jun 2027 07:23:38.478             6.226          1100.625
       118   04 Jun 2027 07:24:09.377   04 Jun 2027 07:24:14.006             4.629           344.094
       119   04 Jun 2027 07:26:21.738   04 Jun 2027 07:26:28.795             7.057          2634.500
       120   04 Jun 2027 07:26:51.881   04 Jun 2027 07:26:52.843             0.962           251.406
       121   04 Jun 2027 07:28:14.205   04 Jun 2027 07:28:18.651             4.446          1958.844
       122   04 Jun 2027 07:28:27.108   04 Jun 2027 07:28:28.471             1.363             7.062
       123   04 Jun 2027 08:59:10.380   04 Jun 2027 08:59:32.713            22.333         11093.344
       124   04 Jun 2027 09:01:09.189   04 Jun 2027 09:01:15.038             5.849          2237.687
       125   04 Jun 2027 09:01:54.344   04 Jun 2027 09:01:58.979             4.635           650.125
       126   04 Jun 2027 09:02:33.420   04 Jun 2027 09:02:36.486             3.066            72.750
       127   04 Jun 2027 09:03:04.759   04 Jun 2027 09:03:06.158             1.399           699.500
       128   04 Jun 2027 09:03:45.275   04 Jun 2027 09:03:46.670             1.395           697.500
       129   04 Jun 2027 09:03:47.221   04 Jun 2027 09:03:49.531             2.310           726.157
       130   04 Jun 2027 09:04:04.569   04 Jun 2027 09:04:04.954             0.385           192.500
       131   04 Jun 2027 09:05:17.245   04 Jun 2027 09:05:25.476             8.231          2450.125
       132   04 Jun 2027 10:36:16.422   04 Jun 2027 10:36:30.549            14.127          6776.250
       133   04 Jun 2027 10:37:01.897   04 Jun 2027 10:37:03.772             1.875           849.562
       134   04 Jun 2027 10:37:26.483   04 Jun 2027 10:37:33.430             6.947           673.250
       135   04 Jun 2027 10:37:54.080   04 Jun 2027 10:37:54.080             0.000             0.000
       136   04 Jun 2027 10:38:01.359   04 Jun 2027 10:38:05.739             4.380           872.781
       137   04 Jun 2027 10:38:42.010   04 Jun 2027 10:38:42.010             0.000             0.000
       138   04 Jun 2027 10:38:43.091   04 Jun 2027 10:38:48.567             5.476           773.469
       139   04 Jun 2027 10:38:50.269   04 Jun 2027 10:38:55.975             5.706            53.187
       140   04 Jun 2027 10:39:17.449   04 Jun 2027 10:39:23.665             6.216           560.906
       141   04 Jun 2027 10:39:36.344   04 Jun 2027 10:39:43.196             6.852           349.187
       142   04 Jun 2027 10:40:40.006   04 Jun 2027 10:40:43.620             3.614          1775.312
       143   05 Jun 2027 04:23:40.192   05 Jun 2027 04:26:37.444           177.252         88626.000
       144   05 Jun 2027 05:57:09.674   05 Jun 2027 05:58:45.911            96.237         48118.500
       145   05 Jun 2027 05:59:28.840   05 Jun 2027 06:00:10.366            41.526         20084.562
       146   05 Jun 2027 06:00:25.616   05 Jun 2027 06:00:25.616             0.000             0.000
       147   05 Jun 2027 06:00:51.168   05 Jun 2027 06:00:53.443             2.275          1137.500
       148   05 Jun 2027 06:01:34.997   05 Jun 2027 06:01:40.420             5.423          1412.219
       149   05 Jun 2027 06:02:08.189   05 Jun 2027 06:02:09.630             1.441           720.500
       150   05 Jun 2027 06:02:18.073   05 Jun 2027 06:02:21.730             3.657           396.750
       151   05 Jun 2027 06:03:03.249   05 Jun 2027 06:03:03.249             0.000             0.000
       152   05 Jun 2027 06:03:18.148   05 Jun 2027 06:03:22.638             4.490          1763.063
       153   05 Jun 2027 06:03:43.524   05 Jun 2027 06:03:43.524             0.000             0.000
       154   05 Jun 2027 06:04:09.344   05 Jun 2027 06:04:11.775             2.431          1127.625
       155   05 Jun 2027 06:04:34.599   05 Jun 2027 06:04:38.326             3.727           713.250
       156   05 Jun 2027 06:05:31.677   05 Jun 2027 06:05:33.675             1.998           999.000
       157   05 Jun 2027 06:05:38.942   05 Jun 2027 06:05:39.823             0.881           309.250
       158   05 Jun 2027 07:34:41.354   05 Jun 2027 07:35:02.924            21.570         10473.750
       159   05 Jun 2027 07:36:17.232   05 Jun 2027 07:36:18.958             1.726           743.187
       160   05 Jun 2027 07:37:47.135   05 Jun 2027 07:37:50.568             3.433          1527.813
       161   05 Jun 2027 07:38:25.680   05 Jun 2027 07:38:33.234             7.554           175.344
       162   05 Jun 2027 07:38:42.211   05 Jun 2027 07:38:42.745             0.534            21.906
       163   05 Jun 2027 07:38:49.445   05 Jun 2027 07:38:50.633             1.188           209.375
       164   05 Jun 2027 07:39:31.610   05 Jun 2027 07:39:34.194             2.584           993.000
       165   05 Jun 2027 07:40:00.353   05 Jun 2027 07:40:02.388             2.035            40.313
       166   05 Jun 2027 07:40:27.295   05 Jun 2027 07:40:34.920             7.625           619.187
       167   05 Jun 2027 07:40:38.039   05 Jun 2027 07:40:39.906             1.867            97.469
       168   05 Jun 2027 09:11:37.848   05 Jun 2027 09:11:58.873            21.025         10263.437
       169   05 Jun 2027 09:12:38.646   05 Jun 2027 09:12:44.144             5.498          1242.906
       170   05 Jun 2027 09:13:24.218   05 Jun 2027 09:13:31.268             7.050          1014.625
       171   05 Jun 2027 09:14:55.033   05 Jun 2027 09:15:00.890             5.857          2617.656
       172   05 Jun 2027 09:15:21.977   05 Jun 2027 09:15:24.162             2.185           487.250
       173   05 Jun 2027 09:15:57.294   05 Jun 2027 09:15:57.467             0.173            86.500
       174   05 Jun 2027 09:15:58.490   05 Jun 2027 09:15:59.798             1.308           636.750
       175   05 Jun 2027 09:16:13.645   05 Jun 2027 09:16:14.682             1.037           160.313
       176   05 Jun 2027 10:48:28.450   05 Jun 2027 10:48:51.027            22.577         10012.969
       177   05 Jun 2027 10:49:34.782   05 Jun 2027 10:49:37.234             2.452          1176.344
       178   05 Jun 2027 10:50:43.383   05 Jun 2027 10:50:47.269             3.886          1936.406
       179   05 Jun 2027 10:50:54.266   05 Jun 2027 10:50:55.170             0.904           184.719
       180   05 Jun 2027 10:51:44.942   05 Jun 2027 10:51:51.865             6.923          1353.781
       181   05 Jun 2027 10:52:58.504   05 Jun 2027 10:53:00.519             2.015          1007.500
       182   06 Jun 2027 03:00:04.485   06 Jun 2027 03:00:12.515             8.030          4015.000
       183   06 Jun 2027 03:00:26.549   06 Jun 2027 03:00:26.676             0.127            63.500
       184   06 Jun 2027 03:00:34.496   06 Jun 2027 03:00:56.562            22.066         11033.000
       185   06 Jun 2027 04:35:42.266   06 Jun 2027 04:38:44.628           182.362         91181.000
       186   06 Jun 2027 04:38:56.617   06 Jun 2027 04:39:16.194            19.577          9788.500
       187   06 Jun 2027 06:09:49.164   06 Jun 2027 06:11:21.643            92.479         44788.781
       188   06 Jun 2027 06:12:03.893   06 Jun 2027 06:12:07.595             3.702          1223.750
       189   06 Jun 2027 06:13:44.445   06 Jun 2027 06:13:44.445             0.000             0.000
       190   06 Jun 2027 06:14:19.811   06 Jun 2027 06:14:23.300             3.489          1744.500
       191   06 Jun 2027 06:15:14.358   06 Jun 2027 06:15:23.671             9.313          3863.218
       192   06 Jun 2027 06:15:46.689   06 Jun 2027 06:15:49.528             2.839           360.125
       193   06 Jun 2027 06:16:32.459   06 Jun 2027 06:16:33.672             1.213           450.375
       194   06 Jun 2027 06:17:03.212   06 Jun 2027 06:17:06.203             2.991           855.031
       195   06 Jun 2027 06:17:27.058   06 Jun 2027 06:17:27.401             0.343            46.937
       196   06 Jun 2027 06:17:32.938   06 Jun 2027 06:17:32.938             0.000             0.000
       197   06 Jun 2027 06:17:35.009   06 Jun 2027 06:17:35.056             0.047            23.500
       198   06 Jun 2027 07:46:47.552   06 Jun 2027 07:47:08.410            20.858         10105.125
       199   06 Jun 2027 07:47:53.800   06 Jun 2027 07:47:57.287             3.487          1323.031
       200   06 Jun 2027 07:49:33.155   06 Jun 2027 07:49:39.063             5.908          2831.250
       201   06 Jun 2027 07:50:25.258   06 Jun 2027 07:50:27.821             2.563          1260.937
       202   06 Jun 2027 07:50:44.643   06 Jun 2027 07:50:47.494             2.851           522.281
       203   06 Jun 2027 07:50:58.038   06 Jun 2027 07:51:00.324             2.286           329.500
       204   06 Jun 2027 07:51:45.019   06 Jun 2027 07:51:48.132             3.113          1396.719
       205   06 Jun 2027 07:52:21.351   06 Jun 2027 07:52:27.261             5.910           750.187
       206   06 Jun 2027 07:52:57.388   06 Jun 2027 07:52:59.740             2.352           723.875
       207   06 Jun 2027 07:53:19.428   06 Jun 2027 07:53:19.812             0.384           192.000
       208   06 Jun 2027 09:24:27.581   06 Jun 2027 09:24:45.371            17.790          8670.157
       209   06 Jun 2027 09:25:41.504   06 Jun 2027 09:25:43.985             2.481          1240.500
       210   06 Jun 2027 09:26:24.500   06 Jun 2027 09:26:29.327             4.827          1741.781
       211   06 Jun 2027 09:26:46.455   06 Jun 2027 09:26:48.022             1.567           522.250
       212   06 Jun 2027 09:27:03.113   06 Jun 2027 09:27:03.781             0.668           334.000
       213   06 Jun 2027 09:27:24.364   06 Jun 2027 09:27:27.197             2.833           684.875
       214   06 Jun 2027 09:27:33.567   06 Jun 2027 09:27:35.955             2.388            77.781
       215   06 Jun 2027 11:00:31.245   06 Jun 2027 11:00:44.395            13.150          6575.000
       216   06 Jun 2027 11:00:58.730   06 Jun 2027 11:01:00.115             1.385           469.750
       217   06 Jun 2027 11:01:28.962   06 Jun 2027 11:01:32.204             3.242           599.875
       218   06 Jun 2027 11:02:17.167   06 Jun 2027 11:02:20.627             3.460          1297.844
       219   06 Jun 2027 11:03:23.485   06 Jun 2027 11:03:27.488             4.003          1710.969
       220   06 Jun 2027 11:04:04.789   06 Jun 2027 11:04:09.907             5.118          1110.094
       221   06 Jun 2027 11:04:43.564   06 Jun 2027 11:04:45.654             2.090           792.062
       222   06 Jun 2027 11:05:08.684   06 Jun 2027 11:05:11.678             2.994           719.688
       223   07 Jun 2027 03:11:20.831   07 Jun 2027 03:12:42.113            81.282         40641.000
       224   07 Jun 2027 03:12:49.856   07 Jun 2027 03:12:51.594             1.738           869.000
       225   07 Jun 2027 03:14:19.132   07 Jun 2027 03:14:21.790             2.658          1329.000
       226   07 Jun 2027 04:47:51.535   07 Jun 2027 04:50:50.169           178.634         89317.000
       227   07 Jun 2027 04:50:53.073   07 Jun 2027 04:51:02.020             8.947          4473.500
       228   07 Jun 2027 06:23:01.517   07 Jun 2027 06:23:38.697            37.180         18590.000
       229   07 Jun 2027 06:23:46.866   07 Jun 2027 06:23:48.440             1.574           684.751
       230   07 Jun 2027 06:24:00.277   07 Jun 2027 06:24:00.277             0.000             0.000
       231   07 Jun 2027 06:24:27.782   07 Jun 2027 06:24:30.606             2.824          1229.437
       232   07 Jun 2027 06:25:14.723   07 Jun 2027 06:25:18.923             4.200          1275.719
       233   07 Jun 2027 06:25:52.491   07 Jun 2027 06:25:56.127             3.636          1049.000
       234   07 Jun 2027 06:27:32.075   07 Jun 2027 06:27:41.383             9.308          2998.375
       235   07 Jun 2027 06:28:50.654   07 Jun 2027 06:28:54.926             4.272          1901.656
       236   07 Jun 2027 06:29:22.745   07 Jun 2027 06:29:25.558             2.813           825.750
       237   07 Jun 2027 07:59:23.626   07 Jun 2027 07:59:44.474            20.848          9189.250
       238   07 Jun 2027 08:00:13.700   07 Jun 2027 08:00:14.364             0.664           181.875
       239   07 Jun 2027 08:01:41.483   07 Jun 2027 08:01:53.253            11.770          1528.781
       240   07 Jun 2027 08:02:31.355   07 Jun 2027 08:02:34.900             3.545          1103.031
       241   07 Jun 2027 08:03:50.043   07 Jun 2027 08:03:56.130             6.087          2347.094
       242   07 Jun 2027 08:04:39.044   07 Jun 2027 08:04:45.220             6.176          1341.062
       243   07 Jun 2027 08:05:15.156   07 Jun 2027 08:05:16.865             1.709           709.406
       244   07 Jun 2027 08:05:26.358   07 Jun 2027 08:05:28.175             1.817           192.969
       245   07 Jun 2027 09:36:40.747   07 Jun 2027 09:37:00.214            19.467          9166.594
       246   07 Jun 2027 09:37:27.800   07 Jun 2027 09:37:30.886             3.086           648.344
       247   07 Jun 2027 09:37:46.853   07 Jun 2027 09:37:47.731             0.878           402.344
       248   07 Jun 2027 09:38:14.547   07 Jun 2027 09:38:16.117             1.570           589.656
       249   07 Jun 2027 09:40:32.818   07 Jun 2027 09:40:44.075            11.257          4142.375
       250   07 Jun 2027 09:41:00.815   07 Jun 2027 09:41:05.781             4.966           387.188
       251   07 Jun 2027 11:12:53.672   07 Jun 2027 11:13:13.647            19.975          8469.812
       252   07 Jun 2027 11:13:47.362   07 Jun 2027 11:13:50.796             3.434          1053.594
       253   07 Jun 2027 11:14:27.437   07 Jun 2027 11:14:29.429             1.992           996.000
       254   07 Jun 2027 11:15:25.904   07 Jun 2027 11:15:30.109             4.205          1913.875
       255   07 Jun 2027 11:16:28.072   07 Jun 2027 11:16:32.584             4.512          1715.500
       256   07 Jun 2027 11:17:12.797   07 Jun 2027 11:17:15.970             3.173          1172.688
       257   07 Jun 2027 11:17:19.726   07 Jun 2027 11:17:31.064            11.338           117.375
       258   08 Jun 2027 03:24:00.653   08 Jun 2027 03:24:34.573            33.920         16960.000
       259   08 Jun 2027 03:24:44.178   08 Jun 2027 03:24:44.178             0.000             0.000
       260   08 Jun 2027 03:25:34.850   08 Jun 2027 03:26:19.570            44.720         22360.000
       261   08 Jun 2027 03:26:23.035   08 Jun 2027 03:26:23.035             0.000             0.000
       262   08 Jun 2027 04:59:46.239   08 Jun 2027 05:00:57.814            71.575         35787.500
       263   08 Jun 2027 05:01:06.422   08 Jun 2027 05:02:58.367           111.945         55972.500
       264   08 Jun 2027 05:03:18.119   08 Jun 2027 05:03:22.835             4.716          2358.000
       265   08 Jun 2027 06:34:43.595   08 Jun 2027 06:35:19.478            35.883         17798.688
       266   08 Jun 2027 06:35:48.005   08 Jun 2027 06:35:49.089             1.084           542.000
       267   08 Jun 2027 06:36:19.264   08 Jun 2027 06:36:24.348             5.084          1208.687
       268   08 Jun 2027 06:37:08.815   08 Jun 2027 06:37:12.096             3.281          1389.594
       269   08 Jun 2027 06:38:19.930   08 Jun 2027 06:38:21.995             2.065          1032.500
       270   08 Jun 2027 06:39:06.488   08 Jun 2027 06:39:11.355             4.867          2016.938
       271   08 Jun 2027 06:39:45.435   08 Jun 2027 06:39:52.831             7.396           925.031
       272   08 Jun 2027 06:40:42.087   08 Jun 2027 06:40:47.221             5.134          1539.250
       273   08 Jun 2027 06:41:29.665   08 Jun 2027 06:41:29.665             0.000             0.000
       274   08 Jun 2027 08:10:56.139   08 Jun 2027 08:11:16.672            20.533         10266.500
       275   08 Jun 2027 08:11:18.466   08 Jun 2027 08:11:22.954             4.488          1795.281
       276   08 Jun 2027 08:11:49.443   08 Jun 2027 08:11:50.789             1.346           613.344
       277   08 Jun 2027 08:12:57.940   08 Jun 2027 08:13:01.498             3.558          1668.250
       278   08 Jun 2027 08:13:36.221   08 Jun 2027 08:13:38.170             1.949           277.375
       279   08 Jun 2027 08:15:17.926   08 Jun 2027 08:15:24.942             7.016          2963.188
       280   08 Jun 2027 08:15:59.376   08 Jun 2027 08:16:02.025             2.649          1076.063
       281   08 Jun 2027 08:16:54.659   08 Jun 2027 08:16:57.681             3.022          1485.219
       282   08 Jun 2027 08:17:21.240   08 Jun 2027 08:17:23.188             1.948           732.344
       283   08 Jun 2027 09:49:22.264   08 Jun 2027 09:49:44.385            22.121         11060.500
       284   08 Jun 2027 09:50:39.818   08 Jun 2027 09:50:47.146             7.328          2012.969
       285   08 Jun 2027 09:51:03.311   08 Jun 2027 09:51:04.732             1.421            99.406
       286   08 Jun 2027 09:52:24.417   08 Jun 2027 09:52:36.197            11.780          2299.375
       287   08 Jun 2027 09:52:51.613   08 Jun 2027 09:52:52.920             1.307           309.469
       288   08 Jun 2027 11:24:37.069   08 Jun 2027 11:24:48.911            11.842          5921.000
       289   08 Jun 2027 11:24:57.104   08 Jun 2027 11:24:59.796             2.692           337.969
       290   08 Jun 2027 11:25:05.086   08 Jun 2027 11:25:05.086             0.000             0.000
       291   08 Jun 2027 11:25:25.348   08 Jun 2027 11:25:27.280             1.932           742.062
       292   08 Jun 2027 11:25:46.813   08 Jun 2027 11:25:53.235             6.422           314.406
       293   08 Jun 2027 11:26:29.519   08 Jun 2027 11:26:32.692             3.173           629.094
       294   08 Jun 2027 11:26:58.410   08 Jun 2027 11:27:01.910             3.500           564.344
       295   08 Jun 2027 11:27:27.792   08 Jun 2027 11:27:29.957             2.165           545.906
       296   08 Jun 2027 11:28:40.052   08 Jun 2027 11:28:43.140             3.088          1544.000
       297   08 Jun 2027 11:29:07.473   08 Jun 2027 11:29:10.178             2.705          1352.500
       298   08 Jun 2027 11:29:12.866   08 Jun 2027 11:29:16.096             3.230            84.312
       299   08 Jun 2027 11:29:42.586   08 Jun 2027 11:29:45.299             2.713           333.250
       300   08 Jun 2027 11:30:03.769   08 Jun 2027 11:30:04.148             0.379           189.500
       301   09 Jun 2027 03:34:49.723   09 Jun 2027 03:35:49.666            59.943         29971.500
       302   09 Jun 2027 03:35:52.738   09 Jun 2027 03:35:58.408             5.670          2835.000
       303   09 Jun 2027 03:37:02.467   09 Jun 2027 03:37:02.467             0.000             0.000
       304   09 Jun 2027 03:37:35.316   09 Jun 2027 03:37:35.316             0.000             0.000
       305   09 Jun 2027 03:37:42.758   09 Jun 2027 03:37:46.816             4.058          2029.000
       306   09 Jun 2027 03:38:19.111   09 Jun 2027 03:38:20.310             1.199           599.500
       307   09 Jun 2027 05:10:22.275   09 Jun 2027 05:10:29.526             7.251          3625.500
       308   09 Jun 2027 05:11:32.093   09 Jun 2027 05:14:15.440           163.347         81673.500
       309   09 Jun 2027 05:15:25.458   09 Jun 2027 05:15:42.922            17.464          8732.000
       310   09 Jun 2027 06:46:17.276   09 Jun 2027 06:47:11.413            54.137         26053.906
       311   09 Jun 2027 06:48:06.708   09 Jun 2027 06:48:13.216             6.508           561.156
       312   09 Jun 2027 06:48:30.681   09 Jun 2027 06:48:31.467             0.786           287.750
       313   09 Jun 2027 06:48:38.513   09 Jun 2027 06:48:41.822             3.309           107.469
       314   09 Jun 2027 06:48:51.126   09 Jun 2027 06:48:54.603             3.477           290.750
       315   09 Jun 2027 06:50:21.234   09 Jun 2027 06:50:28.685             7.451          2345.094
       316   09 Jun 2027 06:50:50.346   09 Jun 2027 06:50:55.855             5.509           539.344
       317   09 Jun 2027 06:51:18.289   09 Jun 2027 06:51:21.026             2.737           534.844
       318   09 Jun 2027 06:52:09.823   09 Jun 2027 06:52:12.653             2.830          1228.375
       319   09 Jun 2027 06:52:53.601   09 Jun 2027 06:52:53.601             0.000             0.000
       320   09 Jun 2027 06:52:59.440   09 Jun 2027 06:53:02.873             3.433          1338.437
       321   09 Jun 2027 08:23:17.741   09 Jun 2027 08:23:44.337            26.596         12836.156
       322   09 Jun 2027 08:25:10.813   09 Jun 2027 08:25:11.728             0.915           448.938
       323   09 Jun 2027 08:25:43.884   09 Jun 2027 08:25:44.350             0.466           233.000
       324   09 Jun 2027 08:27:06.076   09 Jun 2027 08:27:15.003             8.927          3100.531
       325   09 Jun 2027 08:27:16.564   09 Jun 2027 08:27:19.689             3.125            41.719
       326   09 Jun 2027 08:27:35.589   09 Jun 2027 08:27:36.759             1.170           415.094
       327   09 Jun 2027 08:28:27.404   09 Jun 2027 08:28:32.374             4.970          1582.656
       328   09 Jun 2027 08:28:38.391   09 Jun 2027 08:28:39.671             1.280           179.625
       329   09 Jun 2027 10:01:18.761   09 Jun 2027 10:01:35.934            17.173          8571.750
       330   09 Jun 2027 10:02:08.007   09 Jun 2027 10:02:15.942             7.935          1002.281
       331   09 Jun 2027 10:02:39.928   09 Jun 2027 10:02:41.225             1.297           435.063
       332   09 Jun 2027 10:02:50.123   09 Jun 2027 10:02:50.398             0.275            44.125
       333   09 Jun 2027 10:03:17.673   09 Jun 2027 10:03:29.251            11.578           852.344
       334   09 Jun 2027 10:04:04.548   09 Jun 2027 10:04:11.429             6.881           913.594
       335   09 Jun 2027 10:04:29.199   09 Jun 2027 10:04:30.024             0.825           238.406
       336   09 Jun 2027 10:04:54.298   09 Jun 2027 10:04:55.702             1.404           626.844
       337   09 Jun 2027 10:05:13.239   09 Jun 2027 10:05:15.220             1.981           369.375
       338   09 Jun 2027 11:34:32.761   09 Jun 2027 11:34:50.911            18.150          6752.219
       339   09 Jun 2027 11:36:30.581   09 Jun 2027 11:36:34.489             3.908          1954.000
       340   09 Jun 2027 11:36:36.385   09 Jun 2027 11:36:40.063             3.678           123.000
       341   09 Jun 2027 11:36:53.870   09 Jun 2027 11:36:53.870             0.000             0.000
       342   09 Jun 2027 11:37:02.793   09 Jun 2027 11:37:06.129             3.336           688.156
       343   09 Jun 2027 11:38:09.392   09 Jun 2027 11:38:11.563             2.171          1085.500
       344   09 Jun 2027 11:38:39.102   09 Jun 2027 11:38:44.574             5.472          1526.406
       345   09 Jun 2027 11:39:31.422   09 Jun 2027 11:39:35.648             4.226          1389.000
       346   09 Jun 2027 11:39:50.565   09 Jun 2027 11:39:51.770             1.205           339.875
       347   09 Jun 2027 11:40:21.062   09 Jun 2027 11:40:21.962             0.900           158.313
       348   09 Jun 2027 11:40:49.266   09 Jun 2027 11:40:51.214             1.948           625.594
       349   09 Jun 2027 11:41:38.587   09 Jun 2027 11:41:41.866             3.279          1132.437
       350   10 Jun 2027 03:46:05.981   10 Jun 2027 03:46:37.754            31.773         15886.500
       351   10 Jun 2027 03:46:47.058   10 Jun 2027 03:47:16.733            29.675         14837.500
       352   10 Jun 2027 03:48:07.048   10 Jun 2027 03:48:16.821             9.773          4886.500
       353   10 Jun 2027 03:48:47.628   10 Jun 2027 03:48:50.527             2.899          1449.500
       354   10 Jun 2027 05:21:13.871   10 Jun 2027 05:22:10.596            56.725         28362.500
       355   10 Jun 2027 05:23:15.329   10 Jun 2027 05:24:54.231            98.902         49451.000
       356   10 Jun 2027 05:26:00.296   10 Jun 2027 05:26:35.638            35.342         17671.000
       357   10 Jun 2027 05:27:23.261   10 Jun 2027 05:27:35.386            12.125          6062.500
       358   10 Jun 2027 05:27:45.017   10 Jun 2027 05:27:45.017             0.000             0.000
       359   10 Jun 2027 05:27:51.159   10 Jun 2027 05:27:59.673             8.514          4257.000
       360   10 Jun 2027 06:58:25.794   10 Jun 2027 06:59:22.481            56.687         27466.813
       361   10 Jun 2027 06:59:27.915   10 Jun 2027 06:59:28.476             0.561            74.469
       362   10 Jun 2027 06:59:35.323   10 Jun 2027 06:59:44.782             9.459           108.000
       363   10 Jun 2027 07:00:09.831   10 Jun 2027 07:00:12.972             3.141           649.844
       364   10 Jun 2027 07:00:51.511   10 Jun 2027 07:00:56.482             4.971           677.281
       365   10 Jun 2027 07:01:49.154   10 Jun 2027 07:01:54.385             5.231          1646.000
       366   10 Jun 2027 07:01:59.728   10 Jun 2027 07:02:00.606             0.878           166.969
       367   10 Jun 2027 07:02:59.403   10 Jun 2027 07:03:03.222             3.819          1576.625
       368   10 Jun 2027 07:04:10.512   10 Jun 2027 07:04:17.606             7.094          1987.531
       369   10 Jun 2027 07:04:52.891   10 Jun 2027 07:04:56.674             3.783           675.438
       370   10 Jun 2027 07:05:33.058   10 Jun 2027 07:05:36.033             2.975           926.750
       371   10 Jun 2027 07:05:51.227   10 Jun 2027 07:05:51.747             0.520           192.844
       372   10 Jun 2027 08:35:23.182   10 Jun 2027 08:35:57.613            34.431         13536.250
       373   10 Jun 2027 08:36:42.605   10 Jun 2027 08:36:46.009             3.404          1071.250
       374   10 Jun 2027 08:37:58.544   10 Jun 2027 08:38:02.048             3.504          1752.000
       375   10 Jun 2027 08:38:13.252   10 Jun 2027 08:38:14.902             1.650           736.813
       376   10 Jun 2027 08:38:39.079   10 Jun 2027 08:38:43.169             4.090           446.656
       377   10 Jun 2027 08:38:48.621   10 Jun 2027 08:38:55.595             6.974           152.031
       378   10 Jun 2027 08:39:01.869   10 Jun 2027 08:39:01.869             0.000             0.000
       379   10 Jun 2027 08:39:28.400   10 Jun 2027 08:39:31.657             3.257          1025.156
       380   10 Jun 2027 08:40:40.751   10 Jun 2027 08:40:48.243             7.492          2159.188
       381   10 Jun 2027 08:40:53.021   10 Jun 2027 08:40:53.223             0.202            57.250
       382   10 Jun 2027 08:41:09.957   10 Jun 2027 08:41:12.795             2.838           522.938
       383   10 Jun 2027 08:41:24.965   10 Jun 2027 08:41:26.256             1.291           380.312
       384   10 Jun 2027 10:13:16.121   10 Jun 2027 10:13:32.145            16.024          7688.656
       385   10 Jun 2027 10:14:55.510   10 Jun 2027 10:15:02.274             6.764          2388.375
       386   10 Jun 2027 10:15:27.871   10 Jun 2027 10:15:34.388             6.517           799.906
       387   10 Jun 2027 10:17:13.846   10 Jun 2027 10:17:20.381             6.535          2348.313
       388   10 Jun 2027 11:46:44.553   10 Jun 2027 11:46:49.300             4.747          2235.375
       389   10 Jun 2027 11:47:28.276   10 Jun 2027 11:47:29.840             1.564           234.125
       390   10 Jun 2027 11:48:21.662   10 Jun 2027 11:48:25.019             3.357          1595.250
       391   10 Jun 2027 11:48:37.556   10 Jun 2027 11:48:38.261             0.705           228.938
       392   10 Jun 2027 11:49:50.735   10 Jun 2027 11:49:56.827             6.092          2173.719
       393   10 Jun 2027 11:50:16.974   10 Jun 2027 11:50:24.589             7.615           596.625
       394   10 Jun 2027 11:50:37.924   10 Jun 2027 11:50:37.924             0.000             0.000
       395   10 Jun 2027 11:50:48.321   10 Jun 2027 11:50:49.482             1.161           468.656
       396   10 Jun 2027 11:50:56.696   10 Jun 2027 11:50:57.958             1.262           225.437
       397   10 Jun 2027 11:51:05.400   10 Jun 2027 11:51:06.728             1.328           232.562
       398   10 Jun 2027 11:51:44.349   10 Jun 2027 11:51:45.051             0.702           351.000
       399   10 Jun 2027 11:52:21.502   10 Jun 2027 11:52:28.831             7.329          1242.063
       400   10 Jun 2027 11:53:17.248   10 Jun 2027 11:53:28.170            10.922          1438.500
       401   10 Jun 2027 11:54:11.492   10 Jun 2027 11:54:15.663             4.171          1067.719
       402   11 Jun 2027 03:57:51.096   11 Jun 2027 03:59:09.261            78.165         39082.500
       403   11 Jun 2027 04:00:01.277   11 Jun 2027 04:00:01.277             0.000             0.000
       404   11 Jun 2027 04:00:12.731   11 Jun 2027 04:00:19.189             6.458          3229.000
       405   11 Jun 2027 04:02:22.498   11 Jun 2027 04:02:52.426            29.928         14964.000
       406   11 Jun 2027 04:02:57.776   11 Jun 2027 04:02:57.776             0.000             0.000
       407   11 Jun 2027 04:03:12.814   11 Jun 2027 04:03:27.510            14.696          7348.000
       408   11 Jun 2027 05:32:43.527   11 Jun 2027 05:35:45.568           182.041         91020.500
       409   11 Jun 2027 05:37:53.498   11 Jun 2027 05:37:58.058             4.560          2280.000
       410   11 Jun 2027 05:38:10.577   11 Jun 2027 05:38:10.577             0.000             0.000
       411   11 Jun 2027 05:38:32.838   11 Jun 2027 05:38:36.979             4.141          2070.500
       412   11 Jun 2027 05:41:33.378   11 Jun 2027 05:41:41.818             8.440          4220.000
       413   11 Jun 2027 07:10:27.386   11 Jun 2027 07:11:03.079            35.693         14459.656
       414   11 Jun 2027 07:13:24.197   11 Jun 2027 07:13:29.110             4.913          1649.781
       415   11 Jun 2027 07:13:53.893   11 Jun 2027 07:13:54.072             0.179            89.500
       416   11 Jun 2027 07:13:55.968   11 Jun 2027 07:13:57.413             1.445           629.250
       417   11 Jun 2027 07:15:31.671   11 Jun 2027 07:15:37.440             5.769          2767.937
       418   11 Jun 2027 07:15:50.914   11 Jun 2027 07:15:51.882             0.968           421.062
       419   11 Jun 2027 07:16:30.614   11 Jun 2027 07:16:33.423             2.809           919.625
       420   11 Jun 2027 07:17:04.829   11 Jun 2027 07:17:08.112             3.283           825.719
       421   11 Jun 2027 07:17:51.083   11 Jun 2027 07:17:52.569             1.486           743.000
       422   11 Jun 2027 08:47:15.431   11 Jun 2027 08:47:41.316            25.885         11628.938
       423   11 Jun 2027 08:48:14.750   11 Jun 2027 08:48:17.896             3.146           404.438
       424   11 Jun 2027 08:49:59.110   11 Jun 2027 08:50:09.255            10.145          2315.781
       425   11 Jun 2027 08:50:48.441   11 Jun 2027 08:50:51.787             3.346          1099.781
       426   11 Jun 2027 08:51:05.045   11 Jun 2027 08:51:07.261             2.216           228.844
       427   11 Jun 2027 08:51:21.027   11 Jun 2027 08:51:21.027             0.000             0.000
       428   11 Jun 2027 08:51:28.128   11 Jun 2027 08:51:30.574             2.446           642.594
       429   11 Jun 2027 08:52:07.302   11 Jun 2027 08:52:10.854             3.552          1087.969
       430   11 Jun 2027 08:52:38.817   11 Jun 2027 08:52:43.408             4.591           854.469
       431   11 Jun 2027 08:53:39.086   11 Jun 2027 08:53:43.699             4.613          1739.937
       432   11 Jun 2027 08:53:53.395   11 Jun 2027 08:53:55.364             1.969           101.781
       433   11 Jun 2027 10:25:18.058   11 Jun 2027 10:25:35.212            17.154          7953.062
       434   11 Jun 2027 10:25:50.653   11 Jun 2027 10:25:51.568             0.915           360.438
       435   11 Jun 2027 10:27:00.550   11 Jun 2027 10:27:07.312             6.762          2155.688
       436   11 Jun 2027 10:28:00.402   11 Jun 2027 10:28:09.521             9.119          1635.750
       437   11 Jun 2027 10:28:27.360   11 Jun 2027 10:28:28.828             1.468           482.937
       438   11 Jun 2027 10:28:38.342   11 Jun 2027 10:28:38.693             0.351           173.625
       439   11 Jun 2027 11:59:09.729   11 Jun 2027 11:59:18.423             8.694          1820.125
       440   11 Jun 2027 11:59:42.941   11 Jun 2027 11:59:45.940             2.999           691.094
       441   12 Jun 2027 04:11:37.912   12 Jun 2027 04:12:49.911            71.999         35999.500
       442   12 Jun 2027 04:12:54.698   12 Jun 2027 04:12:54.698             0.000             0.000
       443   12 Jun 2027 04:13:47.381   12 Jun 2027 04:14:10.548            23.167         11583.500
       444   12 Jun 2027 04:14:52.581   12 Jun 2027 04:14:52.581             0.000             0.000
       445   12 Jun 2027 05:45:27.621   12 Jun 2027 05:48:13.194           165.573         82786.500
       446   12 Jun 2027 05:50:34.127   12 Jun 2027 05:50:38.159             4.032          2016.000
       447   12 Jun 2027 05:52:27.035   12 Jun 2027 05:52:30.439             3.404          1702.000
       448   12 Jun 2027 05:53:44.398   12 Jun 2027 05:53:53.331             8.933          4466.500
       449   12 Jun 2027 07:22:30.576   12 Jun 2027 07:23:34.325            63.749         31057.250
       450   12 Jun 2027 07:24:32.132   12 Jun 2027 07:24:36.731             4.599          1711.344
       451   12 Jun 2027 07:25:05.244   12 Jun 2027 07:25:06.430             1.186           419.719
       452   12 Jun 2027 07:25:58.140   12 Jun 2027 07:26:02.199             4.059          1439.875
       453   12 Jun 2027 07:26:41.230   12 Jun 2027 07:26:43.587             2.357          1087.000
       454   12 Jun 2027 07:27:16.064   12 Jun 2027 07:27:17.653             1.589           589.250
       455   12 Jun 2027 07:27:38.099   12 Jun 2027 07:27:45.247             7.148           373.625
       456   12 Jun 2027 07:28:22.069   12 Jun 2027 07:28:23.255             1.186           148.594
       457   12 Jun 2027 07:29:00.936   12 Jun 2027 07:29:04.050             3.114           712.844
       458   12 Jun 2027 07:29:35.675   12 Jun 2027 07:29:38.468             2.793           965.938
       459   12 Jun 2027 08:59:25.278   12 Jun 2027 08:59:47.135            21.857         10774.094
       460   12 Jun 2027 09:00:13.012   12 Jun 2027 09:00:16.902             3.890           548.313
       461   12 Jun 2027 09:00:38.139   12 Jun 2027 09:00:39.533             1.394           636.687
       462   12 Jun 2027 09:01:27.909   12 Jun 2027 09:01:28.707             0.798           367.094
       463   12 Jun 2027 09:01:32.644   12 Jun 2027 09:01:33.806             1.162            50.625
       464   12 Jun 2027 09:02:22.589   12 Jun 2027 09:02:27.804             5.215          1094.219
       465   12 Jun 2027 09:02:51.349   12 Jun 2027 09:02:53.959             2.610           735.781
       466   12 Jun 2027 09:03:14.737   12 Jun 2027 09:03:17.930             3.193           649.313
       467   12 Jun 2027 09:03:33.472   12 Jun 2027 09:03:35.196             1.724           426.781
       468   12 Jun 2027 09:03:45.760   12 Jun 2027 09:03:48.964             3.204           330.125
       469   12 Jun 2027 09:04:02.444   12 Jun 2027 09:04:03.467             1.023           421.250
       470   12 Jun 2027 09:04:18.937   12 Jun 2027 09:04:21.219             2.282           367.687
       471   12 Jun 2027 09:05:03.283   12 Jun 2027 09:05:08.257             4.974          1246.688
       472   12 Jun 2027 10:36:31.370   12 Jun 2027 10:36:45.097            13.727          6403.875
       473   12 Jun 2027 10:37:56.580   12 Jun 2027 10:38:01.809             5.229          2103.875
       474   12 Jun 2027 10:38:45.878   12 Jun 2027 10:38:50.870             4.992          1328.375
       475   12 Jun 2027 10:39:15.249   12 Jun 2027 10:39:17.953             2.704           579.875
       476   12 Jun 2027 10:39:46.393   12 Jun 2027 10:39:47.718             1.325           451.719
       477   12 Jun 2027 10:40:39.167   12 Jun 2027 10:40:45.998             6.831          1517.469
       478   13 Jun 2027 04:23:55.299   13 Jun 2027 04:26:55.020           179.721         89860.500
       479   13 Jun 2027 05:57:25.180   13 Jun 2027 05:59:29.327           124.147         62073.500
       480   13 Jun 2027 05:59:50.780   13 Jun 2027 05:59:59.371             8.591          4295.500
       481   13 Jun 2027 06:03:29.591   13 Jun 2027 06:03:34.889             5.298          2649.000
       482   13 Jun 2027 06:04:28.763   13 Jun 2027 06:04:45.077            16.314          6550.156
       483   13 Jun 2027 06:04:50.583   13 Jun 2027 06:04:53.014             2.431           144.719
       484   13 Jun 2027 06:05:33.843   13 Jun 2027 06:05:35.828             1.985           763.469
       485   13 Jun 2027 07:34:56.280   13 Jun 2027 07:35:21.778            25.498         12597.812
       486   13 Jun 2027 07:38:01.908   13 Jun 2027 07:38:07.869             5.961          1532.563
       487   13 Jun 2027 07:38:57.581   13 Jun 2027 07:39:01.318             3.737          1469.375
       488   13 Jun 2027 07:39:41.473   13 Jun 2027 07:39:44.308             2.835          1102.719
       489   13 Jun 2027 07:40:41.655   13 Jun 2027 07:40:46.942             5.287           673.281
       490   13 Jun 2027 07:40:59.865   13 Jun 2027 07:41:01.322             1.457           316.062
       491   13 Jun 2027 07:41:36.621   13 Jun 2027 07:41:39.410             2.789          1041.781
       492   13 Jun 2027 09:11:52.702   13 Jun 2027 09:12:14.463            21.761         10880.500
       493   13 Jun 2027 09:12:42.440   13 Jun 2027 09:12:49.165             6.725          1674.781
       494   13 Jun 2027 09:13:18.069   13 Jun 2027 09:13:19.750             1.681           732.000
       495   13 Jun 2027 09:13:32.425   13 Jun 2027 09:13:33.593             1.168           396.094
       496   13 Jun 2027 09:14:35.179   13 Jun 2027 09:14:37.550             2.371          1160.875
       497   13 Jun 2027 09:15:22.176   13 Jun 2027 09:15:28.444             6.268          1394.562
       498   13 Jun 2027 09:15:52.455   13 Jun 2027 09:15:53.530             1.075           537.500
       499   13 Jun 2027 09:15:55.003   13 Jun 2027 09:15:56.613             1.610           258.875
       500   13 Jun 2027 09:16:10.806   13 Jun 2027 09:16:12.029             1.223           359.125
       501   13 Jun 2027 09:16:44.322   13 Jun 2027 09:16:48.849             4.527          1009.156
       502   13 Jun 2027 10:48:43.248   13 Jun 2027 10:48:59.146            15.898          6264.625
       503   13 Jun 2027 10:49:11.798   13 Jun 2027 10:49:13.268             1.470           395.375
       504   13 Jun 2027 10:49:49.442   13 Jun 2027 10:49:49.623             0.181            90.500
       505   13 Jun 2027 10:50:43.809   13 Jun 2027 10:50:47.806             3.997          1998.500
       506   13 Jun 2027 10:50:54.201   13 Jun 2027 10:50:55.467             1.266           535.093
       507   13 Jun 2027 10:51:10.047   13 Jun 2027 10:51:10.047             0.000             0.000
       508   13 Jun 2027 10:51:48.503   13 Jun 2027 10:51:50.516             2.013          1006.500
       509   13 Jun 2027 10:52:37.780   13 Jun 2027 10:52:42.035             4.255          2041.500
