uniorb/output/strategy_2/Camera/Camera_KinoSat_112003.txt

KinoSat_112003
-------------------------
    Access    *     Start Time (UTCG)     *     Stop Time (UTCG)  *   Duration (s) *   Data (Mbytes)
         1   01 Jun 2027 03:15:59.213   01 Jun 2027 03:16:33.932            34.719         17359.500
         2   01 Jun 2027 03:16:35.883   01 Jun 2027 03:17:18.269            42.386         21193.000
         3   01 Jun 2027 03:18:16.012   01 Jun 2027 03:18:16.012             0.000             0.000
         4   01 Jun 2027 03:18:30.523   01 Jun 2027 03:19:56.289            85.766         42883.000
         5   01 Jun 2027 03:20:50.389   01 Jun 2027 03:22:30.968           100.579         50289.500
         6   01 Jun 2027 03:22:55.391   01 Jun 2027 03:23:09.076            13.685          6842.500
         7   01 Jun 2027 03:23:12.280   01 Jun 2027 03:23:16.805             4.525          2262.500
         8   01 Jun 2027 04:53:42.717   01 Jun 2027 04:53:52.797            10.080          5040.000
         9   01 Jun 2027 04:54:04.819   01 Jun 2027 04:55:06.441            61.622         30811.000
        10   01 Jun 2027 04:55:11.740   01 Jun 2027 04:55:48.502            36.762         18381.000
        11   01 Jun 2027 04:55:50.252   01 Jun 2027 04:56:51.152            60.900         30450.000
        12   01 Jun 2027 04:57:23.975   01 Jun 2027 04:57:28.891             4.916          2458.000
        13   01 Jun 2027 04:58:45.782   01 Jun 2027 04:58:50.751             4.969          2484.500
        14   01 Jun 2027 04:59:13.611   01 Jun 2027 04:59:18.914             5.303          2651.500
        15   01 Jun 2027 06:32:15.969   01 Jun 2027 06:33:54.215            98.246         49123.000
        16   01 Jun 2027 06:34:02.451   01 Jun 2027 06:34:03.329             0.878           439.000
        17   01 Jun 2027 06:34:31.155   01 Jun 2027 06:34:41.643            10.488          5244.000
        18   01 Jun 2027 06:35:41.169   01 Jun 2027 06:35:41.169             0.000             0.000
        19   01 Jun 2027 06:36:31.129   01 Jun 2027 06:36:38.652             7.523          3761.500
        20   01 Jun 2027 07:56:01.330   01 Jun 2027 07:57:36.436            95.106         47553.000
        21   01 Jun 2027 09:32:00.449   01 Jun 2027 09:33:33.180            92.731         46365.500
        22   01 Jun 2027 11:05:45.570   01 Jun 2027 11:08:17.138           151.568         75784.000
        23   01 Jun 2027 11:13:30.390   01 Jun 2027 11:14:19.859            49.469         24734.500
        24   02 Jun 2027 03:28:03.474   02 Jun 2027 03:29:04.588            61.114         30557.000
        25   02 Jun 2027 03:29:57.860   02 Jun 2027 03:31:54.954           117.094         58547.000
        26   02 Jun 2027 03:32:15.416   02 Jun 2027 03:32:51.507            36.091         18045.500
        27   02 Jun 2027 03:32:53.295   02 Jun 2027 03:32:55.318             2.023          1011.500
        28   02 Jun 2027 03:33:05.721   02 Jun 2027 03:33:29.978            24.257         12128.500
        29   02 Jun 2027 03:33:33.702   02 Jun 2027 03:34:13.217            39.515         19757.500
        30   02 Jun 2027 03:35:06.404   02 Jun 2027 03:35:07.567             1.163           581.500
        31   02 Jun 2027 03:35:31.479   02 Jun 2027 03:35:32.291             0.812           406.000
        32   02 Jun 2027 05:07:35.189   02 Jun 2027 05:09:22.063           106.874         53437.000
        33   02 Jun 2027 05:10:39.056   02 Jun 2027 05:10:39.056             0.000             0.000
        34   02 Jun 2027 05:10:48.324   02 Jun 2027 05:11:18.727            30.403         15201.500
        35   02 Jun 2027 05:11:26.867   02 Jun 2027 05:11:28.202             1.335           667.500
        36   02 Jun 2027 05:11:31.795   02 Jun 2027 05:11:37.460             5.665          2832.500
        37   02 Jun 2027 05:11:51.336   02 Jun 2027 05:12:05.729            14.393          7196.500
        38   02 Jun 2027 05:12:06.660   02 Jun 2027 05:12:19.585            12.925          6462.500
        39   02 Jun 2027 06:44:11.554   02 Jun 2027 06:45:08.517            56.963         28481.500
        40   02 Jun 2027 06:45:50.700   02 Jun 2027 06:46:15.266            24.566         12283.000
        41   02 Jun 2027 06:46:57.026   02 Jun 2027 06:47:10.347            13.321          6660.500
        42   02 Jun 2027 06:47:51.517   02 Jun 2027 06:48:18.245            26.728         13364.000
        43   02 Jun 2027 08:07:52.969   02 Jun 2027 08:09:21.812            88.843         44421.500
        44   02 Jun 2027 09:44:15.137   02 Jun 2027 09:44:58.651            43.514         19424.187
        45   02 Jun 2027 09:45:25.558   02 Jun 2027 09:45:29.081             3.523           840.844
        46   02 Jun 2027 09:45:39.481   02 Jun 2027 09:45:41.458             1.977            29.094
        47   02 Jun 2027 11:18:19.322   02 Jun 2027 11:18:21.756             2.434          1217.000
        48   02 Jun 2027 11:20:19.420   02 Jun 2027 11:20:22.375             2.955          1477.500
        49   02 Jun 2027 11:25:03.719   02 Jun 2027 11:25:13.073             9.354          4677.000
        50   02 Jun 2027 11:25:17.551   02 Jun 2027 11:25:47.788            30.237         15118.500
        51   02 Jun 2027 11:25:48.673   02 Jun 2027 11:25:51.210             2.537           690.531
        52   02 Jun 2027 11:26:14.489   02 Jun 2027 11:26:16.159             1.670           520.156
        53   03 Jun 2027 03:40:06.838   03 Jun 2027 03:43:19.051           192.213         96106.500
        54   03 Jun 2027 03:43:54.047   03 Jun 2027 03:44:09.250            15.203          7601.500
        55   03 Jun 2027 03:44:51.938   03 Jun 2027 03:44:52.821             0.883           441.500
        56   03 Jun 2027 03:44:57.001   03 Jun 2027 03:44:57.175             0.174            87.000
        57   03 Jun 2027 03:45:45.408   03 Jun 2027 03:45:51.125             5.717          2858.500
        58   03 Jun 2027 03:46:22.718   03 Jun 2027 03:46:47.261            24.543         12271.500
        59   03 Jun 2027 03:47:14.067   03 Jun 2027 03:47:41.534            27.467         13733.500
        60   03 Jun 2027 05:18:17.072   03 Jun 2027 05:19:14.841            57.769         28884.500
        61   03 Jun 2027 05:20:47.940   03 Jun 2027 05:21:33.126            45.186         22593.000
        62   03 Jun 2027 05:22:08.655   03 Jun 2027 05:22:12.521             3.866          1521.563
        63   03 Jun 2027 05:23:05.604   03 Jun 2027 05:23:08.699             3.095          1535.656
        64   03 Jun 2027 05:24:04.327   03 Jun 2027 05:24:12.036             7.709          1414.031
        65   03 Jun 2027 06:57:25.329   03 Jun 2027 06:57:35.439            10.110          5055.000
        66   03 Jun 2027 06:58:06.054   03 Jun 2027 06:58:11.172             5.118          2334.438
        67   03 Jun 2027 06:59:05.247   03 Jun 2027 06:59:07.777             2.530          1110.156
        68   03 Jun 2027 07:00:15.843   03 Jun 2027 07:00:15.843             0.000             0.000
        69   03 Jun 2027 08:19:56.894   03 Jun 2027 08:20:14.486            17.592          8616.469
        70   03 Jun 2027 08:21:22.973   03 Jun 2027 08:21:29.317             6.344          2042.250
        71   03 Jun 2027 08:21:41.208   03 Jun 2027 08:21:41.613             0.405            76.250
        72   03 Jun 2027 09:56:26.076   03 Jun 2027 09:56:34.572             8.496          4248.000
        73   03 Jun 2027 09:58:28.781   03 Jun 2027 09:58:50.988            22.207          8978.187
        74   03 Jun 2027 09:59:25.656   03 Jun 2027 09:59:25.656             0.000             0.000
        75   03 Jun 2027 11:31:54.879   03 Jun 2027 11:32:13.322            18.443          8858.187
        76   03 Jun 2027 11:38:11.070   03 Jun 2027 11:38:18.006             6.936          3468.000
        77   04 Jun 2027 03:52:05.208   04 Jun 2027 03:55:29.413           204.205        102102.500
        78   04 Jun 2027 03:56:00.235   04 Jun 2027 03:56:32.302            32.067         16033.500
        79   04 Jun 2027 03:56:41.306   04 Jun 2027 03:56:44.456             3.150          1575.000
        80   04 Jun 2027 03:58:13.715   04 Jun 2027 03:58:13.715             0.000             0.000
        81   04 Jun 2027 03:58:28.841   04 Jun 2027 03:58:36.302             7.461          3730.500
        82   04 Jun 2027 05:30:20.729   04 Jun 2027 05:31:01.631            40.902         20451.000
        83   04 Jun 2027 05:31:25.191   04 Jun 2027 05:32:33.560            68.369         34097.750
        84   04 Jun 2027 05:32:49.468   04 Jun 2027 05:32:49.714             0.246           123.000
        85   04 Jun 2027 05:34:09.497   04 Jun 2027 05:34:10.006             0.509           254.500
        86   04 Jun 2027 05:34:24.028   04 Jun 2027 05:34:24.998             0.970           485.000
        87   04 Jun 2027 05:34:36.434   04 Jun 2027 05:34:42.898             6.464          2579.906
        88   04 Jun 2027 07:08:32.879   04 Jun 2027 07:08:45.305            12.426          6043.469
        89   04 Jun 2027 07:11:12.166   04 Jun 2027 07:11:24.183            12.017          4556.781
        90   04 Jun 2027 07:11:28.986   04 Jun 2027 07:11:35.204             6.218           104.344
        91   04 Jun 2027 07:11:54.435   04 Jun 2027 07:11:55.962             1.527           600.969
        92   04 Jun 2027 08:32:02.347   04 Jun 2027 08:32:30.926            28.579          9090.063
        93   04 Jun 2027 08:33:05.163   04 Jun 2027 08:33:07.508             2.345           817.250
        94   04 Jun 2027 08:33:39.511   04 Jun 2027 08:33:42.183             2.672           554.250
        95   04 Jun 2027 10:09:17.187   04 Jun 2027 10:09:17.187             0.000             0.000
        96   04 Jun 2027 11:45:48.365   04 Jun 2027 11:46:47.256            58.891         29445.500
        97   04 Jun 2027 11:50:03.975   04 Jun 2027 11:50:17.555            13.580          6790.000
        98   05 Jun 2027 04:04:07.970   05 Jun 2027 04:07:27.425           199.455         99727.500
        99   05 Jun 2027 04:08:25.439   05 Jun 2027 04:08:42.882            17.443          8721.500
       100   05 Jun 2027 04:08:53.798   05 Jun 2027 04:09:13.823            20.025         10012.500
       101   05 Jun 2027 04:09:54.134   05 Jun 2027 04:10:05.381            11.247          5623.500
       102   05 Jun 2027 04:10:17.837   05 Jun 2027 04:10:23.173             5.336          2668.000
       103   05 Jun 2027 04:10:28.915   05 Jun 2027 04:10:34.717             5.802          2901.000
       104   05 Jun 2027 04:11:08.236   05 Jun 2027 04:11:09.278             1.042           521.000
       105   05 Jun 2027 05:43:34.162   05 Jun 2027 05:45:12.885            98.723         47602.094
       106   05 Jun 2027 05:45:52.512   05 Jun 2027 05:45:58.654             6.142          1119.562
       107   05 Jun 2027 05:48:26.600   05 Jun 2027 05:48:39.763            13.163          4216.313
       108   05 Jun 2027 05:49:37.738   05 Jun 2027 05:49:42.268             4.530          1307.469
       109   05 Jun 2027 05:50:20.430   05 Jun 2027 05:50:20.570             0.140            70.000
       110   05 Jun 2027 05:51:13.280   05 Jun 2027 05:51:13.941             0.661           330.500
       111   05 Jun 2027 07:09:43.573   05 Jun 2027 07:09:56.637            13.064          6532.000
       112   05 Jun 2027 07:20:30.246   05 Jun 2027 07:20:40.098             9.852          4833.812
       113   05 Jun 2027 07:20:47.546   05 Jun 2027 07:20:51.044             3.498           192.219
       114   05 Jun 2027 07:21:13.298   05 Jun 2027 07:21:13.320             0.022            11.000
       115   05 Jun 2027 07:21:37.636   05 Jun 2027 07:21:38.815             1.179           589.500
       116   05 Jun 2027 07:22:08.958   05 Jun 2027 07:22:13.145             4.187          1796.781
       117   05 Jun 2027 07:22:51.646   05 Jun 2027 07:22:51.646             0.000             0.000
       118   05 Jun 2027 07:23:16.935   05 Jun 2027 07:23:21.175             4.240          1403.250
       119   05 Jun 2027 08:44:29.451   05 Jun 2027 08:44:54.968            25.517         10891.344
       120   05 Jun 2027 08:45:40.241   05 Jun 2027 08:45:43.907             3.666          1350.312
       121   05 Jun 2027 11:58:46.743   05 Jun 2027 11:59:04.575            17.832          8916.000
       122   06 Jun 2027 04:16:48.420   06 Jun 2027 04:19:25.372           156.952         78476.000
       123   06 Jun 2027 04:19:58.748   06 Jun 2027 04:21:19.872            81.124         40562.000
       124   06 Jun 2027 04:22:19.439   06 Jun 2027 04:22:21.527             2.088          1044.000
       125   06 Jun 2027 04:22:22.743   06 Jun 2027 04:22:52.969            30.226         15113.000
       126   06 Jun 2027 04:23:00.971   06 Jun 2027 04:23:12.275            11.304          5652.000
       127   06 Jun 2027 05:55:46.862   06 Jun 2027 05:57:14.926            88.064         44032.000
       128   06 Jun 2027 05:57:48.516   06 Jun 2027 05:58:00.806            12.290          4534.032
       129   06 Jun 2027 05:58:10.446   06 Jun 2027 05:58:13.413             2.967           301.250
       130   06 Jun 2027 05:58:43.109   06 Jun 2027 05:58:46.265             3.156           914.125
       131   06 Jun 2027 05:59:34.696   06 Jun 2027 05:59:37.925             3.229          1513.469
       132   06 Jun 2027 06:00:17.761   06 Jun 2027 06:00:19.986             2.225           628.031
       133   06 Jun 2027 06:01:11.095   06 Jun 2027 06:01:11.095             0.000             0.000
       134   06 Jun 2027 06:01:14.531   06 Jun 2027 06:01:22.088             7.557           981.375
       135   06 Jun 2027 06:01:33.654   06 Jun 2027 06:01:34.981             1.327           215.719
       136   06 Jun 2027 06:02:09.928   06 Jun 2027 06:02:12.987             3.059          1079.625
       137   06 Jun 2027 06:02:36.625   06 Jun 2027 06:02:41.786             5.161           630.875
       138   06 Jun 2027 07:20:59.533   06 Jun 2027 07:21:11.724            12.191          6092.344
       139   06 Jun 2027 07:21:37.332   06 Jun 2027 07:21:40.608             3.276           500.094
       140   06 Jun 2027 07:32:31.125   06 Jun 2027 07:32:38.913             7.788          2974.781
       141   06 Jun 2027 07:33:19.449   06 Jun 2027 07:33:28.064             8.615           559.812
       142   06 Jun 2027 08:55:08.477   06 Jun 2027 08:55:27.172            18.695          8560.031
       143   06 Jun 2027 08:56:44.120   06 Jun 2027 08:56:50.955             6.835          1471.687
       144   06 Jun 2027 08:57:43.485   06 Jun 2027 08:57:47.091             3.606          1043.000
       145   06 Jun 2027 08:58:39.750   06 Jun 2027 08:58:40.168             0.418           209.000
       146   06 Jun 2027 10:30:39.897   06 Jun 2027 10:31:00.942            21.045          7041.906
       147   07 Jun 2027 04:29:04.461   07 Jun 2027 04:29:05.172             0.711           355.500
       148   07 Jun 2027 04:29:33.768   07 Jun 2027 04:31:34.145           120.377         60188.500
       149   07 Jun 2027 04:32:50.043   07 Jun 2027 04:32:52.876             2.833          1416.500
       150   07 Jun 2027 04:33:47.630   07 Jun 2027 04:34:18.424            30.794         15397.000
       151   07 Jun 2027 04:34:37.691   07 Jun 2027 04:35:00.481            22.790         11395.000
       152   07 Jun 2027 06:08:03.477   07 Jun 2027 06:10:41.589           158.112         79035.438
       153   07 Jun 2027 06:12:29.205   07 Jun 2027 06:12:35.471             6.266          3133.000
       154   07 Jun 2027 06:13:04.024   07 Jun 2027 06:13:06.975             2.951          1122.281
       155   07 Jun 2027 06:13:33.713   07 Jun 2027 06:13:36.893             3.180           694.437
       156   07 Jun 2027 06:14:49.571   07 Jun 2027 06:14:53.517             3.946          1655.625
       157   07 Jun 2027 07:32:16.024   07 Jun 2027 07:32:30.437            14.413          7032.344
       158   07 Jun 2027 07:33:01.161   07 Jun 2027 07:33:05.993             4.832           608.750
       159   07 Jun 2027 07:33:07.844   07 Jun 2027 07:33:09.546             1.702            57.844
       160   07 Jun 2027 07:33:34.933   07 Jun 2027 07:33:37.751             2.818           697.187
       161   07 Jun 2027 07:34:12.044   07 Jun 2027 07:34:13.495             1.451           718.156
       162   07 Jun 2027 07:44:28.673   07 Jun 2027 07:44:37.478             8.805          3890.906
       163   07 Jun 2027 07:45:15.308   07 Jun 2027 07:45:17.060             1.752           696.125
       164   07 Jun 2027 09:06:44.219   07 Jun 2027 09:07:13.425            29.206         14603.000
       165   07 Jun 2027 09:08:39.923   07 Jun 2027 09:08:48.019             8.096          3715.594
       166   07 Jun 2027 09:09:12.200   07 Jun 2027 09:09:20.900             8.700           278.656
       167   07 Jun 2027 10:41:36.618   07 Jun 2027 10:41:49.341            12.723          4952.844
       168   07 Jun 2027 10:43:07.941   07 Jun 2027 10:43:07.941             0.000             0.000
       169   07 Jun 2027 10:43:21.666   07 Jun 2027 10:43:27.874             6.208          1757.594
       170   07 Jun 2027 10:44:28.162   07 Jun 2027 10:44:40.099            11.937          1548.687
       171   07 Jun 2027 10:48:07.852   07 Jun 2027 10:48:13.798             5.946          2973.000
       172   07 Jun 2027 10:48:30.042   07 Jun 2027 10:48:38.429             8.387          3569.656
       173   07 Jun 2027 10:48:55.583   07 Jun 2027 10:48:57.529             1.946           353.250
       174   08 Jun 2027 03:04:17.805   08 Jun 2027 03:04:44.392            26.587         13293.500
       175   08 Jun 2027 03:04:48.108   08 Jun 2027 03:05:09.973            21.865         10932.500
       176   08 Jun 2027 03:05:15.717   08 Jun 2027 03:05:31.737            16.020          8010.000
       177   08 Jun 2027 03:06:32.483   08 Jun 2027 03:06:44.302            11.819          5909.500
       178   08 Jun 2027 03:08:09.950   08 Jun 2027 03:09:04.477            54.527         27263.500
       179   08 Jun 2027 03:09:50.850   08 Jun 2027 03:10:08.529            17.679          8839.500
       180   08 Jun 2027 03:11:28.154   08 Jun 2027 03:11:39.223            11.069          5534.500
       181   08 Jun 2027 04:41:23.801   08 Jun 2027 04:41:36.870            13.069          6534.500
       182   08 Jun 2027 04:41:51.171   08 Jun 2027 04:43:59.609           128.438         64219.000
       183   08 Jun 2027 04:44:18.580   08 Jun 2027 04:44:45.201            26.621         13310.500
       184   08 Jun 2027 04:45:33.437   08 Jun 2027 04:45:39.920             6.483          2899.656
       185   08 Jun 2027 04:47:06.665   08 Jun 2027 04:47:13.181             6.516          2200.469
       186   08 Jun 2027 06:20:10.338   08 Jun 2027 06:20:35.114            24.776         12295.031
       187   08 Jun 2027 06:21:38.740   08 Jun 2027 06:21:44.638             5.898          1338.188
       188   08 Jun 2027 06:22:18.069   08 Jun 2027 06:22:18.069             0.000             0.000
       189   08 Jun 2027 06:22:21.017   08 Jun 2027 06:22:23.593             2.576          1032.438
       190   08 Jun 2027 06:22:51.208   08 Jun 2027 06:22:53.340             2.132           776.719
       191   08 Jun 2027 06:23:14.417   08 Jun 2027 06:23:16.898             2.481           589.875
       192   08 Jun 2027 06:23:59.678   08 Jun 2027 06:23:59.678             0.000             0.000
       193   08 Jun 2027 06:24:26.841   08 Jun 2027 06:24:33.695             6.854          2129.344
       194   08 Jun 2027 06:24:57.284   08 Jun 2027 06:24:58.447             1.163           141.156
       195   08 Jun 2027 06:25:28.735   08 Jun 2027 06:25:32.393             3.658           934.187
       196   08 Jun 2027 06:25:40.571   08 Jun 2027 06:25:43.209             2.638           255.562
       197   08 Jun 2027 07:44:22.062   08 Jun 2027 07:44:33.877            11.815          5091.156
       198   08 Jun 2027 07:45:16.097   08 Jun 2027 07:45:17.894             1.797           590.281
       199   08 Jun 2027 07:56:53.796   08 Jun 2027 07:56:55.479             1.683           841.500
       200   08 Jun 2027 09:18:12.675   08 Jun 2027 09:18:58.668            45.993         20160.406
       201   08 Jun 2027 09:20:41.001   08 Jun 2027 09:20:47.738             6.737          3107.125
       202   08 Jun 2027 09:21:13.984   08 Jun 2027 09:21:16.762             2.778           685.688
       203   08 Jun 2027 10:53:06.594   08 Jun 2027 10:53:07.248             0.654           327.000
       204   08 Jun 2027 10:54:12.276   08 Jun 2027 10:54:34.006            21.730          8563.531
       205   08 Jun 2027 10:56:36.928   08 Jun 2027 10:56:46.190             9.262          1969.063
       206   08 Jun 2027 11:00:22.085   08 Jun 2027 11:00:22.085             0.000             0.000
       207   08 Jun 2027 11:00:33.632   08 Jun 2027 11:00:51.419            17.787          6951.531
       208   08 Jun 2027 11:02:09.912   08 Jun 2027 11:02:13.110             3.198          1329.344
       209   09 Jun 2027 03:16:16.940   09 Jun 2027 03:17:33.071            76.131         38065.500
       210   09 Jun 2027 03:18:32.385   09 Jun 2027 03:18:32.385             0.000             0.000
       211   09 Jun 2027 03:18:33.003   09 Jun 2027 03:18:36.118             3.115          1557.500
       212   09 Jun 2027 03:19:07.514   09 Jun 2027 03:20:19.631            72.117         36058.500
       213   09 Jun 2027 03:20:39.880   09 Jun 2027 03:20:46.805             6.925          3462.500
       214   09 Jun 2027 03:21:46.411   09 Jun 2027 03:21:50.731             4.320          2160.000
       215   09 Jun 2027 03:21:55.875   09 Jun 2027 03:22:52.275            56.400         28200.000
       216   09 Jun 2027 03:23:26.749   09 Jun 2027 03:23:35.451             8.702          4351.000
       217   09 Jun 2027 04:56:13.076   09 Jun 2027 04:57:39.757            86.681         43340.500
       218   09 Jun 2027 04:57:47.051   09 Jun 2027 04:57:57.282            10.231          5115.500
       219   09 Jun 2027 04:58:28.507   09 Jun 2027 04:58:54.281            25.774         12865.031
       220   09 Jun 2027 04:59:28.056   09 Jun 2027 04:59:28.056             0.000             0.000
       221   09 Jun 2027 06:32:47.878   09 Jun 2027 06:33:23.906            36.028         16759.531
       222   09 Jun 2027 06:34:08.859   09 Jun 2027 06:34:15.232             6.373          1285.687
       223   09 Jun 2027 06:34:47.619   09 Jun 2027 06:34:50.583             2.964           879.312
       224   09 Jun 2027 06:35:36.522   09 Jun 2027 06:35:41.479             4.957          1260.812
       225   09 Jun 2027 06:36:56.128   09 Jun 2027 06:37:00.702             4.574          2191.406
       226   09 Jun 2027 07:56:18.181   09 Jun 2027 07:56:36.054            17.873          8347.813
       227   09 Jun 2027 07:57:38.223   09 Jun 2027 07:57:44.831             6.608          1454.844
       228   09 Jun 2027 09:32:47.907   09 Jun 2027 09:33:32.545            44.638         21300.250
       229   09 Jun 2027 11:06:02.707   09 Jun 2027 11:06:25.156            22.449          8544.844
       230   09 Jun 2027 11:08:37.870   09 Jun 2027 11:08:39.700             1.830           915.000
       231   09 Jun 2027 11:12:11.275   09 Jun 2027 11:12:11.275             0.000             0.000
       232   09 Jun 2027 11:12:57.036   09 Jun 2027 11:13:16.130            19.094          9148.656
       233   09 Jun 2027 11:13:40.123   09 Jun 2027 11:13:40.586             0.463           231.500
       234   09 Jun 2027 11:14:11.179   09 Jun 2027 11:14:14.966             3.787          1363.594
       235   10 Jun 2027 03:28:21.635   10 Jun 2027 03:29:35.895            74.260         37130.000
       236   10 Jun 2027 03:30:12.820   10 Jun 2027 03:31:39.156            86.336         43168.000
       237   10 Jun 2027 03:32:09.233   10 Jun 2027 03:32:45.940            36.707         18353.500
       238   10 Jun 2027 03:33:09.738   10 Jun 2027 03:33:20.910            11.172          5586.000
       239   10 Jun 2027 03:34:28.291   10 Jun 2027 03:35:24.990            56.699         28349.500
       240   10 Jun 2027 05:06:28.299   10 Jun 2027 05:06:55.800            27.501         13750.500
       241   10 Jun 2027 05:06:59.607   10 Jun 2027 05:08:09.178            69.571         31618.093
       242   10 Jun 2027 05:08:22.722   10 Jun 2027 05:08:24.425             1.703           148.719
       243   10 Jun 2027 05:08:40.495   10 Jun 2027 05:08:42.490             1.995           286.812
       244   10 Jun 2027 05:08:54.240   10 Jun 2027 05:08:59.120             4.880           367.187
       245   10 Jun 2027 05:10:18.352   10 Jun 2027 05:10:19.495             1.143           571.500
       246   10 Jun 2027 05:10:27.457   10 Jun 2027 05:10:32.549             5.092          1615.687
       247   10 Jun 2027 05:10:45.996   10 Jun 2027 05:10:48.554             2.558           409.344
       248   10 Jun 2027 05:11:03.250   10 Jun 2027 05:11:03.250             0.000             0.000
       249   10 Jun 2027 05:11:36.088   10 Jun 2027 05:11:38.863             2.775          1306.844
       250   10 Jun 2027 05:11:52.091   10 Jun 2027 05:11:53.217             1.126           331.750
       251   10 Jun 2027 05:12:03.573   10 Jun 2027 05:12:08.029             4.456           308.656
       252   10 Jun 2027 06:44:29.197   10 Jun 2027 06:44:54.403            25.206         12603.000
       253   10 Jun 2027 06:45:43.983   10 Jun 2027 06:45:45.793             1.810           905.000
       254   10 Jun 2027 06:45:49.514   10 Jun 2027 06:45:49.514             0.000             0.000
       255   10 Jun 2027 06:46:21.907   10 Jun 2027 06:46:28.464             6.557          2113.375
       256   10 Jun 2027 06:47:49.843   10 Jun 2027 06:47:52.019             2.176          1088.000
       257   10 Jun 2027 06:48:52.142   10 Jun 2027 06:48:59.295             7.153          2852.656
       258   10 Jun 2027 06:49:02.386   10 Jun 2027 06:49:02.620             0.234            60.000
       259   10 Jun 2027 08:08:10.097   10 Jun 2027 08:08:22.671            12.574          5640.625
       260   10 Jun 2027 08:09:39.602   10 Jun 2027 08:09:39.602             0.000             0.000
       261   10 Jun 2027 08:10:28.220   10 Jun 2027 08:10:36.285             8.065          3257.906
       262   10 Jun 2027 09:44:34.247   10 Jun 2027 09:44:52.765            18.518          9259.000
       263   10 Jun 2027 09:46:44.159   10 Jun 2027 09:46:56.927            12.768          5079.406
       264   10 Jun 2027 09:46:59.351   10 Jun 2027 09:47:02.141             2.790            75.750
       265   10 Jun 2027 09:47:59.128   10 Jun 2027 09:48:02.738             3.610           639.313
       266   10 Jun 2027 11:16:46.666   10 Jun 2027 11:16:54.179             7.513          3756.500
       267   10 Jun 2027 11:20:40.475   10 Jun 2027 11:20:55.425            14.950          7421.531
       268   10 Jun 2027 11:21:53.698   10 Jun 2027 11:21:57.721             4.023          1731.031
       269   10 Jun 2027 11:25:05.407   10 Jun 2027 11:25:17.705            12.298          5662.250
       270   10 Jun 2027 11:25:44.046   10 Jun 2027 11:25:48.460             4.414           659.313
       271   10 Jun 2027 11:26:04.901   10 Jun 2027 11:26:06.693             1.792           395.781
       272   10 Jun 2027 11:26:12.583   10 Jun 2027 11:26:14.279             1.696           159.375
       273   10 Jun 2027 11:26:33.715   10 Jun 2027 11:26:36.080             2.365           312.469
       274   11 Jun 2027 03:40:24.724   11 Jun 2027 03:44:39.550           254.826        127413.000
       275   11 Jun 2027 03:44:46.905   11 Jun 2027 03:45:08.879            21.974         10987.000
       276   11 Jun 2027 03:46:07.514   11 Jun 2027 03:46:36.123            28.609         13556.906
       277   11 Jun 2027 03:47:20.407   11 Jun 2027 03:47:21.758             1.351            32.094
       278   11 Jun 2027 05:18:34.499   11 Jun 2027 05:19:29.243            54.744         27372.000
       279   11 Jun 2027 05:20:30.847   11 Jun 2027 05:20:40.749             9.902          4767.750
       280   11 Jun 2027 05:21:38.607   11 Jun 2027 05:21:42.665             4.058          1599.375
       281   11 Jun 2027 05:22:51.443   11 Jun 2027 05:22:56.171             4.728          1770.375
       282   11 Jun 2027 05:23:35.081   11 Jun 2027 05:23:35.989             0.908           454.000
       283   11 Jun 2027 05:23:54.809   11 Jun 2027 05:23:58.533             3.724          1190.844
       284   11 Jun 2027 05:24:36.334   11 Jun 2027 05:24:39.555             3.221          1075.156
       285   11 Jun 2027 06:57:42.878   11 Jun 2027 06:57:53.404            10.526          4977.500
       286   11 Jun 2027 06:58:23.624   11 Jun 2027 06:58:27.267             3.643           944.375
       287   11 Jun 2027 06:58:59.427   11 Jun 2027 06:59:01.512             2.085           814.469
       288   11 Jun 2027 06:59:19.400   11 Jun 2027 06:59:21.743             2.343           559.000
       289   11 Jun 2027 06:59:44.691   11 Jun 2027 06:59:44.691             0.000             0.000
       290   11 Jun 2027 07:00:00.568   11 Jun 2027 07:00:00.568             0.000             0.000
       291   11 Jun 2027 07:00:11.899   11 Jun 2027 07:00:19.783             7.884          1567.375
       292   11 Jun 2027 07:00:45.374   11 Jun 2027 07:00:46.673             1.299           282.375
       293   11 Jun 2027 08:20:15.661   11 Jun 2027 08:20:29.991            14.330          6771.406
       294   11 Jun 2027 08:21:40.737   11 Jun 2027 08:21:46.166             5.429          2111.750
       295   11 Jun 2027 08:21:58.416   11 Jun 2027 08:21:59.006             0.590           147.313
       296   11 Jun 2027 09:56:44.757   11 Jun 2027 09:56:50.189             5.432          2716.000
       297   11 Jun 2027 09:58:33.851   11 Jun 2027 09:58:33.851             0.000             0.000
       298   11 Jun 2027 09:58:44.808   11 Jun 2027 09:59:02.987            18.179          8729.719
       299   11 Jun 2027 11:32:09.611   11 Jun 2027 11:32:28.536            18.925          7516.719
       300   11 Jun 2027 11:38:28.376   11 Jun 2027 11:38:36.920             8.544          4272.000
       301   12 Jun 2027 03:52:22.687   12 Jun 2027 03:55:40.269           197.582         98791.000
       302   12 Jun 2027 03:56:11.000   12 Jun 2027 03:56:27.853            16.853          8426.500
       303   12 Jun 2027 03:56:58.937   12 Jun 2027 03:57:08.487             9.550          4775.000
       304   12 Jun 2027 03:58:52.921   12 Jun 2027 03:59:09.582            16.661          8330.500
       305   12 Jun 2027 05:30:39.316   12 Jun 2027 05:31:20.649            41.333         20666.500
       306   12 Jun 2027 05:31:42.716   12 Jun 2027 05:32:42.408            59.692         29535.750
       307   12 Jun 2027 05:34:24.847   12 Jun 2027 05:34:27.123             2.276          1138.000
       308   12 Jun 2027 05:34:59.769   12 Jun 2027 05:35:05.445             5.676          2838.000
       309   12 Jun 2027 05:35:40.905   12 Jun 2027 05:35:46.175             5.270          1211.062
       310   12 Jun 2027 07:09:03.286   12 Jun 2027 07:09:21.360            18.074          6329.656
       311   12 Jun 2027 07:09:26.111   12 Jun 2027 07:09:28.417             2.306           103.688
       312   12 Jun 2027 07:09:57.061   12 Jun 2027 07:10:00.731             3.670           635.563
       313   12 Jun 2027 07:10:48.028   12 Jun 2027 07:10:51.817             3.789           919.063
       314   12 Jun 2027 07:11:40.218   12 Jun 2027 07:11:43.548             3.330          1512.531
       315   12 Jun 2027 07:12:00.150   12 Jun 2027 07:12:00.150             0.000             0.000
       316   12 Jun 2027 08:32:19.280   12 Jun 2027 08:32:45.248            25.968          9921.781
       317   12 Jun 2027 08:33:23.094   12 Jun 2027 08:33:26.154             3.060           873.750
       318   12 Jun 2027 08:33:36.510   12 Jun 2027 08:33:37.368             0.858            84.781
       319   12 Jun 2027 08:35:10.002   12 Jun 2027 08:35:12.053             2.051          1025.500
       320   12 Jun 2027 10:11:59.497   12 Jun 2027 10:11:59.497             0.000             0.000
       321   12 Jun 2027 11:44:17.294   12 Jun 2027 11:44:17.294             0.000             0.000
       322   12 Jun 2027 11:46:10.749   12 Jun 2027 11:47:01.037            50.288         25144.000
       323   12 Jun 2027 11:50:21.067   12 Jun 2027 11:50:35.891            14.824          7412.000
       324   13 Jun 2027 04:04:26.663   13 Jun 2027 04:05:39.473            72.810         36405.000
       325   13 Jun 2027 04:06:57.909   13 Jun 2027 04:08:40.314           102.405         51202.500
       326   13 Jun 2027 04:08:53.813   13 Jun 2027 04:08:57.727             3.914          1957.000
       327   13 Jun 2027 04:09:07.410   13 Jun 2027 04:09:23.554            16.144          8072.000
       328   13 Jun 2027 05:43:43.918   13 Jun 2027 05:46:07.259           143.341         71670.500
       329   13 Jun 2027 05:46:40.404   13 Jun 2027 05:46:52.147            11.743          5590.719
       330   13 Jun 2027 05:47:44.061   13 Jun 2027 05:47:44.061             0.000             0.000
       331   13 Jun 2027 05:47:50.113   13 Jun 2027 05:47:54.760             4.647          1606.156
       332   13 Jun 2027 05:48:44.812   13 Jun 2027 05:48:56.413            11.601          1380.406
       333   13 Jun 2027 05:49:53.560   13 Jun 2027 05:49:58.220             4.660          1286.875
       334   13 Jun 2027 05:50:36.817   13 Jun 2027 05:50:38.748             1.931           655.656
       335   13 Jun 2027 07:09:57.780   13 Jun 2027 07:10:11.407            13.627          6779.781
       336   13 Jun 2027 07:20:47.779   13 Jun 2027 07:20:53.590             5.811          2839.281
       337   13 Jun 2027 07:21:02.900   13 Jun 2027 07:21:05.779             2.879           131.188
       338   13 Jun 2027 07:21:56.513   13 Jun 2027 07:21:56.513             0.000             0.000
       339   13 Jun 2027 07:22:26.489   13 Jun 2027 07:22:30.561             4.072          1907.312
       340   13 Jun 2027 07:22:56.621   13 Jun 2027 07:23:03.830             7.209           628.406
       341   13 Jun 2027 07:23:36.393   13 Jun 2027 07:23:39.664             3.271           887.406
       342   13 Jun 2027 07:24:14.288   13 Jun 2027 07:24:15.645             1.357           678.500
       343   13 Jun 2027 08:44:46.279   13 Jun 2027 08:45:06.449            20.170          9878.375
       344   13 Jun 2027 08:45:25.662   13 Jun 2027 08:45:28.303             2.641           445.406
       345   13 Jun 2027 08:47:04.318   13 Jun 2027 08:47:12.152             7.834          2571.937
       346   13 Jun 2027 10:22:20.953   13 Jun 2027 10:22:20.953             0.000             0.000
       347   13 Jun 2027 11:56:15.667   13 Jun 2027 11:56:38.697            23.030         11515.000
       348   13 Jun 2027 11:59:10.291   13 Jun 2027 11:59:20.303            10.012          5006.000
