uniorb/output/strategy_2/Camera/Camera_KinoSat_110507.txt

KinoSat_110507
-------------------------
    Access    *     Start Time (UTCG)     *     Stop Time (UTCG)  *   Duration (s) *   Data (Mbytes)
         1   01 Jun 2027 03:29:05.811   01 Jun 2027 03:29:11.646             5.835          2917.500
         2   01 Jun 2027 03:29:44.832   01 Jun 2027 03:29:47.959             3.127          1563.500
         3   01 Jun 2027 03:30:09.600   01 Jun 2027 03:30:10.100             0.500           250.000
         4   01 Jun 2027 03:30:23.975   01 Jun 2027 03:30:37.733            13.758          6879.000
         5   01 Jun 2027 03:31:37.272   01 Jun 2027 03:31:42.269             4.997          2498.500
         6   01 Jun 2027 03:32:10.499   01 Jun 2027 03:32:13.255             2.756          1378.000
         7   01 Jun 2027 03:32:33.684   01 Jun 2027 03:32:37.358             3.674          1837.000
         8   01 Jun 2027 03:32:56.243   01 Jun 2027 03:33:07.107            10.864          5432.000
         9   01 Jun 2027 05:03:49.681   01 Jun 2027 05:03:51.511             1.830           915.000
        10   01 Jun 2027 05:04:01.753   01 Jun 2027 05:04:03.458             1.705           852.500
        11   01 Jun 2027 05:04:11.353   01 Jun 2027 05:04:17.384             6.031          3015.500
        12   01 Jun 2027 05:04:43.594   01 Jun 2027 05:05:01.159            17.565          8782.500
        13   01 Jun 2027 05:06:20.684   01 Jun 2027 05:06:24.368             3.684          1842.000
        14   01 Jun 2027 05:06:50.424   01 Jun 2027 05:07:14.068            23.644         11822.000
        15   01 Jun 2027 05:08:56.710   01 Jun 2027 05:09:13.991            17.281          8640.500
        16   01 Jun 2027 05:10:29.353   01 Jun 2027 05:10:34.074             4.721          2360.500
        17   01 Jun 2027 06:40:37.641   01 Jun 2027 06:41:13.303            35.662         17831.000
        18   01 Jun 2027 06:43:36.704   01 Jun 2027 06:43:44.062             7.358          3679.000
        19   01 Jun 2027 06:44:03.227   01 Jun 2027 06:44:03.227             0.000             0.000
        20   01 Jun 2027 06:44:14.557   01 Jun 2027 06:44:19.613             5.056          2528.000
        21   01 Jun 2027 06:44:40.665   01 Jun 2027 06:44:43.313             2.648          1324.000
        22   01 Jun 2027 06:44:57.049   01 Jun 2027 06:45:02.419             5.370          2685.000
        23   01 Jun 2027 06:45:44.827   01 Jun 2027 06:45:45.287             0.460           230.000
        24   01 Jun 2027 06:45:46.581   01 Jun 2027 06:45:55.331             8.750          4375.000
        25   01 Jun 2027 06:46:54.789   01 Jun 2027 06:46:58.639             3.850          1925.000
        26   01 Jun 2027 08:18:52.707   01 Jun 2027 08:19:04.481            11.774          5887.000
        27   01 Jun 2027 08:19:58.247   01 Jun 2027 08:19:59.075             0.828           414.000
        28   01 Jun 2027 08:20:07.138   01 Jun 2027 08:20:23.483            16.345          8172.500
        29   01 Jun 2027 08:21:28.571   01 Jun 2027 08:21:41.206            12.635          6317.500
        30   01 Jun 2027 08:22:35.190   01 Jun 2027 08:22:35.530             0.340           170.000
        31   01 Jun 2027 09:52:09.924   01 Jun 2027 09:52:10.778             0.854           427.000
        32   01 Jun 2027 09:52:20.070   01 Jun 2027 09:52:47.768            27.698         13849.000
        33   01 Jun 2027 09:55:11.358   01 Jun 2027 09:55:22.276            10.918          5459.000
        34   01 Jun 2027 09:56:47.881   01 Jun 2027 09:56:49.520             1.639           819.500
        35   01 Jun 2027 09:57:19.607   01 Jun 2027 09:57:21.199             1.592           796.000
        36   01 Jun 2027 09:57:34.429   01 Jun 2027 09:57:47.779            13.350          6675.000
        37   01 Jun 2027 09:57:53.670   01 Jun 2027 09:57:58.490             4.820          2410.000
        38   01 Jun 2027 09:59:12.803   01 Jun 2027 09:59:18.981             6.178          3089.000
        39   01 Jun 2027 09:59:48.548   01 Jun 2027 09:59:52.867             4.319          2159.500
        40   02 Jun 2027 03:39:00.171   02 Jun 2027 03:39:02.429             2.258          1129.000
        41   02 Jun 2027 03:40:50.158   02 Jun 2027 03:40:59.013             8.855          4427.500
        42   02 Jun 2027 03:42:02.084   02 Jun 2027 03:42:02.808             0.724           362.000
        43   02 Jun 2027 03:42:06.351   02 Jun 2027 03:42:09.192             2.841          1420.500
        44   02 Jun 2027 03:43:52.169   02 Jun 2027 03:43:52.587             0.418           209.000
        45   02 Jun 2027 03:43:53.834   02 Jun 2027 03:43:57.860             4.026          2013.000
        46   02 Jun 2027 03:44:22.635   02 Jun 2027 03:44:37.758            15.123          7561.500
        47   02 Jun 2027 05:15:57.865   02 Jun 2027 05:16:01.385             3.520          1760.000
        48   02 Jun 2027 05:16:53.218   02 Jun 2027 05:17:10.182            16.964          8482.000
        49   02 Jun 2027 05:18:22.108   02 Jun 2027 05:18:22.137             0.029            14.500
        50   02 Jun 2027 05:18:45.266   02 Jun 2027 05:18:50.341             5.075          2537.500
        51   02 Jun 2027 05:19:14.481   02 Jun 2027 05:19:39.423            24.942         12471.000
        52   02 Jun 2027 05:21:45.737   02 Jun 2027 05:21:47.275             1.538           769.000
        53   02 Jun 2027 05:22:07.311   02 Jun 2027 05:22:21.757            14.446          7223.000
        54   02 Jun 2027 05:22:28.651   02 Jun 2027 05:22:29.100             0.449           224.500
        55   02 Jun 2027 06:52:56.194   02 Jun 2027 06:53:01.708             5.514          2757.000
        56   02 Jun 2027 06:53:43.532   02 Jun 2027 06:53:46.111             2.579          1289.500
        57   02 Jun 2027 06:54:13.934   02 Jun 2027 06:54:15.278             1.344           672.000
        58   02 Jun 2027 06:54:21.780   02 Jun 2027 06:54:22.284             0.504           252.000
        59   02 Jun 2027 06:54:26.383   02 Jun 2027 06:54:43.921            17.538          8769.000
        60   02 Jun 2027 06:56:19.138   02 Jun 2027 06:56:20.455             1.317           658.500
        61   02 Jun 2027 06:56:32.611   02 Jun 2027 06:56:39.089             6.478          3239.000
        62   02 Jun 2027 06:57:13.550   02 Jun 2027 06:57:14.240             0.690           345.000
        63   02 Jun 2027 06:57:32.638   02 Jun 2027 06:57:38.978             6.340          3170.000
        64   02 Jun 2027 08:30:50.805   02 Jun 2027 08:30:54.546             3.741          1870.500
        65   02 Jun 2027 08:31:26.184   02 Jun 2027 08:31:28.061             1.877           938.500
        66   02 Jun 2027 08:31:46.919   02 Jun 2027 08:31:51.798             4.879          2439.500
        67   02 Jun 2027 08:32:34.640   02 Jun 2027 08:32:56.859            22.219         11109.500
        68   02 Jun 2027 08:34:29.813   02 Jun 2027 08:34:35.538             5.725          2862.500
        69   02 Jun 2027 08:34:46.412   02 Jun 2027 08:34:50.188             3.776          1888.000
        70   02 Jun 2027 10:04:09.784   02 Jun 2027 10:04:32.505            22.721         11360.500
        71   02 Jun 2027 10:04:50.264   02 Jun 2027 10:04:58.297             8.033          4016.500
        72   02 Jun 2027 10:06:56.103   02 Jun 2027 10:06:56.665             0.562           281.000
        73   02 Jun 2027 10:07:04.813   02 Jun 2027 10:07:10.158             5.345          2672.500
        74   02 Jun 2027 10:07:39.976   02 Jun 2027 10:07:41.972             1.996           998.000
        75   02 Jun 2027 10:07:59.943   02 Jun 2027 10:08:11.250            11.307          5653.500
        76   02 Jun 2027 10:09:11.469   02 Jun 2027 10:09:15.744             4.275          2137.500
        77   02 Jun 2027 10:09:38.460   02 Jun 2027 10:09:57.381            18.921          9460.500
        78   02 Jun 2027 10:11:22.822   02 Jun 2027 10:11:25.347             2.525          1262.500
        79   02 Jun 2027 10:11:48.729   02 Jun 2027 10:11:48.773             0.044            22.000
        80   03 Jun 2027 03:50:25.173   03 Jun 2027 03:50:35.271            10.098          5049.000
        81   03 Jun 2027 03:51:54.174   03 Jun 2027 03:52:05.423            11.249          5624.500
        82   03 Jun 2027 03:52:59.863   03 Jun 2027 03:53:09.658             9.795          4897.500
        83   03 Jun 2027 03:54:18.455   03 Jun 2027 03:54:18.597             0.142            71.000
        84   03 Jun 2027 03:54:40.312   03 Jun 2027 03:54:59.295            18.983          9491.500
        85   03 Jun 2027 03:56:15.860   03 Jun 2027 03:56:17.750             1.890           945.000
        86   03 Jun 2027 03:56:39.789   03 Jun 2027 03:56:44.995             5.206          2603.000
        87   03 Jun 2027 03:58:31.092   03 Jun 2027 03:58:39.310             8.218          4109.000
        88   03 Jun 2027 05:28:01.400   03 Jun 2027 05:28:04.048             2.648          1324.000
        89   03 Jun 2027 05:28:39.833   03 Jun 2027 05:28:44.150             4.317          2158.500
        90   03 Jun 2027 05:29:31.452   03 Jun 2027 05:29:36.802             5.350          2675.000
        91   03 Jun 2027 05:30:00.370   03 Jun 2027 05:30:01.003             0.633           316.500
        92   03 Jun 2027 05:30:19.166   03 Jun 2027 05:30:23.497             4.331          2165.500
        93   03 Jun 2027 05:30:39.135   03 Jun 2027 05:30:50.579            11.444          5722.000
        94   03 Jun 2027 05:31:40.680   03 Jun 2027 05:31:44.329             3.649          1824.500
        95   03 Jun 2027 05:31:52.098   03 Jun 2027 05:31:53.030             0.932           466.000
        96   03 Jun 2027 05:32:08.956   03 Jun 2027 05:32:12.632             3.676          1838.000
        97   03 Jun 2027 05:32:30.422   03 Jun 2027 05:32:36.836             6.414          3207.000
        98   03 Jun 2027 05:33:36.805   03 Jun 2027 05:33:45.996             9.191          4595.500
        99   03 Jun 2027 05:34:08.220   03 Jun 2027 05:34:12.704             4.484          2242.000
       100   03 Jun 2027 05:35:23.939   03 Jun 2027 05:35:25.568             1.629           814.500
       101   03 Jun 2027 07:04:45.561   03 Jun 2027 07:04:54.565             9.004          4502.000
       102   03 Jun 2027 07:05:40.323   03 Jun 2027 07:05:41.719             1.396           698.000
       103   03 Jun 2027 07:06:15.782   03 Jun 2027 07:06:18.454             2.672          1336.000
       104   03 Jun 2027 07:06:40.450   03 Jun 2027 07:06:56.000            15.550          7775.000
       105   03 Jun 2027 07:08:02.529   03 Jun 2027 07:08:05.058             2.529          1264.500
       106   03 Jun 2027 07:08:16.539   03 Jun 2027 07:08:17.292             0.753           376.500
       107   03 Jun 2027 07:08:44.724   03 Jun 2027 07:08:52.442             7.718          3859.000
       108   03 Jun 2027 07:10:02.128   03 Jun 2027 07:10:11.070             8.942          4471.000
       109   03 Jun 2027 07:11:02.075   03 Jun 2027 07:11:05.056             2.981          1490.500
       110   03 Jun 2027 08:42:50.197   03 Jun 2027 08:42:51.852             1.655           827.500
       111   03 Jun 2027 08:42:59.772   03 Jun 2027 08:43:10.110            10.338          5169.000
       112   03 Jun 2027 08:43:59.831   03 Jun 2027 08:44:02.526             2.695          1347.500
       113   03 Jun 2027 08:44:29.850   03 Jun 2027 08:44:39.997            10.147          5073.500
       114   03 Jun 2027 08:45:33.733   03 Jun 2027 08:45:35.088             1.355           677.500
       115   03 Jun 2027 08:45:44.448   03 Jun 2027 08:45:44.830             0.382           191.000
       116   03 Jun 2027 08:46:52.650   03 Jun 2027 08:46:53.661             1.011           505.500
       117   03 Jun 2027 10:16:35.559   03 Jun 2027 10:16:52.245            16.686          8343.000
       118   03 Jun 2027 10:18:04.606   03 Jun 2027 10:18:08.492             3.886          1943.000
       119   03 Jun 2027 10:18:53.256   03 Jun 2027 10:19:00.695             7.439          3719.500
       120   03 Jun 2027 10:19:33.312   03 Jun 2027 10:19:56.125            22.813         11406.500
       121   03 Jun 2027 10:21:45.895   03 Jun 2027 10:22:00.611            14.716          7358.000
       122   03 Jun 2027 10:23:09.034   03 Jun 2027 10:23:13.240             4.206          2103.000
       123   04 Jun 2027 04:01:55.737   04 Jun 2027 04:01:57.863             2.126          1063.000
       124   04 Jun 2027 04:02:20.820   04 Jun 2027 04:02:21.273             0.453           226.500
       125   04 Jun 2027 04:02:35.848   04 Jun 2027 04:02:42.418             6.570          3285.000
       126   04 Jun 2027 04:02:58.949   04 Jun 2027 04:02:59.907             0.958           479.000
       127   04 Jun 2027 04:03:56.445   04 Jun 2027 04:04:11.793            15.348          7674.000
       128   04 Jun 2027 04:05:29.599   04 Jun 2027 04:05:35.140             5.541          2770.500
       129   04 Jun 2027 04:06:07.315   04 Jun 2027 04:06:11.488             4.173          2086.500
       130   04 Jun 2027 04:06:52.828   04 Jun 2027 04:07:04.420            11.592          5796.000
       131   04 Jun 2027 04:07:53.876   04 Jun 2027 04:07:57.162             3.286          1643.000
       132   04 Jun 2027 04:08:17.343   04 Jun 2027 04:08:17.404             0.061            30.500
       133   04 Jun 2027 04:08:24.199   04 Jun 2027 04:08:33.811             9.612          4806.000
       134   04 Jun 2027 04:09:19.891   04 Jun 2027 04:09:27.339             7.448          3724.000
       135   04 Jun 2027 04:10:05.114   04 Jun 2027 04:10:10.398             5.284          2642.000
       136   04 Jun 2027 04:10:44.551   04 Jun 2027 04:10:45.552             1.001           500.500
       137   04 Jun 2027 04:11:16.197   04 Jun 2027 04:11:18.873             2.676          1338.000
       138   04 Jun 2027 05:40:00.187   04 Jun 2027 05:40:04.675             4.488          2244.000
       139   04 Jun 2027 05:40:27.018   04 Jun 2027 05:40:29.244             2.226          1113.000
       140   04 Jun 2027 05:41:03.650   04 Jun 2027 05:41:04.943             1.293           646.500
       141   04 Jun 2027 05:41:17.581   04 Jun 2027 05:41:36.016            18.435          9217.500
       142   04 Jun 2027 05:42:23.993   04 Jun 2027 05:42:25.348             1.355           677.500
       143   04 Jun 2027 05:42:51.089   04 Jun 2027 05:42:56.445             5.356          2678.000
       144   04 Jun 2027 05:43:28.463   04 Jun 2027 05:43:31.808             3.345          1672.500
       145   04 Jun 2027 05:44:13.878   04 Jun 2027 05:44:18.100             4.222          2111.000
       146   04 Jun 2027 05:45:21.121   04 Jun 2027 05:45:22.426             1.305           652.500
       147   04 Jun 2027 05:46:00.153   04 Jun 2027 05:46:03.002             2.849          1424.500
       148   04 Jun 2027 05:46:25.343   04 Jun 2027 05:46:25.486             0.143            71.500
       149   04 Jun 2027 05:47:08.258   04 Jun 2027 05:47:12.542             4.284          2142.000
       150   04 Jun 2027 05:47:21.720   04 Jun 2027 05:47:27.100             5.380          2690.000
       151   04 Jun 2027 07:16:53.382   04 Jun 2027 07:16:55.115             1.733           866.500
       152   04 Jun 2027 07:17:10.224   04 Jun 2027 07:17:23.460            13.236          6618.000
       153   04 Jun 2027 07:18:54.442   04 Jun 2027 07:18:59.016             4.574          2287.000
       154   04 Jun 2027 07:19:50.632   04 Jun 2027 07:19:57.485             6.853          3426.500
       155   04 Jun 2027 07:21:01.188   04 Jun 2027 07:21:02.481             1.293           646.500
       156   04 Jun 2027 07:21:37.960   04 Jun 2027 07:21:38.507             0.547           273.500
       157   04 Jun 2027 07:22:16.582   04 Jun 2027 07:22:18.730             2.148          1074.000
       158   04 Jun 2027 07:23:08.775   04 Jun 2027 07:23:10.517             1.742           871.000
       159   04 Jun 2027 08:54:03.328   04 Jun 2027 08:54:05.068             1.740           870.000
       160   04 Jun 2027 08:54:19.096   04 Jun 2027 08:54:36.337            17.241          8620.500
       161   04 Jun 2027 08:56:55.170   04 Jun 2027 08:56:57.754             2.584          1292.000
       162   04 Jun 2027 08:57:41.293   04 Jun 2027 08:57:41.791             0.498           249.000
       163   04 Jun 2027 08:57:57.329   04 Jun 2027 08:57:58.363             1.034           517.000
       164   04 Jun 2027 08:58:36.648   04 Jun 2027 08:58:50.098            13.450          6725.000
       165   04 Jun 2027 10:28:50.312   04 Jun 2027 10:28:53.672             3.360          1680.000
       166   04 Jun 2027 10:29:39.580   04 Jun 2027 10:30:02.445            22.865         11432.500
       167   04 Jun 2027 10:31:45.979   04 Jun 2027 10:31:55.642             9.663          4831.500
       168   04 Jun 2027 10:33:01.062   04 Jun 2027 10:33:13.710            12.648          6324.000
       169   05 Jun 2027 04:14:54.780   05 Jun 2027 04:15:00.808             6.028          3014.000
       170   05 Jun 2027 04:15:53.103   05 Jun 2027 04:15:54.718             1.615           807.500
       171   05 Jun 2027 04:16:19.541   05 Jun 2027 04:16:27.282             7.741          3870.500
       172   05 Jun 2027 04:17:06.512   05 Jun 2027 04:17:35.129            28.617         14308.500
       173   05 Jun 2027 04:19:53.807   05 Jun 2027 04:19:58.089             4.282          2141.000
       174   05 Jun 2027 04:20:29.338   05 Jun 2027 04:20:36.481             7.143          3571.500
       175   05 Jun 2027 04:21:16.527   05 Jun 2027 04:21:23.900             7.373          3686.500
       176   05 Jun 2027 04:21:53.968   05 Jun 2027 04:22:14.795            20.827         10413.500
       177   05 Jun 2027 04:22:28.042   05 Jun 2027 04:22:28.504             0.462           231.000
       178   05 Jun 2027 04:23:27.183   05 Jun 2027 04:23:28.427             1.244           622.000
       179   05 Jun 2027 05:52:22.263   05 Jun 2027 05:52:33.666            11.403          5701.500
       180   05 Jun 2027 05:53:42.589   05 Jun 2027 05:54:07.282            24.693         12346.500
       181   05 Jun 2027 05:55:54.403   05 Jun 2027 05:55:54.580             0.177            88.500
       182   05 Jun 2027 05:56:12.807   05 Jun 2027 05:56:17.728             4.921          2460.500
       183   05 Jun 2027 05:57:19.146   05 Jun 2027 05:57:27.707             8.561          4280.500
       184   05 Jun 2027 05:58:25.484   05 Jun 2027 05:58:28.701             3.217          1608.500
       185   05 Jun 2027 05:58:45.911   05 Jun 2027 05:58:49.553             3.642          1821.000
       186   05 Jun 2027 07:29:21.964   05 Jun 2027 07:29:23.068             1.104           552.000
       187   05 Jun 2027 07:29:55.730   05 Jun 2027 07:30:04.599             8.869          4434.500
       188   05 Jun 2027 07:30:49.327   05 Jun 2027 07:30:51.685             2.358          1179.000
       189   05 Jun 2027 07:31:12.460   05 Jun 2027 07:31:12.739             0.279           139.500
       190   05 Jun 2027 07:31:44.122   05 Jun 2027 07:31:46.080             1.958           979.000
       191   05 Jun 2027 07:32:04.953   05 Jun 2027 07:32:07.629             2.676          1338.000
       192   05 Jun 2027 07:32:19.423   05 Jun 2027 07:32:27.496             8.073          4036.500
       193   05 Jun 2027 07:33:02.090   05 Jun 2027 07:33:02.592             0.502           251.000
       194   05 Jun 2027 07:33:32.892   05 Jun 2027 07:33:33.850             0.958           479.000
       195   05 Jun 2027 07:34:21.540   05 Jun 2027 07:34:27.528             5.988          2994.000
       196   05 Jun 2027 07:34:53.335   05 Jun 2027 07:35:01.587             8.252          4126.000
       197   05 Jun 2027 09:06:15.946   05 Jun 2027 09:06:17.507             1.561           780.500
       198   05 Jun 2027 09:06:33.132   05 Jun 2027 09:06:46.785            13.653          6826.500
       199   05 Jun 2027 09:08:02.621   05 Jun 2027 09:08:05.799             3.178          1589.000
       200   05 Jun 2027 09:08:29.928   05 Jun 2027 09:08:34.120             4.192          2096.000
       201   05 Jun 2027 09:08:55.931   05 Jun 2027 09:08:56.915             0.984           492.000
       202   05 Jun 2027 09:09:35.255   05 Jun 2027 09:09:36.736             1.481           740.500
       203   05 Jun 2027 09:10:13.776   05 Jun 2027 09:10:17.170             3.394          1697.000
       204   05 Jun 2027 09:10:50.365   05 Jun 2027 09:10:52.543             2.178          1089.000
       205   05 Jun 2027 10:43:25.306   05 Jun 2027 10:43:33.704             8.398          4199.000
       206   05 Jun 2027 10:44:24.345   05 Jun 2027 10:44:32.962             8.617          4308.500
       207   05 Jun 2027 10:45:17.476   05 Jun 2027 10:45:18.669             1.193           596.500
       208   05 Jun 2027 10:45:43.800   05 Jun 2027 10:45:52.320             8.520          4260.000
       209   06 Jun 2027 04:25:37.373   06 Jun 2027 04:25:46.097             8.724          4362.000
       210   06 Jun 2027 04:27:33.665   06 Jun 2027 04:27:42.476             8.811          4405.500
       211   06 Jun 2027 04:28:34.428   06 Jun 2027 04:28:42.647             8.219          4109.500
       212   06 Jun 2027 04:29:07.526   06 Jun 2027 04:29:35.912            28.386         14193.000
       213   06 Jun 2027 04:31:29.050   06 Jun 2027 04:31:32.858             3.808          1904.000
       214   06 Jun 2027 04:32:09.919   06 Jun 2027 04:32:14.907             4.988          2494.000
       215   06 Jun 2027 04:33:06.850   06 Jun 2027 04:33:25.902            19.052          9526.000
       216   06 Jun 2027 04:33:47.352   06 Jun 2027 04:33:50.778             3.426          1713.000
       217   06 Jun 2027 04:35:22.636   06 Jun 2027 04:35:22.657             0.021            10.500
       218   06 Jun 2027 06:04:31.648   06 Jun 2027 06:04:32.063             0.415           207.500
       219   06 Jun 2027 06:04:53.876   06 Jun 2027 06:05:04.465            10.589          5294.500
       220   06 Jun 2027 06:06:27.514   06 Jun 2027 06:06:28.968             1.454           727.000
       221   06 Jun 2027 06:06:52.852   06 Jun 2027 06:06:57.192             4.340          2170.000
       222   06 Jun 2027 06:07:20.105   06 Jun 2027 06:07:44.289            24.184         12092.000
       223   06 Jun 2027 06:10:33.480   06 Jun 2027 06:10:38.161             4.681          2340.500
       224   06 Jun 2027 06:10:57.486   06 Jun 2027 06:11:04.970             7.484          3742.000
       225   06 Jun 2027 07:41:49.260   06 Jun 2027 07:42:08.217            18.957          9478.500
       226   06 Jun 2027 07:43:58.556   06 Jun 2027 07:44:07.153             8.597          4298.500
       227   06 Jun 2027 07:44:49.309   06 Jun 2027 07:44:50.971             1.662           831.000
       228   06 Jun 2027 07:45:34.778   06 Jun 2027 07:45:35.733             0.955           477.500
       229   06 Jun 2027 07:46:15.091   06 Jun 2027 07:46:19.069             3.978          1989.000
       230   06 Jun 2027 09:18:16.979   06 Jun 2027 09:18:20.336             3.357          1678.500
       231   06 Jun 2027 09:18:35.930   06 Jun 2027 09:18:44.774             8.844          4422.000
       232   06 Jun 2027 09:20:14.275   06 Jun 2027 09:20:28.817            14.542          7271.000
       233   06 Jun 2027 09:21:13.822   06 Jun 2027 09:21:17.849             4.027          2013.500
       234   06 Jun 2027 09:21:55.371   06 Jun 2027 09:21:56.577             1.206           603.000
       235   06 Jun 2027 09:22:48.164   06 Jun 2027 09:22:58.305            10.141          5070.500
       236   06 Jun 2027 10:56:33.479   06 Jun 2027 10:56:40.076             6.597          3298.500
       237   06 Jun 2027 10:57:07.078   06 Jun 2027 10:57:09.310             2.232          1116.000
       238   07 Jun 2027 03:05:35.960   07 Jun 2027 03:05:41.959             5.999          2999.500
       239   07 Jun 2027 03:06:26.488   07 Jun 2027 03:06:28.130             1.642           821.000
       240   07 Jun 2027 03:07:00.428   07 Jun 2027 03:07:03.289             2.861          1430.500
       241   07 Jun 2027 03:07:37.953   07 Jun 2027 03:07:42.063             4.110          2055.000
       242   07 Jun 2027 03:08:17.016   07 Jun 2027 03:08:27.232            10.216          5108.000
       243   07 Jun 2027 03:09:07.712   07 Jun 2027 03:09:14.655             6.943          3471.500
       244   07 Jun 2027 04:40:46.600   07 Jun 2027 04:41:01.227            14.627          7313.500
       245   07 Jun 2027 04:42:01.664   07 Jun 2027 04:42:06.254             4.590          2295.000
       246   07 Jun 2027 04:42:36.231   07 Jun 2027 04:42:52.178            15.947          7973.500
       247   07 Jun 2027 04:44:08.464   07 Jun 2027 04:44:19.740            11.276          5638.000
       248   07 Jun 2027 04:44:54.694   07 Jun 2027 04:45:14.868            20.174         10087.000
       249   07 Jun 2027 04:46:46.821   07 Jun 2027 04:46:48.742             1.921           960.500
       250   07 Jun 2027 04:47:16.543   07 Jun 2027 04:47:16.820             0.277           138.500
       251   07 Jun 2027 04:47:18.264   07 Jun 2027 04:47:23.066             4.802          2401.000
       252   07 Jun 2027 06:17:05.671   07 Jun 2027 06:17:34.357            28.686         14343.000
       253   07 Jun 2027 06:19:51.000   07 Jun 2027 06:19:51.364             0.364           182.000
       254   07 Jun 2027 06:20:09.994   07 Jun 2027 06:20:24.175            14.181          7090.500
       255   07 Jun 2027 06:21:33.860   07 Jun 2027 06:21:38.270             4.410          2205.000
       256   07 Jun 2027 06:22:03.086   07 Jun 2027 06:22:15.670            12.584          6292.000
       257   07 Jun 2027 06:23:14.251   07 Jun 2027 06:23:18.186             3.935          1967.500
       258   07 Jun 2027 07:54:29.257   07 Jun 2027 07:54:30.181             0.924           462.000
       259   07 Jun 2027 07:55:08.093   07 Jun 2027 07:55:16.373             8.280          4140.000
       260   07 Jun 2027 07:56:02.625   07 Jun 2027 07:56:10.346             7.721          3860.500
       261   07 Jun 2027 07:57:19.502   07 Jun 2027 07:57:23.740             4.238          2119.000
       262   07 Jun 2027 07:58:01.191   07 Jun 2027 07:58:09.367             8.176          4088.000
       263   07 Jun 2027 07:58:42.418   07 Jun 2027 07:58:44.749             2.331          1165.500
       264   07 Jun 2027 07:58:49.335   07 Jun 2027 07:58:50.917             1.582           791.000
       265   07 Jun 2027 09:30:41.671   07 Jun 2027 09:30:44.693             3.022          1511.000
       266   07 Jun 2027 09:31:19.298   07 Jun 2027 09:31:23.447             4.149          2074.500
       267   07 Jun 2027 09:32:05.797   07 Jun 2027 09:32:07.361             1.564           782.000
       268   07 Jun 2027 09:32:56.704   07 Jun 2027 09:33:00.653             3.949          1974.500
       269   07 Jun 2027 09:33:26.350   07 Jun 2027 09:33:31.414             5.064          2532.000
       270   07 Jun 2027 09:33:40.683   07 Jun 2027 09:33:48.041             7.358          3679.000
       271   07 Jun 2027 09:34:41.554   07 Jun 2027 09:34:51.808            10.254          5127.000
       272   08 Jun 2027 03:17:36.769   08 Jun 2027 03:17:41.804             5.035          2517.500
       273   08 Jun 2027 03:17:57.646   08 Jun 2027 03:17:57.646             0.000             0.000
       274   08 Jun 2027 03:18:28.036   08 Jun 2027 03:18:29.521             1.485           742.500
       275   08 Jun 2027 03:18:58.808   08 Jun 2027 03:19:03.218             4.410          2205.000
       276   08 Jun 2027 03:19:36.807   08 Jun 2027 03:19:39.561             2.754          1377.000
       277   08 Jun 2027 03:20:05.444   08 Jun 2027 03:20:14.287             8.843          4421.500
       278   08 Jun 2027 03:20:30.455   08 Jun 2027 03:20:42.846            12.391          6195.500
       279   08 Jun 2027 04:52:49.574   08 Jun 2027 04:53:17.090            27.516         13758.000
       280   08 Jun 2027 04:55:07.935   08 Jun 2027 04:55:15.265             7.330          3665.000
       281   08 Jun 2027 04:55:56.628   08 Jun 2027 04:56:01.997             5.369          2684.500
       282   08 Jun 2027 04:56:30.162   08 Jun 2027 04:56:33.527             3.365          1682.500
       283   08 Jun 2027 04:57:29.904   08 Jun 2027 04:57:45.353            15.449          7724.500
       284   08 Jun 2027 04:59:12.379   08 Jun 2027 04:59:19.942             7.563          3781.500
       285   08 Jun 2027 06:28:44.726   08 Jun 2027 06:28:46.210             1.484           742.000
       286   08 Jun 2027 06:29:15.805   08 Jun 2027 06:29:31.132            15.327          7663.500
       287   08 Jun 2027 06:30:32.767   08 Jun 2027 06:30:34.243             1.476           738.000
       288   08 Jun 2027 06:31:06.723   08 Jun 2027 06:31:09.426             2.703          1351.500
       289   08 Jun 2027 06:32:03.463   08 Jun 2027 06:32:11.422             7.959          3979.500
       290   08 Jun 2027 06:32:49.491   08 Jun 2027 06:33:01.577            12.086          6043.000
       291   08 Jun 2027 06:34:17.657   08 Jun 2027 06:34:20.384             2.727          1363.500
       292   08 Jun 2027 08:06:43.003   08 Jun 2027 08:06:46.317             3.314          1657.000
       293   08 Jun 2027 08:07:12.868   08 Jun 2027 08:07:31.830            18.962          9481.000
       294   08 Jun 2027 08:09:04.616   08 Jun 2027 08:09:07.087             2.471          1235.500
       295   08 Jun 2027 08:09:21.484   08 Jun 2027 08:09:32.139            10.655          5327.500
       296   08 Jun 2027 08:10:04.502   08 Jun 2027 08:10:09.037             4.535          2267.500
       297   08 Jun 2027 08:10:55.723   08 Jun 2027 08:10:57.248             1.525           762.500
       298   08 Jun 2027 09:42:35.271   08 Jun 2027 09:42:40.399             5.128          2564.000
       299   08 Jun 2027 09:43:03.601   08 Jun 2027 09:43:14.656            11.055          5527.500
       300   08 Jun 2027 09:44:50.574   08 Jun 2027 09:44:53.133             2.559          1279.500
       301   08 Jun 2027 09:45:08.056   08 Jun 2027 09:45:23.630            15.574          7787.000
       302   08 Jun 2027 09:46:41.337   08 Jun 2027 09:46:42.619             1.282           641.000
       303   08 Jun 2027 09:47:09.344   08 Jun 2027 09:47:10.078             0.734           367.000
       304   08 Jun 2027 09:47:17.108   08 Jun 2027 09:47:23.690             6.582          3291.000
       305   09 Jun 2027 03:29:20.411   09 Jun 2027 03:29:26.180             5.769          2884.500
       306   09 Jun 2027 03:30:00.390   09 Jun 2027 03:30:02.726             2.336          1168.000
       307   09 Jun 2027 03:30:17.461   09 Jun 2027 03:30:22.620             5.159          2579.500
       308   09 Jun 2027 03:30:52.282   09 Jun 2027 03:30:57.778             5.496          2748.000
       309   09 Jun 2027 03:31:34.954   09 Jun 2027 03:31:53.402            18.448          9224.000
       310   09 Jun 2027 03:32:25.194   09 Jun 2027 03:32:25.194             0.000             0.000
       311   09 Jun 2027 03:32:32.866   09 Jun 2027 03:32:36.118             3.252          1626.000
       312   09 Jun 2027 05:04:04.300   09 Jun 2027 05:04:06.050             1.750           875.000
       313   09 Jun 2027 05:04:16.531   09 Jun 2027 05:04:21.165             4.634          2317.000
       314   09 Jun 2027 05:04:56.747   09 Jun 2027 05:05:17.300            20.553         10276.500
       315   09 Jun 2027 05:06:47.530   09 Jun 2027 05:06:53.077             5.547          2773.500
       316   09 Jun 2027 05:07:04.971   09 Jun 2027 05:07:05.035             0.064            32.000
       317   09 Jun 2027 05:07:32.022   09 Jun 2027 05:07:51.818            19.796          9898.000
       318   09 Jun 2027 05:09:34.528   09 Jun 2027 05:09:36.386             1.858           929.000
       319   09 Jun 2027 05:09:57.991   09 Jun 2027 05:09:59.447             1.456           728.000
       320   09 Jun 2027 05:10:08.136   09 Jun 2027 05:10:10.101             1.965           982.500
       321   09 Jun 2027 05:11:36.447   09 Jun 2027 05:11:37.356             0.909           454.500
       322   09 Jun 2027 06:40:52.626   09 Jun 2027 06:41:28.456            35.830         17915.000
       323   09 Jun 2027 06:44:17.300   09 Jun 2027 06:44:18.217             0.917           458.500
       324   09 Jun 2027 06:44:29.237   09 Jun 2027 06:44:34.317             5.080          2540.000
       325   09 Jun 2027 06:44:54.455   09 Jun 2027 06:44:57.725             3.270          1635.000
       326   09 Jun 2027 06:45:12.545   09 Jun 2027 06:45:17.064             4.519          2259.500
       327   09 Jun 2027 06:46:01.369   09 Jun 2027 06:46:01.641             0.272           136.000
       328   09 Jun 2027 06:47:06.446   09 Jun 2027 06:47:09.379             2.933          1466.500
       329   09 Jun 2027 08:19:06.778   09 Jun 2027 08:19:21.465            14.687          7343.500
       330   09 Jun 2027 08:21:05.751   09 Jun 2027 08:21:12.684             6.933          3466.500
       331   09 Jun 2027 08:21:43.468   09 Jun 2027 08:21:50.747             7.279          3639.500
       332   09 Jun 2027 08:22:20.419   09 Jun 2027 08:22:24.965             4.546          2273.000
       333   09 Jun 2027 08:23:01.489   09 Jun 2027 08:23:02.286             0.797           398.500
       334   09 Jun 2027 09:52:24.300   09 Jun 2027 09:52:26.694             2.394          1197.000
       335   09 Jun 2027 09:52:44.221   09 Jun 2027 09:53:02.420            18.199          9099.500
       336   09 Jun 2027 09:54:17.463   09 Jun 2027 09:54:29.285            11.822          5911.000
       337   09 Jun 2027 09:55:26.624   09 Jun 2027 09:55:36.748            10.124          5062.000
       338   09 Jun 2027 09:57:02.618   09 Jun 2027 09:57:04.554             1.936           968.000
       339   09 Jun 2027 09:57:22.154   09 Jun 2027 09:57:30.441             8.287          4143.500
       340   09 Jun 2027 09:58:31.785   09 Jun 2027 09:58:37.465             5.680          2840.000
       341   09 Jun 2027 09:59:03.026   09 Jun 2027 09:59:04.081             1.055           527.500
       342   09 Jun 2027 09:59:09.503   09 Jun 2027 09:59:21.638            12.135          6067.500
       343   10 Jun 2027 03:39:14.342   10 Jun 2027 03:39:17.546             3.204          1602.000
       344   10 Jun 2027 03:41:04.581   10 Jun 2027 03:41:14.825            10.244          5122.000
       345   10 Jun 2027 03:42:17.192   10 Jun 2027 03:42:19.646             2.454          1227.000
       346   10 Jun 2027 03:42:35.649   10 Jun 2027 03:42:46.322            10.673          5336.500
       347   10 Jun 2027 03:43:23.879   10 Jun 2027 03:43:29.118             5.239          2619.500
       348   10 Jun 2027 03:43:55.704   10 Jun 2027 03:44:07.296            11.592          5796.000
       349   10 Jun 2027 03:44:42.774   10 Jun 2027 03:44:51.650             8.876          4438.000
       350   10 Jun 2027 03:45:43.803   10 Jun 2027 03:45:57.042            13.239          6619.500
       351   10 Jun 2027 05:16:12.457   10 Jun 2027 05:16:12.502             0.045            22.500
       352   10 Jun 2027 05:16:31.756   10 Jun 2027 05:16:39.628             7.872          3936.000
       353   10 Jun 2027 05:18:02.868   10 Jun 2027 05:18:06.574             3.706          1853.000
       354   10 Jun 2027 05:18:36.799   10 Jun 2027 05:18:44.585             7.786          3893.000
       355   10 Jun 2027 05:19:54.178   10 Jun 2027 05:19:56.594             2.416          1208.000
       356   10 Jun 2027 05:20:06.976   10 Jun 2027 05:20:10.471             3.495          1747.500
       357   10 Jun 2027 05:20:40.964   10 Jun 2027 05:20:45.706             4.742          2371.000
       358   10 Jun 2027 05:21:10.920   10 Jun 2027 05:21:12.070             1.150           575.000
       359   10 Jun 2027 05:21:25.711   10 Jun 2027 05:21:30.900             5.189          2594.500
       360   10 Jun 2027 05:21:54.725   10 Jun 2027 05:22:02.528             7.803          3901.500
       361   10 Jun 2027 05:22:36.809   10 Jun 2027 05:22:37.567             0.758           379.000
       362   10 Jun 2027 05:22:47.597   10 Jun 2027 05:22:50.403             2.806          1403.000
       363   10 Jun 2027 05:23:31.312   10 Jun 2027 05:23:36.506             5.194          2597.000
       364   10 Jun 2027 06:53:10.597   10 Jun 2027 06:53:21.060            10.463          5231.500
       365   10 Jun 2027 06:55:11.150   10 Jun 2027 06:55:30.594            19.444          9722.000
       366   10 Jun 2027 06:57:02.033   10 Jun 2027 06:57:13.544            11.511          5755.500
       367   10 Jun 2027 06:58:24.282   10 Jun 2027 06:58:40.967            16.685          8342.500
       368   10 Jun 2027 08:31:05.545   10 Jun 2027 08:31:11.574             6.029          3014.500
       369   10 Jun 2027 08:31:41.476   10 Jun 2027 08:31:48.134             6.658          3329.000
       370   10 Jun 2027 08:33:29.712   10 Jun 2027 08:33:30.813             1.101           550.500
       371   10 Jun 2027 08:33:31.391   10 Jun 2027 08:33:31.743             0.352           176.000
       372   10 Jun 2027 08:33:45.878   10 Jun 2027 08:33:46.293             0.415           207.500
       373   10 Jun 2027 08:34:25.860   10 Jun 2027 08:34:29.933             4.073          2036.500
       374   10 Jun 2027 10:04:24.624   10 Jun 2027 10:04:52.675            28.051         14025.500
       375   10 Jun 2027 10:05:04.914   10 Jun 2027 10:05:12.928             8.014          4007.000
       376   10 Jun 2027 10:08:10.815   10 Jun 2027 10:08:11.057             0.242           121.000
       377   10 Jun 2027 10:08:27.669   10 Jun 2027 10:08:34.459             6.790          3395.000
       378   10 Jun 2027 10:09:26.964   10 Jun 2027 10:09:30.469             3.505          1752.500
       379   10 Jun 2027 10:09:53.181   10 Jun 2027 10:10:12.072            18.891          9445.500
       380   10 Jun 2027 10:11:37.785   10 Jun 2027 10:11:41.661             3.876          1938.000
       381   10 Jun 2027 10:12:03.361   10 Jun 2027 10:12:04.612             1.251           625.500
       382   11 Jun 2027 03:50:39.324   11 Jun 2027 03:50:41.490             2.166          1083.000
       383   11 Jun 2027 03:50:50.444   11 Jun 2027 03:51:13.387            22.943         11471.500
       384   11 Jun 2027 03:52:45.582   11 Jun 2027 03:52:47.162             1.580           790.000
       385   11 Jun 2027 03:52:59.955   11 Jun 2027 03:53:04.016             4.061          2030.500
       386   11 Jun 2027 03:53:14.847   11 Jun 2027 03:53:21.420             6.573          3286.500
       387   11 Jun 2027 03:53:51.802   11 Jun 2027 03:54:06.064            14.262          7131.000
       388   11 Jun 2027 03:55:29.549   11 Jun 2027 03:55:31.860             2.311          1155.500
       389   11 Jun 2027 03:55:42.016   11 Jun 2027 03:55:43.499             1.483           741.500
       390   11 Jun 2027 03:55:58.848   11 Jun 2027 03:56:02.411             3.563          1781.500
       391   11 Jun 2027 03:56:39.943   11 Jun 2027 03:56:42.675             2.732          1366.000
       392   11 Jun 2027 03:57:22.655   11 Jun 2027 03:57:29.299             6.644          3322.000
       393   11 Jun 2027 03:58:01.127   11 Jun 2027 03:58:04.004             2.877          1438.500
       394   11 Jun 2027 03:58:45.664   11 Jun 2027 03:58:47.975             2.311          1155.500
       395   11 Jun 2027 05:28:15.200   11 Jun 2027 05:28:16.756             1.556           778.000
       396   11 Jun 2027 05:28:27.871   11 Jun 2027 05:28:31.142             3.271          1635.500
       397   11 Jun 2027 05:28:54.627   11 Jun 2027 05:28:59.245             4.618          2309.000
       398   11 Jun 2027 05:29:45.893   11 Jun 2027 05:29:51.927             6.034          3017.000
       399   11 Jun 2027 05:30:17.492   11 Jun 2027 05:30:19.399             1.907           953.500
       400   11 Jun 2027 05:30:33.252   11 Jun 2027 05:30:38.148             4.896          2448.000
       401   11 Jun 2027 05:30:57.995   11 Jun 2027 05:31:05.201             7.206          3603.000
       402   11 Jun 2027 05:31:46.494   11 Jun 2027 05:31:55.419             8.925          4462.500
       403   11 Jun 2027 05:32:36.654   11 Jun 2027 05:32:45.785             9.131          4565.500
       404   11 Jun 2027 05:33:51.762   11 Jun 2027 05:33:58.988             7.226          3613.000
       405   11 Jun 2027 05:34:28.003   11 Jun 2027 05:34:46.345            18.342          9171.000
       406   11 Jun 2027 07:05:00.139   11 Jun 2027 07:05:09.783             9.644          4822.000
       407   11 Jun 2027 07:05:54.616   11 Jun 2027 07:05:58.010             3.394          1697.000
       408   11 Jun 2027 07:06:31.152   11 Jun 2027 07:06:34.598             3.446          1723.000
       409   11 Jun 2027 07:06:57.933   11 Jun 2027 07:07:10.279            12.346          6173.000
       410   11 Jun 2027 07:08:05.612   11 Jun 2027 07:08:05.939             0.327           163.500
       411   11 Jun 2027 07:08:17.432   11 Jun 2027 07:08:20.061             2.629          1314.500
       412   11 Jun 2027 07:08:51.121   11 Jun 2027 07:08:59.486             8.365          4182.500
       413   11 Jun 2027 07:09:38.760   11 Jun 2027 07:09:44.652             5.892          2946.000
       414   11 Jun 2027 07:10:51.291   11 Jun 2027 07:10:52.356             1.065           532.500
       415   11 Jun 2027 07:11:16.566   11 Jun 2027 07:11:22.903             6.337          3168.500
       416   11 Jun 2027 08:43:04.875   11 Jun 2027 08:43:07.500             2.625          1312.500
       417   11 Jun 2027 08:43:29.048   11 Jun 2027 08:43:37.655             8.607          4303.500
       418   11 Jun 2027 08:45:08.576   11 Jun 2027 08:45:15.136             6.560          3280.000
       419   11 Jun 2027 08:45:46.801   11 Jun 2027 08:45:48.604             1.803           901.500
       420   11 Jun 2027 08:46:19.907   11 Jun 2027 08:46:25.966             6.059          3029.500
       421   11 Jun 2027 10:16:50.855   11 Jun 2027 10:17:06.882            16.027          8013.500
       422   11 Jun 2027 10:18:21.095   11 Jun 2027 10:18:23.133             2.038          1019.000
       423   11 Jun 2027 10:19:08.405   11 Jun 2027 10:19:15.234             6.829          3414.500
       424   11 Jun 2027 10:19:43.301   11 Jun 2027 10:19:44.736             1.435           717.500
       425   11 Jun 2027 10:20:29.474   11 Jun 2027 10:20:35.871             6.397          3198.500
       426   11 Jun 2027 10:21:21.430   11 Jun 2027 10:21:23.162             1.732           866.000
       427   11 Jun 2027 10:21:36.479   11 Jun 2027 10:21:48.932            12.453          6226.500
       428   11 Jun 2027 10:23:06.632   11 Jun 2027 10:23:07.309             0.677           338.500
       429   11 Jun 2027 10:23:15.727   11 Jun 2027 10:23:23.663             7.936          3968.000
       430   12 Jun 2027 04:02:09.793   12 Jun 2027 04:02:12.453             2.660          1330.000
       431   12 Jun 2027 04:02:36.689   12 Jun 2027 04:02:37.895             1.206           603.000
       432   12 Jun 2027 04:02:50.487   12 Jun 2027 04:02:57.219             6.732          3366.000
       433   12 Jun 2027 04:04:12.897   12 Jun 2027 04:04:26.638            13.741          6870.500
       434   12 Jun 2027 04:05:22.701   12 Jun 2027 04:05:24.068             1.367           683.500
       435   12 Jun 2027 04:06:11.398   12 Jun 2027 04:06:18.528             7.130          3565.000
       436   12 Jun 2027 04:07:07.504   12 Jun 2027 04:07:20.861            13.357          6678.500
       437   12 Jun 2027 04:08:48.456   12 Jun 2027 04:08:52.225             3.769          1884.500
       438   12 Jun 2027 04:10:42.976   12 Jun 2027 04:10:47.244             4.268          2134.000
       439   12 Jun 2027 04:11:06.077   12 Jun 2027 04:11:07.967             1.890           945.000
       440   12 Jun 2027 04:11:34.544   12 Jun 2027 04:11:42.457             7.913          3956.500
       441   12 Jun 2027 05:40:14.965   12 Jun 2027 05:40:19.555             4.590          2295.000
       442   12 Jun 2027 05:40:30.806   12 Jun 2027 05:40:35.086             4.280          2140.000
       443   12 Jun 2027 05:41:02.373   12 Jun 2027 05:41:20.461            18.088          9044.000
       444   12 Jun 2027 05:42:40.741   12 Jun 2027 05:42:49.974             9.233          4616.500
       445   12 Jun 2027 05:43:34.913   12 Jun 2027 05:43:42.757             7.844          3922.000
       446   12 Jun 2027 05:44:28.456   12 Jun 2027 05:44:33.354             4.898          2449.000
       447   12 Jun 2027 05:45:35.439   12 Jun 2027 05:45:46.078            10.639          5319.500
       448   12 Jun 2027 05:46:13.229   12 Jun 2027 05:46:17.513             4.284          2142.000
       449   12 Jun 2027 05:47:09.724   12 Jun 2027 05:47:19.641             9.917          4958.500
       450   12 Jun 2027 05:47:27.405   12 Jun 2027 05:47:27.540             0.135            67.500
       451   12 Jun 2027 07:17:08.281   12 Jun 2027 07:17:17.810             9.529          4764.500
       452   12 Jun 2027 07:17:51.430   12 Jun 2027 07:18:03.637            12.207          6103.500
       453   12 Jun 2027 07:19:09.054   12 Jun 2027 07:19:13.665             4.611          2305.500
       454   12 Jun 2027 07:20:05.262   12 Jun 2027 07:20:11.079             5.817          2908.500
       455   12 Jun 2027 07:21:15.967   12 Jun 2027 07:21:20.363             4.396          2198.000
       456   12 Jun 2027 07:21:46.813   12 Jun 2027 07:21:49.942             3.129          1564.500
       457   12 Jun 2027 07:22:43.352   12 Jun 2027 07:22:48.021             4.669          2334.500
       458   12 Jun 2027 07:23:06.966   12 Jun 2027 07:23:09.631             2.665          1332.500
       459   12 Jun 2027 07:23:24.915   12 Jun 2027 07:23:25.974             1.059           529.500
       460   12 Jun 2027 08:54:17.948   12 Jun 2027 08:54:20.023             2.075          1037.500
       461   12 Jun 2027 08:54:33.716   12 Jun 2027 08:54:35.361             1.645           822.500
       462   12 Jun 2027 08:55:01.894   12 Jun 2027 08:55:04.071             2.177          1088.500
       463   12 Jun 2027 08:55:35.016   12 Jun 2027 08:55:37.651             2.635          1317.500
       464   12 Jun 2027 08:55:56.959   12 Jun 2027 08:55:59.755             2.796          1398.000
       465   12 Jun 2027 08:57:10.203   12 Jun 2027 08:57:13.994             3.791          1895.500
       466   12 Jun 2027 08:57:56.974   12 Jun 2027 08:57:57.441             0.467           233.500
       467   12 Jun 2027 08:58:06.008   12 Jun 2027 08:58:08.896             2.888          1444.000
       468   12 Jun 2027 08:58:24.919   12 Jun 2027 08:58:31.152             6.233          3116.500
       469   12 Jun 2027 10:29:05.373   12 Jun 2027 10:29:08.302             2.929          1464.500
       470   12 Jun 2027 10:29:54.364   12 Jun 2027 10:30:17.042            22.678         11339.000
       471   12 Jun 2027 10:32:02.430   12 Jun 2027 10:32:10.628             8.198          4099.000
       472   12 Jun 2027 10:33:16.608   12 Jun 2027 10:33:28.201            11.593          5796.500
       473   12 Jun 2027 10:34:18.035   12 Jun 2027 10:34:19.102             1.067           533.500
       474   13 Jun 2027 04:15:09.374   13 Jun 2027 04:15:15.533             6.159          3079.500
       475   13 Jun 2027 04:16:07.952   13 Jun 2027 04:16:09.627             1.675           837.500
       476   13 Jun 2027 04:16:34.592   13 Jun 2027 04:16:42.102             7.510          3755.000
       477   13 Jun 2027 04:17:21.344   13 Jun 2027 04:17:50.390            29.046         14523.000
       478   13 Jun 2027 04:18:32.889   13 Jun 2027 04:18:33.117             0.228           114.000
       479   13 Jun 2027 04:20:12.721   13 Jun 2027 04:20:22.029             9.308          4654.000
       480   13 Jun 2027 04:20:27.286   13 Jun 2027 04:20:29.431             2.145          1072.500
       481   13 Jun 2027 04:21:38.723   13 Jun 2027 04:21:43.096             4.373          2186.500
       482   13 Jun 2027 04:21:59.091   13 Jun 2027 04:22:05.047             5.956          2978.000
       483   13 Jun 2027 04:22:43.780   13 Jun 2027 04:23:00.089            16.309          8154.500
       484   13 Jun 2027 04:23:41.748   13 Jun 2027 04:23:43.030             1.282           641.000
       485   13 Jun 2027 05:52:37.447   13 Jun 2027 05:52:43.411             5.964          2982.000
       486   13 Jun 2027 05:53:38.584   13 Jun 2027 05:53:39.917             1.333           666.500
       487   13 Jun 2027 05:54:38.174   13 Jun 2027 05:54:38.904             0.730           365.000
       488   13 Jun 2027 05:55:02.083   13 Jun 2027 05:55:06.485             4.402          2201.000
       489   13 Jun 2027 05:55:24.955   13 Jun 2027 05:55:31.225             6.270          3135.000
       490   13 Jun 2027 05:55:46.702   13 Jun 2027 05:55:54.845             8.143          4071.500
       491   13 Jun 2027 05:56:29.181   13 Jun 2027 05:56:42.930            13.749          6874.500
       492   13 Jun 2027 05:56:47.444   13 Jun 2027 05:56:50.690             3.246          1623.000
       493   13 Jun 2027 05:58:35.892   13 Jun 2027 05:58:40.377             4.485          2242.500
       494   13 Jun 2027 05:59:00.540   13 Jun 2027 05:59:00.866             0.326           163.000
       495   13 Jun 2027 05:59:03.959   13 Jun 2027 05:59:05.896             1.937           968.500
       496   13 Jun 2027 05:59:15.676   13 Jun 2027 05:59:17.543             1.867           933.500
       497   13 Jun 2027 07:29:36.514   13 Jun 2027 07:29:39.712             3.198          1599.000
       498   13 Jun 2027 07:30:10.617   13 Jun 2027 07:30:20.823            10.206          5103.000
       499   13 Jun 2027 07:31:03.964   13 Jun 2027 07:31:06.279             2.315          1157.500
       500   13 Jun 2027 07:31:27.224   13 Jun 2027 07:31:30.339             3.115          1557.500
       501   13 Jun 2027 07:32:01.637   13 Jun 2027 07:32:15.822            14.185          7092.500
       502   13 Jun 2027 07:33:19.860   13 Jun 2027 07:33:20.115             0.255           127.500
       503   13 Jun 2027 07:33:32.682   13 Jun 2027 07:33:42.297             9.615          4807.500
       504   13 Jun 2027 07:34:49.678   13 Jun 2027 07:34:50.081             0.403           201.500
       505   13 Jun 2027 07:35:02.168   13 Jun 2027 07:35:02.428             0.260           130.000
       506   13 Jun 2027 07:35:11.852   13 Jun 2027 07:35:21.778             9.926          4963.000
       507   13 Jun 2027 07:35:25.364   13 Jun 2027 07:35:28.167             2.803          1401.500
       508   13 Jun 2027 09:06:30.528   13 Jun 2027 09:06:32.353             1.825           912.500
       509   13 Jun 2027 09:06:49.165   13 Jun 2027 09:07:02.283            13.118          6559.000
       510   13 Jun 2027 09:08:17.353   13 Jun 2027 09:08:18.907             1.554           777.000
       511   13 Jun 2027 09:09:05.784   13 Jun 2027 09:09:11.369             5.585          2792.500
       512   13 Jun 2027 09:09:51.586   13 Jun 2027 09:09:54.634             3.048          1524.000
       513   13 Jun 2027 09:10:21.202   13 Jun 2027 09:10:22.685             1.483           741.500
       514   13 Jun 2027 09:10:26.245   13 Jun 2027 09:10:31.235             4.990          2495.000
       515   13 Jun 2027 09:11:01.924   13 Jun 2027 09:11:06.997             5.073          2536.500
       516   13 Jun 2027 10:43:40.088   13 Jun 2027 10:43:50.181            10.093          5046.500
       517   13 Jun 2027 10:44:38.980   13 Jun 2027 10:44:42.871             3.891          1945.500
       518   13 Jun 2027 10:45:10.117   13 Jun 2027 10:45:12.464             2.347          1173.500
       519   13 Jun 2027 10:45:32.207   13 Jun 2027 10:45:33.277             1.070           535.000
       520   13 Jun 2027 10:45:59.544   13 Jun 2027 10:46:08.850             9.306          4653.000
