uniorb/output/strategy_2/Camera/Camera_KinoSat_111504.txt

KinoSat_111504
-------------------------
    Access    *     Start Time (UTCG)     *     Stop Time (UTCG)  *   Duration (s) *   Data (Mbytes)
         1   01 Jun 2027 03:27:50.362   01 Jun 2027 03:28:04.085            13.723          6861.500
         2   01 Jun 2027 03:28:52.698   01 Jun 2027 03:31:47.295           174.597         87298.500
         3   01 Jun 2027 03:32:46.840   01 Jun 2027 03:33:17.340            30.500         15250.000
         4   01 Jun 2027 03:33:57.976   01 Jun 2027 03:33:58.932             0.956           478.000
         5   01 Jun 2027 03:35:59.479   01 Jun 2027 03:36:40.428            40.949         20474.500
         6   01 Jun 2027 05:06:01.420   01 Jun 2027 05:06:39.491            38.071         19035.500
         7   01 Jun 2027 05:07:08.816   01 Jun 2027 05:07:20.972            12.156          6078.000
         8   01 Jun 2027 05:07:39.051   01 Jun 2027 05:09:14.481            95.430         47715.000
         9   01 Jun 2027 05:09:25.295   01 Jun 2027 05:09:37.984            12.689          6344.500
        10   01 Jun 2027 06:30:07.416   01 Jun 2027 06:30:34.197            26.781         13390.500
        11   01 Jun 2027 06:30:43.196   01 Jun 2027 06:30:51.988             8.792          4396.000
        12   01 Jun 2027 08:05:52.859   01 Jun 2027 08:08:16.587           143.728         71864.000
        13   01 Jun 2027 09:40:50.165   01 Jun 2027 09:42:53.739           123.574         61787.000
        14   01 Jun 2027 09:43:15.036   01 Jun 2027 09:43:51.649            36.613         18306.500
        15   01 Jun 2027 09:44:08.198   01 Jun 2027 09:44:51.587            43.389         21694.500
        16   01 Jun 2027 09:45:28.780   01 Jun 2027 09:45:32.645             3.865          1932.500
        17   01 Jun 2027 09:45:56.217   01 Jun 2027 09:46:05.680             9.463          4731.500
        18   01 Jun 2027 11:17:02.808   01 Jun 2027 11:17:53.921            51.113         25556.500
        19   01 Jun 2027 11:21:23.422   01 Jun 2027 11:22:14.525            51.103         25551.500
        20   01 Jun 2027 11:22:57.640   01 Jun 2027 11:23:01.616             3.976          1988.000
        21   02 Jun 2027 03:40:55.750   02 Jun 2027 03:43:55.510           179.760         89880.000
        22   02 Jun 2027 03:44:35.976   02 Jun 2027 03:44:49.663            13.687          6843.500
        23   02 Jun 2027 03:47:04.694   02 Jun 2027 03:47:12.843             8.149          4074.500
        24   02 Jun 2027 03:47:33.316   02 Jun 2027 03:47:33.316             0.000             0.000
        25   02 Jun 2027 03:47:54.595   02 Jun 2027 03:48:34.605            40.010         20005.000
        26   02 Jun 2027 05:06:53.591   02 Jun 2027 05:07:27.787            34.196         17098.000
        27   02 Jun 2027 05:17:57.625   02 Jun 2027 05:19:14.481            76.856         38428.000
        28   02 Jun 2027 05:19:56.681   02 Jun 2027 05:20:00.047             3.366          1683.000
        29   02 Jun 2027 05:20:04.465   02 Jun 2027 05:20:21.195            16.730          8365.000
        30   02 Jun 2027 05:20:56.223   02 Jun 2027 05:20:58.276             2.053          1026.500
        31   02 Jun 2027 06:40:56.076   02 Jun 2027 06:42:26.145            90.069         45034.500
        32   02 Jun 2027 06:44:28.341   02 Jun 2027 06:44:51.434            23.093         11546.500
        33   02 Jun 2027 08:16:28.360   02 Jun 2027 08:16:38.897            10.537          5268.500
        34   02 Jun 2027 08:17:38.838   02 Jun 2027 08:18:56.985            78.147         39073.500
        35   02 Jun 2027 08:20:07.928   02 Jun 2027 08:20:19.741            11.813          5906.500
        36   02 Jun 2027 08:20:28.624   02 Jun 2027 08:20:31.826             3.202          1431.469
        37   02 Jun 2027 08:21:32.955   02 Jun 2027 08:21:36.848             3.893          1910.281
        38   02 Jun 2027 09:52:23.671   02 Jun 2027 09:52:26.027             2.356          1178.000
        39   02 Jun 2027 09:53:02.738   02 Jun 2027 09:53:08.882             6.144          3072.000
        40   02 Jun 2027 09:53:31.493   02 Jun 2027 09:53:36.786             5.293          2374.031
        41   02 Jun 2027 09:53:58.038   02 Jun 2027 09:53:59.769             1.731           383.156
        42   02 Jun 2027 09:54:06.906   02 Jun 2027 09:54:08.633             1.727           134.313
        43   02 Jun 2027 09:54:36.676   02 Jun 2027 09:54:36.864             0.188            94.000
        44   02 Jun 2027 09:55:25.209   02 Jun 2027 09:55:30.653             5.444          2292.375
        45   02 Jun 2027 09:56:15.353   02 Jun 2027 09:56:22.217             6.864           716.656
        46   02 Jun 2027 09:56:28.007   02 Jun 2027 09:56:28.876             0.869            18.344
        47   02 Jun 2027 09:57:08.893   02 Jun 2027 09:57:13.792             4.899           964.719
        48   02 Jun 2027 09:57:47.613   02 Jun 2027 09:57:50.417             2.804           515.562
        49   02 Jun 2027 09:57:57.125   02 Jun 2027 09:57:57.688             0.563           209.625
        50   02 Jun 2027 09:58:28.582   02 Jun 2027 09:58:31.857             3.275           965.438
        51   02 Jun 2027 09:59:28.231   02 Jun 2027 09:59:37.096             8.865          1761.688
        52   02 Jun 2027 09:59:53.936   02 Jun 2027 09:59:58.128             4.192           526.250
        53   02 Jun 2027 11:29:25.061   02 Jun 2027 11:29:35.608            10.547          5273.500
        54   02 Jun 2027 11:29:38.479   02 Jun 2027 11:29:43.262             4.783          1140.656
        55   02 Jun 2027 11:30:51.898   02 Jun 2027 11:30:59.668             7.770          2118.344
        56   02 Jun 2027 11:31:15.577   02 Jun 2027 11:31:16.815             1.238           497.156
        57   02 Jun 2027 11:31:30.760   02 Jun 2027 11:31:33.967             3.207           398.281
        58   02 Jun 2027 11:31:37.679   02 Jun 2027 11:31:38.956             1.277           102.500
        59   02 Jun 2027 11:33:03.416   02 Jun 2027 11:33:08.216             4.800          2218.656
        60   02 Jun 2027 11:33:22.549   02 Jun 2027 11:33:24.792             2.243           382.906
        61   02 Jun 2027 11:33:40.291   02 Jun 2027 11:33:43.034             2.743           330.781
        62   02 Jun 2027 11:34:14.840   02 Jun 2027 11:34:19.038             4.198           993.938
        63   02 Jun 2027 11:35:22.885   02 Jun 2027 11:35:27.343             4.458          1971.562
        64   03 Jun 2027 03:53:21.974   03 Jun 2027 03:55:54.321           152.347         76173.500
        65   03 Jun 2027 03:56:50.962   03 Jun 2027 03:56:52.620             1.658           829.000
        66   03 Jun 2027 03:57:19.859   03 Jun 2027 03:57:47.599            27.740         13870.000
        67   03 Jun 2027 03:58:12.039   03 Jun 2027 03:59:14.571            62.532         31266.000
        68   03 Jun 2027 04:00:09.859   03 Jun 2027 04:00:32.746            22.887         11443.500
        69   03 Jun 2027 05:18:17.331   03 Jun 2027 05:19:09.463            52.132         26066.000
        70   03 Jun 2027 05:30:00.218   03 Jun 2027 05:30:28.232            28.014         14007.000
        71   03 Jun 2027 05:30:50.579   03 Jun 2027 05:30:59.906             9.327          3835.469
        72   03 Jun 2027 06:52:12.708   03 Jun 2027 06:52:24.360            11.652          5423.781
        73   03 Jun 2027 06:52:42.031   03 Jun 2027 06:52:44.459             2.428           552.219
        74   03 Jun 2027 06:53:07.461   03 Jun 2027 06:53:14.191             6.730           553.000
        75   03 Jun 2027 06:55:03.162   03 Jun 2027 06:55:09.493             6.331          2136.250
        76   03 Jun 2027 06:55:53.189   03 Jun 2027 06:55:53.189             0.000             0.000
        77   03 Jun 2027 08:27:20.077   03 Jun 2027 08:27:31.310            11.233          4709.344
        78   03 Jun 2027 08:27:52.183   03 Jun 2027 08:27:53.054             0.871           214.875
        79   03 Jun 2027 08:28:44.850   03 Jun 2027 08:28:44.850             0.000             0.000
        80   03 Jun 2027 08:29:22.070   03 Jun 2027 08:29:28.806             6.736          2353.406
        81   03 Jun 2027 08:30:57.915   03 Jun 2027 08:30:57.915             0.000             0.000
        82   03 Jun 2027 08:31:38.412   03 Jun 2027 08:31:46.180             7.768          3689.750
        83   03 Jun 2027 08:32:55.919   03 Jun 2027 08:33:08.491            12.572          1998.469
        84   03 Jun 2027 08:33:13.723   03 Jun 2027 08:33:14.233             0.510           129.406
        85   03 Jun 2027 08:33:31.375   03 Jun 2027 08:33:33.789             2.414           535.687
        86   03 Jun 2027 08:35:18.911   03 Jun 2027 08:35:21.942             3.031          1515.500
        87   03 Jun 2027 10:04:33.425   03 Jun 2027 10:04:45.378            11.953          4833.313
        88   03 Jun 2027 10:05:50.712   03 Jun 2027 10:05:53.907             3.195           159.188
        89   03 Jun 2027 10:08:12.275   03 Jun 2027 10:08:12.275             0.000             0.000
        90   03 Jun 2027 10:09:05.736   03 Jun 2027 10:09:15.275             9.539          4757.156
        91   03 Jun 2027 10:11:00.991   03 Jun 2027 10:11:08.138             7.147          2625.688
        92   03 Jun 2027 10:11:17.351   03 Jun 2027 10:11:20.052             2.701           287.906
        93   03 Jun 2027 10:11:58.290   03 Jun 2027 10:11:58.852             0.562           281.000
        94   03 Jun 2027 11:41:29.662   03 Jun 2027 11:41:44.138            14.476          7238.000
        95   03 Jun 2027 11:42:59.937   03 Jun 2027 11:43:06.085             6.148          2728.188
        96   03 Jun 2027 11:43:12.985   03 Jun 2027 11:43:14.385             1.400           215.625
        97   03 Jun 2027 11:43:20.037   03 Jun 2027 11:43:20.930             0.893           144.781
        98   03 Jun 2027 11:43:39.518   03 Jun 2027 11:43:42.624             3.106           395.344
        99   03 Jun 2027 11:44:16.771   03 Jun 2027 11:44:17.801             1.030           495.875
       100   03 Jun 2027 11:44:57.029   03 Jun 2027 11:45:01.529             4.500          1225.875
       101   03 Jun 2027 11:46:13.928   03 Jun 2027 11:46:23.738             9.810          2220.219
       102   03 Jun 2027 11:47:05.847   03 Jun 2027 11:47:09.912             4.065          1315.906
       103   03 Jun 2027 11:47:16.290   03 Jun 2027 11:47:20.085             3.795           119.469
       104   03 Jun 2027 11:47:25.541   03 Jun 2027 11:47:27.097             1.556           106.656
       105   03 Jun 2027 11:47:35.154   03 Jun 2027 11:47:35.154             0.000             0.000
       106   04 Jun 2027 04:05:35.531   04 Jun 2027 04:07:53.876           138.345         69172.500
       107   04 Jun 2027 04:08:33.811   04 Jun 2027 04:08:52.567            18.756          9378.000
       108   04 Jun 2027 04:08:57.485   04 Jun 2027 04:10:01.204            63.719         31859.500
       109   04 Jun 2027 04:12:23.163   04 Jun 2027 04:12:34.984            11.821          5910.500
       110   04 Jun 2027 05:29:45.252   04 Jun 2027 05:30:32.966            47.714         23857.000
       111   04 Jun 2027 05:41:57.473   04 Jun 2027 05:42:34.259            36.786         18393.000
       112   04 Jun 2027 07:03:58.343   04 Jun 2027 07:04:11.699            13.356          5905.344
       113   04 Jun 2027 07:05:08.960   04 Jun 2027 07:05:12.143             3.183          1585.062
       114   04 Jun 2027 07:06:10.522   04 Jun 2027 07:06:14.570             4.048          1792.750
       115   04 Jun 2027 07:06:34.664   04 Jun 2027 07:06:40.067             5.403           146.750
       116   04 Jun 2027 07:07:39.401   04 Jun 2027 07:07:41.241             1.840           920.000
       117   04 Jun 2027 07:08:53.534   04 Jun 2027 07:09:04.940            11.406          3185.031
       118   04 Jun 2027 07:09:21.443   04 Jun 2027 07:09:24.253             2.810           515.719
       119   04 Jun 2027 08:38:49.534   04 Jun 2027 08:39:01.650            12.116          4040.406
       120   04 Jun 2027 08:39:35.322   04 Jun 2027 08:39:35.322             0.000             0.000
       121   04 Jun 2027 08:40:28.904   04 Jun 2027 08:40:33.772             4.868          1814.781
       122   04 Jun 2027 08:40:46.219   04 Jun 2027 08:40:50.539             4.320           388.969
       123   04 Jun 2027 08:41:18.740   04 Jun 2027 08:41:18.740             0.000             0.000
       124   04 Jun 2027 08:42:58.491   04 Jun 2027 08:43:09.722            11.231          3967.969
       125   04 Jun 2027 08:44:29.632   04 Jun 2027 08:44:39.577             9.945          2359.125
       126   04 Jun 2027 08:47:06.357   04 Jun 2027 08:47:15.763             9.406          3145.188
       127   04 Jun 2027 08:47:24.272   04 Jun 2027 08:47:25.879             1.607           153.406
       128   04 Jun 2027 10:16:35.479   04 Jun 2027 10:16:54.619            19.140          4924.625
       129   04 Jun 2027 10:17:25.341   04 Jun 2027 10:17:31.759             6.418           960.063
       130   04 Jun 2027 10:17:37.793   04 Jun 2027 10:17:39.978             2.185           188.562
       131   04 Jun 2027 10:17:53.685   04 Jun 2027 10:17:54.177             0.492           246.000
       132   04 Jun 2027 10:19:18.514   04 Jun 2027 10:19:24.605             6.091          2817.875
       133   04 Jun 2027 10:19:50.056   04 Jun 2027 10:20:00.546            10.490           753.500
       134   04 Jun 2027 10:20:33.873   04 Jun 2027 10:20:35.710             1.837           918.500
       135   04 Jun 2027 10:22:15.096   04 Jun 2027 10:22:15.096             0.000             0.000
       136   04 Jun 2027 10:22:38.739   04 Jun 2027 10:22:46.312             7.573          3786.500
       137   04 Jun 2027 10:23:24.873   04 Jun 2027 10:23:29.701             4.828          1378.156
       138   04 Jun 2027 11:53:23.092   04 Jun 2027 11:53:35.092            12.000          5891.719
       139   04 Jun 2027 11:53:37.963   04 Jun 2027 11:53:39.356             1.393            52.656
       140   04 Jun 2027 11:54:18.444   04 Jun 2027 11:54:21.686             3.242           763.906
       141   04 Jun 2027 11:55:34.072   04 Jun 2027 11:55:38.385             4.313          1670.594
       142   04 Jun 2027 11:55:40.746   04 Jun 2027 11:55:41.152             0.406            73.781
       143   04 Jun 2027 11:56:11.064   04 Jun 2027 11:56:12.997             1.933           934.750
       144   04 Jun 2027 11:56:38.260   04 Jun 2027 11:56:40.223             1.963           789.469
       145   04 Jun 2027 11:56:50.504   04 Jun 2027 11:56:57.570             7.066           321.281
       146   04 Jun 2027 11:57:34.109   04 Jun 2027 11:57:34.109             0.000             0.000
       147   04 Jun 2027 11:57:35.847   04 Jun 2027 11:57:36.581             0.734           367.000
       148   04 Jun 2027 11:57:45.097   04 Jun 2027 11:57:47.311             2.214          1095.281
       149   04 Jun 2027 11:58:16.385   04 Jun 2027 11:58:29.208            12.823           908.562
       150   04 Jun 2027 11:59:15.666   04 Jun 2027 11:59:16.719             1.053           526.500
       151   04 Jun 2027 11:59:41.004   04 Jun 2027 11:59:47.436             6.432          1577.875
       152   05 Jun 2027 04:17:45.151   05 Jun 2027 04:19:28.443           103.292         51646.000
       153   05 Jun 2027 04:19:43.336   05 Jun 2027 04:21:17.294            93.958         46979.000
       154   05 Jun 2027 04:21:34.072   05 Jun 2027 04:21:51.009            16.937          8468.500
       155   05 Jun 2027 05:41:48.220   05 Jun 2027 05:42:38.407            50.187         25093.500
       156   05 Jun 2027 05:43:28.525   05 Jun 2027 05:43:38.677            10.152          5076.000
       157   05 Jun 2027 07:17:45.422   05 Jun 2027 07:18:43.926            58.504         28318.750
       158   05 Jun 2027 07:19:09.687   05 Jun 2027 07:19:13.018             3.331           720.344
       159   05 Jun 2027 07:20:54.135   05 Jun 2027 07:21:00.545             6.410          2824.344
       160   05 Jun 2027 08:51:35.293   05 Jun 2027 08:51:45.353            10.060          4737.219
       161   05 Jun 2027 08:52:10.586   05 Jun 2027 08:52:14.625             4.039           406.344
       162   05 Jun 2027 08:52:55.554   05 Jun 2027 08:52:56.846             1.292           261.563
       163   05 Jun 2027 08:53:45.416   05 Jun 2027 08:53:49.016             3.600           700.031
       164   05 Jun 2027 08:54:07.050   05 Jun 2027 08:54:07.735             0.685           190.781
       165   05 Jun 2027 08:57:18.234   05 Jun 2027 08:57:30.128            11.894          4823.938
       166   05 Jun 2027 08:57:58.266   05 Jun 2027 08:58:00.068             1.802           805.156
       167   05 Jun 2027 08:59:25.496   05 Jun 2027 08:59:31.074             5.578          2483.375
       168   05 Jun 2027 09:00:03.704   05 Jun 2027 09:00:04.337             0.633           316.500
       169   05 Jun 2027 10:28:38.793   05 Jun 2027 10:29:00.625            21.832          6861.375
       170   05 Jun 2027 10:30:31.732   05 Jun 2027 10:30:36.091             4.359          2073.438
       171   05 Jun 2027 10:31:20.501   05 Jun 2027 10:31:24.565             4.064          1205.250
       172   05 Jun 2027 10:33:03.085   05 Jun 2027 10:33:03.085             0.000             0.000
       173   05 Jun 2027 10:33:28.431   05 Jun 2027 10:33:38.653            10.222          3826.438
       174   05 Jun 2027 10:33:45.603   05 Jun 2027 10:33:46.915             1.312            51.563
       175   05 Jun 2027 10:34:09.146   05 Jun 2027 10:34:10.602             1.456           688.906
       176   05 Jun 2027 10:34:22.907   05 Jun 2027 10:34:24.998             2.091           243.719
       177   05 Jun 2027 10:34:31.761   05 Jun 2027 10:34:32.276             0.515           139.781
       178   05 Jun 2027 10:34:48.529   05 Jun 2027 10:34:54.624             6.095           443.531
       179   05 Jun 2027 10:35:09.828   05 Jun 2027 10:35:15.071             5.243           475.125
       180   05 Jun 2027 10:35:31.360   05 Jun 2027 10:35:32.921             1.561           509.031
       181   06 Jun 2027 04:30:18.993   06 Jun 2027 04:32:09.919           110.926         55463.000
       182   06 Jun 2027 04:33:08.847   06 Jun 2027 04:34:53.147           104.300         52150.000
       183   06 Jun 2027 05:53:42.449   06 Jun 2027 05:54:55.252            72.803         36401.500
       184   06 Jun 2027 07:30:04.093   06 Jun 2027 07:30:41.380            37.287         17311.125
       185   06 Jun 2027 07:31:20.826   06 Jun 2027 07:31:24.923             4.097          1232.687
       186   06 Jun 2027 07:32:02.789   06 Jun 2027 07:32:02.789             0.000             0.000
       187   06 Jun 2027 07:32:10.565   06 Jun 2027 07:32:20.234             9.669          1095.875
       188   06 Jun 2027 07:33:04.450   06 Jun 2027 07:33:04.450             0.000             0.000
       189   06 Jun 2027 09:03:33.538   06 Jun 2027 09:03:43.744            10.206          4175.563
       190   06 Jun 2027 09:05:26.530   06 Jun 2027 09:05:26.530             0.000             0.000
       191   06 Jun 2027 09:06:23.392   06 Jun 2027 09:06:29.727             6.335          2991.156
       192   06 Jun 2027 09:06:58.231   06 Jun 2027 09:07:06.400             8.169           616.969
       193   06 Jun 2027 09:09:13.174   06 Jun 2027 09:09:21.329             8.155          3469.844
       194   06 Jun 2027 09:10:36.901   06 Jun 2027 09:10:40.853             3.952          1976.000
       195   06 Jun 2027 09:10:58.130   06 Jun 2027 09:11:06.651             8.521           925.531
       196   06 Jun 2027 10:41:05.323   06 Jun 2027 10:41:21.180            15.857          6670.438
       197   06 Jun 2027 10:41:43.969   06 Jun 2027 10:41:44.856             0.887           279.094
       198   06 Jun 2027 10:41:59.802   06 Jun 2027 10:42:00.401             0.599           235.844
       199   06 Jun 2027 10:42:40.205   06 Jun 2027 10:42:43.406             3.201           804.344
       200   06 Jun 2027 10:42:51.584   06 Jun 2027 10:42:56.420             4.836             8.781
       201   06 Jun 2027 10:43:25.094   06 Jun 2027 10:43:28.052             2.958           576.000
       202   06 Jun 2027 10:43:50.611   06 Jun 2027 10:43:53.234             2.623           704.969
       203   06 Jun 2027 10:44:42.050   06 Jun 2027 10:44:46.560             4.510          1483.469
       204   06 Jun 2027 10:45:53.576   06 Jun 2027 10:45:56.941             3.365          1682.500
       205   06 Jun 2027 10:46:18.759   06 Jun 2027 10:46:24.343             5.584          1035.500
       206   06 Jun 2027 10:46:50.133   06 Jun 2027 10:46:55.136             5.003           760.031
       207   06 Jun 2027 10:47:43.139   06 Jun 2027 10:47:49.405             6.266          1175.188
       208   07 Jun 2027 03:03:53.951   07 Jun 2027 03:04:00.691             6.740          3370.000
       209   07 Jun 2027 03:04:10.150   07 Jun 2027 03:05:34.294            84.144         42072.000
       210   07 Jun 2027 03:05:52.314   07 Jun 2027 03:05:52.314             0.000             0.000
       211   07 Jun 2027 03:07:18.162   07 Jun 2027 03:07:25.172             7.010          3505.000
       212   07 Jun 2027 03:07:33.082   07 Jun 2027 03:07:34.826             1.744           872.000
       213   07 Jun 2027 03:08:01.255   07 Jun 2027 03:08:17.016            15.761          7880.500
       214   07 Jun 2027 03:08:27.232   07 Jun 2027 03:08:51.048            23.816         11908.000
       215   07 Jun 2027 03:09:14.747   07 Jun 2027 03:09:22.523             7.776          3888.000
       216   07 Jun 2027 03:09:33.703   07 Jun 2027 03:09:33.840             0.137            68.500
       217   07 Jun 2027 04:41:57.551   07 Jun 2027 04:43:25.181            87.630         43815.000
       218   07 Jun 2027 04:43:50.619   07 Jun 2027 04:44:50.307            59.688         29844.000
       219   07 Jun 2027 04:45:32.716   07 Jun 2027 04:45:43.560            10.844          5422.000
       220   07 Jun 2027 04:46:15.112   07 Jun 2027 04:46:26.122            11.010          4970.687
       221   07 Jun 2027 06:05:33.620   07 Jun 2027 06:05:43.840            10.220          5110.000
       222   07 Jun 2027 06:07:47.252   07 Jun 2027 06:07:53.010             5.758          2879.000
       223   07 Jun 2027 07:42:05.977   07 Jun 2027 07:42:18.760            12.783          6259.344
       224   07 Jun 2027 07:42:43.062   07 Jun 2027 07:42:43.889             0.827           329.687
       225   07 Jun 2027 07:43:03.474   07 Jun 2027 07:43:05.165             1.691           587.562
       226   07 Jun 2027 07:43:10.532   07 Jun 2027 07:43:12.250             1.718           156.250
       227   07 Jun 2027 07:43:53.171   07 Jun 2027 07:43:53.854             0.683           341.500
       228   07 Jun 2027 07:44:02.737   07 Jun 2027 07:44:06.043             3.306           506.531
       229   07 Jun 2027 07:44:54.063   07 Jun 2027 07:45:02.728             8.665          1500.625
       230   07 Jun 2027 09:16:35.439   07 Jun 2027 09:16:46.024            10.585          3864.344
       231   07 Jun 2027 09:18:02.503   07 Jun 2027 09:18:08.280             5.777          2340.406
       232   07 Jun 2027 09:18:47.872   07 Jun 2027 09:18:57.168             9.296           814.344
       233   07 Jun 2027 09:19:45.377   07 Jun 2027 09:19:47.549             2.172           477.219
       234   07 Jun 2027 09:21:00.502   07 Jun 2027 09:21:01.781             1.279           639.500
       235   07 Jun 2027 09:21:51.506   07 Jun 2027 09:22:00.447             8.941          2554.594
       236   07 Jun 2027 09:22:12.210   07 Jun 2027 09:22:18.362             6.152           296.500
       237   07 Jun 2027 09:23:53.016   07 Jun 2027 09:23:57.713             4.697          2348.500
       238   07 Jun 2027 10:53:12.879   07 Jun 2027 10:53:34.325            21.446          8792.438
       239   07 Jun 2027 10:55:06.208   07 Jun 2027 10:55:12.819             6.611          1234.969
       240   07 Jun 2027 10:55:52.332   07 Jun 2027 10:55:53.124             0.792           396.000
       241   07 Jun 2027 10:56:22.971   07 Jun 2027 10:56:30.379             7.408          1251.625
       242   07 Jun 2027 10:57:12.956   07 Jun 2027 10:57:17.540             4.584          1324.813
       243   07 Jun 2027 10:57:54.065   07 Jun 2027 10:57:57.539             3.474           543.938
       244   07 Jun 2027 10:58:04.049   07 Jun 2027 10:58:07.003             2.954           119.188
       245   07 Jun 2027 10:58:14.140   07 Jun 2027 10:58:16.073             1.933           223.031
       246   07 Jun 2027 10:58:27.589   07 Jun 2027 10:58:29.030             1.441           321.500
       247   07 Jun 2027 10:59:14.110   07 Jun 2027 10:59:18.215             4.105           839.687
       248   07 Jun 2027 10:59:44.209   07 Jun 2027 10:59:46.119             1.910           809.375
       249   08 Jun 2027 03:16:02.359   08 Jun 2027 03:17:02.095            59.736         29868.000
       250   08 Jun 2027 03:17:11.657   08 Jun 2027 03:19:01.573           109.916         54958.000
       251   08 Jun 2027 03:20:06.574   08 Jun 2027 03:20:06.574             0.000             0.000
       252   08 Jun 2027 03:20:58.030   08 Jun 2027 03:21:16.310            18.280          9140.000
       253   08 Jun 2027 03:21:36.147   08 Jun 2027 03:22:21.014            44.867         22433.500
       254   08 Jun 2027 04:54:21.080   08 Jun 2027 04:54:50.919            29.839         14919.500
       255   08 Jun 2027 04:55:09.820   08 Jun 2027 04:56:20.415            70.595         34132.094
       256   08 Jun 2027 04:56:43.358   08 Jun 2027 04:56:48.667             5.309           412.375
       257   08 Jun 2027 04:57:24.671   08 Jun 2027 04:57:24.671             0.000             0.000
       258   08 Jun 2027 04:57:40.082   08 Jun 2027 04:57:41.308             1.226           613.000
       259   08 Jun 2027 04:57:44.290   08 Jun 2027 04:57:47.901             3.611           717.375
       260   08 Jun 2027 06:17:43.955   08 Jun 2027 06:17:58.148            14.193          6345.156
       261   08 Jun 2027 06:19:15.537   08 Jun 2027 06:19:15.537             0.000             0.000
       262   08 Jun 2027 06:19:50.103   08 Jun 2027 06:19:57.712             7.609          3443.781
       263   08 Jun 2027 07:54:15.433   08 Jun 2027 07:54:22.609             7.176          3487.062
       264   08 Jun 2027 07:55:12.141   08 Jun 2027 07:55:18.327             6.186          1400.031
       265   08 Jun 2027 07:55:26.422   08 Jun 2027 07:55:26.925             0.503           177.938
       266   08 Jun 2027 07:56:19.506   08 Jun 2027 07:56:22.674             3.168          1563.938
       267   08 Jun 2027 09:29:24.627   08 Jun 2027 09:29:37.100            12.473          4679.562
       268   08 Jun 2027 09:29:46.041   08 Jun 2027 09:29:49.825             3.784           194.875
       269   08 Jun 2027 09:30:49.368   08 Jun 2027 09:30:52.939             3.571           152.594
       270   08 Jun 2027 09:32:23.546   08 Jun 2027 09:32:30.579             7.033          1333.937
       271   08 Jun 2027 09:33:10.153   08 Jun 2027 09:33:11.861             1.708           812.625
       272   08 Jun 2027 09:33:20.661   08 Jun 2027 09:33:24.901             4.240            21.000
       273   08 Jun 2027 09:33:53.263   08 Jun 2027 09:33:56.952             3.689           546.563
       274   08 Jun 2027 09:34:29.416   08 Jun 2027 09:34:31.412             1.996           776.969
       275   08 Jun 2027 09:35:52.135   08 Jun 2027 09:35:58.811             6.676          2314.375
       276   08 Jun 2027 11:05:48.251   08 Jun 2027 11:06:01.659            13.408          6008.375
       277   08 Jun 2027 11:06:56.356   08 Jun 2027 11:07:18.179            21.823          1220.437
       278   08 Jun 2027 11:07:31.045   08 Jun 2027 11:07:32.802             1.757           151.875
       279   08 Jun 2027 11:07:44.439   08 Jun 2027 11:07:44.957             0.518           155.719
       280   08 Jun 2027 11:07:48.826   08 Jun 2027 11:07:50.615             1.789           120.906
       281   08 Jun 2027 11:07:56.817   08 Jun 2027 11:08:05.324             8.507           193.813
       282   08 Jun 2027 11:08:25.293   08 Jun 2027 11:08:35.954            10.661           624.031
       283   08 Jun 2027 11:09:15.036   08 Jun 2027 11:09:17.002             1.966           687.938
       284   08 Jun 2027 11:09:45.634   08 Jun 2027 11:09:48.071             2.437           706.312
       285   08 Jun 2027 11:10:02.609   08 Jun 2027 11:10:03.653             1.044           111.688
       286   08 Jun 2027 11:10:11.049   08 Jun 2027 11:10:13.690             2.641           198.000
       287   08 Jun 2027 11:10:53.449   08 Jun 2027 11:10:55.672             2.223          1111.500
       288   08 Jun 2027 11:11:03.307   08 Jun 2027 11:11:05.268             1.961           369.562
       289   08 Jun 2027 11:11:22.916   08 Jun 2027 11:11:25.369             2.453           398.187
       290   08 Jun 2027 11:11:39.264   08 Jun 2027 11:11:45.445             6.181           428.375
       291   09 Jun 2027 03:28:07.331   09 Jun 2027 03:28:18.446            11.115          5557.500
       292   09 Jun 2027 03:29:09.207   09 Jun 2027 03:32:05.429           176.222         88111.000
       293   09 Jun 2027 03:33:01.829   09 Jun 2027 03:33:02.388             0.559           279.500
       294   09 Jun 2027 03:33:32.142   09 Jun 2027 03:33:36.011             3.869          1934.500
       295   09 Jun 2027 03:34:10.072   09 Jun 2027 03:34:16.782             6.710          3355.000
       296   09 Jun 2027 03:35:43.169   09 Jun 2027 03:35:56.554            13.385          6692.500
       297   09 Jun 2027 05:06:17.866   09 Jun 2027 05:06:56.521            38.655         19327.500
       298   09 Jun 2027 05:07:22.842   09 Jun 2027 05:08:06.111            43.269         21634.500
       299   09 Jun 2027 05:08:18.586   09 Jun 2027 05:08:21.806             3.220           740.218
       300   09 Jun 2027 05:09:17.381   09 Jun 2027 05:09:20.379             2.998          1474.906
       301   09 Jun 2027 05:09:23.028   09 Jun 2027 05:09:24.063             1.035            82.781
       302   09 Jun 2027 05:09:41.989   09 Jun 2027 05:09:45.242             3.253           402.375
       303   09 Jun 2027 06:30:21.824   09 Jun 2027 06:30:40.275            18.451          8828.875
       304   09 Jun 2027 06:30:42.768   09 Jun 2027 06:30:47.598             4.830            77.906
       305   09 Jun 2027 06:32:26.800   09 Jun 2027 06:32:33.171             6.371          3100.062
       306   09 Jun 2027 08:06:08.847   09 Jun 2027 08:06:16.836             7.989          3159.438
       307   09 Jun 2027 08:07:13.565   09 Jun 2027 08:07:19.376             5.811          1669.531
       308   09 Jun 2027 08:07:32.750   09 Jun 2027 08:07:36.275             3.525           417.938
       309   09 Jun 2027 08:07:42.715   09 Jun 2027 08:07:44.666             1.951           158.656
       310   09 Jun 2027 08:08:06.040   09 Jun 2027 08:08:09.232             3.192           326.500
       311   09 Jun 2027 08:08:35.366   09 Jun 2027 08:08:35.437             0.071            35.500
       312   09 Jun 2027 08:08:51.567   09 Jun 2027 08:08:55.491             3.924          1229.687
       313   09 Jun 2027 09:41:06.285   09 Jun 2027 09:41:20.540            14.255          4619.969
       314   09 Jun 2027 09:43:12.618   09 Jun 2027 09:43:20.758             8.140          3190.219
       315   09 Jun 2027 09:43:54.555   09 Jun 2027 09:43:58.814             4.259           635.406
       316   09 Jun 2027 09:45:08.413   09 Jun 2027 09:45:12.327             3.914          1957.000
       317   09 Jun 2027 09:47:43.663   09 Jun 2027 09:47:56.128            12.465          4861.781
       318   09 Jun 2027 09:48:04.335   09 Jun 2027 09:48:05.720             1.385           256.469
       319   09 Jun 2027 11:17:20.329   09 Jun 2027 11:17:37.667            17.338          7382.219
       320   09 Jun 2027 11:17:52.402   09 Jun 2027 11:17:53.716             1.314           268.563
       321   09 Jun 2027 11:18:50.664   09 Jun 2027 11:19:00.495             9.831          1707.969
       322   09 Jun 2027 11:19:27.861   09 Jun 2027 11:19:28.390             0.529           264.500
       323   09 Jun 2027 11:19:51.708   09 Jun 2027 11:19:53.784             2.076           963.781
       324   09 Jun 2027 11:20:28.491   09 Jun 2027 11:20:34.016             5.525           822.500
       325   09 Jun 2027 11:21:12.023   09 Jun 2027 11:21:17.117             5.094           854.937
       326   09 Jun 2027 11:21:38.514   09 Jun 2027 11:21:39.038             0.524           262.000
       327   09 Jun 2027 11:22:24.440   09 Jun 2027 11:22:29.249             4.809          1825.469
       328   10 Jun 2027 03:41:12.629   10 Jun 2027 03:44:12.632           180.003         90001.500
       329   10 Jun 2027 03:44:38.140   10 Jun 2027 03:45:05.164            27.024         13512.000
       330   10 Jun 2027 03:45:34.713   10 Jun 2027 03:45:43.803             9.090          4545.000
       331   10 Jun 2027 03:46:11.880   10 Jun 2027 03:46:18.633             6.753          3376.500
       332   10 Jun 2027 05:07:07.491   10 Jun 2027 05:07:51.941            44.450         22225.000
       333   10 Jun 2027 05:18:14.267   10 Jun 2027 05:18:55.265            40.998         20434.188
       334   10 Jun 2027 05:19:13.058   10 Jun 2027 05:19:17.721             4.663           556.031
       335   10 Jun 2027 05:20:20.373   10 Jun 2027 05:20:22.589             2.216          1108.000
       336   10 Jun 2027 05:20:36.129   10 Jun 2027 05:20:36.129             0.000             0.000
       337   10 Jun 2027 05:21:10.839   10 Jun 2027 05:21:14.786             3.947          1656.063
       338   10 Jun 2027 05:21:16.570   10 Jun 2027 05:21:22.868             6.298            31.969
       339   10 Jun 2027 06:41:11.360   10 Jun 2027 06:41:23.115            11.755          4726.656
       340   10 Jun 2027 06:42:03.893   10 Jun 2027 06:42:06.575             2.682          1274.313
       341   10 Jun 2027 06:42:27.263   10 Jun 2027 06:42:29.231             1.968           456.531
       342   10 Jun 2027 06:42:42.537   10 Jun 2027 06:42:42.537             0.000             0.000
       343   10 Jun 2027 06:42:46.004   10 Jun 2027 06:42:47.617             1.613           399.313
       344   10 Jun 2027 06:44:16.881   10 Jun 2027 06:44:22.269             5.388          2471.000
       345   10 Jun 2027 08:16:29.076   10 Jun 2027 08:16:40.860            11.784          4958.156
       346   10 Jun 2027 08:18:31.908   10 Jun 2027 08:18:37.773             5.865          2808.500
       347   10 Jun 2027 08:19:31.011   10 Jun 2027 08:19:33.285             2.274          1137.000
       348   10 Jun 2027 08:20:36.919   10 Jun 2027 08:20:43.714             6.795          2009.562
       349   10 Jun 2027 08:21:00.192   10 Jun 2027 08:21:00.192             0.000             0.000
       350   10 Jun 2027 08:21:34.351   10 Jun 2027 08:21:38.043             3.692          1524.688
       351   10 Jun 2027 09:52:39.364   10 Jun 2027 09:52:42.953             3.589          1794.500
       352   10 Jun 2027 09:53:11.440   10 Jun 2027 09:53:19.611             8.171          3758.031
       353   10 Jun 2027 09:54:18.227   10 Jun 2027 09:54:23.262             5.035          1672.500
       354   10 Jun 2027 09:54:52.694   10 Jun 2027 09:54:56.258             3.564           916.250
       355   10 Jun 2027 09:55:41.537   10 Jun 2027 09:55:42.596             1.059           366.625
       356   10 Jun 2027 09:57:17.058   10 Jun 2027 09:57:17.058             0.000             0.000
       357   10 Jun 2027 09:58:36.849   10 Jun 2027 09:58:47.901            11.052          5388.719
       358   10 Jun 2027 09:59:55.893   10 Jun 2027 09:59:59.601             3.708          1781.344
       359   10 Jun 2027 11:29:42.071   10 Jun 2027 11:29:59.070            16.999          8242.969
       360   10 Jun 2027 11:31:21.461   10 Jun 2027 11:31:28.911             7.450          2530.844
       361   10 Jun 2027 11:31:34.710   10 Jun 2027 11:31:36.261             1.551           167.312
       362   10 Jun 2027 11:31:49.457   10 Jun 2027 11:31:53.518             4.061           379.469
       363   10 Jun 2027 11:32:23.116   10 Jun 2027 11:32:27.151             4.035           907.688
       364   10 Jun 2027 11:32:41.554   10 Jun 2027 11:32:43.059             1.505           443.031
       365   10 Jun 2027 11:33:44.795   10 Jun 2027 11:33:52.057             7.262          1781.375
       366   10 Jun 2027 11:34:03.714   10 Jun 2027 11:34:09.755             6.041           327.687
       367   10 Jun 2027 11:34:32.260   10 Jun 2027 11:34:33.776             1.516           703.281
       368   10 Jun 2027 11:35:38.891   10 Jun 2027 11:35:42.944             4.053          1964.531
       369   11 Jun 2027 03:53:42.335   11 Jun 2027 03:55:42.016           119.681         59840.500
       370   11 Jun 2027 03:56:10.037   11 Jun 2027 03:56:33.229            23.192         11596.000
       371   11 Jun 2027 03:57:03.011   11 Jun 2027 03:57:06.416             3.405          1702.500
       372   11 Jun 2027 03:57:18.202   11 Jun 2027 03:58:26.584            68.382         34191.000
       373   11 Jun 2027 03:58:45.534   11 Jun 2027 03:59:12.137            26.603         13301.500
       374   11 Jun 2027 04:00:13.513   11 Jun 2027 04:00:17.457             3.944          1972.000
       375   11 Jun 2027 04:00:27.283   11 Jun 2027 04:00:49.641            22.358         11179.000
       376   11 Jun 2027 05:18:34.171   11 Jun 2027 05:18:52.969            18.798          9399.000
       377   11 Jun 2027 05:19:45.907   11 Jun 2027 05:20:04.694            18.787          9393.500
       378   11 Jun 2027 05:30:17.159   11 Jun 2027 05:30:43.264            26.105         13052.500
       379   11 Jun 2027 05:31:05.201   11 Jun 2027 05:31:19.522            14.321          6975.343
       380   11 Jun 2027 06:52:29.808   11 Jun 2027 06:52:38.960             9.152          4576.000
       381   11 Jun 2027 06:52:50.045   11 Jun 2027 06:52:51.381             1.336           562.094
       382   11 Jun 2027 06:53:24.737   11 Jun 2027 06:53:28.879             4.142           547.531
       383   11 Jun 2027 06:54:57.453   11 Jun 2027 06:55:01.182             3.729          1661.687
       384   11 Jun 2027 06:56:45.029   11 Jun 2027 06:56:54.028             8.999          2911.219
       385   11 Jun 2027 06:57:02.359   11 Jun 2027 06:57:04.515             2.156           260.344
       386   11 Jun 2027 06:57:25.031   11 Jun 2027 06:57:26.568             1.537           596.000
       387   11 Jun 2027 08:27:35.524   11 Jun 2027 08:27:46.489            10.965          3975.219
       388   11 Jun 2027 08:29:37.839   11 Jun 2027 08:29:43.382             5.543          1842.719
       389   11 Jun 2027 08:30:34.937   11 Jun 2027 08:30:38.571             3.634          1242.062
       390   11 Jun 2027 08:31:10.557   11 Jun 2027 08:31:12.576             2.019           682.469
       391   11 Jun 2027 08:31:31.284   11 Jun 2027 08:31:34.180             2.896           509.875
       392   11 Jun 2027 08:32:45.272   11 Jun 2027 08:32:46.279             1.007           503.500
       393   11 Jun 2027 08:33:05.170   11 Jun 2027 08:33:08.142             2.972          1486.000
       394   11 Jun 2027 08:33:23.581   11 Jun 2027 08:33:26.904             3.323           627.906
       395   11 Jun 2027 08:33:48.924   11 Jun 2027 08:33:48.924             0.000             0.000
       396   11 Jun 2027 08:33:54.445   11 Jun 2027 08:33:57.069             2.624           860.656
       397   11 Jun 2027 10:04:52.064   11 Jun 2027 10:05:00.676             8.612          4069.125
       398   11 Jun 2027 10:05:22.973   11 Jun 2027 10:05:29.144             6.171           474.875
       399   11 Jun 2027 10:05:59.937   11 Jun 2027 10:06:01.453             1.516           758.000
       400   11 Jun 2027 10:06:06.721   11 Jun 2027 10:06:08.292             1.571           228.188
       401   11 Jun 2027 10:07:43.548   11 Jun 2027 10:07:49.630             6.082          2951.594
       402   11 Jun 2027 10:08:14.062   11 Jun 2027 10:08:21.220             7.158           394.844
       403   11 Jun 2027 10:10:35.048   11 Jun 2027 10:10:44.535             9.487          4178.719
       404   11 Jun 2027 10:11:26.508   11 Jun 2027 10:11:32.382             5.874          1177.062
       405   11 Jun 2027 10:12:15.113   11 Jun 2027 10:12:15.669             0.556           278.000
       406   11 Jun 2027 11:41:45.177   11 Jun 2027 11:42:00.035            14.858          7113.969
       407   11 Jun 2027 11:42:35.353   11 Jun 2027 11:42:38.296             2.943          1103.688
       408   11 Jun 2027 11:43:05.145   11 Jun 2027 11:43:10.933             5.788           357.312
       409   11 Jun 2027 11:44:26.984   11 Jun 2027 11:44:30.071             3.087          1543.500
       410   11 Jun 2027 11:45:22.980   11 Jun 2027 11:45:32.061             9.081          2292.562
       411   11 Jun 2027 11:46:31.600   11 Jun 2027 11:46:39.603             8.003          1678.812
       412   11 Jun 2027 11:47:22.229   11 Jun 2027 11:47:25.070             2.841          1332.063
       413   12 Jun 2027 04:05:51.281   12 Jun 2027 04:08:39.529           168.248         84124.000
       414   12 Jun 2027 04:09:48.089   12 Jun 2027 04:10:02.912            14.823          7411.500
       415   12 Jun 2027 04:10:15.759   12 Jun 2027 04:10:39.103            23.344         11672.000
       416   12 Jun 2027 04:11:53.301   12 Jun 2027 04:12:10.088            16.787          8393.500
       417   12 Jun 2027 05:30:03.119   12 Jun 2027 05:31:02.095            58.976         29488.000
       418   12 Jun 2027 05:42:18.069   12 Jun 2027 05:42:50.015            31.946         15973.000
       419   12 Jun 2027 07:04:15.039   12 Jun 2027 07:04:31.948            16.909          6296.594
       420   12 Jun 2027 07:05:26.222   12 Jun 2027 07:05:27.804             1.582           791.000
       421   12 Jun 2027 07:05:30.761   12 Jun 2027 07:05:32.931             2.170           944.031
       422   12 Jun 2027 07:06:21.200   12 Jun 2027 07:06:23.094             1.894           793.125
       423   12 Jun 2027 07:07:42.702   12 Jun 2027 07:07:48.957             6.255          2322.375
       424   12 Jun 2027 07:09:47.147   12 Jun 2027 07:09:51.828             4.681          2340.500
       425   12 Jun 2027 08:39:04.487   12 Jun 2027 08:39:15.636            11.149          3668.312
       426   12 Jun 2027 08:40:46.498   12 Jun 2027 08:40:51.240             4.742          1823.969
       427   12 Jun 2027 08:41:03.466   12 Jun 2027 08:41:05.192             1.726           382.062
       428   12 Jun 2027 08:41:33.444   12 Jun 2027 08:41:33.444             0.000             0.000
       429   12 Jun 2027 08:43:16.192   12 Jun 2027 08:43:25.363             9.171          3991.719
       430   12 Jun 2027 08:44:46.494   12 Jun 2027 08:44:54.274             7.780          2337.156
       431   12 Jun 2027 08:46:12.651   12 Jun 2027 08:46:16.306             3.655          1627.437
       432   12 Jun 2027 08:47:22.790   12 Jun 2027 08:47:25.965             3.175          1300.656
       433   12 Jun 2027 10:16:51.760   12 Jun 2027 10:17:02.663            10.903          5192.937
       434   12 Jun 2027 10:18:28.716   12 Jun 2027 10:18:33.663             4.947          2372.344
       435   12 Jun 2027 10:20:55.246   12 Jun 2027 10:21:04.465             9.219          3895.406
       436   12 Jun 2027 10:21:34.615   12 Jun 2027 10:21:34.615             0.000             0.000
       437   12 Jun 2027 10:22:53.582   12 Jun 2027 10:22:59.628             6.046          3023.000
       438   12 Jun 2027 10:23:01.634   12 Jun 2027 10:23:02.591             0.957           449.594
       439   12 Jun 2027 10:23:41.041   12 Jun 2027 10:23:45.135             4.094          1126.437
       440   12 Jun 2027 11:53:36.715   12 Jun 2027 11:53:51.588            14.873          7436.500
       441   12 Jun 2027 11:54:04.168   12 Jun 2027 11:54:06.704             2.536          1259.031
       442   12 Jun 2027 11:54:56.039   12 Jun 2027 11:55:05.516             9.477          1083.656
       443   12 Jun 2027 11:55:31.568   12 Jun 2027 11:55:38.845             7.277           468.500
       444   12 Jun 2027 11:55:48.346   12 Jun 2027 11:55:50.883             2.537           296.906
       445   12 Jun 2027 11:55:57.065   12 Jun 2027 11:56:01.385             4.320           146.188
       446   12 Jun 2027 11:56:28.343   12 Jun 2027 11:56:28.343             0.000             0.000
       447   12 Jun 2027 11:56:38.625   12 Jun 2027 11:56:40.217             1.592           796.000
       448   12 Jun 2027 11:57:17.388   12 Jun 2027 11:57:20.424             3.036          1372.469
       449   12 Jun 2027 11:57:52.601   12 Jun 2027 11:57:56.011             3.410          1005.531
       450   12 Jun 2027 11:58:05.639   12 Jun 2027 11:58:10.520             4.881           188.187
       451   12 Jun 2027 11:59:24.415   12 Jun 2027 11:59:27.051             2.636          1318.000
       452   12 Jun 2027 11:59:40.753   12 Jun 2027 11:59:47.681             6.928          1419.406
       453   13 Jun 2027 04:18:01.878   13 Jun 2027 04:20:43.145           161.267         80633.500
       454   13 Jun 2027 04:21:32.484   13 Jun 2027 04:21:36.628             4.144          2072.000
       455   13 Jun 2027 04:21:50.779   13 Jun 2027 04:22:29.362            38.583         19291.500
       456   13 Jun 2027 05:42:04.245   13 Jun 2027 05:43:10.305            66.060         33030.000
       457   13 Jun 2027 07:18:02.306   13 Jun 2027 07:19:00.750            58.444         28997.657
       458   13 Jun 2027 07:20:21.626   13 Jun 2027 07:20:31.838            10.212          2469.031
       459   13 Jun 2027 07:20:53.590   13 Jun 2027 07:20:55.208             1.618           621.219
       460   13 Jun 2027 08:51:51.448   13 Jun 2027 08:52:01.024             9.576          3751.125
       461   13 Jun 2027 08:53:38.210   13 Jun 2027 08:53:40.474             2.264          1045.562
       462   13 Jun 2027 08:55:16.280   13 Jun 2027 08:55:16.280             0.000             0.000
       463   13 Jun 2027 08:58:06.751   13 Jun 2027 08:58:22.206            15.455          7727.500
       464   13 Jun 2027 08:59:00.500   13 Jun 2027 08:59:03.608             3.108          1457.906
       465   13 Jun 2027 08:59:21.606   13 Jun 2027 08:59:25.965             4.359            80.469
       466   13 Jun 2027 10:28:57.435   13 Jun 2027 10:29:14.132            16.697          6802.281
       467   13 Jun 2027 10:31:41.695   13 Jun 2027 10:31:48.868             7.173          3575.437
       468   13 Jun 2027 10:32:33.128   13 Jun 2027 10:32:35.966             2.838           832.187
       469   13 Jun 2027 10:33:05.297   13 Jun 2027 10:33:07.231             1.934           615.094
       470   13 Jun 2027 10:33:55.732   13 Jun 2027 10:33:57.902             2.170          1024.156
       471   13 Jun 2027 10:34:01.349   13 Jun 2027 10:34:01.811             0.462            70.188
       472   13 Jun 2027 10:34:18.495   13 Jun 2027 10:34:18.947             0.452           222.344
       473   13 Jun 2027 10:35:27.111   13 Jun 2027 10:35:31.573             4.462          1873.031
       474   13 Jun 2027 10:35:47.477   13 Jun 2027 10:35:48.978             1.501           497.000
