uniorb/output/strategy_2/Camera/Camera_KinoSat_111804.txt

KinoSat_111804
-------------------------
    Access    *     Start Time (UTCG)     *     Stop Time (UTCG)  *   Duration (s) *   Data (Mbytes)
         1   01 Jun 2027 03:14:15.176   01 Jun 2027 03:17:12.644           177.468         88734.000
         2   01 Jun 2027 03:17:27.124   01 Jun 2027 03:17:31.578             4.454          2227.000
         3   01 Jun 2027 03:19:04.748   01 Jun 2027 03:19:04.748             0.000             0.000
         4   01 Jun 2027 03:19:36.527   01 Jun 2027 03:19:50.757            14.230          7115.000
         5   01 Jun 2027 03:20:01.510   01 Jun 2027 03:20:04.850             3.340          1670.000
         6   01 Jun 2027 03:20:17.610   01 Jun 2027 03:20:32.304            14.694          7347.000
         7   01 Jun 2027 03:20:35.519   01 Jun 2027 03:20:51.323            15.804          7902.000
         8   01 Jun 2027 04:53:30.992   01 Jun 2027 04:55:53.432           142.440         71220.000
         9   01 Jun 2027 04:56:03.629   01 Jun 2027 04:57:05.090            61.461         30730.500
        10   01 Jun 2027 04:57:14.154   01 Jun 2027 04:57:20.278             6.124          3062.000
        11   01 Jun 2027 04:58:50.850   01 Jun 2027 04:59:09.601            18.751          9375.500
        12   01 Jun 2027 05:00:28.213   01 Jun 2027 05:01:05.518            37.305         18652.500
        13   01 Jun 2027 06:19:58.025   01 Jun 2027 06:20:06.522             8.497          4248.500
        14   01 Jun 2027 06:30:33.404   01 Jun 2027 06:31:34.789            61.385         30692.500
        15   01 Jun 2027 06:31:43.772   01 Jun 2027 06:32:00.749            16.977          8488.500
        16   01 Jun 2027 06:33:12.659   01 Jun 2027 06:33:12.659             0.000             0.000
        17   01 Jun 2027 06:33:25.740   01 Jun 2027 06:33:31.191             5.451          2725.500
        18   01 Jun 2027 07:53:52.908   01 Jun 2027 07:55:21.117            88.209         44104.500
        19   01 Jun 2027 09:30:15.598   01 Jun 2027 09:30:35.692            20.094         10047.000
        20   01 Jun 2027 09:32:27.452   01 Jun 2027 09:33:03.087            35.635         17817.500
        21   01 Jun 2027 09:33:33.180   01 Jun 2027 09:34:31.888            58.708         29354.000
        22   01 Jun 2027 11:05:00.768   01 Jun 2027 11:07:31.222           150.454         75227.000
        23   01 Jun 2027 11:11:54.896   01 Jun 2027 11:12:33.227            38.331         19165.500
        24   02 Jun 2027 03:26:53.436   02 Jun 2027 03:28:40.150           106.714         53357.000
        25   02 Jun 2027 03:29:30.850   02 Jun 2027 03:29:41.152            10.302          5151.000
        26   02 Jun 2027 03:29:53.226   02 Jun 2027 03:30:05.194            11.968          5984.000
        27   02 Jun 2027 03:30:05.712   02 Jun 2027 03:30:08.997             3.285          1642.500
        28   02 Jun 2027 03:30:40.870   02 Jun 2027 03:31:13.005            32.135         16067.500
        29   02 Jun 2027 03:31:28.247   02 Jun 2027 03:31:52.452            24.205         12102.500
        30   02 Jun 2027 03:32:07.890   02 Jun 2027 03:32:29.828            21.938         10969.000
        31   02 Jun 2027 03:32:55.318   02 Jun 2027 03:33:05.578            10.260          5130.000
        32   02 Jun 2027 05:05:54.917   02 Jun 2027 05:06:59.763            64.846         32423.000
        33   02 Jun 2027 05:08:28.529   02 Jun 2027 05:09:39.703            71.174         35587.000
        34   02 Jun 2027 05:10:17.740   02 Jun 2027 05:10:30.707            12.967          6483.500
        35   02 Jun 2027 05:10:48.142   02 Jun 2027 05:10:48.324             0.182            91.000
        36   02 Jun 2027 05:11:18.727   02 Jun 2027 05:11:26.867             8.140          4070.000
        37   02 Jun 2027 05:11:37.460   02 Jun 2027 05:11:51.336            13.876          6938.000
        38   02 Jun 2027 05:12:43.862   02 Jun 2027 05:13:09.787            25.925         12962.500
        39   02 Jun 2027 06:30:55.264   02 Jun 2027 06:31:30.176            34.912         17456.000
        40   02 Jun 2027 06:42:35.297   02 Jun 2027 06:43:39.574            64.277         32138.500
        41   02 Jun 2027 08:04:51.203   02 Jun 2027 08:06:07.074            75.871         37935.500
        42   02 Jun 2027 08:06:48.229   02 Jun 2027 08:07:07.253            19.024          9512.000
        43   02 Jun 2027 09:40:03.321   02 Jun 2027 09:40:18.459            15.138          7569.000
        44   02 Jun 2027 09:41:14.924   02 Jun 2027 09:41:25.716            10.792          2963.563
        45   02 Jun 2027 09:42:53.695   02 Jun 2027 09:42:53.695             0.000             0.000
        46   02 Jun 2027 09:43:37.437   02 Jun 2027 09:43:45.493             8.056          3415.531
        47   02 Jun 2027 11:17:08.025   02 Jun 2027 11:17:11.482             3.457          1728.500
        48   02 Jun 2027 11:18:21.756   02 Jun 2027 11:18:45.976            24.220         11303.813
        49   02 Jun 2027 11:19:58.208   02 Jun 2027 11:20:02.811             4.603          2179.000
        50   02 Jun 2027 11:20:31.205   02 Jun 2027 11:20:33.021             1.816           839.219
        51   02 Jun 2027 11:20:39.081   02 Jun 2027 11:20:40.420             1.339           189.375
        52   02 Jun 2027 11:21:38.472   02 Jun 2027 11:21:42.159             3.687          1761.656
        53   02 Jun 2027 11:22:49.378   02 Jun 2027 11:22:51.900             2.522          1153.313
        54   02 Jun 2027 11:23:22.300   02 Jun 2027 11:23:26.388             4.088           488.031
        55   02 Jun 2027 11:23:47.427   02 Jun 2027 11:23:52.030             4.603           657.469
        56   02 Jun 2027 11:24:11.380   02 Jun 2027 11:24:13.024             1.644           135.344
        57   02 Jun 2027 11:24:17.528   02 Jun 2027 11:24:31.537            14.009           140.750
        58   03 Jun 2027 03:39:11.375   03 Jun 2027 03:41:52.359           160.984         80492.000
        59   03 Jun 2027 03:43:27.825   03 Jun 2027 03:44:20.279            52.454         26227.000
        60   03 Jun 2027 03:44:53.431   03 Jun 2027 03:44:57.001             3.570          1785.000
        61   03 Jun 2027 05:18:50.219   03 Jun 2027 05:20:31.327           101.108         49063.094
        62   03 Jun 2027 05:21:46.899   03 Jun 2027 05:21:57.486            10.587          1348.062
        63   03 Jun 2027 05:22:31.287   03 Jun 2027 05:22:35.900             4.613           748.625
        64   03 Jun 2027 05:24:46.400   03 Jun 2027 05:24:54.513             8.113          3752.219
        65   03 Jun 2027 06:42:17.155   03 Jun 2027 06:42:31.035            13.880          5541.375
        66   03 Jun 2027 06:43:31.895   03 Jun 2027 06:43:36.338             4.443          1881.687
        67   03 Jun 2027 06:44:14.103   03 Jun 2027 06:44:14.103             0.000             0.000
        68   03 Jun 2027 06:54:32.345   03 Jun 2027 06:54:38.719             6.374          2838.000
        69   03 Jun 2027 08:16:32.957   03 Jun 2027 08:16:50.396            17.439          8067.937
        70   03 Jun 2027 08:17:48.957   03 Jun 2027 08:17:50.795             1.838           919.000
        71   03 Jun 2027 08:19:20.335   03 Jun 2027 08:19:29.071             8.736          3351.094
        72   03 Jun 2027 08:20:41.040   03 Jun 2027 08:20:45.168             4.128          1883.969
        73   03 Jun 2027 08:21:14.000   03 Jun 2027 08:21:16.197             2.197           787.000
        74   03 Jun 2027 09:51:30.879   03 Jun 2027 09:51:46.030            15.151          4541.813
        75   03 Jun 2027 09:53:04.938   03 Jun 2027 09:53:05.836             0.898           449.000
        76   03 Jun 2027 09:53:57.952   03 Jun 2027 09:54:01.787             3.835          1917.500
        77   03 Jun 2027 09:58:19.190   03 Jun 2027 09:58:28.781             9.591          4795.500
        78   03 Jun 2027 09:59:43.075   03 Jun 2027 09:59:54.418            11.343          5641.937
        79   03 Jun 2027 11:31:08.842   03 Jun 2027 11:31:28.458            19.616          9622.875
        80   03 Jun 2027 11:35:19.681   03 Jun 2027 11:35:34.239            14.558          6400.063
        81   03 Jun 2027 11:36:16.483   03 Jun 2027 11:36:37.156            20.673          1199.687
        82   04 Jun 2027 03:51:57.389   04 Jun 2027 03:52:22.608            25.219         12609.500
        83   04 Jun 2027 03:52:24.955   04 Jun 2027 03:53:29.060            64.105         32052.500
        84   04 Jun 2027 03:55:04.054   04 Jun 2027 03:56:42.453            98.399         49199.500
        85   04 Jun 2027 03:57:04.748   04 Jun 2027 03:57:26.398            21.650         10825.000
        86   04 Jun 2027 05:30:19.564   04 Jun 2027 05:31:53.809            94.245         47122.500
        87   04 Jun 2027 05:32:28.554   04 Jun 2027 05:32:44.552            15.998          5277.219
        88   04 Jun 2027 05:34:22.560   04 Jun 2027 05:34:24.028             1.468           734.000
        89   04 Jun 2027 05:34:25.143   04 Jun 2027 05:34:36.434            11.291          2202.281
        90   04 Jun 2027 05:35:56.693   04 Jun 2027 05:36:08.642            11.949          2246.000
        91   04 Jun 2027 06:54:24.672   04 Jun 2027 06:54:40.169            15.497          7228.000
        92   04 Jun 2027 06:55:05.825   04 Jun 2027 06:55:08.400             2.575           553.875
        93   04 Jun 2027 06:55:33.500   04 Jun 2027 06:55:39.320             5.820           423.313
        94   04 Jun 2027 06:56:02.235   04 Jun 2027 06:56:02.235             0.000             0.000
        95   04 Jun 2027 06:56:09.039   04 Jun 2027 06:56:11.723             2.684           242.625
        96   04 Jun 2027 08:28:12.655   04 Jun 2027 08:28:30.811            18.156          8804.781
        97   04 Jun 2027 08:30:17.219   04 Jun 2027 08:30:17.219             0.000             0.000
        98   04 Jun 2027 08:31:07.137   04 Jun 2027 08:31:17.783            10.646          4273.656
        99   04 Jun 2027 08:33:23.835   04 Jun 2027 08:33:34.939            11.104          3902.750
       100   04 Jun 2027 10:03:04.779   04 Jun 2027 10:03:10.411             5.632          2816.000
       101   04 Jun 2027 10:04:02.010   04 Jun 2027 10:04:07.199             5.189          2400.563
       102   04 Jun 2027 10:05:33.211   04 Jun 2027 10:05:37.274             4.063           814.156
       103   04 Jun 2027 10:06:46.186   04 Jun 2027 10:06:47.372             1.186           593.000
       104   04 Jun 2027 10:08:59.222   04 Jun 2027 10:09:13.216            13.994          5183.938
       105   04 Jun 2027 10:12:05.910   04 Jun 2027 10:12:17.750            11.840          5272.594
       106   04 Jun 2027 11:41:12.964   04 Jun 2027 11:41:25.269            12.305          5662.344
       107   04 Jun 2027 11:41:58.906   04 Jun 2027 11:42:00.594             1.688           597.344
       108   04 Jun 2027 11:42:03.632   04 Jun 2027 11:42:03.836             0.204            94.938
       109   04 Jun 2027 11:42:46.508   04 Jun 2027 11:42:48.733             2.225           839.906
       110   04 Jun 2027 11:43:33.203   04 Jun 2027 11:43:35.810             2.607          1246.781
       111   04 Jun 2027 11:44:02.423   04 Jun 2027 11:44:05.147             2.724           617.094
       112   04 Jun 2027 11:44:43.992   04 Jun 2027 11:44:48.381             4.389          1114.063
       113   04 Jun 2027 11:45:46.118   04 Jun 2027 11:45:48.365             2.247          1072.750
       114   04 Jun 2027 11:46:47.256   04 Jun 2027 11:47:00.530            13.274          1840.344
       115   04 Jun 2027 11:47:22.634   04 Jun 2027 11:47:22.634             0.000             0.000
       116   04 Jun 2027 11:47:55.345   04 Jun 2027 11:47:57.086             1.741           870.500
       117   04 Jun 2027 11:48:15.677   04 Jun 2027 11:48:16.904             1.227           613.500
       118   05 Jun 2027 04:04:30.131   05 Jun 2027 04:05:22.127            51.996         25998.000
       119   05 Jun 2027 04:05:32.108   05 Jun 2027 04:06:14.047            41.939         20969.500
       120   05 Jun 2027 04:06:14.597   05 Jun 2027 04:08:01.024           106.427         53213.500
       121   05 Jun 2027 04:08:55.922   05 Jun 2027 04:09:09.938            14.016          7008.000
       122   05 Jun 2027 05:42:54.294   05 Jun 2027 05:43:56.686            62.392         31196.000
       123   05 Jun 2027 05:44:37.787   05 Jun 2027 05:45:16.686            38.899         18976.812
       124   05 Jun 2027 05:46:11.678   05 Jun 2027 05:46:11.678             0.000             0.000
       125   05 Jun 2027 07:06:20.197   05 Jun 2027 07:06:34.800            14.603          6906.562
       126   05 Jun 2027 07:07:34.965   05 Jun 2027 07:07:39.655             4.690          1639.219
       127   05 Jun 2027 08:42:35.051   05 Jun 2027 08:42:47.003            11.952          5412.219
       128   05 Jun 2027 08:43:08.686   05 Jun 2027 08:43:08.686             0.000             0.000
       129   05 Jun 2027 08:43:12.171   05 Jun 2027 08:43:15.868             3.697           390.531
       130   05 Jun 2027 10:16:07.597   05 Jun 2027 10:16:23.294            15.697          6601.750
       131   05 Jun 2027 10:18:26.414   05 Jun 2027 10:18:34.948             8.534          2449.031
       132   05 Jun 2027 10:22:02.987   05 Jun 2027 10:22:06.219             3.232          1616.000
       133   05 Jun 2027 10:23:41.178   05 Jun 2027 10:23:58.660            17.482          7627.594
       134   05 Jun 2027 10:24:18.889   05 Jun 2027 10:24:21.764             2.875           632.156
       135   05 Jun 2027 10:24:32.444   05 Jun 2027 10:24:40.126             7.682           299.281
       136   05 Jun 2027 11:53:40.173   05 Jun 2027 11:53:54.844            14.671          7053.438
       137   05 Jun 2027 11:55:59.977   05 Jun 2027 11:56:03.875             3.898          1786.531
       138   05 Jun 2027 11:56:30.125   05 Jun 2027 11:56:38.794             8.669           820.312
       139   05 Jun 2027 11:57:01.414   05 Jun 2027 11:57:05.219             3.805           706.875
       140   05 Jun 2027 11:58:01.260   05 Jun 2027 11:58:06.543             5.283          1751.281
       141   05 Jun 2027 11:58:09.669   05 Jun 2027 11:58:12.831             3.162            97.688
       142   06 Jun 2027 04:16:29.966   06 Jun 2027 04:16:37.878             7.912          3956.000
       143   06 Jun 2027 04:16:45.018   06 Jun 2027 04:17:27.532            42.514         21257.000
       144   06 Jun 2027 04:18:26.094   06 Jun 2027 04:21:22.067           175.973         87986.500
       145   06 Jun 2027 04:22:10.336   06 Jun 2027 04:22:15.730             5.394          2697.000
       146   06 Jun 2027 04:22:22.034   06 Jun 2027 04:22:22.034             0.000             0.000
       147   06 Jun 2027 05:54:33.192   06 Jun 2027 05:56:07.157            93.965         46545.313
       148   06 Jun 2027 05:57:48.516   06 Jun 2027 05:57:54.187             5.671          2482.469
       149   06 Jun 2027 05:58:46.265   06 Jun 2027 05:58:48.554             2.289            98.625
       150   06 Jun 2027 05:59:11.482   06 Jun 2027 05:59:16.114             4.632           716.500
       151   06 Jun 2027 07:18:12.212   06 Jun 2027 07:18:25.628            13.416          6177.906
       152   06 Jun 2027 07:19:36.231   06 Jun 2027 07:19:36.231             0.000             0.000
       153   06 Jun 2027 07:20:11.099   06 Jun 2027 07:20:20.774             9.675          3010.000
       154   06 Jun 2027 08:54:39.411   06 Jun 2027 08:54:50.845            11.434          5556.188
       155   06 Jun 2027 08:57:24.357   06 Jun 2027 08:57:35.641            11.284          4797.250
       156   06 Jun 2027 10:26:54.510   06 Jun 2027 10:26:56.701             2.191          1095.500
       157   06 Jun 2027 10:29:08.422   06 Jun 2027 10:29:22.242            13.820          6750.938
       158   06 Jun 2027 10:32:09.619   06 Jun 2027 10:32:16.393             6.774          2955.469
       159   06 Jun 2027 10:33:58.188   06 Jun 2027 10:34:02.250             4.062          2031.000
       160   06 Jun 2027 10:34:49.299   06 Jun 2027 10:34:56.110             6.811          2568.219
       161   06 Jun 2027 10:35:57.279   06 Jun 2027 10:36:01.661             4.382          1361.125
       162   06 Jun 2027 10:36:15.326   06 Jun 2027 10:36:18.174             2.848           424.687
       163   06 Jun 2027 10:36:35.890   06 Jun 2027 10:36:36.050             0.160            80.000
       164   07 Jun 2027 04:28:38.364   07 Jun 2027 04:29:38.480            60.116         30058.000
       165   07 Jun 2027 04:29:47.443   07 Jun 2027 04:32:54.396           186.953         93476.500
       166   07 Jun 2027 04:33:28.585   07 Jun 2027 04:33:32.623             4.038          2019.000
       167   07 Jun 2027 04:33:55.129   07 Jun 2027 04:33:57.000             1.871           935.500
       168   07 Jun 2027 04:33:59.798   07 Jun 2027 04:34:05.767             5.969          2984.500
       169   07 Jun 2027 06:06:58.292   07 Jun 2027 06:07:25.216            26.924         13462.000
       170   07 Jun 2027 06:07:46.522   07 Jun 2027 06:08:18.660            32.138         16069.000
       171   07 Jun 2027 06:09:09.892   07 Jun 2027 06:09:18.535             8.643          3811.844
       172   07 Jun 2027 06:09:20.578   07 Jun 2027 06:09:26.632             6.054            63.844
       173   07 Jun 2027 06:09:51.490   07 Jun 2027 06:09:51.490             0.000             0.000
       174   07 Jun 2027 07:30:20.534   07 Jun 2027 07:30:38.540            18.006          6444.906
       175   07 Jun 2027 07:31:15.755   07 Jun 2027 07:31:24.974             9.219           865.250
       176   07 Jun 2027 07:32:41.681   07 Jun 2027 07:32:45.941             4.260          2013.531
       177   07 Jun 2027 07:33:05.993   07 Jun 2027 07:33:06.727             0.734           239.500
       178   07 Jun 2027 09:06:49.946   07 Jun 2027 09:07:01.076            11.130          4409.125
       179   07 Jun 2027 09:09:23.836   07 Jun 2027 09:09:34.041            10.205          4231.938
       180   07 Jun 2027 10:42:25.423   07 Jun 2027 10:42:41.694            16.271          7305.656
       181   07 Jun 2027 10:43:37.828   07 Jun 2027 10:43:41.743             3.915          1362.719
       182   07 Jun 2027 10:44:26.952   07 Jun 2027 10:44:28.162             1.210           282.844
       183   07 Jun 2027 10:44:40.099   07 Jun 2027 10:44:42.532             2.433           373.031
       184   07 Jun 2027 10:48:07.852   07 Jun 2027 10:48:07.852             0.000             0.000
       185   07 Jun 2027 10:48:13.798   07 Jun 2027 10:48:26.270            12.472          6220.844
       186   07 Jun 2027 10:48:38.429   07 Jun 2027 10:48:39.224             0.795           208.156
       187   08 Jun 2027 03:02:26.703   08 Jun 2027 03:04:05.795            99.092         49546.000
       188   08 Jun 2027 03:04:20.893   08 Jun 2027 03:04:40.118            19.225          9612.500
       189   08 Jun 2027 03:06:23.661   08 Jun 2027 03:06:24.711             1.050           525.000
       190   08 Jun 2027 03:06:59.497   08 Jun 2027 03:07:04.924             5.427          2713.500
       191   08 Jun 2027 03:07:26.908   08 Jun 2027 03:07:32.010             5.102          2551.000
       192   08 Jun 2027 03:08:41.568   08 Jun 2027 03:08:42.161             0.593           296.500
       193   08 Jun 2027 03:09:14.383   08 Jun 2027 03:09:26.953            12.570          6285.000
       194   08 Jun 2027 04:40:43.226   08 Jun 2027 04:40:56.793            13.567          6783.500
       195   08 Jun 2027 04:41:45.568   08 Jun 2027 04:43:50.033           124.465         62232.500
       196   08 Jun 2027 04:43:59.609   08 Jun 2027 04:44:18.580            18.971          9485.500
       197   08 Jun 2027 04:44:45.201   08 Jun 2027 04:44:57.759            12.558          5551.625
       198   08 Jun 2027 04:46:05.961   08 Jun 2027 04:46:06.653             0.692           346.000
       199   08 Jun 2027 04:46:39.743   08 Jun 2027 04:46:44.463             4.720          1895.125
       200   08 Jun 2027 04:48:56.847   08 Jun 2027 04:49:01.164             4.317          1882.938
       201   08 Jun 2027 06:19:12.026   08 Jun 2027 06:19:27.592            15.566          7335.656
       202   08 Jun 2027 06:21:03.694   08 Jun 2027 06:21:09.168             5.474          2704.094
       203   08 Jun 2027 06:22:18.069   08 Jun 2027 06:22:21.017             2.948          1290.656
       204   08 Jun 2027 07:43:03.454   08 Jun 2027 07:43:16.506            13.052          5035.344
       205   08 Jun 2027 07:43:48.355   08 Jun 2027 07:44:00.681            12.326           888.906
       206   08 Jun 2027 09:19:01.573   08 Jun 2027 09:19:13.233            11.660          5830.000
       207   08 Jun 2027 09:20:36.219   08 Jun 2027 09:20:47.738            11.519          3815.344
       208   08 Jun 2027 09:21:13.984   08 Jun 2027 09:21:16.762             2.778           685.688
       209   08 Jun 2027 10:53:44.759   08 Jun 2027 10:54:09.118            24.359          8123.750
       210   08 Jun 2027 10:56:11.045   08 Jun 2027 10:56:11.045             0.000             0.000
       211   08 Jun 2027 10:56:51.183   08 Jun 2027 10:56:53.832             2.649          1324.500
       212   08 Jun 2027 11:00:22.085   08 Jun 2027 11:00:42.195            20.110         10055.000
       213   09 Jun 2027 03:15:02.033   09 Jun 2027 03:18:16.589           194.556         97278.000
       214   09 Jun 2027 03:18:52.001   09 Jun 2027 03:19:07.514            15.513          7756.500
       215   09 Jun 2027 03:19:34.017   09 Jun 2027 03:19:51.134            17.117          8558.500
       216   09 Jun 2027 03:21:32.548   09 Jun 2027 03:21:32.548             0.000             0.000
       217   09 Jun 2027 04:53:48.698   09 Jun 2027 04:55:20.354            91.656         45828.000
       218   09 Jun 2027 04:55:46.762   09 Jun 2027 04:55:49.781             3.019          1103.625
       219   09 Jun 2027 04:55:56.822   09 Jun 2027 04:55:57.964             1.142           220.031
       220   09 Jun 2027 04:56:20.657   09 Jun 2027 04:56:24.632             3.975           644.438
       221   09 Jun 2027 04:57:05.504   09 Jun 2027 04:57:10.733             5.229          1277.250
       222   09 Jun 2027 04:58:31.858   09 Jun 2027 04:58:37.475             5.617          2244.094
       223   09 Jun 2027 05:00:04.365   09 Jun 2027 05:00:10.291             5.926          1592.469
       224   09 Jun 2027 05:00:25.418   09 Jun 2027 05:00:26.717             1.299           470.531
       225   09 Jun 2027 06:19:51.032   09 Jun 2027 06:20:04.876            13.844          5304.656
       226   09 Jun 2027 06:20:21.727   09 Jun 2027 06:20:22.216             0.489           200.563
       227   09 Jun 2027 06:30:50.606   09 Jun 2027 06:30:54.783             4.177          2088.500
       228   09 Jun 2027 06:31:00.624   09 Jun 2027 06:31:05.303             4.679          1363.500
       229   09 Jun 2027 06:32:56.413   09 Jun 2027 06:33:01.709             5.296          2513.625
       230   09 Jun 2027 06:33:32.209   09 Jun 2027 06:33:34.513             2.304           931.156
       231   09 Jun 2027 06:34:08.859   09 Jun 2027 06:34:10.061             1.202           601.000
       232   09 Jun 2027 07:53:51.554   09 Jun 2027 07:54:02.921            11.367          5683.500
       233   09 Jun 2027 07:54:42.769   09 Jun 2027 07:54:46.229             3.460          1310.094
       234   09 Jun 2027 07:55:06.301   09 Jun 2027 07:55:08.290             1.989           627.250
       235   09 Jun 2027 07:55:49.075   09 Jun 2027 07:55:51.625             2.550           834.625
       236   09 Jun 2027 07:57:38.223   09 Jun 2027 07:57:38.223             0.000             0.000
       237   09 Jun 2027 09:29:23.006   09 Jun 2027 09:29:28.386             5.380          2690.000
       238   09 Jun 2027 09:30:32.149   09 Jun 2027 09:30:38.580             6.431          3127.125
       239   09 Jun 2027 09:30:52.357   09 Jun 2027 09:30:55.867             3.510           215.562
       240   09 Jun 2027 09:32:28.963   09 Jun 2027 09:32:36.276             7.313          2748.406
       241   09 Jun 2027 09:33:47.730   09 Jun 2027 09:33:51.668             3.938          1869.469
       242   09 Jun 2027 09:34:48.497   09 Jun 2027 09:34:48.497             0.000             0.000
       243   09 Jun 2027 11:05:40.995   09 Jun 2027 11:05:53.374            12.379          5562.562
       244   09 Jun 2027 11:08:39.700   09 Jun 2027 11:08:39.700             0.000             0.000
       245   09 Jun 2027 11:09:11.453   09 Jun 2027 11:09:35.485            24.032          6176.656
       246   09 Jun 2027 11:09:52.630   09 Jun 2027 11:09:53.663             1.033           200.531
       247   09 Jun 2027 11:10:14.910   09 Jun 2027 11:10:16.112             1.202           380.094
       248   09 Jun 2027 11:10:23.419   09 Jun 2027 11:10:29.964             6.545           228.344
       249   09 Jun 2027 11:11:17.194   09 Jun 2027 11:11:20.178             2.984          1475.937
       250   09 Jun 2027 11:11:25.513   09 Jun 2027 11:11:25.513             0.000             0.000
       251   09 Jun 2027 11:11:37.834   09 Jun 2027 11:11:39.392             1.558           544.156
       252   09 Jun 2027 11:12:03.368   09 Jun 2027 11:12:06.655             3.287           698.062
       253   09 Jun 2027 11:12:46.489   09 Jun 2027 11:12:51.128             4.639          1138.906
       254   10 Jun 2027 03:27:12.187   10 Jun 2027 03:29:45.774           153.587         76793.500
       255   10 Jun 2027 03:29:55.726   10 Jun 2027 03:30:47.993            52.267         26133.500
       256   10 Jun 2027 03:31:28.984   10 Jun 2027 03:31:31.633             2.649          1324.500
       257   10 Jun 2027 03:31:46.067   10 Jun 2027 03:31:55.066             8.999          4499.500
       258   10 Jun 2027 03:32:11.129   10 Jun 2027 03:32:20.001             8.872          4436.000
       259   10 Jun 2027 03:32:35.796   10 Jun 2027 03:32:41.086             5.290          2645.000
       260   10 Jun 2027 03:32:58.678   10 Jun 2027 03:33:06.515             7.837          3918.500
       261   10 Jun 2027 05:06:14.988   10 Jun 2027 05:07:22.125            67.137         33190.156
       262   10 Jun 2027 05:08:17.963   10 Jun 2027 05:08:22.197             4.234          1744.938
       263   10 Jun 2027 05:08:24.425   10 Jun 2027 05:08:26.317             1.892            53.219
       264   10 Jun 2027 05:10:01.876   10 Jun 2027 05:10:13.050            11.174          2753.750
       265   10 Jun 2027 05:10:21.201   10 Jun 2027 05:10:21.862             0.661            89.031
       266   10 Jun 2027 05:10:54.269   10 Jun 2027 05:10:54.269             0.000             0.000
       267   10 Jun 2027 05:11:03.250   10 Jun 2027 05:11:05.749             2.499          1249.500
       268   10 Jun 2027 05:11:35.489   10 Jun 2027 05:11:38.863             3.374           942.406
       269   10 Jun 2027 05:12:11.507   10 Jun 2027 05:12:15.016             3.509           606.750
       270   10 Jun 2027 05:12:18.404   10 Jun 2027 05:12:19.740             1.336           105.875
       271   10 Jun 2027 06:31:11.556   10 Jun 2027 06:31:31.606            20.050          5722.781
       272   10 Jun 2027 06:42:53.282   10 Jun 2027 06:43:00.862             7.580          2996.656
       273   10 Jun 2027 06:43:14.193   10 Jun 2027 06:43:17.657             3.464           308.906
       274   10 Jun 2027 06:43:57.099   10 Jun 2027 06:44:00.699             3.600          1033.813
       275   10 Jun 2027 08:05:07.334   10 Jun 2027 08:05:22.677            15.343          7103.156
       276   10 Jun 2027 08:06:03.695   10 Jun 2027 08:06:07.319             3.624           922.531
       277   10 Jun 2027 08:07:38.124   10 Jun 2027 08:07:44.817             6.693          2324.250
       278   10 Jun 2027 08:08:58.453   10 Jun 2027 08:09:05.090             6.637          2067.250
       279   10 Jun 2027 08:10:02.285   10 Jun 2027 08:10:06.153             3.868          1403.000
       280   10 Jun 2027 09:40:15.631   10 Jun 2027 09:40:25.753            10.122          4827.781
       281   10 Jun 2027 09:44:01.244   10 Jun 2027 09:44:14.197            12.953          6306.063
       282   10 Jun 2027 09:44:24.646   10 Jun 2027 09:44:26.375             1.729            70.187
       283   10 Jun 2027 11:18:37.841   10 Jun 2027 11:19:01.162            23.321         10352.250
       284   10 Jun 2027 11:20:34.920   10 Jun 2027 11:20:39.339             4.419          1851.781
       285   10 Jun 2027 11:23:56.368   10 Jun 2027 11:24:14.871            18.503          6157.156
       286   10 Jun 2027 11:24:28.306   10 Jun 2027 11:24:29.283             0.977           206.500
       287   10 Jun 2027 11:24:32.402   10 Jun 2027 11:24:46.555            14.153            97.469
       288   11 Jun 2027 03:39:29.572   11 Jun 2027 03:40:02.315            32.743         16371.500
       289   11 Jun 2027 03:40:02.746   11 Jun 2027 03:42:44.374           161.628         80814.000
       290   11 Jun 2027 03:43:28.707   11 Jun 2027 03:43:41.159            12.452          6226.000
       291   11 Jun 2027 03:44:16.690   11 Jun 2027 03:45:08.277            51.587         25793.500
       292   11 Jun 2027 03:45:17.373   11 Jun 2027 03:45:25.286             7.913          3956.500
       293   11 Jun 2027 05:18:28.767   11 Jun 2027 05:19:27.879            59.112         29556.000
       294   11 Jun 2027 05:19:43.150   11 Jun 2027 05:19:49.163             6.013          2010.469
       295   11 Jun 2027 05:19:58.144   11 Jun 2027 05:19:59.947             1.803           280.656
       296   11 Jun 2027 05:20:52.300   11 Jun 2027 05:20:55.899             3.599          1226.813
       297   11 Jun 2027 05:21:38.616   11 Jun 2027 05:21:38.616             0.000             0.000
       298   11 Jun 2027 05:22:24.958   11 Jun 2027 05:22:30.131             5.173          2084.438
       299   11 Jun 2027 05:23:01.266   11 Jun 2027 05:23:01.266             0.000             0.000
       300   11 Jun 2027 05:23:35.081   11 Jun 2027 05:23:37.937             2.856          1428.000
       301   11 Jun 2027 05:24:01.929   11 Jun 2027 05:24:04.827             2.898           840.938
       302   11 Jun 2027 05:25:00.894   11 Jun 2027 05:25:04.960             4.066          1596.219
       303   11 Jun 2027 05:25:15.990   11 Jun 2027 05:25:17.542             1.552            22.406
       304   11 Jun 2027 06:42:37.038   11 Jun 2027 06:42:48.645            11.607          5269.000
       305   11 Jun 2027 06:43:07.660   11 Jun 2027 06:43:07.660             0.000             0.000
       306   11 Jun 2027 06:43:09.662   11 Jun 2027 06:43:11.449             1.787           656.781
       307   11 Jun 2027 06:43:49.181   11 Jun 2027 06:43:49.181             0.000             0.000
       308   11 Jun 2027 06:43:53.106   11 Jun 2027 06:43:55.554             2.448          1153.156
       309   11 Jun 2027 06:44:35.878   11 Jun 2027 06:44:44.224             8.346          1049.813
       310   11 Jun 2027 06:54:50.724   11 Jun 2027 06:54:53.013             2.289          1144.500
       311   11 Jun 2027 06:55:10.449   11 Jun 2027 06:55:16.091             5.642          2348.531
       312   11 Jun 2027 08:16:52.514   11 Jun 2027 08:17:11.613            19.099          7383.500
       313   11 Jun 2027 08:19:37.398   11 Jun 2027 08:19:48.084            10.686          3422.906
       314   11 Jun 2027 08:20:57.216   11 Jun 2027 08:21:04.137             6.921          1847.000
       315   11 Jun 2027 08:21:53.702   11 Jun 2027 08:21:55.899             2.197          1043.000
       316   11 Jun 2027 09:51:44.583   11 Jun 2027 09:52:02.452            17.869          5298.094
       317   11 Jun 2027 09:52:38.123   11 Jun 2027 09:52:41.798             3.675          1071.500
       318   11 Jun 2027 09:53:25.680   11 Jun 2027 09:53:25.680             0.000             0.000
       319   11 Jun 2027 09:55:08.025   11 Jun 2027 09:55:09.311             1.286           643.000
       320   11 Jun 2027 09:58:33.851   11 Jun 2027 09:58:44.808            10.957          5478.500
       321   11 Jun 2027 10:00:00.173   11 Jun 2027 10:00:09.940             9.767          4883.500
       322   11 Jun 2027 10:00:31.456   11 Jun 2027 10:00:31.880             0.424           212.000
       323   11 Jun 2027 11:31:24.744   11 Jun 2027 11:31:43.854            19.110          9549.875
       324   11 Jun 2027 11:32:30.033   11 Jun 2027 11:32:30.033             0.000             0.000
       325   11 Jun 2027 11:35:34.955   11 Jun 2027 11:35:49.400            14.445          6417.000
       326   11 Jun 2027 11:35:53.557   11 Jun 2027 11:35:54.740             1.183           129.906
       327   11 Jun 2027 11:36:05.846   11 Jun 2027 11:36:07.366             1.520            51.437
       328   11 Jun 2027 11:36:20.028   11 Jun 2027 11:36:21.373             1.345           132.844
       329   11 Jun 2027 11:36:27.862   11 Jun 2027 11:36:29.132             1.270           202.781
       330   12 Jun 2027 03:52:15.457   12 Jun 2027 03:53:44.636            89.179         44589.500
       331   12 Jun 2027 03:55:18.416   12 Jun 2027 03:56:56.164            97.748         48874.000
       332   12 Jun 2027 03:57:08.487   12 Jun 2027 03:57:47.911            39.424         19712.000
       333   12 Jun 2027 05:30:38.448   12 Jun 2027 05:32:01.124            82.676         41338.000
       334   12 Jun 2027 05:32:26.728   12 Jun 2027 05:32:32.728             6.000          2931.343
       335   12 Jun 2027 05:33:43.336   12 Jun 2027 05:33:48.434             5.098          2045.188
       336   12 Jun 2027 05:34:38.861   12 Jun 2027 05:34:43.473             4.612          1416.906
       337   12 Jun 2027 05:36:14.794   12 Jun 2027 05:36:14.794             0.000             0.000
       338   12 Jun 2027 06:54:41.918   12 Jun 2027 06:54:55.599            13.681          6601.500
       339   12 Jun 2027 06:55:22.949   12 Jun 2027 06:55:24.842             1.893           605.281
       340   12 Jun 2027 06:56:17.251   12 Jun 2027 06:56:22.110             4.859          1607.375
       341   12 Jun 2027 08:28:27.975   12 Jun 2027 08:28:45.659            17.684          8422.531
       342   12 Jun 2027 08:30:36.512   12 Jun 2027 08:30:36.512             0.000             0.000
       343   12 Jun 2027 08:31:09.949   12 Jun 2027 08:31:20.896            10.947          3860.125
       344   12 Jun 2027 08:31:35.946   12 Jun 2027 08:31:35.946             0.000             0.000
       345   12 Jun 2027 08:33:41.563   12 Jun 2027 08:33:52.745            11.182          4395.844
       346   12 Jun 2027 10:04:28.682   12 Jun 2027 10:04:46.025            17.343          5799.094
       347   12 Jun 2027 10:06:12.985   12 Jun 2027 10:06:12.985             0.000             0.000
       348   12 Jun 2027 10:09:16.867   12 Jun 2027 10:09:16.867             0.000             0.000
       349   12 Jun 2027 10:10:29.968   12 Jun 2027 10:10:49.982            20.014          9525.125
       350   12 Jun 2027 10:11:01.878   12 Jun 2027 10:11:01.878             0.000             0.000
       351   12 Jun 2027 10:11:57.732   12 Jun 2027 10:11:59.497             1.765           882.500
       352   12 Jun 2027 10:12:21.681   12 Jun 2027 10:12:25.273             3.592          1584.344
       353   12 Jun 2027 11:41:31.511   12 Jun 2027 11:41:47.958            16.447          6951.500
       354   12 Jun 2027 11:42:02.294   12 Jun 2027 11:42:06.245             3.951           235.875
       355   12 Jun 2027 11:42:50.320   12 Jun 2027 11:42:54.793             4.473          1254.812
       356   12 Jun 2027 11:43:50.826   12 Jun 2027 11:43:52.710             1.884           779.375
       357   12 Jun 2027 11:44:17.197   12 Jun 2027 11:44:17.294             0.097            48.500
       358   12 Jun 2027 11:47:01.037   12 Jun 2027 11:47:15.639            14.602          5645.219
       359   12 Jun 2027 11:47:37.854   12 Jun 2027 11:47:39.133             1.279           321.563
       360   12 Jun 2027 11:48:15.777   12 Jun 2027 11:48:17.430             1.653           826.500
       361   12 Jun 2027 11:48:44.730   12 Jun 2027 11:48:49.354             4.624          1116.156
       362   13 Jun 2027 04:04:49.948   13 Jun 2027 04:05:17.562            27.614         13807.000
       363   13 Jun 2027 04:05:48.469   13 Jun 2027 04:06:31.327            42.858         21429.000
       364   13 Jun 2027 04:06:32.074   13 Jun 2027 04:07:41.690            69.616         34808.000
       365   13 Jun 2027 04:08:40.314   13 Jun 2027 04:08:53.813            13.499          6749.500
       366   13 Jun 2027 04:08:57.727   13 Jun 2027 04:09:07.410             9.683          4841.500
       367   13 Jun 2027 04:09:23.554   13 Jun 2027 04:09:24.798             1.244           622.000
       368   13 Jun 2027 05:43:12.387   13 Jun 2027 05:45:28.148           135.761         67880.500
       369   13 Jun 2027 05:45:31.311   13 Jun 2027 05:45:48.570            17.259          7944.312
       370   13 Jun 2027 05:46:02.263   13 Jun 2027 05:46:03.010             0.747           284.125
       371   13 Jun 2027 05:46:58.716   13 Jun 2027 05:46:58.716             0.000             0.000
       372   13 Jun 2027 05:47:44.061   13 Jun 2027 05:47:44.380             0.319           159.500
       373   13 Jun 2027 07:06:36.902   13 Jun 2027 07:06:53.931            17.029          8325.437
       374   13 Jun 2027 07:07:52.222   13 Jun 2027 07:07:52.222             0.000             0.000
       375   13 Jun 2027 07:08:01.599   13 Jun 2027 07:08:09.174             7.575          1990.219
       376   13 Jun 2027 07:08:16.823   13 Jun 2027 07:08:16.823             0.000             0.000
       377   13 Jun 2027 07:08:37.661   13 Jun 2027 07:08:39.866             2.205           890.219
       378   13 Jun 2027 08:42:56.153   13 Jun 2027 08:43:17.310            21.157         10578.500
       379   13 Jun 2027 08:43:26.217   13 Jun 2027 08:43:27.836             1.619           475.250
       380   13 Jun 2027 08:45:42.016   13 Jun 2027 08:45:50.894             8.878          4193.125
       381   13 Jun 2027 10:16:26.491   13 Jun 2027 10:16:39.332            12.841          4709.156
       382   13 Jun 2027 10:18:45.645   13 Jun 2027 10:18:51.232             5.587          2488.812
       383   13 Jun 2027 10:22:18.959   13 Jun 2027 10:22:20.953             1.994           997.000
       384   13 Jun 2027 10:23:55.791   13 Jun 2027 10:23:56.604             0.813           406.500
       385   13 Jun 2027 10:23:56.777   13 Jun 2027 10:24:14.147            17.370          7814.438
       386   13 Jun 2027 10:24:34.174   13 Jun 2027 10:24:37.715             3.541           625.844
       387   13 Jun 2027 10:24:37.758   13 Jun 2027 10:24:38.050             0.292             1.344
       388   13 Jun 2027 10:24:56.664   13 Jun 2027 10:24:58.421             1.757           513.219
       389   13 Jun 2027 11:53:57.615   13 Jun 2027 11:54:11.301            13.686          6043.406
       390   13 Jun 2027 11:56:09.731   13 Jun 2027 11:56:14.727             4.996          1978.719
       391   13 Jun 2027 11:57:38.283   13 Jun 2027 11:57:45.004             6.721          2581.750
       392   13 Jun 2027 11:57:57.238   13 Jun 2027 11:58:00.110             2.872           353.188
       393   13 Jun 2027 11:58:54.789   13 Jun 2027 11:58:58.858             4.069          1268.594
