uniorb/output/strategy_2/Camera/Camera_KinoSat_110701.txt

KinoSat_110701
-------------------------
    Access    *     Start Time (UTCG)     *     Stop Time (UTCG)  *   Duration (s) *   Data (Mbytes)
         1   01 Jun 2027 04:18:17.478   01 Jun 2027 04:18:43.249            25.771         12885.500
         2   01 Jun 2027 04:19:19.460   01 Jun 2027 04:20:39.886            80.426         40213.000
         3   01 Jun 2027 05:53:27.386   01 Jun 2027 05:56:03.864           156.478         78239.000
         4   01 Jun 2027 05:57:54.489   01 Jun 2027 05:58:39.832            45.343         22671.500
         5   01 Jun 2027 05:58:51.345   01 Jun 2027 05:58:55.576             4.231          2115.500
         6   01 Jun 2027 05:59:40.539   01 Jun 2027 05:59:45.078             4.539          2269.500
         7   01 Jun 2027 05:59:52.485   01 Jun 2027 05:59:57.933             5.448          2724.000
         8   01 Jun 2027 07:29:52.621   01 Jun 2027 07:30:44.386            51.765         25882.500
         9   01 Jun 2027 07:31:05.076   01 Jun 2027 07:32:00.602            55.526         27763.000
        10   01 Jun 2027 07:33:20.169   01 Jun 2027 07:34:34.051            73.882         36941.000
        11   01 Jun 2027 07:34:54.309   01 Jun 2027 07:35:30.114            35.805         17902.500
        12   01 Jun 2027 09:07:07.156   01 Jun 2027 09:09:52.551           165.395         82697.500
        13   01 Jun 2027 09:10:33.256   01 Jun 2027 09:10:39.583             6.327          3163.500
        14   01 Jun 2027 09:10:56.335   01 Jun 2027 09:11:08.315            11.980          5990.000
        15   01 Jun 2027 10:43:21.900   01 Jun 2027 10:45:35.932           134.032         67016.000
        16   01 Jun 2027 10:45:50.188   01 Jun 2027 10:45:58.685             8.497          4248.500
        17   02 Jun 2027 04:30:10.377   02 Jun 2027 04:31:46.801            96.424         48212.000
        18   02 Jun 2027 04:32:42.025   02 Jun 2027 04:34:07.808            85.783         42891.500
        19   02 Jun 2027 06:05:06.950   02 Jun 2027 06:07:31.475           144.525         72262.500
        20   02 Jun 2027 06:09:39.978   02 Jun 2027 06:09:44.312             4.334          2167.000
        21   02 Jun 2027 06:10:45.351   02 Jun 2027 06:10:57.149            11.798          5899.000
        22   02 Jun 2027 07:41:24.998   02 Jun 2027 07:44:41.939           196.941         98470.500
        23   02 Jun 2027 07:45:20.435   02 Jun 2027 07:45:24.649             4.214          2107.000
        24   02 Jun 2027 07:47:03.877   02 Jun 2027 07:47:32.038            28.161         14080.500
        25   02 Jun 2027 09:19:40.866   02 Jun 2027 09:21:06.422            85.556         41947.657
        26   02 Jun 2027 09:21:24.153   02 Jun 2027 09:21:24.153             0.000             0.000
        27   02 Jun 2027 09:21:48.886   02 Jun 2027 09:21:51.957             3.071          1227.375
        28   02 Jun 2027 09:23:04.152   02 Jun 2027 09:23:12.680             8.528          1799.406
        29   02 Jun 2027 10:55:00.873   02 Jun 2027 10:55:17.644            16.771          7951.000
        30   02 Jun 2027 10:55:59.003   02 Jun 2027 10:56:01.865             2.862           774.812
        31   02 Jun 2027 10:56:34.609   02 Jun 2027 10:56:37.259             2.650           646.625
        32   02 Jun 2027 10:57:11.139   02 Jun 2027 10:57:14.020             2.881           798.719
        33   02 Jun 2027 10:57:59.966   02 Jun 2027 10:58:01.785             1.819           909.500
        34   02 Jun 2027 10:58:08.648   02 Jun 2027 10:58:09.273             0.625           312.500
        35   02 Jun 2027 10:58:31.444   02 Jun 2027 10:58:34.485             3.041          1110.375
        36   02 Jun 2027 10:59:33.181   02 Jun 2027 10:59:39.492             6.311          1570.844
        37   02 Jun 2027 11:00:10.947   02 Jun 2027 11:00:12.823             1.876           751.812
        38   02 Jun 2027 11:00:27.691   02 Jun 2027 11:00:28.552             0.861            42.562
        39   03 Jun 2027 03:04:55.630   03 Jun 2027 03:05:22.851            27.221         13610.500
        40   03 Jun 2027 03:06:11.881   03 Jun 2027 03:06:18.456             6.575          3287.500
        41   03 Jun 2027 03:06:55.701   03 Jun 2027 03:06:55.701             0.000             0.000
        42   03 Jun 2027 03:08:19.404   03 Jun 2027 03:08:20.473             1.069           534.500
        43   03 Jun 2027 03:08:27.922   03 Jun 2027 03:08:59.246            31.324         15662.000
        44   03 Jun 2027 04:40:29.083   03 Jun 2027 04:41:02.367            33.284         16642.000
        45   03 Jun 2027 04:41:54.246   03 Jun 2027 04:43:59.711           125.465         62732.500
        46   03 Jun 2027 04:44:20.710   03 Jun 2027 04:44:20.710             0.000             0.000
        47   03 Jun 2027 04:45:23.515   03 Jun 2027 04:45:45.125            21.610         10805.000
        48   03 Jun 2027 06:16:40.100   03 Jun 2027 06:18:04.470            84.370         40397.156
        49   03 Jun 2027 06:18:56.333   03 Jun 2027 06:18:59.989             3.656          1620.719
        50   03 Jun 2027 06:19:50.920   03 Jun 2027 06:19:51.976             1.056           329.562
        51   03 Jun 2027 06:19:59.389   03 Jun 2027 06:20:00.211             0.822           231.656
        52   03 Jun 2027 06:21:42.302   03 Jun 2027 06:21:52.587            10.285          2592.937
        53   03 Jun 2027 06:22:31.694   03 Jun 2027 06:22:34.947             3.253          1222.094
        54   03 Jun 2027 06:23:31.448   03 Jun 2027 06:23:36.455             5.007          1691.844
        55   03 Jun 2027 07:53:44.292   03 Jun 2027 07:54:21.810            37.518         17550.875
        56   03 Jun 2027 07:54:53.949   03 Jun 2027 07:54:56.471             2.522           481.813
        57   03 Jun 2027 07:55:33.407   03 Jun 2027 07:55:36.225             2.818          1071.000
        58   03 Jun 2027 07:55:36.846   03 Jun 2027 07:55:36.925             0.079             8.094
        59   03 Jun 2027 07:56:02.925   03 Jun 2027 07:56:03.661             0.736           299.781
        60   03 Jun 2027 07:57:22.003   03 Jun 2027 07:57:26.406             4.403          1641.625
        61   03 Jun 2027 07:58:02.042   03 Jun 2027 07:58:06.516             4.474          1050.656
        62   03 Jun 2027 07:58:33.963   03 Jun 2027 07:58:35.735             1.772           822.375
        63   03 Jun 2027 07:58:41.632   03 Jun 2027 07:58:41.991             0.359           131.281
        64   03 Jun 2027 07:58:58.435   03 Jun 2027 07:59:01.101             2.666           476.094
        65   03 Jun 2027 07:59:04.822   03 Jun 2027 07:59:07.783             2.961           113.219
        66   03 Jun 2027 08:00:03.996   03 Jun 2027 08:00:06.906             2.910          1455.000
        67   03 Jun 2027 09:31:43.493   03 Jun 2027 09:32:01.093            17.600          8800.000
        68   03 Jun 2027 09:32:07.332   03 Jun 2027 09:32:22.799            15.467           911.063
        69   03 Jun 2027 09:33:03.970   03 Jun 2027 09:33:07.604             3.634          1286.594
        70   03 Jun 2027 09:33:14.941   03 Jun 2027 09:33:17.747             2.806            94.344
        71   03 Jun 2027 09:33:41.827   03 Jun 2027 09:33:44.879             3.052           730.969
        72   03 Jun 2027 09:34:30.725   03 Jun 2027 09:34:33.230             2.505          1204.813
        73   03 Jun 2027 09:34:44.330   03 Jun 2027 09:34:46.584             2.254           346.875
        74   03 Jun 2027 11:04:52.817   03 Jun 2027 11:05:05.463            12.646          6161.188
        75   03 Jun 2027 11:06:42.824   03 Jun 2027 11:06:49.336             6.512          1897.438
        76   03 Jun 2027 11:07:10.501   03 Jun 2027 11:07:13.281             2.780           661.406
        77   03 Jun 2027 11:07:38.668   03 Jun 2027 11:07:39.226             0.558           177.000
        78   03 Jun 2027 11:07:55.558   03 Jun 2027 11:07:55.558             0.000             0.000
        79   03 Jun 2027 11:08:20.334   03 Jun 2027 11:08:26.993             6.659          1211.125
        80   03 Jun 2027 11:08:51.782   03 Jun 2027 11:08:55.560             3.778           602.125
        81   03 Jun 2027 11:10:01.092   03 Jun 2027 11:10:05.191             4.099          1779.750
        82   03 Jun 2027 11:10:21.446   03 Jun 2027 11:10:21.446             0.000             0.000
        83   03 Jun 2027 11:10:26.332   03 Jun 2027 11:10:28.788             2.456           420.312
        84   03 Jun 2027 11:11:05.997   03 Jun 2027 11:11:07.083             1.086           543.000
        85   03 Jun 2027 11:11:11.631   03 Jun 2027 11:11:21.262             9.631           439.438
        86   03 Jun 2027 11:12:24.774   03 Jun 2027 11:12:31.038             6.264          1981.687
        87   03 Jun 2027 11:12:37.287   03 Jun 2027 11:12:38.769             1.482            23.656
        88   04 Jun 2027 03:16:31.437   04 Jun 2027 03:17:34.495            63.058         31529.000
        89   04 Jun 2027 03:18:33.275   04 Jun 2027 03:18:47.903            14.628          7314.000
        90   04 Jun 2027 03:18:57.243   04 Jun 2027 03:19:17.010            19.767          9883.500
        91   04 Jun 2027 03:19:59.067   04 Jun 2027 03:20:20.227            21.160         10580.000
        92   04 Jun 2027 04:51:35.961   04 Jun 2027 04:53:19.039           103.078         51539.000
        93   04 Jun 2027 04:53:38.846   04 Jun 2027 04:54:08.762            29.916         14958.000
        94   04 Jun 2027 04:55:08.024   04 Jun 2027 04:55:48.292            40.268         20134.000
        95   04 Jun 2027 04:57:37.517   04 Jun 2027 04:57:45.920             8.403          4201.500
        96   04 Jun 2027 04:57:48.030   04 Jun 2027 04:58:05.172            17.142          8571.000
        97   04 Jun 2027 04:58:33.463   04 Jun 2027 04:58:33.463             0.000             0.000
        98   04 Jun 2027 04:59:39.495   04 Jun 2027 04:59:48.293             8.798          4237.813
        99   04 Jun 2027 06:28:56.862   04 Jun 2027 06:29:21.977            25.115         12300.969
       100   04 Jun 2027 06:29:32.929   04 Jun 2027 06:29:35.271             2.342           292.687
       101   04 Jun 2027 06:29:47.517   04 Jun 2027 06:29:49.792             2.275            23.469
       102   04 Jun 2027 06:30:07.573   04 Jun 2027 06:30:12.261             4.688           439.156
       103   04 Jun 2027 06:30:28.501   04 Jun 2027 06:30:32.541             4.040            75.375
       104   04 Jun 2027 06:31:11.130   04 Jun 2027 06:31:11.721             0.591           282.406
       105   04 Jun 2027 06:31:17.113   04 Jun 2027 06:31:20.927             3.814           168.500
       106   04 Jun 2027 06:31:45.165   04 Jun 2027 06:31:48.462             3.297           329.156
       107   04 Jun 2027 06:32:22.939   04 Jun 2027 06:32:28.325             5.386           939.781
       108   04 Jun 2027 06:33:16.356   04 Jun 2027 06:33:18.110             1.754           704.781
       109   04 Jun 2027 06:34:31.509   04 Jun 2027 06:34:36.315             4.806          1525.687
       110   04 Jun 2027 06:35:12.487   04 Jun 2027 06:35:14.952             2.465           957.312
       111   04 Jun 2027 06:35:41.208   04 Jun 2027 06:35:42.534             1.326           614.906
       112   04 Jun 2027 06:36:09.690   04 Jun 2027 06:36:11.448             1.758           500.437
       113   04 Jun 2027 08:05:46.038   04 Jun 2027 08:06:17.926            31.888         15834.312
       114   04 Jun 2027 08:06:29.843   04 Jun 2027 08:06:30.648             0.805           103.031
       115   04 Jun 2027 08:07:04.637   04 Jun 2027 08:07:06.537             1.900           801.844
       116   04 Jun 2027 08:07:54.501   04 Jun 2027 08:07:57.898             3.397           693.937
       117   04 Jun 2027 08:08:19.595   04 Jun 2027 08:08:23.110             3.515           526.719
       118   04 Jun 2027 08:08:39.731   04 Jun 2027 08:08:40.789             1.058           476.812
       119   04 Jun 2027 08:08:59.698   04 Jun 2027 08:09:01.464             1.766            81.094
       120   04 Jun 2027 08:09:57.029   04 Jun 2027 08:10:00.740             3.711          1736.406
       121   04 Jun 2027 08:11:08.679   04 Jun 2027 08:11:14.977             6.298          1604.656
       122   04 Jun 2027 08:11:54.177   04 Jun 2027 08:11:55.341             1.164           582.000
       123   04 Jun 2027 09:43:42.941   04 Jun 2027 09:44:02.210            19.269          9634.500
       124   04 Jun 2027 09:44:24.742   04 Jun 2027 09:44:24.742             0.000             0.000
       125   04 Jun 2027 09:44:44.918   04 Jun 2027 09:44:48.901             3.983          1681.281
       126   04 Jun 2027 09:44:55.076   04 Jun 2027 09:44:58.614             3.538           192.969
       127   04 Jun 2027 09:45:13.817   04 Jun 2027 09:45:15.688             1.871           428.594
       128   04 Jun 2027 09:45:37.367   04 Jun 2027 09:45:41.014             3.647           677.469
       129   04 Jun 2027 09:46:28.779   04 Jun 2027 09:46:33.780             5.001           463.906
       130   04 Jun 2027 09:47:01.659   04 Jun 2027 09:47:04.470             2.811           837.031
       131   04 Jun 2027 09:47:04.608   04 Jun 2027 09:47:06.286             1.678             4.313
       132   04 Jun 2027 09:47:15.866   04 Jun 2027 09:47:16.886             1.020           195.313
       133   04 Jun 2027 09:47:31.950   04 Jun 2027 09:47:38.050             6.100           470.750
       134   04 Jun 2027 11:17:19.408   04 Jun 2027 11:17:26.420             7.012          1672.844
       135   04 Jun 2027 11:18:47.328   04 Jun 2027 11:18:51.248             3.920          1960.000
       136   04 Jun 2027 11:19:27.402   04 Jun 2027 11:19:29.870             2.468          1135.594
       137   04 Jun 2027 11:19:36.605   04 Jun 2027 11:19:45.439             8.834           135.937
       138   04 Jun 2027 11:20:21.990   04 Jun 2027 11:20:23.974             1.984           802.563
       139   04 Jun 2027 11:21:13.692   04 Jun 2027 11:21:16.569             2.877          1043.406
       140   04 Jun 2027 11:22:12.157   04 Jun 2027 11:22:18.754             6.597          1114.500
       141   04 Jun 2027 11:22:25.652   04 Jun 2027 11:22:34.927             9.275           215.562
       142   04 Jun 2027 11:22:43.147   04 Jun 2027 11:22:43.147             0.000             0.000
       143   04 Jun 2027 11:23:19.285   04 Jun 2027 11:23:27.247             7.962          1386.187
       144   04 Jun 2027 11:24:02.318   04 Jun 2027 11:24:10.060             7.742           549.188
       145   04 Jun 2027 11:24:36.956   04 Jun 2027 11:24:41.816             4.860           424.156
       146   05 Jun 2027 03:28:15.694   05 Jun 2027 03:29:18.912            63.218         31609.000
       147   05 Jun 2027 03:30:18.219   05 Jun 2027 03:30:23.232             5.013          2506.500
       148   05 Jun 2027 03:30:49.352   05 Jun 2027 03:30:49.352             0.000             0.000
       149   05 Jun 2027 05:03:04.160   05 Jun 2027 05:06:37.762           213.602        106801.000
       150   05 Jun 2027 05:08:13.918   05 Jun 2027 05:08:16.881             2.963          1481.500
       151   05 Jun 2027 05:10:35.850   05 Jun 2027 05:10:36.902             1.052           526.000
       152   05 Jun 2027 05:10:46.163   05 Jun 2027 05:10:50.431             4.268          2134.000
       153   05 Jun 2027 05:11:42.206   05 Jun 2027 05:11:50.669             8.463          4231.500
       154   05 Jun 2027 06:40:52.673   05 Jun 2027 06:41:31.116            38.443         19221.500
       155   05 Jun 2027 06:42:02.320   05 Jun 2027 06:42:15.984            13.664          6804.219
       156   05 Jun 2027 06:42:58.800   05 Jun 2027 06:43:01.389             2.589            98.219
       157   05 Jun 2027 06:43:56.873   05 Jun 2027 06:44:01.438             4.565           948.094
       158   05 Jun 2027 06:44:31.087   05 Jun 2027 06:44:33.827             2.740           926.531
       159   05 Jun 2027 06:45:04.029   05 Jun 2027 06:45:04.798             0.769           168.219
       160   05 Jun 2027 06:45:09.743   05 Jun 2027 06:45:10.205             0.462           154.531
       161   05 Jun 2027 06:45:32.432   05 Jun 2027 06:45:33.133             0.701             3.375
       162   05 Jun 2027 06:45:47.968   05 Jun 2027 06:45:48.676             0.708           225.469
       163   05 Jun 2027 06:45:54.144   05 Jun 2027 06:45:55.558             1.414            28.312
       164   05 Jun 2027 06:45:58.054   05 Jun 2027 06:45:58.054             0.000             0.000
       165   05 Jun 2027 06:46:28.008   05 Jun 2027 06:46:31.726             3.718           999.781
       166   05 Jun 2027 06:46:51.208   05 Jun 2027 06:46:51.302             0.094            47.000
       167   05 Jun 2027 06:47:02.085   05 Jun 2027 06:47:04.555             2.470           798.281
       168   05 Jun 2027 08:17:37.181   05 Jun 2027 08:18:02.398            25.217         12608.500
       169   05 Jun 2027 08:18:06.408   05 Jun 2027 08:18:11.198             4.790          1758.844
       170   05 Jun 2027 08:18:35.323   05 Jun 2027 08:18:37.121             1.798           744.312
       171   05 Jun 2027 08:18:46.634   05 Jun 2027 08:18:48.494             1.860           297.281
       172   05 Jun 2027 08:20:01.540   05 Jun 2027 08:20:05.006             3.466          1490.938
       173   05 Jun 2027 08:20:38.467   05 Jun 2027 08:20:41.536             3.069           745.031
       174   05 Jun 2027 08:21:19.343   05 Jun 2027 08:21:21.273             1.930           874.937
       175   05 Jun 2027 08:21:36.761   05 Jun 2027 08:21:43.296             6.535           266.812
       176   05 Jun 2027 08:22:20.160   05 Jun 2027 08:22:21.531             1.371           589.281
       177   05 Jun 2027 08:23:15.182   05 Jun 2027 08:23:19.068             3.886          1456.375
       178   05 Jun 2027 08:23:47.430   05 Jun 2027 08:23:47.430             0.000             0.000
       179   05 Jun 2027 09:55:44.492   05 Jun 2027 09:56:03.057            18.565          9282.500
       180   05 Jun 2027 09:56:25.867   05 Jun 2027 09:56:32.225             6.358          1204.437
       181   05 Jun 2027 09:57:23.081   05 Jun 2027 09:57:25.501             2.420          1210.000
       182   05 Jun 2027 09:57:40.053   05 Jun 2027 09:57:41.125             1.072           536.000
       183   05 Jun 2027 09:58:01.020   05 Jun 2027 09:58:03.197             2.177           919.719
       184   05 Jun 2027 09:58:32.629   05 Jun 2027 09:58:35.214             2.585           254.406
       185   05 Jun 2027 09:58:43.590   05 Jun 2027 09:58:45.065             1.475           261.750
       186   05 Jun 2027 09:59:06.316   05 Jun 2027 09:59:09.592             3.276           664.094
       187   05 Jun 2027 09:59:37.155   05 Jun 2027 09:59:41.154             3.999           717.906
       188   05 Jun 2027 11:29:35.569   05 Jun 2027 11:29:38.521             2.952           701.969
       189   05 Jun 2027 11:30:16.741   05 Jun 2027 11:30:20.093             3.352           689.906
       190   05 Jun 2027 11:31:06.375   05 Jun 2027 11:31:11.827             5.452           860.594
       191   05 Jun 2027 11:31:26.596   05 Jun 2027 11:31:26.596             0.000             0.000
       192   05 Jun 2027 11:31:29.192   05 Jun 2027 11:31:29.991             0.799           193.750
       193   05 Jun 2027 11:32:02.121   05 Jun 2027 11:32:03.494             1.373           537.594
       194   05 Jun 2027 11:32:22.843   05 Jun 2027 11:32:23.605             0.762           381.000
       195   05 Jun 2027 11:33:01.053   05 Jun 2027 11:33:04.623             3.570          1279.219
       196   05 Jun 2027 11:33:39.508   05 Jun 2027 11:33:41.405             1.897           760.812
       197   05 Jun 2027 11:34:01.344   05 Jun 2027 11:34:03.043             1.699           337.750
       198   05 Jun 2027 11:34:35.570   05 Jun 2027 11:34:38.779             3.209           998.687
       199   05 Jun 2027 11:35:09.069   05 Jun 2027 11:35:13.718             4.649           946.562
       200   05 Jun 2027 11:35:18.595   05 Jun 2027 11:35:24.909             6.314            97.625
       201   06 Jun 2027 03:42:01.487   06 Jun 2027 03:42:28.351            26.864         13432.000
       202   06 Jun 2027 03:43:47.637   06 Jun 2027 03:44:27.688            40.051         20025.500
       203   06 Jun 2027 03:44:56.874   06 Jun 2027 03:45:01.899             5.025          2512.500
       204   06 Jun 2027 05:15:52.450   06 Jun 2027 05:19:14.307           201.857        100928.500
       205   06 Jun 2027 05:20:33.712   06 Jun 2027 05:20:36.709             2.997          1498.500
       206   06 Jun 2027 05:22:49.996   06 Jun 2027 05:23:03.914            13.918          6959.000
       207   06 Jun 2027 05:23:22.268   06 Jun 2027 05:23:29.558             7.290          3645.000
       208   06 Jun 2027 05:23:55.828   06 Jun 2027 05:24:22.366            26.538         13269.000
       209   06 Jun 2027 06:52:59.076   06 Jun 2027 06:53:45.192            46.116         22261.750
       210   06 Jun 2027 06:54:13.496   06 Jun 2027 06:54:15.444             1.948           664.719
       211   06 Jun 2027 06:54:52.294   06 Jun 2027 06:54:52.294             0.000             0.000
       212   06 Jun 2027 06:55:23.963   06 Jun 2027 06:55:28.124             4.161          1496.312
       213   06 Jun 2027 06:56:38.035   06 Jun 2027 06:56:41.044             3.009          1426.187
       214   06 Jun 2027 06:57:06.200   06 Jun 2027 06:57:10.774             4.574           610.000
       215   06 Jun 2027 06:57:51.135   06 Jun 2027 06:57:54.476             3.341           310.625
       216   06 Jun 2027 06:58:48.260   06 Jun 2027 06:58:52.673             4.413          1538.656
       217   06 Jun 2027 06:59:56.625   06 Jun 2027 07:00:01.125             4.500          1474.156
       218   06 Jun 2027 08:30:01.260   06 Jun 2027 08:30:28.826            27.566         13716.531
       219   06 Jun 2027 08:30:53.325   06 Jun 2027 08:30:56.054             2.729           724.781
       220   06 Jun 2027 08:31:41.558   06 Jun 2027 08:31:46.102             4.544           241.469
       221   06 Jun 2027 08:31:59.188   06 Jun 2027 08:32:00.126             0.938           408.938
       222   06 Jun 2027 08:32:59.565   06 Jun 2027 08:33:04.217             4.652          1834.969
       223   06 Jun 2027 08:33:24.331   06 Jun 2027 08:33:25.692             1.361           490.031
       224   06 Jun 2027 08:33:50.683   06 Jun 2027 08:33:52.658             1.975           780.969
       225   06 Jun 2027 08:35:01.427   06 Jun 2027 08:35:06.877             5.450          2016.063
       226   06 Jun 2027 08:35:32.013   06 Jun 2027 08:35:33.547             1.534           466.437
       227   06 Jun 2027 10:06:58.473   06 Jun 2027 10:07:15.392            16.919          8131.688
       228   06 Jun 2027 10:07:33.757   06 Jun 2027 10:07:36.500             2.743           306.562
       229   06 Jun 2027 10:08:03.448   06 Jun 2027 10:08:05.128             1.680           732.781
       230   06 Jun 2027 10:08:42.883   06 Jun 2027 10:08:46.716             3.833          1042.031
       231   06 Jun 2027 10:09:29.050   06 Jun 2027 10:09:40.097            11.047          1296.937
       232   06 Jun 2027 10:09:56.563   06 Jun 2027 10:09:59.168             2.605           476.156
       233   06 Jun 2027 10:10:52.240   06 Jun 2027 10:10:52.869             0.629           314.500
       234   06 Jun 2027 10:11:08.390   06 Jun 2027 10:11:12.397             4.007          1528.500
       235   06 Jun 2027 11:42:02.310   06 Jun 2027 11:42:12.950            10.640          3589.750
       236   06 Jun 2027 11:43:40.455   06 Jun 2027 11:43:45.899             5.444          1466.031
       237   06 Jun 2027 11:44:25.144   06 Jun 2027 11:44:28.166             3.022           890.406
       238   06 Jun 2027 11:45:12.180   06 Jun 2027 11:45:14.580             2.400          1095.000
       239   06 Jun 2027 11:45:31.322   06 Jun 2027 11:45:32.625             1.303           456.063
       240   06 Jun 2027 11:46:35.623   06 Jun 2027 11:46:36.439             0.816           408.000
       241   06 Jun 2027 11:46:53.771   06 Jun 2027 11:46:55.611             1.840           920.000
       242   07 Jun 2027 03:54:23.136   07 Jun 2027 03:55:21.073            57.937         28968.500
       243   07 Jun 2027 03:55:27.788   07 Jun 2027 03:55:31.778             3.990          1995.000
       244   07 Jun 2027 03:56:29.771   07 Jun 2027 03:56:45.219            15.448          7724.000
       245   07 Jun 2027 05:27:50.891   07 Jun 2027 05:28:23.699            32.808         16404.000
       246   07 Jun 2027 05:28:42.592   07 Jun 2027 05:31:14.374           151.782         75891.000
       247   07 Jun 2027 05:31:57.212   07 Jun 2027 05:32:01.300             4.088          2044.000
       248   07 Jun 2027 05:32:19.607   07 Jun 2027 05:32:20.036             0.429           214.500
       249   07 Jun 2027 05:33:44.287   07 Jun 2027 05:33:44.287             0.000             0.000
       250   07 Jun 2027 05:35:37.841   07 Jun 2027 05:35:56.280            18.439          9219.500
       251   07 Jun 2027 05:36:18.966   07 Jun 2027 05:36:21.406             2.440          1220.000
       252   07 Jun 2027 07:05:24.810   07 Jun 2027 07:06:23.466            58.656         29328.000
       253   07 Jun 2027 07:07:58.293   07 Jun 2027 07:08:07.172             8.879          3870.907
       254   07 Jun 2027 07:08:59.522   07 Jun 2027 07:09:05.782             6.260          1548.125
       255   07 Jun 2027 07:09:06.445   07 Jun 2027 07:09:08.315             1.870            20.719
       256   07 Jun 2027 07:09:11.637   07 Jun 2027 07:09:13.527             1.890            44.875
       257   07 Jun 2027 07:10:08.853   07 Jun 2027 07:10:13.531             4.678          1453.719
       258   07 Jun 2027 07:11:01.218   07 Jun 2027 07:11:03.717             2.499          1218.156
       259   07 Jun 2027 07:11:13.632   07 Jun 2027 07:11:15.352             1.720           272.906
       260   07 Jun 2027 07:11:57.658   07 Jun 2027 07:12:03.103             5.445           640.063
       261   07 Jun 2027 08:42:18.704   07 Jun 2027 08:42:49.976            31.272         13624.813
       262   07 Jun 2027 08:42:55.967   07 Jun 2027 08:42:56.493             0.526            71.156
       263   07 Jun 2027 08:44:29.194   07 Jun 2027 08:44:37.158             7.964          2116.406
       264   07 Jun 2027 08:45:37.374   07 Jun 2027 08:45:40.402             3.028          1514.000
       265   07 Jun 2027 08:46:59.586   07 Jun 2027 08:46:59.977             0.391           195.500
       266   07 Jun 2027 08:47:11.312   07 Jun 2027 08:47:21.251             9.939          3000.968
       267   07 Jun 2027 10:19:12.438   07 Jun 2027 10:19:33.466            21.028          9413.531
       268   07 Jun 2027 10:20:03.625   07 Jun 2027 10:20:06.013             2.388           821.219
       269   07 Jun 2027 10:20:20.618   07 Jun 2027 10:20:21.748             1.130           433.500
       270   07 Jun 2027 10:21:06.557   07 Jun 2027 10:21:13.671             7.114          1241.062
       271   07 Jun 2027 10:21:23.427   07 Jun 2027 10:21:24.140             0.713           304.875
       272   07 Jun 2027 10:22:07.951   07 Jun 2027 10:22:11.626             3.675          1221.531
       273   07 Jun 2027 10:22:43.477   07 Jun 2027 10:22:45.162             1.685           740.719
       274   07 Jun 2027 10:22:56.314   07 Jun 2027 10:22:56.314             0.000             0.000
       275   07 Jun 2027 10:23:08.135   07 Jun 2027 10:23:09.733             1.598           523.094
       276   07 Jun 2027 10:23:26.738   07 Jun 2027 10:23:28.897             2.159           324.656
       277   07 Jun 2027 11:56:51.968   07 Jun 2027 11:56:58.627             6.659          2641.938
       278   07 Jun 2027 11:57:48.822   07 Jun 2027 11:57:51.911             3.089          1504.937
       279   07 Jun 2027 11:58:06.669   07 Jun 2027 11:58:10.475             3.806           260.500
       280   08 Jun 2027 04:06:24.554   08 Jun 2027 04:07:15.773            51.219         25609.500
       281   08 Jun 2027 04:07:47.298   08 Jun 2027 04:08:04.737            17.439          8719.500
       282   08 Jun 2027 04:08:25.372   08 Jun 2027 04:08:44.820            19.448          9724.000
       283   08 Jun 2027 05:41:19.568   08 Jun 2027 05:44:07.932           168.364         84182.000
       284   08 Jun 2027 05:44:18.262   08 Jun 2027 05:44:18.262             0.000             0.000
       285   08 Jun 2027 05:47:49.462   08 Jun 2027 05:48:17.676            28.214         14107.000
       286   08 Jun 2027 07:17:32.180   08 Jun 2027 07:18:19.280            47.100         23550.000
       287   08 Jun 2027 07:18:28.958   08 Jun 2027 07:18:32.619             3.661           540.375
       288   08 Jun 2027 07:19:37.662   08 Jun 2027 07:19:40.571             2.909          1122.281
       289   08 Jun 2027 07:20:04.288   08 Jun 2027 07:20:05.437             1.149           326.813
       290   08 Jun 2027 07:21:29.556   08 Jun 2027 07:21:35.273             5.717          1617.969
       291   08 Jun 2027 07:21:48.129   08 Jun 2027 07:21:48.129             0.000             0.000
       292   08 Jun 2027 07:22:36.042   08 Jun 2027 07:22:40.190             4.148          1723.438
       293   08 Jun 2027 08:55:15.348   08 Jun 2027 08:55:38.631            23.283         10961.281
       294   08 Jun 2027 08:55:51.317   08 Jun 2027 08:55:57.788             6.471           186.219
       295   08 Jun 2027 08:56:35.464   08 Jun 2027 08:56:37.042             1.578           789.000
       296   08 Jun 2027 08:57:24.204   08 Jun 2027 08:57:30.621             6.417          1862.187
       297   08 Jun 2027 08:57:58.655   08 Jun 2027 08:58:01.403             2.748           782.813
       298   08 Jun 2027 08:59:11.730   08 Jun 2027 08:59:12.858             1.128           564.000
       299   08 Jun 2027 08:59:28.194   08 Jun 2027 08:59:32.579             4.385          1992.844
       300   08 Jun 2027 10:31:21.654   08 Jun 2027 10:31:38.080            16.426          7509.781
       301   08 Jun 2027 10:32:27.281   08 Jun 2027 10:32:30.070             2.789          1097.531
       302   08 Jun 2027 10:33:08.836   08 Jun 2027 10:33:14.142             5.306          1211.438
       303   08 Jun 2027 10:34:02.469   08 Jun 2027 10:34:04.975             2.506          1201.469
       304   08 Jun 2027 10:34:43.544   08 Jun 2027 10:34:47.521             3.977          1026.437
       305   08 Jun 2027 10:35:04.545   08 Jun 2027 10:35:07.094             2.549           448.375
       306   08 Jun 2027 10:35:18.756   08 Jun 2027 10:35:22.829             4.073           364.438
       307   09 Jun 2027 04:18:32.165   09 Jun 2027 04:19:02.614            30.449         15224.500
       308   09 Jun 2027 04:19:33.627   09 Jun 2027 04:21:49.755           136.128         68064.000
       309   09 Jun 2027 05:53:42.177   09 Jun 2027 05:56:10.839           148.662         74331.000
       310   09 Jun 2027 05:56:40.845   09 Jun 2027 05:56:46.089             5.244          2586.563
       311   09 Jun 2027 05:59:11.257   09 Jun 2027 05:59:17.579             6.322          3161.000
       312   09 Jun 2027 05:59:30.358   09 Jun 2027 05:59:33.883             3.525          1743.812
       313   09 Jun 2027 06:00:17.770   09 Jun 2027 06:00:18.791             1.021           510.500
       314   09 Jun 2027 07:30:07.673   09 Jun 2027 07:30:37.084            29.411         14515.969
       315   09 Jun 2027 07:30:46.964   09 Jun 2027 07:30:53.558             6.594            25.781
       316   09 Jun 2027 07:31:46.226   09 Jun 2027 07:31:47.942             1.716           161.688
       317   09 Jun 2027 07:32:53.006   09 Jun 2027 07:32:56.713             3.707          1238.094
       318   09 Jun 2027 07:33:34.829   09 Jun 2027 07:33:38.115             3.286           952.031
       319   09 Jun 2027 07:34:49.360   09 Jun 2027 07:34:53.926             4.566          2077.000
       320   09 Jun 2027 07:34:58.694   09 Jun 2027 07:35:00.398             1.704           117.969
       321   09 Jun 2027 07:35:46.076   09 Jun 2027 07:35:49.541             3.465          1381.031
       322   09 Jun 2027 09:07:22.136   09 Jun 2027 09:07:44.616            22.480         10826.000
       323   09 Jun 2027 09:08:09.530   09 Jun 2027 09:08:09.987             0.457           228.500
       324   09 Jun 2027 09:08:13.311   09 Jun 2027 09:08:16.421             3.110           566.437
       325   09 Jun 2027 09:09:26.373   09 Jun 2027 09:09:30.987             4.614          2034.750
       326   09 Jun 2027 09:09:37.894   09 Jun 2027 09:09:38.582             0.688           130.219
       327   09 Jun 2027 09:10:09.069   09 Jun 2027 09:10:13.527             4.458           891.406
       328   09 Jun 2027 09:11:03.103   09 Jun 2027 09:11:06.210             3.107          1549.250
       329   09 Jun 2027 09:11:11.161   09 Jun 2027 09:11:11.615             0.454           143.594
       330   09 Jun 2027 09:11:25.905   09 Jun 2027 09:11:31.291             5.386           445.813
       331   09 Jun 2027 10:43:36.641   09 Jun 2027 10:43:50.062            13.421          6647.719
       332   09 Jun 2027 10:43:50.476   09 Jun 2027 10:43:52.710             2.234            12.688
       333   09 Jun 2027 10:44:02.312   09 Jun 2027 10:44:02.447             0.135            11.344
       334   09 Jun 2027 10:44:33.074   09 Jun 2027 10:44:40.806             7.732           893.687
       335   09 Jun 2027 10:45:04.680   09 Jun 2027 10:45:05.901             1.221           610.500
       336   09 Jun 2027 10:45:06.452   09 Jun 2027 10:45:09.564             3.112           152.781
       337   09 Jun 2027 10:46:00.534   09 Jun 2027 10:46:04.011             3.477          1115.375
       338   09 Jun 2027 10:47:09.400   09 Jun 2027 10:47:23.445            14.045          1764.719
       339   10 Jun 2027 04:30:25.116   10 Jun 2027 04:33:34.761           189.645         94822.500
       340   10 Jun 2027 06:05:21.283   10 Jun 2027 06:06:05.774            44.491         22245.500
       341   10 Jun 2027 06:06:41.779   10 Jun 2027 06:07:58.623            76.844         38422.000
       342   10 Jun 2027 06:08:53.594   10 Jun 2027 06:08:56.491             2.897          1448.500
       343   10 Jun 2027 06:09:27.375   10 Jun 2027 06:09:32.308             4.933          2401.219
       344   10 Jun 2027 06:09:46.739   10 Jun 2027 06:09:48.190             1.451           450.969
       345   10 Jun 2027 06:11:38.531   10 Jun 2027 06:11:45.114             6.583          3290.531
       346   10 Jun 2027 07:41:39.932   10 Jun 2027 07:42:11.819            31.887         15917.000
       347   10 Jun 2027 07:42:57.969   10 Jun 2027 07:42:58.493             0.524            98.781
       348   10 Jun 2027 07:43:15.976   10 Jun 2027 07:43:19.833             3.857           544.969
       349   10 Jun 2027 07:43:49.388   10 Jun 2027 07:43:50.687             1.299           217.062
       350   10 Jun 2027 07:43:57.446   10 Jun 2027 07:43:59.389             1.943           211.219
       351   10 Jun 2027 07:44:32.476   10 Jun 2027 07:44:36.553             4.077           203.469
       352   10 Jun 2027 07:45:39.579   10 Jun 2027 07:45:43.602             4.023          1782.281
       353   10 Jun 2027 07:46:59.308   10 Jun 2027 07:47:03.660             4.352          2060.094
       354   10 Jun 2027 09:19:55.390   10 Jun 2027 09:20:12.816            17.426          8713.000
       355   10 Jun 2027 09:20:14.850   10 Jun 2027 09:20:19.019             4.169           218.594
       356   10 Jun 2027 09:20:43.895   10 Jun 2027 09:20:47.934             4.039           777.375
       357   10 Jun 2027 09:21:44.731   10 Jun 2027 09:21:52.369             7.638          1505.406
       358   10 Jun 2027 09:22:04.267   10 Jun 2027 09:22:07.780             3.513            43.438
       359   10 Jun 2027 09:23:05.786   10 Jun 2027 09:23:08.266             2.480           968.000
       360   10 Jun 2027 10:55:15.528   10 Jun 2027 10:55:33.448            17.920          8404.281
       361   10 Jun 2027 10:56:14.788   10 Jun 2027 10:56:19.087             4.299           818.313
       362   10 Jun 2027 10:57:01.175   10 Jun 2027 10:57:05.972             4.797           870.969
       363   10 Jun 2027 10:57:22.987   10 Jun 2027 10:57:25.875             2.888           225.594
       364   10 Jun 2027 10:58:18.531   10 Jun 2027 10:58:22.579             4.048          1645.500
       365   10 Jun 2027 10:58:26.352   10 Jun 2027 10:58:26.787             0.435            62.688
       366   10 Jun 2027 10:58:49.492   10 Jun 2027 10:58:53.646             4.154            50.781
       367   10 Jun 2027 10:59:13.755   10 Jun 2027 10:59:20.073             6.318           628.406
       368   10 Jun 2027 11:00:22.676   10 Jun 2027 11:00:26.355             3.679          1725.656
       369   11 Jun 2027 03:05:45.334   11 Jun 2027 03:06:10.625            25.291         12645.500
       370   11 Jun 2027 03:06:26.437   11 Jun 2027 03:06:34.522             8.085          4042.500
       371   11 Jun 2027 03:06:35.872   11 Jun 2027 03:06:44.874             9.002          4501.000
       372   11 Jun 2027 03:07:32.913   11 Jun 2027 03:07:45.265            12.352          6176.000
       373   11 Jun 2027 03:08:35.432   11 Jun 2027 03:08:58.039            22.607         11303.500
       374   11 Jun 2027 04:40:43.781   11 Jun 2027 04:41:17.418            33.637         16818.500
       375   11 Jun 2027 04:42:08.966   11 Jun 2027 04:44:17.214           128.248         64124.000
       376   11 Jun 2027 04:46:01.915   11 Jun 2027 04:46:05.684             3.769          1884.500
       377   11 Jun 2027 06:16:54.607   11 Jun 2027 06:18:08.569            73.962         36689.249
       378   11 Jun 2027 06:18:21.581   11 Jun 2027 06:18:22.688             1.107           406.625
       379   11 Jun 2027 06:19:32.797   11 Jun 2027 06:19:43.230            10.433          1126.813
       380   11 Jun 2027 06:20:06.694   11 Jun 2027 06:20:07.747             1.053           339.812
       381   11 Jun 2027 06:20:35.122   11 Jun 2027 06:20:36.691             1.569           562.344
       382   11 Jun 2027 06:21:09.635   11 Jun 2027 06:21:11.141             1.506           402.281
       383   11 Jun 2027 06:22:22.923   11 Jun 2027 06:22:27.273             4.350          1617.156
       384   11 Jun 2027 06:22:47.364   11 Jun 2027 06:22:47.364             0.000             0.000
       385   11 Jun 2027 06:23:45.942   11 Jun 2027 06:23:49.090             3.148          1574.000
       386   11 Jun 2027 07:53:59.189   11 Jun 2027 07:54:36.130            36.941         17405.625
       387   11 Jun 2027 07:55:10.492   11 Jun 2027 07:55:12.804             2.312           532.219
       388   11 Jun 2027 07:55:51.437   11 Jun 2027 07:55:54.391             2.954            16.188
       389   11 Jun 2027 07:56:17.765   11 Jun 2027 07:56:18.223             0.458           183.312
       390   11 Jun 2027 07:57:38.099   11 Jun 2027 07:57:43.732             5.633          1686.531
       391   11 Jun 2027 07:59:23.670   11 Jun 2027 07:59:31.169             7.499          2093.062
       392   11 Jun 2027 09:31:58.318   11 Jun 2027 09:32:18.934            20.616         10093.563
       393   11 Jun 2027 09:33:13.868   11 Jun 2027 09:33:17.153             3.285          1107.312
       394   11 Jun 2027 09:33:27.801   11 Jun 2027 09:33:31.785             3.984           226.562
       395   11 Jun 2027 09:33:38.769   11 Jun 2027 09:33:40.285             1.516           188.094
       396   11 Jun 2027 09:34:06.883   11 Jun 2027 09:34:11.313             4.430           831.187
       397   11 Jun 2027 09:34:48.719   11 Jun 2027 09:34:48.835             0.116            58.000
       398   11 Jun 2027 09:35:15.302   11 Jun 2027 09:35:17.804             2.502          1218.156
       399   11 Jun 2027 09:35:27.465   11 Jun 2027 09:35:32.327             4.862           249.563
       400   11 Jun 2027 11:05:07.330   11 Jun 2027 11:05:21.321            13.991          6690.563
       401   11 Jun 2027 11:06:33.105   11 Jun 2027 11:06:35.866             2.761           849.562
       402   11 Jun 2027 11:07:18.678   11 Jun 2027 11:07:24.804             6.126          1139.813
       403   11 Jun 2027 11:08:23.689   11 Jun 2027 11:08:30.147             6.458          1820.406
       404   11 Jun 2027 11:08:56.073   11 Jun 2027 11:08:57.814             1.741           673.188
       405   11 Jun 2027 11:09:07.318   11 Jun 2027 11:09:08.767             1.449           286.156
       406   11 Jun 2027 11:10:15.744   11 Jun 2027 11:10:18.830             3.086          1543.000
       407   11 Jun 2027 11:11:01.204   11 Jun 2027 11:11:04.687             3.483          1563.344
       408   11 Jun 2027 11:12:19.168   11 Jun 2027 11:12:25.175             6.007          1922.969
       409   12 Jun 2027 03:16:46.147   12 Jun 2027 03:17:56.864            70.717         35358.500
       410   12 Jun 2027 03:19:44.114   12 Jun 2027 03:19:59.496            15.382          7691.000
       411   12 Jun 2027 03:20:50.208   12 Jun 2027 03:20:50.208             0.000             0.000
       412   12 Jun 2027 03:20:52.279   12 Jun 2027 03:20:58.342             6.063          3031.500
       413   12 Jun 2027 03:21:16.374   12 Jun 2027 03:21:16.374             0.000             0.000
       414   12 Jun 2027 04:51:50.368   12 Jun 2027 04:53:33.615           103.247         51623.500
       415   12 Jun 2027 04:53:53.421   12 Jun 2027 04:54:53.233            59.812         29906.000
       416   12 Jun 2027 04:56:09.672   12 Jun 2027 04:56:17.541             7.869          3934.500
       417   12 Jun 2027 04:57:30.458   12 Jun 2027 04:57:47.990            17.532          8766.000
       418   12 Jun 2027 04:58:54.674   12 Jun 2027 04:58:54.813             0.139            69.500
       419   12 Jun 2027 04:59:45.012   12 Jun 2027 05:00:06.545            21.533         10766.500
       420   12 Jun 2027 06:29:12.123   12 Jun 2027 06:29:43.430            31.307         15647.750
       421   12 Jun 2027 06:30:22.603   12 Jun 2027 06:30:24.674             2.071           665.812
       422   12 Jun 2027 06:33:30.953   12 Jun 2027 06:33:42.830            11.877          3933.969
       423   12 Jun 2027 06:34:03.224   12 Jun 2027 06:34:03.725             0.501           168.375
       424   12 Jun 2027 06:34:47.539   12 Jun 2027 06:34:50.937             3.398          1106.094
       425   12 Jun 2027 06:35:27.348   12 Jun 2027 06:35:29.359             2.011           881.000
       426   12 Jun 2027 06:35:56.973   12 Jun 2027 06:36:00.340             3.367           706.375
       427   12 Jun 2027 06:36:28.844   12 Jun 2027 06:36:31.733             2.889           637.250
       428   12 Jun 2027 08:06:00.806   12 Jun 2027 08:06:34.646            33.840         16026.594
       429   12 Jun 2027 08:06:44.853   12 Jun 2027 08:06:46.898             2.045           118.375
       430   12 Jun 2027 08:07:46.867   12 Jun 2027 08:07:51.609             4.742           872.812
       431   12 Jun 2027 08:08:45.117   12 Jun 2027 08:08:51.337             6.220          1054.969
       432   12 Jun 2027 08:09:17.837   12 Jun 2027 08:09:17.837             0.000             0.000
       433   12 Jun 2027 08:09:47.996   12 Jun 2027 08:09:54.799             6.803          1677.000
       434   12 Jun 2027 08:09:55.972   12 Jun 2027 08:09:57.112             1.140            36.656
       435   12 Jun 2027 08:10:58.325   12 Jun 2027 08:11:03.340             5.015          1751.000
       436   12 Jun 2027 08:11:47.134   12 Jun 2027 08:11:47.825             0.691           345.500
       437   12 Jun 2027 09:43:57.870   12 Jun 2027 09:44:17.227            19.357          9426.312
       438   12 Jun 2027 09:44:39.371   12 Jun 2027 09:44:45.109             5.738           692.000
       439   12 Jun 2027 09:45:08.662   12 Jun 2027 09:45:09.828             1.166           342.281
       440   12 Jun 2027 09:45:15.081   12 Jun 2027 09:45:16.008             0.927           164.156
       441   12 Jun 2027 09:45:31.579   12 Jun 2027 09:45:31.579             0.000             0.000
       442   12 Jun 2027 09:45:47.975   12 Jun 2027 09:45:50.497             2.522           998.969
       443   12 Jun 2027 09:47:12.263   12 Jun 2027 09:47:16.445             4.182          1351.750
       444   12 Jun 2027 09:47:18.495   12 Jun 2027 09:47:19.176             0.681            58.125
       445   12 Jun 2027 09:47:19.863   12 Jun 2027 09:47:21.892             2.029            21.469
       446   12 Jun 2027 09:47:47.016   12 Jun 2027 09:47:47.981             0.965           482.500
       447   12 Jun 2027 11:17:34.652   12 Jun 2027 11:17:41.260             6.608          2016.281
       448   12 Jun 2027 11:18:11.089   12 Jun 2027 11:18:16.360             5.271           372.344
       449   12 Jun 2027 11:18:54.157   12 Jun 2027 11:18:56.089             1.932           349.094
       450   12 Jun 2027 11:19:07.852   12 Jun 2027 11:19:07.852             0.000             0.000
       451   12 Jun 2027 11:19:42.291   12 Jun 2027 11:19:48.495             6.204          1443.812
       452   12 Jun 2027 11:19:51.496   12 Jun 2027 11:19:51.496             0.000             0.000
       453   12 Jun 2027 11:20:11.029   12 Jun 2027 11:20:13.404             2.375           704.187
       454   12 Jun 2027 11:21:12.884   12 Jun 2027 11:21:16.485             3.601          1516.781
       455   12 Jun 2027 11:21:40.331   12 Jun 2027 11:21:40.331             0.000             0.000
       456   12 Jun 2027 11:21:53.257   12 Jun 2027 11:21:54.363             1.106           553.000
       457   12 Jun 2027 11:22:16.214   12 Jun 2027 11:22:22.956             6.742           905.781
       458   12 Jun 2027 11:22:49.942   12 Jun 2027 11:22:49.942             0.000             0.000
       459   12 Jun 2027 11:23:17.315   12 Jun 2027 11:23:20.406             3.091          1519.719
       460   12 Jun 2027 11:23:59.566   12 Jun 2027 11:24:02.938             3.372          1204.031
       461   12 Jun 2027 11:24:39.021   12 Jun 2027 11:24:39.021             0.000             0.000
       462   12 Jun 2027 11:24:50.211   12 Jun 2027 11:24:52.599             2.388          1131.094
       463   13 Jun 2027 03:28:30.194   13 Jun 2027 03:29:38.599            68.405         34202.500
       464   13 Jun 2027 03:32:22.501   13 Jun 2027 03:32:37.321            14.820          7410.000
       465   13 Jun 2027 03:32:43.978   13 Jun 2027 03:32:43.978             0.000             0.000
       466   13 Jun 2027 05:03:18.565   13 Jun 2027 05:06:18.902           180.337         90168.500
       467   13 Jun 2027 05:06:41.987   13 Jun 2027 05:07:11.055            29.068         14534.000
       468   13 Jun 2027 05:08:18.763   13 Jun 2027 05:08:21.621             2.858          1429.000
       469   13 Jun 2027 05:08:59.023   13 Jun 2027 05:09:07.786             8.763          4381.500
       470   13 Jun 2027 05:12:10.574   13 Jun 2027 05:12:15.440             4.866          2433.000
       471   13 Jun 2027 06:41:07.383   13 Jun 2027 06:41:45.701            38.318         19159.000
       472   13 Jun 2027 06:42:16.875   13 Jun 2027 06:42:27.678            10.803          5015.063
       473   13 Jun 2027 06:44:16.371   13 Jun 2027 06:44:23.706             7.335          2932.938
       474   13 Jun 2027 06:44:31.673   13 Jun 2027 06:44:32.499             0.826           190.281
       475   13 Jun 2027 06:45:55.876   13 Jun 2027 06:46:05.166             9.290          2210.656
       476   13 Jun 2027 06:46:11.989   13 Jun 2027 06:46:14.793             2.804           180.719
       477   13 Jun 2027 06:46:44.160   13 Jun 2027 06:46:47.118             2.958           917.719
       478   13 Jun 2027 06:47:05.465   13 Jun 2027 06:47:06.875             1.410           475.875
       479   13 Jun 2027 06:47:16.673   13 Jun 2027 06:47:20.177             3.504           306.187
       480   13 Jun 2027 06:47:28.937   13 Jun 2027 06:47:33.867             4.930           126.469
       481   13 Jun 2027 06:47:53.971   13 Jun 2027 06:47:55.986             2.015           562.313
       482   13 Jun 2027 06:48:28.670   13 Jun 2027 06:48:32.972             4.302          1021.375
       483   13 Jun 2027 08:17:51.764   13 Jun 2027 08:18:17.014            25.250         12625.000
       484   13 Jun 2027 08:18:21.467   13 Jun 2027 08:18:26.395             4.928          1668.937
       485   13 Jun 2027 08:18:49.848   13 Jun 2027 08:18:51.809             1.961           729.281
       486   13 Jun 2027 08:19:02.332   13 Jun 2027 08:19:03.304             0.972           328.844
       487   13 Jun 2027 08:20:16.340   13 Jun 2027 08:20:19.731             3.391          1441.188
       488   13 Jun 2027 08:21:14.462   13 Jun 2027 08:21:18.072             3.610          1663.906
       489   13 Jun 2027 08:21:42.401   13 Jun 2027 08:21:49.288             6.887           667.563
       490   13 Jun 2027 08:22:32.381   13 Jun 2027 08:22:35.253             2.872          1295.813
       491   13 Jun 2027 08:22:42.698   13 Jun 2027 08:22:46.156             3.458           232.656
       492   13 Jun 2027 08:23:09.170   13 Jun 2027 08:23:10.814             1.644           719.188
       493   13 Jun 2027 08:23:22.109   13 Jun 2027 08:23:25.244             3.135           352.969
       494   13 Jun 2027 09:55:59.427   13 Jun 2027 09:56:18.069            18.642          9321.000
       495   13 Jun 2027 09:56:40.498   13 Jun 2027 09:56:48.642             8.144          1144.594
       496   13 Jun 2027 09:57:04.724   13 Jun 2027 09:57:05.497             0.773           247.719
       497   13 Jun 2027 09:57:12.068   13 Jun 2027 09:57:13.854             1.786           193.844
       498   13 Jun 2027 09:57:41.790   13 Jun 2027 09:57:43.174             1.384           692.000
       499   13 Jun 2027 09:58:15.717   13 Jun 2027 09:58:21.400             5.683          1197.969
       500   13 Jun 2027 09:58:50.093   13 Jun 2027 09:58:52.134             2.041           896.656
       501   13 Jun 2027 09:59:05.321   13 Jun 2027 09:59:09.791             4.470           412.094
       502   13 Jun 2027 09:59:22.271   13 Jun 2027 09:59:25.003             2.732           390.000
       503   13 Jun 2027 09:59:40.199   13 Jun 2027 09:59:40.857             0.658           103.969
       504   13 Jun 2027 09:59:52.266   13 Jun 2027 09:59:52.808             0.542           271.000
       505   13 Jun 2027 11:29:50.461   13 Jun 2027 11:29:57.513             7.052          2577.844
       506   13 Jun 2027 11:30:16.734   13 Jun 2027 11:30:17.809             1.075           228.312
       507   13 Jun 2027 11:30:54.046   13 Jun 2027 11:30:55.639             1.593           688.469
       508   13 Jun 2027 11:31:21.460   13 Jun 2027 11:31:25.186             3.726           743.500
       509   13 Jun 2027 11:31:42.879   13 Jun 2027 11:31:44.024             1.145           155.375
       510   13 Jun 2027 11:32:11.416   13 Jun 2027 11:32:16.847             5.431           856.000
       511   13 Jun 2027 11:32:22.224   13 Jun 2027 11:32:34.197            11.973           168.031
       512   13 Jun 2027 11:32:54.132   13 Jun 2027 11:32:54.132             0.000             0.000
       513   13 Jun 2027 11:33:29.899   13 Jun 2027 11:33:33.217             3.318          1614.406
       514   13 Jun 2027 11:34:20.194   13 Jun 2027 11:34:23.818             3.624          1226.281
       515   13 Jun 2027 11:35:13.282   13 Jun 2027 11:35:15.576             2.294          1006.937
       516   13 Jun 2027 11:35:31.532   13 Jun 2027 11:35:31.532             0.000             0.000
       517   13 Jun 2027 11:35:33.430   13 Jun 2027 11:35:34.545             1.115           515.219
