uniorb/output/strategy_2/Camera/Camera_KinoSat_111708.txt

KinoSat_111708
-------------------------
    Access    *     Start Time (UTCG)     *     Stop Time (UTCG)  *   Duration (s) *   Data (Mbytes)
         1   01 Jun 2027 04:17:54.068   01 Jun 2027 04:18:01.645             7.577          3788.500
         2   01 Jun 2027 04:18:55.190   01 Jun 2027 04:22:35.826           220.636        110318.000
         3   01 Jun 2027 04:22:47.586   01 Jun 2027 04:23:09.819            22.233         11116.500
         4   01 Jun 2027 04:23:29.032   01 Jun 2027 04:23:34.826             5.794          2897.000
         5   01 Jun 2027 05:56:03.849   01 Jun 2027 05:56:42.865            39.016         19508.000
         6   01 Jun 2027 05:57:06.157   01 Jun 2027 05:58:11.129            64.972         32486.000
         7   01 Jun 2027 05:58:43.930   01 Jun 2027 05:58:50.997             7.067          3533.500
         8   01 Jun 2027 05:58:53.332   01 Jun 2027 05:59:00.090             6.758          3379.000
         9   01 Jun 2027 07:20:07.703   01 Jun 2027 07:22:04.552           116.849         58424.500
        10   01 Jun 2027 08:55:54.942   01 Jun 2027 08:57:59.700           124.758         62379.000
        11   01 Jun 2027 08:58:52.468   01 Jun 2027 08:59:09.069            16.601          8300.500
        12   01 Jun 2027 10:30:52.243   01 Jun 2027 10:32:53.153           120.910         60455.000
        13   01 Jun 2027 10:33:56.325   01 Jun 2027 10:33:56.325             0.000             0.000
        14   01 Jun 2027 10:37:30.150   01 Jun 2027 10:37:55.066            24.916         12458.000
        15   02 Jun 2027 04:30:58.985   02 Jun 2027 04:33:18.424           139.439         69719.500
        16   02 Jun 2027 04:33:38.379   02 Jun 2027 04:34:45.106            66.727         33363.500
        17   02 Jun 2027 04:37:58.979   02 Jun 2027 04:38:32.707            33.728         16864.000
        18   02 Jun 2027 05:56:53.863   02 Jun 2027 05:57:36.309            42.446         21223.000
        19   02 Jun 2027 06:08:00.311   02 Jun 2027 06:09:00.798            60.487         30243.500
        20   02 Jun 2027 06:09:38.504   02 Jun 2027 06:09:41.322             2.818          1409.000
        21   02 Jun 2027 06:11:13.915   02 Jun 2027 06:11:17.184             3.269          1634.500
        22   02 Jun 2027 07:30:57.507   02 Jun 2027 07:32:45.917           108.410         54205.000
        23   02 Jun 2027 07:35:08.176   02 Jun 2027 07:35:08.176             0.000             0.000
        24   02 Jun 2027 09:06:14.413   02 Jun 2027 09:06:43.714            29.301         14650.500
        25   02 Jun 2027 09:07:39.810   02 Jun 2027 09:09:35.906           116.096         56464.251
        26   02 Jun 2027 09:09:55.586   02 Jun 2027 09:09:57.600             2.014           615.000
        27   02 Jun 2027 10:42:25.333   02 Jun 2027 10:42:41.971            16.638          8319.000
        28   02 Jun 2027 10:42:43.561   02 Jun 2027 10:42:49.315             5.754           608.687
        29   02 Jun 2027 10:46:26.606   02 Jun 2027 10:46:42.814            16.208          6492.969
        30   02 Jun 2027 10:49:18.763   02 Jun 2027 10:49:32.464            13.701          4761.688
        31   03 Jun 2027 03:04:22.299   03 Jun 2027 03:06:08.198           105.899         52949.500
        32   03 Jun 2027 03:06:49.283   03 Jun 2027 03:07:06.422            17.139          8569.500
        33   03 Jun 2027 03:07:50.633   03 Jun 2027 03:07:53.687             3.054          1527.000
        34   03 Jun 2027 03:08:48.595   03 Jun 2027 03:09:07.650            19.055          9527.500
        35   03 Jun 2027 03:09:52.591   03 Jun 2027 03:10:04.922            12.331          6165.500
        36   03 Jun 2027 04:43:28.707   03 Jun 2027 04:45:50.309           141.602         70801.000
        37   03 Jun 2027 04:47:04.883   03 Jun 2027 04:47:09.126             4.243          2121.500
        38   03 Jun 2027 04:48:14.028   03 Jun 2027 04:48:24.301            10.273          5136.500
        39   03 Jun 2027 06:08:20.489   03 Jun 2027 06:08:51.555            31.066         14931.594
        40   03 Jun 2027 06:20:03.042   03 Jun 2027 06:20:09.859             6.817          3408.500
        41   03 Jun 2027 06:20:26.577   03 Jun 2027 06:20:30.839             4.262           698.594
        42   03 Jun 2027 06:21:14.999   03 Jun 2027 06:21:15.373             0.374           187.000
        43   03 Jun 2027 07:42:16.211   03 Jun 2027 07:42:30.247            14.036          6374.906
        44   03 Jun 2027 07:42:56.328   03 Jun 2027 07:42:57.889             1.561           698.687
        45   03 Jun 2027 07:44:17.492   03 Jun 2027 07:44:19.854             2.362           923.656
        46   03 Jun 2027 07:44:32.527   03 Jun 2027 07:44:32.527             0.000             0.000
        47   03 Jun 2027 07:44:59.495   03 Jun 2027 07:45:04.669             5.174          1011.937
        48   03 Jun 2027 07:45:50.628   03 Jun 2027 07:45:56.732             6.104           921.969
        49   03 Jun 2027 07:46:30.581   03 Jun 2027 07:46:34.475             3.894           757.219
        50   03 Jun 2027 07:47:11.190   03 Jun 2027 07:47:13.878             2.688           889.969
        51   03 Jun 2027 09:17:21.519   03 Jun 2027 09:17:33.212            11.693          4746.875
        52   03 Jun 2027 09:18:12.640   03 Jun 2027 09:18:14.755             2.115           825.563
        53   03 Jun 2027 09:19:23.993   03 Jun 2027 09:19:27.816             3.823          1314.125
        54   03 Jun 2027 09:22:28.742   03 Jun 2027 09:22:36.798             8.056          4028.000
        55   03 Jun 2027 09:25:21.062   03 Jun 2027 09:25:25.196             4.134          2067.000
        56   03 Jun 2027 10:58:01.420   03 Jun 2027 10:58:32.848            31.428         14029.125
        57   03 Jun 2027 10:58:57.355   03 Jun 2027 10:59:01.265             3.910           451.813
        58   03 Jun 2027 10:59:26.189   03 Jun 2027 10:59:29.552             3.363           778.875
        59   03 Jun 2027 10:59:37.974   03 Jun 2027 10:59:44.765             6.791           217.875
        60   03 Jun 2027 11:01:03.020   03 Jun 2027 11:01:09.773             6.753          2219.000
        61   03 Jun 2027 11:01:28.932   03 Jun 2027 11:01:30.659             1.727           538.094
        62   03 Jun 2027 11:01:56.591   03 Jun 2027 11:01:58.843             2.252           668.969
        63   04 Jun 2027 03:16:41.366   04 Jun 2027 03:18:53.892           132.526         66263.000
        64   04 Jun 2027 03:18:54.442   04 Jun 2027 03:19:57.896            63.454         31727.000
        65   04 Jun 2027 03:21:05.285   04 Jun 2027 03:21:10.922             5.637          2818.500
        66   04 Jun 2027 03:21:14.836   04 Jun 2027 03:21:26.430            11.594          5797.000
        67   04 Jun 2027 03:22:09.552   04 Jun 2027 03:22:16.278             6.726          3363.000
        68   04 Jun 2027 03:22:18.338   04 Jun 2027 03:22:18.338             0.000             0.000
        69   04 Jun 2027 04:55:29.311   04 Jun 2027 04:57:05.526            96.215         46691.593
        70   04 Jun 2027 04:57:35.277   04 Jun 2027 04:57:36.538             1.261           559.469
        71   04 Jun 2027 04:57:58.485   04 Jun 2027 04:58:03.480             4.995           551.281
        72   04 Jun 2027 04:58:32.796   04 Jun 2027 04:58:32.796             0.000             0.000
        73   04 Jun 2027 04:58:46.632   04 Jun 2027 04:58:46.632             0.000             0.000
        74   04 Jun 2027 04:58:52.858   04 Jun 2027 04:58:57.271             4.413          1390.375
        75   04 Jun 2027 05:00:49.590   04 Jun 2027 05:00:54.355             4.765          2332.500
        76   04 Jun 2027 05:01:29.830   04 Jun 2027 05:01:29.830             0.000             0.000
        77   04 Jun 2027 05:02:24.921   04 Jun 2027 05:02:30.494             5.573          2525.656
        78   04 Jun 2027 06:19:49.653   04 Jun 2027 06:20:01.640            11.987          5303.531
        79   04 Jun 2027 06:20:57.006   04 Jun 2027 06:21:00.905             3.899          1456.469
        80   04 Jun 2027 06:21:41.679   04 Jun 2027 06:21:42.959             1.280           269.687
        81   04 Jun 2027 06:22:01.874   04 Jun 2027 06:22:01.874             0.000             0.000
        82   04 Jun 2027 06:32:04.563   04 Jun 2027 06:32:10.150             5.587          2387.688
        83   04 Jun 2027 06:32:23.971   04 Jun 2027 06:32:23.971             0.000             0.000
        84   04 Jun 2027 07:54:01.301   04 Jun 2027 07:54:18.789            17.488          7032.187
        85   04 Jun 2027 07:56:03.964   04 Jun 2027 07:56:09.929             5.965          1542.625
        86   04 Jun 2027 07:56:44.805   04 Jun 2027 07:56:47.288             2.483          1081.750
        87   04 Jun 2027 07:57:47.731   04 Jun 2027 07:57:53.267             5.536          1320.313
        88   04 Jun 2027 07:58:24.853   04 Jun 2027 07:58:28.449             3.596           621.344
        89   04 Jun 2027 07:59:05.596   04 Jun 2027 07:59:07.635             2.039          1004.844
        90   04 Jun 2027 09:28:49.927   04 Jun 2027 09:29:02.004            12.077          4839.656
        91   04 Jun 2027 09:30:35.134   04 Jun 2027 09:30:40.467             5.333          1838.062
        92   04 Jun 2027 09:32:15.236   04 Jun 2027 09:32:22.636             7.400          2961.531
        93   04 Jun 2027 09:34:59.967   04 Jun 2027 09:35:10.670            10.703          4691.125
        94   04 Jun 2027 09:35:19.023   04 Jun 2027 09:35:19.984             0.961           149.906
        95   04 Jun 2027 09:35:44.081   04 Jun 2027 09:35:44.081             0.000             0.000
        96   04 Jun 2027 09:36:20.780   04 Jun 2027 09:36:28.090             7.310          1679.906
        97   04 Jun 2027 11:06:38.026   04 Jun 2027 11:06:48.960            10.934          5418.375
        98   04 Jun 2027 11:07:31.236   04 Jun 2027 11:07:35.914             4.678          1321.125
        99   04 Jun 2027 11:07:56.758   04 Jun 2027 11:08:00.042             3.284           651.375
       100   04 Jun 2027 11:09:07.151   04 Jun 2027 11:09:13.632             6.481          1991.031
       101   04 Jun 2027 11:09:37.778   04 Jun 2027 11:09:39.851             2.073           673.438
       102   04 Jun 2027 11:10:44.227   04 Jun 2027 11:10:44.227             0.000             0.000
       103   04 Jun 2027 11:12:03.561   04 Jun 2027 11:12:12.216             8.655          4327.500
       104   04 Jun 2027 11:12:45.178   04 Jun 2027 11:12:50.844             5.666          1193.500
       105   04 Jun 2027 11:13:00.112   04 Jun 2027 11:13:01.104             0.992           159.125
       106   04 Jun 2027 11:13:43.308   04 Jun 2027 11:13:46.317             3.009          1299.844
       107   05 Jun 2027 03:29:25.933   05 Jun 2027 03:31:05.730            99.797         49898.500
       108   05 Jun 2027 03:31:27.636   05 Jun 2027 03:33:23.992           116.356         58178.000
       109   05 Jun 2027 03:33:59.139   05 Jun 2027 03:34:06.609             7.470          3735.000
       110   05 Jun 2027 03:34:42.608   05 Jun 2027 03:34:42.608             0.000             0.000
       111   05 Jun 2027 03:34:47.270   05 Jun 2027 03:34:47.945             0.675           337.500
       112   05 Jun 2027 03:34:54.572   05 Jun 2027 03:34:54.661             0.089            44.500
       113   05 Jun 2027 05:07:49.117   05 Jun 2027 05:09:10.080            80.963         38850.094
       114   05 Jun 2027 05:09:33.643   05 Jun 2027 05:09:36.403             2.760           370.156
       115   05 Jun 2027 05:10:45.238   05 Jun 2027 05:10:45.238             0.000             0.000
       116   05 Jun 2027 05:10:58.260   05 Jun 2027 05:11:00.739             2.479          1059.438
       117   05 Jun 2027 05:11:44.188   05 Jun 2027 05:11:46.604             2.416          1197.781
       118   05 Jun 2027 06:31:50.551   05 Jun 2027 06:32:03.647            13.096          5406.719
       119   05 Jun 2027 06:32:45.711   05 Jun 2027 06:32:47.741             2.030           943.875
       120   05 Jun 2027 06:32:58.533   05 Jun 2027 06:33:03.648             5.115           323.594
       121   05 Jun 2027 06:33:38.238   05 Jun 2027 06:33:39.152             0.914           219.531
       122   05 Jun 2027 08:07:48.337   05 Jun 2027 08:08:03.524            15.187          7277.063
       123   05 Jun 2027 08:08:06.631   05 Jun 2027 08:08:06.631             0.000             0.000
       124   05 Jun 2027 08:08:35.931   05 Jun 2027 08:08:43.212             7.281           991.688
       125   05 Jun 2027 08:09:22.731   05 Jun 2027 08:09:27.871             5.140          1234.969
       126   05 Jun 2027 08:10:54.024   05 Jun 2027 08:11:01.560             7.536          2583.969
       127   05 Jun 2027 09:41:37.915   05 Jun 2027 09:41:46.092             8.177          3684.219
       128   05 Jun 2027 09:42:45.485   05 Jun 2027 09:42:47.569             2.084           468.656
       129   05 Jun 2027 09:43:45.213   05 Jun 2027 09:43:48.139             2.926          1313.625
       130   05 Jun 2027 09:44:06.775   05 Jun 2027 09:44:10.098             3.323           194.937
       131   05 Jun 2027 09:46:29.121   05 Jun 2027 09:46:41.264            12.143          4310.375
       132   05 Jun 2027 09:47:41.802   05 Jun 2027 09:47:48.576             6.774          1231.562
       133   05 Jun 2027 09:48:41.225   05 Jun 2027 09:48:45.481             4.256          1474.813
       134   05 Jun 2027 09:49:27.769   05 Jun 2027 09:49:30.520             2.751          1273.344
       135   05 Jun 2027 09:50:00.996   05 Jun 2027 09:50:02.223             1.227           200.031
       136   05 Jun 2027 11:18:44.455   05 Jun 2027 11:19:01.688            17.233          7552.812
       137   05 Jun 2027 11:19:20.248   05 Jun 2027 11:19:20.556             0.308           154.000
       138   05 Jun 2027 11:20:01.616   05 Jun 2027 11:20:05.260             3.644          1580.781
       139   05 Jun 2027 11:20:13.050   05 Jun 2027 11:20:16.823             3.773            58.812
       140   05 Jun 2027 11:20:55.619   05 Jun 2027 11:20:58.473             2.854          1165.750
       141   05 Jun 2027 11:21:31.234   05 Jun 2027 11:21:41.811            10.577          1023.781
       142   05 Jun 2027 11:22:35.138   05 Jun 2027 11:22:42.225             7.087          1284.781
       143   05 Jun 2027 11:24:03.137   05 Jun 2027 11:24:09.323             6.186          2528.500
       144   05 Jun 2027 11:24:58.468   05 Jun 2027 11:25:00.540             2.072          1036.000
       145   05 Jun 2027 11:25:12.246   05 Jun 2027 11:25:14.188             1.942           865.594
       146   05 Jun 2027 11:25:39.837   05 Jun 2027 11:25:43.831             3.994           768.906
       147   06 Jun 2027 03:42:03.580   06 Jun 2027 03:42:46.587            43.007         21503.500
       148   06 Jun 2027 03:42:52.154   06 Jun 2027 03:43:39.201            47.047         23523.500
       149   06 Jun 2027 03:43:41.294   06 Jun 2027 03:45:50.091           128.797         64398.500
       150   06 Jun 2027 03:46:34.428   06 Jun 2027 03:46:48.546            14.118          7059.000
       151   06 Jun 2027 05:20:22.930   06 Jun 2027 05:21:40.606            77.676         38269.906
       152   06 Jun 2027 05:22:38.352   06 Jun 2027 05:22:39.913             1.561           250.969
       153   06 Jun 2027 05:23:39.200   06 Jun 2027 05:23:42.073             2.873          1436.500
       154   06 Jun 2027 05:24:56.988   06 Jun 2027 05:24:56.988             0.000             0.000
       155   06 Jun 2027 06:43:45.399   06 Jun 2027 06:43:56.364            10.965          4844.438
       156   06 Jun 2027 06:45:12.644   06 Jun 2027 06:45:17.169             4.525          1979.531
       157   06 Jun 2027 06:45:22.933   06 Jun 2027 06:45:22.933             0.000             0.000
       158   06 Jun 2027 06:45:59.421   06 Jun 2027 06:46:00.029             0.608           304.000
       159   06 Jun 2027 08:20:08.701   06 Jun 2027 08:20:30.982            22.281         10267.875
       160   06 Jun 2027 08:20:51.671   06 Jun 2027 08:20:55.279             3.608           455.531
       161   06 Jun 2027 08:22:54.338   06 Jun 2027 08:23:03.726             9.388          3687.375
       162   06 Jun 2027 09:53:36.588   06 Jun 2027 09:53:47.859            11.271          4156.875
       163   06 Jun 2027 09:54:14.059   06 Jun 2027 09:54:14.954             0.895           113.844
       164   06 Jun 2027 09:54:44.685   06 Jun 2027 09:54:48.614             3.929           923.219
       165   06 Jun 2027 09:56:01.893   06 Jun 2027 09:56:05.609             3.716           846.406
       166   06 Jun 2027 09:58:28.194   06 Jun 2027 09:58:39.880            11.686          4455.781
       167   06 Jun 2027 10:00:24.085   06 Jun 2027 10:00:24.085             0.000             0.000
       168   06 Jun 2027 10:00:39.863   06 Jun 2027 10:00:49.236             9.373          2360.313
       169   06 Jun 2027 10:02:06.087   06 Jun 2027 10:02:07.791             1.704           852.000
       170   06 Jun 2027 11:31:10.584   06 Jun 2027 11:31:24.755            14.171          7011.688
       171   06 Jun 2027 11:33:11.752   06 Jun 2027 11:33:17.229             5.477          1217.969
       172   06 Jun 2027 11:34:02.737   06 Jun 2027 11:34:05.314             2.577          1261.125
       173   06 Jun 2027 11:34:19.541   06 Jun 2027 11:34:19.719             0.178            76.187
       174   06 Jun 2027 11:35:30.889   06 Jun 2027 11:35:35.144             4.255          1968.094
       175   06 Jun 2027 11:35:47.411   06 Jun 2027 11:35:52.992             5.581           202.125
       176   06 Jun 2027 11:35:57.137   06 Jun 2027 11:35:58.921             1.784           129.531
       177   06 Jun 2027 11:36:27.656   06 Jun 2027 11:36:30.347             2.691           760.687
       178   06 Jun 2027 11:37:14.631   06 Jun 2027 11:37:16.960             2.329          1164.500
       179   06 Jun 2027 11:37:28.893   06 Jun 2027 11:37:30.660             1.767           592.281
       180   06 Jun 2027 11:37:44.111   06 Jun 2027 11:37:51.897             7.786           391.469
       181   07 Jun 2027 03:53:56.911   07 Jun 2027 03:54:01.875             4.964          2482.000
       182   07 Jun 2027 03:54:26.658   07 Jun 2027 03:56:02.444            95.786         47893.000
       183   07 Jun 2027 03:56:08.446   07 Jun 2027 03:57:44.556            96.110         48055.000
       184   07 Jun 2027 03:58:08.938   07 Jun 2027 03:58:40.627            31.689         15844.500
       185   07 Jun 2027 05:32:37.978   07 Jun 2027 05:32:45.428             7.450          3725.000
       186   07 Jun 2027 05:33:33.175   07 Jun 2027 05:35:06.046            92.871         45897.032
       187   07 Jun 2027 06:55:33.246   07 Jun 2027 06:55:49.212            15.966          7397.125
       188   07 Jun 2027 06:57:01.083   07 Jun 2027 06:57:13.829            12.746          1886.187
       189   07 Jun 2027 06:57:46.507   07 Jun 2027 06:57:49.168             2.661           925.469
       190   07 Jun 2027 08:32:10.200   07 Jun 2027 08:32:16.950             6.750          3342.094
       191   07 Jun 2027 08:33:50.166   07 Jun 2027 08:33:54.837             4.671          2286.344
       192   07 Jun 2027 08:34:40.826   07 Jun 2027 08:34:44.090             3.264          1437.156
       193   07 Jun 2027 10:08:11.537   07 Jun 2027 10:08:21.885            10.348          5174.000
       194   07 Jun 2027 10:09:47.884   07 Jun 2027 10:09:59.945            12.061          5377.219
       195   07 Jun 2027 10:10:40.343   07 Jun 2027 10:10:45.135             4.792          1135.312
       196   07 Jun 2027 10:11:41.685   07 Jun 2027 10:11:48.195             6.510          1655.188
       197   07 Jun 2027 10:12:20.515   07 Jun 2027 10:12:23.262             2.747           990.062
       198   07 Jun 2027 10:14:01.459   07 Jun 2027 10:14:02.633             1.174           587.000
       199   07 Jun 2027 11:43:18.142   07 Jun 2027 11:43:32.840            14.698          7138.969
       200   07 Jun 2027 11:44:10.632   07 Jun 2027 11:44:13.061             2.429           716.844
       201   07 Jun 2027 11:46:54.822   07 Jun 2027 11:47:08.956            14.134          4882.500
       202   07 Jun 2027 11:47:35.521   07 Jun 2027 11:47:37.338             1.817           730.813
       203   07 Jun 2027 11:48:27.432   07 Jun 2027 11:48:33.905             6.473          1493.875
       204   07 Jun 2027 11:48:50.750   07 Jun 2027 11:48:59.407             8.657           477.500
       205   07 Jun 2027 11:49:04.459   07 Jun 2027 11:49:04.982             0.523           157.875
       206   08 Jun 2027 04:06:05.712   08 Jun 2027 04:07:07.895            62.183         31091.500
       207   08 Jun 2027 04:07:14.474   08 Jun 2027 04:10:31.763           197.289         98644.500
       208   08 Jun 2027 04:10:53.665   08 Jun 2027 04:10:53.665             0.000             0.000
       209   08 Jun 2027 04:11:24.077   08 Jun 2027 04:11:24.077             0.000             0.000
       210   08 Jun 2027 04:11:44.649   08 Jun 2027 04:11:57.295            12.646          6323.000
       211   08 Jun 2027 05:44:24.173   08 Jun 2027 05:44:55.889            31.716         15858.000
       212   08 Jun 2027 05:45:13.769   08 Jun 2027 05:45:28.452            14.683          7341.500
       213   08 Jun 2027 05:45:28.941   08 Jun 2027 05:45:52.897            23.956         10620.718
       214   08 Jun 2027 05:47:00.631   08 Jun 2027 05:47:05.691             5.060          1574.219
       215   08 Jun 2027 05:48:00.761   08 Jun 2027 05:48:00.761             0.000             0.000
       216   08 Jun 2027 07:07:46.789   08 Jun 2027 07:08:04.486            17.697          7347.937
       217   08 Jun 2027 07:08:40.772   08 Jun 2027 07:08:42.510             1.738           760.594
       218   08 Jun 2027 07:09:13.151   08 Jun 2027 07:09:15.463             2.312           957.531
       219   08 Jun 2027 07:10:22.603   08 Jun 2027 07:10:23.940             1.337           668.500
       220   08 Jun 2027 07:10:24.526   08 Jun 2027 07:10:36.158            11.632          1035.343
       221   08 Jun 2027 07:10:49.534   08 Jun 2027 07:10:53.779             4.245           329.938
       222   08 Jun 2027 08:44:31.765   08 Jun 2027 08:44:46.927            15.162          5801.375
       223   08 Jun 2027 08:46:03.035   08 Jun 2027 08:46:03.035             0.000             0.000
       224   08 Jun 2027 08:46:53.396   08 Jun 2027 08:47:00.163             6.767          3158.187
       225   08 Jun 2027 10:19:28.606   08 Jun 2027 10:19:40.619            12.013          3858.969
       226   08 Jun 2027 10:21:25.121   08 Jun 2027 10:21:25.121             0.000             0.000
       227   08 Jun 2027 10:22:23.669   08 Jun 2027 10:22:40.009            16.340          4870.000
       228   08 Jun 2027 10:25:42.898   08 Jun 2027 10:25:54.813            11.915          5522.906
       229   08 Jun 2027 10:25:58.744   08 Jun 2027 10:26:01.101             2.357           122.844
       230   08 Jun 2027 11:55:54.137   08 Jun 2027 11:56:06.066            11.929          5728.281
       231   08 Jun 2027 11:57:15.255   08 Jun 2027 11:57:19.798             4.543          1742.406
       232   08 Jun 2027 11:59:01.407   08 Jun 2027 11:59:10.893             9.486          2839.562
       233   08 Jun 2027 11:59:46.724   08 Jun 2027 11:59:48.357             1.633           816.500
       234   09 Jun 2027 04:19:12.423   09 Jun 2027 04:22:22.029           189.606         94803.000
       235   09 Jun 2027 04:25:44.631   09 Jun 2027 04:25:56.149            11.518          5759.000
       236   09 Jun 2027 04:26:00.294   09 Jun 2027 04:26:18.430            18.136          9068.000
       237   09 Jun 2027 05:56:21.017   09 Jun 2027 05:57:00.210            39.193         19596.500
       238   09 Jun 2027 05:57:21.995   09 Jun 2027 05:58:26.803            64.808         29966.844
       239   09 Jun 2027 05:59:09.356   09 Jun 2027 05:59:12.791             3.435          1143.125
       240   09 Jun 2027 05:59:21.241   09 Jun 2027 05:59:21.895             0.654           151.937
       241   09 Jun 2027 07:20:22.466   09 Jun 2027 07:20:43.533            21.067         10509.906
       242   09 Jun 2027 07:21:11.763   09 Jun 2027 07:21:13.963             2.200           834.219
       243   09 Jun 2027 07:22:20.268   09 Jun 2027 07:22:23.047             2.779          1359.687
       244   09 Jun 2027 07:22:42.180   09 Jun 2027 07:22:43.823             1.643           597.906
       245   09 Jun 2027 08:56:11.871   09 Jun 2027 08:56:21.335             9.464          3830.031
       246   09 Jun 2027 08:58:13.840   09 Jun 2027 08:58:25.844            12.004          3418.875
       247   09 Jun 2027 10:31:07.969   09 Jun 2027 10:31:25.352            17.383          8473.625
       248   09 Jun 2027 10:33:38.061   09 Jun 2027 10:33:45.380             7.319          3659.500
       249   09 Jun 2027 10:34:19.666   09 Jun 2027 10:34:19.666             0.000             0.000
       250   09 Jun 2027 10:36:25.721   09 Jun 2027 10:36:36.650            10.929          5232.906
       251   09 Jun 2027 10:37:40.131   09 Jun 2027 10:37:45.056             4.925          1818.313
       252   09 Jun 2027 10:38:04.697   09 Jun 2027 10:38:05.372             0.675           119.656
       253   10 Jun 2027 04:31:16.203   10 Jun 2027 04:35:01.187           224.984        112492.000
       254   10 Jun 2027 04:37:29.692   10 Jun 2027 04:37:29.692             0.000             0.000
       255   10 Jun 2027 04:37:43.960   10 Jun 2027 04:37:43.960             0.000             0.000
       256   10 Jun 2027 04:37:44.812   10 Jun 2027 04:37:59.850            15.038          7519.000
       257   10 Jun 2027 04:38:16.785   10 Jun 2027 04:38:48.565            31.780         15890.000
       258   10 Jun 2027 05:57:07.639   10 Jun 2027 05:57:39.632            31.993         15996.500
       259   10 Jun 2027 05:57:50.654   10 Jun 2027 05:57:50.654             0.000             0.000
       260   10 Jun 2027 06:08:17.149   10 Jun 2027 06:08:53.594            36.445         17129.938
       261   10 Jun 2027 06:10:29.305   10 Jun 2027 06:10:36.846             7.541          2113.344
       262   10 Jun 2027 06:11:24.361   10 Jun 2027 06:11:24.458             0.097            48.500
       263   10 Jun 2027 07:30:55.909   10 Jun 2027 07:31:11.602            15.693          7150.281
       264   10 Jun 2027 07:32:04.064   10 Jun 2027 07:32:09.374             5.310          1448.375
       265   10 Jun 2027 07:32:12.461   10 Jun 2027 07:32:12.461             0.000             0.000
       266   10 Jun 2027 07:32:47.429   10 Jun 2027 07:32:51.844             4.415          1156.219
       267   10 Jun 2027 07:34:14.345   10 Jun 2027 07:34:18.834             4.489          2236.625
       268   10 Jun 2027 07:34:45.284   10 Jun 2027 07:34:47.082             1.798           697.344
       269   10 Jun 2027 09:06:30.738   10 Jun 2027 09:06:42.285            11.547          4784.531
       270   10 Jun 2027 09:08:36.647   10 Jun 2027 09:08:41.101             4.454          2047.375
       271   10 Jun 2027 09:08:53.150   10 Jun 2027 09:08:55.031             1.881           329.125
       272   10 Jun 2027 09:09:51.326   10 Jun 2027 09:09:57.911             6.585           953.844
       273   10 Jun 2027 09:11:04.224   10 Jun 2027 09:11:05.251             1.027           513.500
       274   10 Jun 2027 09:12:21.971   10 Jun 2027 09:12:28.312             6.341          3170.500
       275   10 Jun 2027 10:43:14.049   10 Jun 2027 10:43:27.342            13.293          5514.031
       276   10 Jun 2027 10:46:14.111   10 Jun 2027 10:46:14.111             0.000             0.000
       277   10 Jun 2027 10:46:48.339   10 Jun 2027 10:47:03.864            15.525          5781.469
       278   10 Jun 2027 10:49:34.880   10 Jun 2027 10:49:49.904            15.024          4719.250
       279   10 Jun 2027 10:50:17.236   10 Jun 2027 10:50:18.139             0.903           451.500
       280   11 Jun 2027 03:04:40.027   11 Jun 2027 03:06:23.538           103.511         51755.500
       281   11 Jun 2027 03:06:24.981   11 Jun 2027 03:06:38.893            13.912          6956.000
       282   11 Jun 2027 03:08:59.856   11 Jun 2027 03:09:29.784            29.928         14964.000
       283   11 Jun 2027 03:10:21.546   11 Jun 2027 03:10:48.284            26.738         13369.000
       284   11 Jun 2027 04:43:45.633   11 Jun 2027 04:46:05.019           139.386         68872.437
       285   11 Jun 2027 04:46:19.955   11 Jun 2027 04:46:21.774             1.819           466.750
       286   11 Jun 2027 04:47:02.619   11 Jun 2027 04:47:07.318             4.699          1162.656
       287   11 Jun 2027 04:50:32.349   11 Jun 2027 04:50:45.536            13.187          6031.063
       288   11 Jun 2027 06:08:37.702   11 Jun 2027 06:08:53.907            16.205          6721.250
       289   11 Jun 2027 06:09:46.997   11 Jun 2027 06:09:46.997             0.000             0.000
       290   11 Jun 2027 06:20:19.899   11 Jun 2027 06:20:24.840             4.941          2470.500
       291   11 Jun 2027 06:20:31.405   11 Jun 2027 06:20:35.122             3.717           985.406
       292   11 Jun 2027 06:20:56.762   11 Jun 2027 06:20:58.412             1.650           540.313
       293   11 Jun 2027 06:21:07.835   11 Jun 2027 06:21:09.635             1.800           277.844
       294   11 Jun 2027 07:42:33.567   11 Jun 2027 07:42:51.820            18.253          8597.469
       295   11 Jun 2027 07:43:43.266   11 Jun 2027 07:43:44.256             0.990           495.000
       296   11 Jun 2027 07:45:39.326   11 Jun 2027 07:45:46.999             7.673          3245.969
       297   11 Jun 2027 07:47:09.812   11 Jun 2027 07:47:15.179             5.367          1990.281
       298   11 Jun 2027 07:47:36.133   11 Jun 2027 07:47:43.053             6.920           390.625
       299   11 Jun 2027 09:17:37.021   11 Jun 2027 09:17:48.070            11.049          4429.281
       300   11 Jun 2027 09:18:11.677   11 Jun 2027 09:18:11.677             0.000             0.000
       301   11 Jun 2027 09:18:30.987   11 Jun 2027 09:18:33.741             2.754           905.562
       302   11 Jun 2027 09:19:40.736   11 Jun 2027 09:19:48.047             7.311          1325.688
       303   11 Jun 2027 09:20:34.753   11 Jun 2027 09:20:38.759             4.006          1233.750
       304   11 Jun 2027 09:22:56.761   11 Jun 2027 09:23:01.954             5.193          2596.500
       305   11 Jun 2027 09:25:36.968   11 Jun 2027 09:25:45.785             8.817          4348.406
       306   11 Jun 2027 09:25:47.225   11 Jun 2027 09:25:48.896             1.671            29.531
       307   11 Jun 2027 10:55:20.294   11 Jun 2027 10:55:31.826            11.532          5499.156
       308   11 Jun 2027 10:56:01.218   11 Jun 2027 10:56:03.332             2.114           918.500
       309   11 Jun 2027 10:57:58.265   11 Jun 2027 10:58:01.809             3.544          1772.000
       310   11 Jun 2027 10:58:07.576   11 Jun 2027 10:58:08.452             0.876           239.313
       311   11 Jun 2027 10:58:31.028   11 Jun 2027 10:58:32.438             1.410           581.656
       312   11 Jun 2027 10:59:22.294   11 Jun 2027 10:59:26.107             3.813           857.437
       313   11 Jun 2027 10:59:32.586   11 Jun 2027 10:59:34.456             1.870           112.188
       314   11 Jun 2027 11:00:12.053   11 Jun 2027 11:00:14.180             2.127           927.562
       315   11 Jun 2027 11:00:16.144   11 Jun 2027 11:00:16.635             0.491            61.375
       316   11 Jun 2027 11:01:18.712   11 Jun 2027 11:01:22.763             4.051          1722.281
       317   11 Jun 2027 11:01:46.359   11 Jun 2027 11:01:51.818             5.459           603.250
       318   12 Jun 2027 03:16:59.564   12 Jun 2027 03:17:21.200            21.636         10818.000
       319   12 Jun 2027 03:17:59.220   12 Jun 2027 03:18:08.415             9.195          4597.500
       320   12 Jun 2027 03:18:11.030   12 Jun 2027 03:19:09.936            58.906         29453.000
       321   12 Jun 2027 03:19:12.334   12 Jun 2027 03:21:01.000           108.666         54333.000
       322   12 Jun 2027 03:22:03.091   12 Jun 2027 03:22:04.802             1.711           855.500
       323   12 Jun 2027 04:55:47.273   12 Jun 2027 04:56:42.409            55.136         27568.000
       324   12 Jun 2027 04:57:37.448   12 Jun 2027 04:58:37.553            60.105         28583.125
       325   12 Jun 2027 04:59:02.581   12 Jun 2027 04:59:02.581             0.000             0.000
       326   12 Jun 2027 04:59:29.019   12 Jun 2027 04:59:32.038             3.019          1120.375
       327   12 Jun 2027 05:00:39.537   12 Jun 2027 05:00:43.623             4.086          1858.000
       328   12 Jun 2027 05:02:27.801   12 Jun 2027 05:02:36.280             8.479          2692.719
       329   12 Jun 2027 05:02:45.398   12 Jun 2027 05:02:48.082             2.684           153.969
       330   12 Jun 2027 06:20:08.317   12 Jun 2027 06:20:20.986            12.669          6102.094
       331   12 Jun 2027 06:21:13.980   12 Jun 2027 06:21:17.429             3.449          1470.438
       332   12 Jun 2027 06:21:48.454   12 Jun 2027 06:21:52.079             3.625           254.437
       333   12 Jun 2027 06:22:18.929   12 Jun 2027 06:22:21.433             2.504           699.156
       334   12 Jun 2027 06:32:22.014   12 Jun 2027 06:32:25.139             3.125          1562.500
       335   12 Jun 2027 07:54:17.486   12 Jun 2027 07:54:33.708            16.222          7075.906
       336   12 Jun 2027 07:56:20.500   12 Jun 2027 07:56:24.960             4.460          1499.437
       337   12 Jun 2027 07:57:05.198   12 Jun 2027 07:57:12.932             7.734          1136.531
       338   12 Jun 2027 07:58:04.974   12 Jun 2027 07:58:08.047             3.073          1327.094
       339   12 Jun 2027 07:58:41.183   12 Jun 2027 07:58:43.285             2.102           635.344
       340   12 Jun 2027 07:59:20.325   12 Jun 2027 07:59:22.822             2.497           912.844
       341   12 Jun 2027 09:29:05.409   12 Jun 2027 09:29:16.251            10.842          3987.875
       342   12 Jun 2027 09:30:53.840   12 Jun 2027 09:30:58.265             4.425          1934.531
       343   12 Jun 2027 09:32:31.854   12 Jun 2027 09:32:38.681             6.827          2924.656
       344   12 Jun 2027 09:34:40.588   12 Jun 2027 09:34:40.588             0.000             0.000
       345   12 Jun 2027 09:35:40.810   12 Jun 2027 09:35:45.779             4.969          2484.500
       346   12 Jun 2027 09:36:38.874   12 Jun 2027 09:36:50.420            11.546          4690.000
       347   12 Jun 2027 11:06:55.051   12 Jun 2027 11:07:26.542            31.491          4850.500
       348   12 Jun 2027 11:07:52.805   12 Jun 2027 11:07:55.955             3.150           522.813
       349   12 Jun 2027 11:08:26.228   12 Jun 2027 11:08:29.438             3.210           911.875
       350   12 Jun 2027 11:09:05.947   12 Jun 2027 11:09:16.356            10.409          1004.781
       351   12 Jun 2027 11:10:06.368   12 Jun 2027 11:10:11.021             4.653           634.281
       352   12 Jun 2027 11:10:45.497   12 Jun 2027 11:10:48.556             3.059           635.844
       353   12 Jun 2027 11:11:04.910   12 Jun 2027 11:11:05.509             0.599           130.313
       354   12 Jun 2027 11:12:55.160   12 Jun 2027 11:13:02.629             7.469          3426.594
       355   12 Jun 2027 11:13:15.124   12 Jun 2027 11:13:16.147             1.023           164.469
       356   12 Jun 2027 11:13:59.461   12 Jun 2027 11:14:03.575             4.114          1328.844
       357   13 Jun 2027 03:29:43.657   13 Jun 2027 03:31:21.995            98.338         49169.000
       358   13 Jun 2027 03:31:46.605   13 Jun 2027 03:33:39.548           112.943         56471.500
       359   13 Jun 2027 03:33:44.203   13 Jun 2027 03:33:44.618             0.415           207.500
       360   13 Jun 2027 03:34:04.570   13 Jun 2027 03:34:16.735            12.165          6082.500
       361   13 Jun 2027 03:34:51.944   13 Jun 2027 03:34:57.144             5.200          2600.000
       362   13 Jun 2027 05:08:09.752   13 Jun 2027 05:09:36.429            86.677         41389.125
       363   13 Jun 2027 05:09:54.458   13 Jun 2027 05:09:57.713             3.255           563.406
       364   13 Jun 2027 05:11:07.993   13 Jun 2027 05:11:15.626             7.633          2137.719
       365   13 Jun 2027 05:11:54.404   13 Jun 2027 05:11:54.404             0.000             0.000
       366   13 Jun 2027 05:12:06.966   13 Jun 2027 05:12:10.574             3.608          1517.531
       367   13 Jun 2027 06:32:07.323   13 Jun 2027 06:32:26.167            18.844          8833.969
       368   13 Jun 2027 06:33:02.379   13 Jun 2027 06:33:04.581             2.202           988.812
       369   13 Jun 2027 06:33:15.499   13 Jun 2027 06:33:18.441             2.942           321.250
       370   13 Jun 2027 06:33:53.865   13 Jun 2027 06:33:55.068             1.203           207.625
       371   13 Jun 2027 06:34:22.981   13 Jun 2027 06:34:23.559             0.578           289.000
       372   13 Jun 2027 08:08:04.002   13 Jun 2027 08:08:21.203            17.201          7449.375
       373   13 Jun 2027 08:08:52.893   13 Jun 2027 08:08:59.917             7.024           920.875
       374   13 Jun 2027 08:09:37.703   13 Jun 2027 08:09:40.535             2.832          1180.813
       375   13 Jun 2027 08:11:11.486   13 Jun 2027 08:11:17.631             6.145          2548.594
       376   13 Jun 2027 09:41:54.141   13 Jun 2027 09:42:06.212            12.071          5607.313
       377   13 Jun 2027 09:44:03.899   13 Jun 2027 09:44:08.380             4.481          2017.469
       378   13 Jun 2027 09:45:21.443   13 Jun 2027 09:45:21.443             0.000             0.000
       379   13 Jun 2027 09:46:46.496   13 Jun 2027 09:46:57.091            10.595          4688.938
       380   13 Jun 2027 09:47:30.950   13 Jun 2027 09:47:35.368             4.418           938.781
       381   13 Jun 2027 09:48:46.128   13 Jun 2027 09:48:46.128             0.000             0.000
       382   13 Jun 2027 09:49:43.223   13 Jun 2027 09:49:51.037             7.814          3639.937
       383   13 Jun 2027 09:50:01.032   13 Jun 2027 09:50:03.413             2.381           174.719
       384   13 Jun 2027 09:50:15.999   13 Jun 2027 09:50:17.297             1.298           140.656
       385   13 Jun 2027 11:19:02.008   13 Jun 2027 11:19:17.803            15.795          6011.750
       386   13 Jun 2027 11:20:18.899   13 Jun 2027 11:20:25.044             6.145          1301.438
       387   13 Jun 2027 11:21:40.278   13 Jun 2027 11:21:42.180             1.902           951.000
       388   13 Jun 2027 11:23:57.066   13 Jun 2027 11:24:09.951            12.885          5527.562
       389   13 Jun 2027 11:25:16.415   13 Jun 2027 11:25:21.051             4.636          2047.344
       390   13 Jun 2027 11:25:49.072   13 Jun 2027 11:25:52.278             3.206           875.656
