uniorb/output/strategy_2/Camera/Camera_KinoSat_110704.txt

KinoSat_110704
-------------------------
    Access    *     Start Time (UTCG)     *     Stop Time (UTCG)  *   Duration (s) *   Data (Mbytes)
         1   01 Jun 2027 03:49:16.363   01 Jun 2027 03:50:23.852            67.489         33744.500
         2   01 Jun 2027 03:51:30.541   01 Jun 2027 03:51:39.181             8.640          4320.000
         3   01 Jun 2027 03:52:22.944   01 Jun 2027 03:52:48.004            25.060         12530.000
         4   01 Jun 2027 05:22:49.878   01 Jun 2027 05:23:14.194            24.316         12158.000
         5   01 Jun 2027 05:23:51.255   01 Jun 2027 05:25:58.031           126.776         63388.000
         6   01 Jun 2027 05:27:30.495   01 Jun 2027 05:28:00.388            29.893         14946.500
         7   01 Jun 2027 05:28:20.883   01 Jun 2027 05:28:24.151             3.268          1634.000
         8   01 Jun 2027 05:30:23.870   01 Jun 2027 05:30:45.352            21.482         10741.000
         9   01 Jun 2027 05:31:22.350   01 Jun 2027 05:31:23.507             1.157           578.500
        10   01 Jun 2027 07:00:16.642   01 Jun 2027 07:03:10.080           173.438         86719.000
        11   01 Jun 2027 07:04:07.266   01 Jun 2027 07:04:16.140             8.874          4437.000
        12   01 Jun 2027 07:04:20.409   01 Jun 2027 07:04:22.722             2.313          1156.500
        13   01 Jun 2027 07:04:48.240   01 Jun 2027 07:05:18.531            30.291         15145.500
        14   01 Jun 2027 07:06:13.428   01 Jun 2027 07:06:17.479             4.051          2025.500
        15   01 Jun 2027 08:37:17.175   01 Jun 2027 08:39:29.122           131.947         65973.500
        16   01 Jun 2027 08:39:31.551   01 Jun 2027 08:39:55.471            23.920         11960.000
        17   01 Jun 2027 08:40:34.416   01 Jun 2027 08:40:41.265             6.849          3424.500
        18   01 Jun 2027 08:40:51.699   01 Jun 2027 08:41:24.094            32.395         16197.500
        19   01 Jun 2027 08:41:39.821   01 Jun 2027 08:41:44.790             4.969          2484.500
        20   01 Jun 2027 08:42:17.873   01 Jun 2027 08:42:24.675             6.802          3401.000
        21   01 Jun 2027 08:42:46.723   01 Jun 2027 08:42:56.043             9.320          4660.000
        22   01 Jun 2027 10:14:11.273   01 Jun 2027 10:16:05.598           114.325         57162.500
        23   01 Jun 2027 10:16:16.838   01 Jun 2027 10:16:51.767            34.929         17464.500
        24   01 Jun 2027 10:18:06.293   01 Jun 2027 10:18:09.132             2.839          1419.500
        25   01 Jun 2027 11:51:20.254   01 Jun 2027 11:52:51.863            91.609         45804.500
        26   01 Jun 2027 11:53:38.545   01 Jun 2027 11:53:43.722             5.177          2588.500
        27   02 Jun 2027 04:01:22.045   02 Jun 2027 04:02:19.900            57.855         28927.500
        28   02 Jun 2027 05:33:33.222   02 Jun 2027 05:33:41.137             7.915          3957.500
        29   02 Jun 2027 05:35:28.661   02 Jun 2027 05:38:59.562           210.901        105450.500
        30   02 Jun 2027 05:40:59.360   02 Jun 2027 05:40:59.360             0.000             0.000
        31   02 Jun 2027 07:12:26.489   02 Jun 2027 07:14:12.253           105.764         52882.000
        32   02 Jun 2027 07:14:59.936   02 Jun 2027 07:15:38.309            38.373         19186.500
        33   02 Jun 2027 07:16:28.822   02 Jun 2027 07:17:29.942            61.120         30560.000
        34   02 Jun 2027 07:17:44.070   02 Jun 2027 07:17:58.636            14.566          7283.000
        35   02 Jun 2027 08:49:41.383   02 Jun 2027 08:50:54.220            72.837         36418.500
        36   02 Jun 2027 08:51:33.237   02 Jun 2027 08:52:19.812            46.575         21539.468
        37   02 Jun 2027 08:52:43.897   02 Jun 2027 08:52:46.016             2.119           580.188
        38   02 Jun 2027 08:53:11.285   02 Jun 2027 08:53:11.285             0.000             0.000
        39   02 Jun 2027 08:53:28.940   02 Jun 2027 08:53:32.332             3.392          1340.875
        40   02 Jun 2027 10:26:11.518   02 Jun 2027 10:26:32.032            20.514          9572.656
        41   02 Jun 2027 10:27:34.273   02 Jun 2027 10:27:34.301             0.028            14.000
        42   02 Jun 2027 10:28:09.542   02 Jun 2027 10:28:11.809             2.267          1133.500
        43   02 Jun 2027 10:28:25.440   02 Jun 2027 10:28:30.135             4.695          1849.000
        44   02 Jun 2027 10:29:11.384   02 Jun 2027 10:29:14.014             2.630          1289.031
        45   02 Jun 2027 10:29:49.160   02 Jun 2027 10:29:49.160             0.000             0.000
        46   02 Jun 2027 10:29:52.232   02 Jun 2027 10:29:55.385             3.153           970.313
        47   02 Jun 2027 10:30:28.608   02 Jun 2027 10:30:35.670             7.062           848.469
        48   03 Jun 2027 04:13:30.864   03 Jun 2027 04:14:47.049            76.185         38092.500
        49   03 Jun 2027 04:15:27.059   03 Jun 2027 04:15:34.233             7.174          3587.000
        50   03 Jun 2027 04:16:30.235   03 Jun 2027 04:16:49.751            19.516          9758.000
        51   03 Jun 2027 05:48:41.263   03 Jun 2027 05:51:21.584           160.321         80160.500
        52   03 Jun 2027 05:54:38.581   03 Jun 2027 05:55:19.774            41.193         20596.500
        53   03 Jun 2027 07:25:00.606   03 Jun 2027 07:25:50.581            49.975         24592.813
        54   03 Jun 2027 07:26:20.288   03 Jun 2027 07:26:22.096             1.808           707.438
        55   03 Jun 2027 07:28:13.469   03 Jun 2027 07:28:19.016             5.547          1789.406
        56   03 Jun 2027 07:28:49.019   03 Jun 2027 07:28:49.447             0.428           214.000
        57   03 Jun 2027 07:29:47.781   03 Jun 2027 07:29:55.050             7.269          2068.094
        58   03 Jun 2027 07:30:04.258   03 Jun 2027 07:30:06.026             1.768           287.750
        59   03 Jun 2027 07:30:50.002   03 Jun 2027 07:30:51.063             1.061           530.500
        60   03 Jun 2027 09:02:24.563   03 Jun 2027 09:02:48.425            23.862         11929.125
        61   03 Jun 2027 09:04:10.392   03 Jun 2027 09:04:19.129             8.737          1890.406
        62   03 Jun 2027 09:04:22.847   03 Jun 2027 09:04:23.944             1.097            38.031
        63   03 Jun 2027 09:04:24.655   03 Jun 2027 09:04:33.185             8.530            22.219
        64   03 Jun 2027 09:04:42.901   03 Jun 2027 09:04:43.821             0.920           303.625
        65   03 Jun 2027 09:04:52.619   03 Jun 2027 09:04:55.174             2.555           274.937
        66   03 Jun 2027 09:05:20.910   03 Jun 2027 09:05:23.926             3.016           804.250
        67   03 Jun 2027 09:06:12.081   03 Jun 2027 09:06:16.369             4.288           885.906
        68   03 Jun 2027 09:06:24.084   03 Jun 2027 09:06:25.163             1.079           147.625
        69   03 Jun 2027 10:38:36.582   03 Jun 2027 10:38:50.423            13.841          6757.875
        70   03 Jun 2027 10:39:19.976   03 Jun 2027 10:39:24.237             4.261           601.781
        71   03 Jun 2027 10:39:32.772   03 Jun 2027 10:39:34.508             1.736           142.719
        72   03 Jun 2027 10:40:20.630   03 Jun 2027 10:40:24.370             3.740           481.125
        73   03 Jun 2027 10:40:42.961   03 Jun 2027 10:40:44.541             1.580           580.969
        74   03 Jun 2027 10:41:51.450   03 Jun 2027 10:41:56.976             5.526          1279.531
        75   03 Jun 2027 10:42:37.144   03 Jun 2027 10:42:45.430             8.286          1053.281
        76   03 Jun 2027 10:42:48.011   03 Jun 2027 10:42:48.676             0.665            47.312
        77   04 Jun 2027 04:25:32.363   04 Jun 2027 04:27:04.417            92.054         46027.000
        78   04 Jun 2027 04:27:49.970   04 Jun 2027 04:28:58.389            68.419         34209.500
        79   04 Jun 2027 06:00:45.042   04 Jun 2027 06:03:15.145           150.103         75051.500
        80   04 Jun 2027 06:04:56.631   04 Jun 2027 06:05:00.906             4.275          2137.500
        81   04 Jun 2027 06:05:05.501   04 Jun 2027 06:05:16.420            10.919          3565.437
        82   04 Jun 2027 06:07:22.773   04 Jun 2027 06:07:25.022             2.249          1124.500
        83   04 Jun 2027 07:36:39.992   04 Jun 2027 07:37:12.728            32.736         15974.906
        84   04 Jun 2027 07:37:47.778   04 Jun 2027 07:37:52.378             4.600           975.875
        85   04 Jun 2027 07:38:23.744   04 Jun 2027 07:38:25.121             1.377           358.594
        86   04 Jun 2027 07:38:57.408   04 Jun 2027 07:39:00.039             2.631           631.500
        87   04 Jun 2027 07:39:42.977   04 Jun 2027 07:39:45.568             2.591           980.656
        88   04 Jun 2027 07:41:26.654   04 Jun 2027 07:41:31.788             5.134          2496.531
        89   04 Jun 2027 07:41:39.979   04 Jun 2027 07:41:43.074             3.095            25.656
        90   04 Jun 2027 07:42:40.459   04 Jun 2027 07:42:40.459             0.000             0.000
        91   04 Jun 2027 07:42:56.159   04 Jun 2027 07:42:58.430             2.271          1135.500
        92   04 Jun 2027 09:14:37.049   04 Jun 2027 09:15:01.478            24.429         10209.750
        93   04 Jun 2027 09:15:39.255   04 Jun 2027 09:15:42.772             3.517           736.094
        94   04 Jun 2027 09:16:23.556   04 Jun 2027 09:16:30.138             6.582          1152.469
        95   04 Jun 2027 09:16:33.101   04 Jun 2027 09:16:34.139             1.038            55.500
        96   04 Jun 2027 09:17:14.986   04 Jun 2027 09:17:18.502             3.516          1055.937
        97   04 Jun 2027 09:17:29.118   04 Jun 2027 09:17:30.008             0.890           331.750
        98   04 Jun 2027 09:17:56.272   04 Jun 2027 09:17:58.036             1.764           820.750
        99   04 Jun 2027 10:50:30.349   04 Jun 2027 10:50:43.315            12.966          6480.438
       100   04 Jun 2027 10:51:34.398   04 Jun 2027 10:51:37.729             3.331          1101.031
       101   04 Jun 2027 10:52:06.860   04 Jun 2027 10:52:11.099             4.239           335.406
       102   04 Jun 2027 10:53:16.550   04 Jun 2027 10:53:20.322             3.772          1593.938
       103   04 Jun 2027 10:53:51.045   04 Jun 2027 10:54:01.042             9.997           888.625
       104   04 Jun 2027 10:54:30.541   04 Jun 2027 10:54:30.646             0.105            52.500
       105   04 Jun 2027 10:54:42.894   04 Jun 2027 10:54:43.584             0.690           345.000
       106   04 Jun 2027 10:54:49.240   04 Jun 2027 10:54:50.302             1.062           513.781
       107   04 Jun 2027 10:55:27.362   04 Jun 2027 10:55:28.571             1.209           604.500
       108   05 Jun 2027 03:01:30.601   05 Jun 2027 03:01:39.027             8.426          4213.000
       109   05 Jun 2027 03:01:50.082   05 Jun 2027 03:01:51.172             1.090           545.000
       110   05 Jun 2027 03:02:33.976   05 Jun 2027 03:02:47.321            13.345          6672.500
       111   05 Jun 2027 03:02:55.417   05 Jun 2027 03:02:58.319             2.902          1451.000
       112   05 Jun 2027 03:03:18.603   05 Jun 2027 03:03:35.903            17.300          8650.000
       113   05 Jun 2027 04:37:15.569   05 Jun 2027 04:40:48.069           212.500        106250.000
       114   05 Jun 2027 04:41:01.041   05 Jun 2027 04:41:06.757             5.716          2858.000
       115   05 Jun 2027 06:11:59.407   05 Jun 2027 06:13:02.237            62.830         29724.719
       116   05 Jun 2027 06:14:05.808   05 Jun 2027 06:14:09.488             3.680          1760.625
       117   05 Jun 2027 06:15:35.314   05 Jun 2027 06:15:42.233             6.919          1724.000
       118   05 Jun 2027 06:17:34.207   05 Jun 2027 06:17:40.975             6.768          2795.250
       119   05 Jun 2027 06:17:43.630   05 Jun 2027 06:17:44.856             1.226            49.844
       120   05 Jun 2027 06:18:04.167   05 Jun 2027 06:18:06.258             2.091           603.469
       121   05 Jun 2027 06:18:48.290   05 Jun 2027 06:18:48.539             0.249           124.500
       122   05 Jun 2027 06:18:53.055   05 Jun 2027 06:19:00.421             7.366          1118.563
       123   05 Jun 2027 06:19:14.477   05 Jun 2027 06:19:17.598             3.121           196.375
       124   05 Jun 2027 07:48:47.243   05 Jun 2027 07:49:21.313            34.070         15933.281
       125   05 Jun 2027 07:49:43.168   05 Jun 2027 07:49:47.053             3.885           575.875
       126   05 Jun 2027 07:50:52.001   05 Jun 2027 07:50:53.951             1.950           478.812
       127   05 Jun 2027 07:52:10.407   05 Jun 2027 07:52:15.239             4.832          1995.344
       128   05 Jun 2027 07:53:20.639   05 Jun 2027 07:53:26.940             6.301          1831.187
       129   05 Jun 2027 07:53:40.690   05 Jun 2027 07:53:43.870             3.180           170.344
       130   05 Jun 2027 07:54:19.173   05 Jun 2027 07:54:21.926             2.753           597.406
       131   05 Jun 2027 07:54:38.354   05 Jun 2027 07:54:38.354             0.000             0.000
       132   05 Jun 2027 07:54:43.369   05 Jun 2027 07:54:44.256             0.887           442.531
       133   05 Jun 2027 07:55:06.106   05 Jun 2027 07:55:08.301             2.195           654.062
       134   05 Jun 2027 09:27:02.389   05 Jun 2027 09:27:20.602            18.213          9084.344
       135   05 Jun 2027 09:27:28.544   05 Jun 2027 09:27:32.706             4.162            91.219
       136   05 Jun 2027 09:27:56.367   05 Jun 2027 09:27:58.259             1.892           515.094
       137   05 Jun 2027 09:28:08.878   05 Jun 2027 09:28:09.230             0.352           108.938
       138   05 Jun 2027 09:28:32.606   05 Jun 2027 09:28:33.535             0.929           416.438
       139   05 Jun 2027 09:29:00.977   05 Jun 2027 09:29:03.128             2.151           761.469
       140   05 Jun 2027 09:29:53.156   05 Jun 2027 09:29:56.478             3.322          1305.031
       141   05 Jun 2027 09:30:17.899   05 Jun 2027 09:30:19.399             1.500           669.406
       142   05 Jun 2027 09:30:47.527   05 Jun 2027 09:30:50.312             2.785           867.281
       143   05 Jun 2027 11:00:19.749   05 Jun 2027 11:00:34.255            14.506          6994.281
       144   05 Jun 2027 11:01:26.054   05 Jun 2027 11:01:36.224            10.170           575.719
       145   05 Jun 2027 11:02:52.016   05 Jun 2027 11:02:58.302             6.286          1741.594
       146   05 Jun 2027 11:03:11.595   05 Jun 2027 11:03:14.108             2.513           415.406
       147   05 Jun 2027 11:03:41.120   05 Jun 2027 11:03:43.190             2.070           621.156
       148   05 Jun 2027 11:04:05.910   05 Jun 2027 11:04:08.301             2.391           484.687
       149   05 Jun 2027 11:05:17.113   05 Jun 2027 11:05:19.299             2.186          1093.000
       150   05 Jun 2027 11:05:27.404   05 Jun 2027 11:05:32.823             5.419          1235.875
       151   05 Jun 2027 11:05:42.301   05 Jun 2027 11:05:43.156             0.855           177.406
       152   05 Jun 2027 11:06:24.901   05 Jun 2027 11:06:28.063             3.162          1059.687
       153   05 Jun 2027 11:07:41.590   05 Jun 2027 11:07:45.526             3.936          1956.031
       154   06 Jun 2027 03:12:06.314   06 Jun 2027 03:12:55.876            49.562         24781.000
       155   06 Jun 2027 03:13:04.683   06 Jun 2027 03:13:06.745             2.062          1031.000
       156   06 Jun 2027 03:16:24.863   06 Jun 2027 03:16:27.570             2.707          1353.500
       157   06 Jun 2027 03:16:40.585   06 Jun 2027 03:16:40.585             0.000             0.000
       158   06 Jun 2027 04:47:10.129   06 Jun 2027 04:48:27.628            77.499         38749.500
       159   06 Jun 2027 04:48:59.983   06 Jun 2027 04:49:50.628            50.645         25322.500
       160   06 Jun 2027 04:51:34.793   06 Jun 2027 04:52:21.179            46.386         23193.000
       161   06 Jun 2027 04:52:41.332   06 Jun 2027 04:53:01.250            19.918          9959.000
       162   06 Jun 2027 04:53:08.930   06 Jun 2027 04:53:12.620             3.690          1845.000
       163   06 Jun 2027 04:53:49.296   06 Jun 2027 04:53:52.782             3.486          1743.000
       164   06 Jun 2027 06:24:07.606   06 Jun 2027 06:25:07.410            59.804         29423.125
       165   06 Jun 2027 06:25:23.474   06 Jun 2027 06:25:26.207             2.733           419.531
       166   06 Jun 2027 06:26:37.296   06 Jun 2027 06:26:38.666             1.370           277.375
       167   06 Jun 2027 06:27:04.534   06 Jun 2027 06:27:08.944             4.410           677.156
       168   06 Jun 2027 06:27:18.673   06 Jun 2027 06:27:18.673             0.000             0.000
       169   06 Jun 2027 06:28:59.777   06 Jun 2027 06:29:01.350             1.573           786.500
       170   06 Jun 2027 06:29:11.312   06 Jun 2027 06:29:20.280             8.968          2988.343
       171   06 Jun 2027 06:29:34.213   06 Jun 2027 06:29:36.891             2.678            65.219
       172   06 Jun 2027 06:30:28.268   06 Jun 2027 06:30:31.420             3.152          1576.000
       173   06 Jun 2027 06:30:36.547   06 Jun 2027 06:30:38.550             2.003           189.750
       174   06 Jun 2027 06:31:27.458   06 Jun 2027 06:31:31.517             4.059          1479.844
       175   06 Jun 2027 08:01:06.070   06 Jun 2027 08:01:43.274            37.204         18342.469
       176   06 Jun 2027 08:02:06.974   06 Jun 2027 08:02:14.213             7.239           547.750
       177   06 Jun 2027 08:02:44.703   06 Jun 2027 08:02:49.197             4.494           944.156
       178   06 Jun 2027 08:03:04.087   06 Jun 2027 08:03:09.552             5.465           419.375
       179   06 Jun 2027 08:03:27.675   06 Jun 2027 08:03:32.837             5.162           259.281
       180   06 Jun 2027 08:04:46.780   06 Jun 2027 08:04:51.610             4.830          1563.687
       181   06 Jun 2027 08:05:55.040   06 Jun 2027 08:05:59.601             4.561          1351.344
       182   06 Jun 2027 08:06:09.649   06 Jun 2027 08:06:10.453             0.804           314.000
       183   06 Jun 2027 08:06:30.767   06 Jun 2027 08:06:32.381             1.614           417.344
       184   06 Jun 2027 08:06:43.752   06 Jun 2027 08:06:45.278             1.526           346.781
       185   06 Jun 2027 08:06:52.380   06 Jun 2027 08:06:54.602             2.222           181.000
       186   06 Jun 2027 09:39:00.509   06 Jun 2027 09:39:18.299            17.790          8895.000
       187   06 Jun 2027 09:39:40.732   06 Jun 2027 09:39:44.262             3.530          1153.688
       188   06 Jun 2027 09:40:18.369   06 Jun 2027 09:40:21.021             2.652           728.906
       189   06 Jun 2027 09:40:31.661   06 Jun 2027 09:40:33.400             1.739           316.094
       190   06 Jun 2027 09:41:44.280   06 Jun 2027 09:41:47.208             2.928          1464.000
       191   06 Jun 2027 09:42:14.944   06 Jun 2027 09:42:19.057             4.113           903.031
       192   06 Jun 2027 09:42:32.425   06 Jun 2027 09:42:33.379             0.954           389.375
       193   06 Jun 2027 11:12:19.471   06 Jun 2027 11:12:29.406             9.935          4719.750
       194   06 Jun 2027 11:13:15.098   06 Jun 2027 11:13:23.538             8.440           472.375
       195   06 Jun 2027 11:13:55.659   06 Jun 2027 11:13:59.140             3.481           236.469
       196   06 Jun 2027 11:14:08.818   06 Jun 2027 11:14:11.328             2.510           226.312
       197   06 Jun 2027 11:14:45.968   06 Jun 2027 11:14:51.264             5.296          1045.875
       198   06 Jun 2027 11:14:55.310   06 Jun 2027 11:14:55.310             0.000             0.000
       199   06 Jun 2027 11:15:12.464   06 Jun 2027 11:15:18.034             5.570           652.063
       200   06 Jun 2027 11:16:17.233   06 Jun 2027 11:16:20.314             3.081          1491.625
       201   06 Jun 2027 11:17:04.480   06 Jun 2027 11:17:09.049             4.569          1332.031
       202   06 Jun 2027 11:17:51.253   06 Jun 2027 11:17:52.632             1.379           689.500
       203   06 Jun 2027 11:18:19.880   06 Jun 2027 11:18:23.941             4.061          1480.875
       204   06 Jun 2027 11:18:54.689   06 Jun 2027 11:18:57.711             3.022           960.875
       205   06 Jun 2027 11:19:37.713   06 Jun 2027 11:19:40.641             2.928           576.531
       206   06 Jun 2027 11:19:48.279   06 Jun 2027 11:19:49.695             1.416           238.687
       207   06 Jun 2027 11:19:58.677   06 Jun 2027 11:20:01.410             2.733           196.469
       208   07 Jun 2027 03:23:36.151   07 Jun 2027 03:24:46.205            70.054         35027.000
       209   07 Jun 2027 03:28:00.996   07 Jun 2027 03:28:00.996             0.000             0.000
       210   07 Jun 2027 03:28:32.697   07 Jun 2027 03:28:40.117             7.420          3710.000
       211   07 Jun 2027 04:58:35.124   07 Jun 2027 05:01:42.643           187.519         93759.500
       212   07 Jun 2027 05:01:59.071   07 Jun 2027 05:02:07.354             8.283          4141.500
       213   07 Jun 2027 05:05:10.898   07 Jun 2027 05:05:15.483             4.585          2292.500
       214   07 Jun 2027 05:05:40.407   07 Jun 2027 05:05:51.751            11.344          5672.000
       215   07 Jun 2027 05:06:11.466   07 Jun 2027 05:06:11.466             0.000             0.000
       216   07 Jun 2027 05:07:06.895   07 Jun 2027 05:07:12.494             5.599          2799.500
       217   07 Jun 2027 06:36:11.326   07 Jun 2027 06:36:57.024            45.698         22797.125
       218   07 Jun 2027 06:37:36.189   07 Jun 2027 06:37:40.602             4.413           924.531
       219   07 Jun 2027 06:38:39.198   07 Jun 2027 06:38:42.073             2.875           577.313
       220   07 Jun 2027 06:39:41.610   07 Jun 2027 06:39:42.363             0.753           376.500
       221   07 Jun 2027 06:40:17.269   07 Jun 2027 06:40:20.720             3.451          1618.219
       222   07 Jun 2027 06:41:13.141   07 Jun 2027 06:41:17.579             4.438          1620.875
       223   07 Jun 2027 06:41:55.777   07 Jun 2027 06:42:00.283             4.506          1193.687
       224   07 Jun 2027 06:42:18.174   07 Jun 2027 06:42:20.236             2.062           483.125
       225   07 Jun 2027 08:12:55.325   07 Jun 2027 08:13:23.753            28.428         14192.781
       226   07 Jun 2027 08:13:42.621   07 Jun 2027 08:13:45.825             3.204           111.312
       227   07 Jun 2027 08:14:57.634   07 Jun 2027 08:15:04.440             6.806            69.656
       228   07 Jun 2027 08:15:49.021   07 Jun 2027 08:15:55.297             6.276           950.844
       229   07 Jun 2027 08:17:10.743   07 Jun 2027 08:17:15.923             5.180          2357.687
       230   07 Jun 2027 08:17:39.140   07 Jun 2027 08:17:39.140             0.000             0.000
       231   07 Jun 2027 08:18:05.194   07 Jun 2027 08:18:08.180             2.986          1379.594
       232   07 Jun 2027 08:18:30.502   07 Jun 2027 08:18:32.610             2.108           697.563
       233   07 Jun 2027 08:19:11.913   07 Jun 2027 08:19:14.763             2.850           830.344
       234   07 Jun 2027 09:50:59.913   07 Jun 2027 09:51:16.512            16.599          8167.188
       235   07 Jun 2027 09:51:41.787   07 Jun 2027 09:51:41.787             0.000             0.000
       236   07 Jun 2027 09:52:10.027   07 Jun 2027 09:52:13.891             3.864          1640.500
       237   07 Jun 2027 09:52:35.181   07 Jun 2027 09:52:37.628             2.447           665.313
       238   07 Jun 2027 09:52:54.618   07 Jun 2027 09:52:55.801             1.183           470.156
       239   07 Jun 2027 09:53:16.442   07 Jun 2027 09:53:20.851             4.409            19.594
       240   07 Jun 2027 09:53:42.433   07 Jun 2027 09:53:42.433             0.000             0.000
       241   07 Jun 2027 09:54:12.241   07 Jun 2027 09:54:15.039             2.798          1013.594
       242   07 Jun 2027 09:54:22.278   07 Jun 2027 09:54:25.201             2.923           226.219
       243   07 Jun 2027 09:54:30.571   07 Jun 2027 09:54:35.001             4.430           167.813
       244   07 Jun 2027 09:55:07.919   07 Jun 2027 09:55:09.106             1.187           593.500
       245   07 Jun 2027 11:24:45.136   07 Jun 2027 11:24:47.763             2.627          1287.000
       246   07 Jun 2027 11:26:07.912   07 Jun 2027 11:26:12.466             4.554          2060.281
       247   07 Jun 2027 11:26:41.082   07 Jun 2027 11:26:43.028             1.946           894.250
       248   07 Jun 2027 11:26:48.980   07 Jun 2027 11:26:48.980             0.000             0.000
       249   07 Jun 2027 11:27:13.007   07 Jun 2027 11:27:16.060             3.053           854.906
       250   07 Jun 2027 11:29:02.683   07 Jun 2027 11:29:11.396             8.713          2682.938
       251   07 Jun 2027 11:30:02.874   07 Jun 2027 11:30:07.299             4.425          1404.844
       252   07 Jun 2027 11:31:22.218   07 Jun 2027 11:31:28.929             6.711          2341.219
       253   08 Jun 2027 03:35:12.323   08 Jun 2027 03:36:29.911            77.588         38794.000
       254   08 Jun 2027 03:36:43.618   08 Jun 2027 03:36:43.618             0.000             0.000
       255   08 Jun 2027 03:40:01.508   08 Jun 2027 03:40:13.230            11.722          5861.000
       256   08 Jun 2027 05:10:05.716   08 Jun 2027 05:11:05.874            60.158         30079.000
       257   08 Jun 2027 05:11:09.923   08 Jun 2027 05:13:34.148           144.225         72112.500
       258   08 Jun 2027 05:14:21.340   08 Jun 2027 05:14:21.340             0.000             0.000
       259   08 Jun 2027 05:15:29.602   08 Jun 2027 05:15:34.692             5.090          2545.000
       260   08 Jun 2027 05:16:49.201   08 Jun 2027 05:17:09.935            20.734         10367.000
       261   08 Jun 2027 05:19:09.479   08 Jun 2027 05:19:09.479             0.000             0.000
       262   08 Jun 2027 06:48:09.859   08 Jun 2027 06:48:59.827            49.968         24616.656
       263   08 Jun 2027 06:49:21.486   08 Jun 2027 06:49:24.847             3.361           223.812
       264   08 Jun 2027 06:50:00.435   08 Jun 2027 06:50:06.963             6.528           967.406
       265   08 Jun 2027 06:50:45.638   08 Jun 2027 06:50:52.401             6.763          1067.281
       266   08 Jun 2027 06:51:12.202   08 Jun 2027 06:51:13.963             1.761           385.250
       267   08 Jun 2027 06:51:49.858   08 Jun 2027 06:51:50.966             1.108           554.000
       268   08 Jun 2027 06:51:56.717   08 Jun 2027 06:52:04.386             7.669           533.656
       269   08 Jun 2027 06:52:30.912   08 Jun 2027 06:52:33.797             2.885           274.062
       270   08 Jun 2027 06:53:01.961   08 Jun 2027 06:53:03.567             1.606           597.000
       271   08 Jun 2027 06:53:43.902   08 Jun 2027 06:53:43.902             0.000             0.000
       272   08 Jun 2027 06:53:47.067   08 Jun 2027 06:53:51.642             4.575          1355.313
       273   08 Jun 2027 06:54:26.132   08 Jun 2027 06:54:29.645             3.513           418.781
       274   08 Jun 2027 06:54:44.131   08 Jun 2027 06:54:48.277             4.146           252.781
       275   08 Jun 2027 08:25:03.036   08 Jun 2027 08:25:18.192            15.156          7578.000
       276   08 Jun 2027 08:25:35.582   08 Jun 2027 08:25:49.016            13.434          6717.000
       277   08 Jun 2027 08:26:07.546   08 Jun 2027 08:26:12.895             5.349           667.219
       278   08 Jun 2027 08:26:24.067   08 Jun 2027 08:26:27.109             3.042           349.125
       279   08 Jun 2027 08:27:16.717   08 Jun 2027 08:27:19.609             2.892          1283.250
       280   08 Jun 2027 08:28:15.522   08 Jun 2027 08:28:19.641             4.119          1731.906
       281   08 Jun 2027 08:29:52.243   08 Jun 2027 08:29:59.731             7.488          2893.812
       282   08 Jun 2027 08:30:37.655   08 Jun 2027 08:30:44.851             7.196           905.437
       283   08 Jun 2027 08:31:14.049   08 Jun 2027 08:31:16.647             2.598           732.063
       284   08 Jun 2027 10:02:13.088   08 Jun 2027 10:02:36.237            23.149          9682.594
       285   08 Jun 2027 10:02:56.526   08 Jun 2027 10:02:57.770             1.244           598.281
       286   08 Jun 2027 10:03:41.490   08 Jun 2027 10:03:43.007             1.517           696.375
       287   08 Jun 2027 10:04:38.284   08 Jun 2027 10:04:41.827             3.543          1727.406
       288   08 Jun 2027 10:05:16.668   08 Jun 2027 10:05:19.705             3.037          1088.781
       289   08 Jun 2027 10:05:31.565   08 Jun 2027 10:05:35.516             3.951           370.625
       290   08 Jun 2027 10:06:06.570   08 Jun 2027 10:06:08.737             2.167           970.438
       291   08 Jun 2027 10:06:17.498   08 Jun 2027 10:06:18.885             1.387           273.781
       292   08 Jun 2027 11:36:59.976   08 Jun 2027 11:37:00.614             0.638           319.000
       293   08 Jun 2027 11:37:03.370   08 Jun 2027 11:37:08.640             5.270          1469.062
       294   08 Jun 2027 11:37:27.064   08 Jun 2027 11:37:38.532            11.468           428.937
       295   08 Jun 2027 11:37:55.487   08 Jun 2027 11:38:01.671             6.184           102.656
       296   08 Jun 2027 11:39:15.313   08 Jun 2027 11:39:23.674             8.361          1811.406
       297   08 Jun 2027 11:40:21.294   08 Jun 2027 11:40:25.772             4.478          1261.344
       298   08 Jun 2027 11:40:51.028   08 Jun 2027 11:40:53.922             2.894           578.563
       299   08 Jun 2027 11:42:16.721   08 Jun 2027 11:42:17.375             0.654           327.000
       300   09 Jun 2027 03:49:31.142   09 Jun 2027 03:50:38.501            67.359         33679.500
       301   09 Jun 2027 03:51:45.248   09 Jun 2027 03:51:55.770            10.522          5261.000
       302   09 Jun 2027 03:52:37.679   09 Jun 2027 03:53:03.108            25.429         12714.500
       303   09 Jun 2027 05:23:04.559   09 Jun 2027 05:23:29.458            24.899         12449.500
       304   09 Jun 2027 05:24:05.675   09 Jun 2027 05:26:12.755           127.080         63540.000
       305   09 Jun 2027 05:27:45.022   09 Jun 2027 05:28:40.416            55.394         27697.000
       306   09 Jun 2027 05:30:38.092   09 Jun 2027 05:30:48.091             9.999          4999.500
       307   09 Jun 2027 05:30:48.093   09 Jun 2027 05:31:00.767            12.674          5095.719
       308   09 Jun 2027 05:31:37.000   09 Jun 2027 05:31:38.218             1.218           609.000
       309   09 Jun 2027 07:00:31.836   09 Jun 2027 07:01:24.752            52.916         26443.844
       310   09 Jun 2027 07:03:13.322   09 Jun 2027 07:03:17.613             4.291          1322.813
       311   09 Jun 2027 07:03:28.571   09 Jun 2027 07:03:35.986             7.415           136.125
       312   09 Jun 2027 07:03:57.351   09 Jun 2027 07:03:58.935             1.584           244.031
       313   09 Jun 2027 07:04:44.644   09 Jun 2027 07:04:47.697             3.053          1346.094
       314   09 Jun 2027 07:06:02.797   09 Jun 2027 07:06:09.553             6.756          2003.531
       315   09 Jun 2027 07:06:31.707   09 Jun 2027 07:06:32.232             0.525           188.250
       316   09 Jun 2027 07:06:32.837   09 Jun 2027 07:06:33.855             1.018             5.250
       317   09 Jun 2027 07:07:18.904   09 Jun 2027 07:07:21.838             2.934           816.500
       318   09 Jun 2027 08:37:31.770   09 Jun 2027 08:37:58.365            26.595         13111.969
       319   09 Jun 2027 08:38:42.980   09 Jun 2027 08:38:43.703             0.723           264.531
       320   09 Jun 2027 08:40:39.320   09 Jun 2027 08:40:43.031             3.711          1855.500
       321   09 Jun 2027 08:42:18.158   09 Jun 2027 08:42:31.756            13.598          4316.844
       322   09 Jun 2027 08:42:41.639   09 Jun 2027 08:42:44.204             2.565           251.656
       323   09 Jun 2027 10:14:25.753   09 Jun 2027 10:14:42.664            16.911          7876.375
       324   09 Jun 2027 10:15:24.018   09 Jun 2027 10:15:24.715             0.697           348.500
       325   09 Jun 2027 10:15:59.669   09 Jun 2027 10:16:03.975             4.306          1932.281
       326   09 Jun 2027 10:16:16.637   09 Jun 2027 10:16:21.787             5.150           268.906
       327   09 Jun 2027 10:16:38.161   09 Jun 2027 10:16:39.681             1.520           185.313
       328   09 Jun 2027 10:17:06.501   09 Jun 2027 10:17:08.753             2.252           838.125
       329   09 Jun 2027 10:18:13.327   09 Jun 2027 10:18:16.345             3.018          1509.000
       330   09 Jun 2027 10:18:18.228   09 Jun 2027 10:18:21.236             3.008           118.594
       331   09 Jun 2027 11:51:35.048   09 Jun 2027 11:51:42.406             7.358          1341.281
       332   09 Jun 2027 11:51:53.256   09 Jun 2027 11:51:53.256             0.000             0.000
       333   09 Jun 2027 11:52:22.266   09 Jun 2027 11:52:25.756             3.490          1245.625
       334   09 Jun 2027 11:53:15.623   09 Jun 2027 11:53:22.535             6.912          1558.344
       335   09 Jun 2027 11:53:28.688   09 Jun 2027 11:53:33.691             5.003           150.656
       336   10 Jun 2027 04:01:36.592   10 Jun 2027 04:02:34.464            57.872         28936.000
       337   10 Jun 2027 04:03:41.588   10 Jun 2027 04:03:45.901             4.313          2156.500
       338   10 Jun 2027 04:03:47.380   10 Jun 2027 04:03:47.380             0.000             0.000
       339   10 Jun 2027 04:04:40.099   10 Jun 2027 04:04:54.950            14.851          7425.500
       340   10 Jun 2027 05:33:47.298   10 Jun 2027 05:33:55.880             8.582          4291.000
       341   10 Jun 2027 05:35:43.433   10 Jun 2027 05:38:50.082           186.649         93324.500
       342   10 Jun 2027 05:38:51.523   10 Jun 2027 05:39:15.678            24.155         12077.500
       343   10 Jun 2027 05:39:24.144   10 Jun 2027 05:39:24.144             0.000             0.000
       344   10 Jun 2027 07:12:41.375   10 Jun 2027 07:13:38.356            56.981         28490.500
       345   10 Jun 2027 07:14:26.922   10 Jun 2027 07:14:34.274             7.352          3604.969
       346   10 Jun 2027 07:15:28.418   10 Jun 2027 07:15:31.588             3.170           823.562
       347   10 Jun 2027 07:16:43.774   10 Jun 2027 07:16:48.287             4.513          2255.812
       348   10 Jun 2027 07:18:24.087   10 Jun 2027 07:18:26.402             2.315          1157.500
       349   10 Jun 2027 07:18:57.445   10 Jun 2027 07:19:05.700             8.255          2626.906
       350   10 Jun 2027 08:49:58.336   10 Jun 2027 08:50:21.084            22.748         11354.250
       351   10 Jun 2027 08:51:08.917   10 Jun 2027 08:51:10.071             1.154           549.031
       352   10 Jun 2027 08:52:09.305   10 Jun 2027 08:52:13.982             4.677          1817.062
       353   10 Jun 2027 10:26:26.754   10 Jun 2027 10:26:44.728            17.974          7844.750
       354   10 Jun 2027 10:27:13.031   10 Jun 2027 10:27:15.281             2.250           454.219
       355   10 Jun 2027 10:27:52.891   10 Jun 2027 10:28:01.676             8.785          1152.719
       356   10 Jun 2027 10:28:44.762   10 Jun 2027 10:28:48.230             3.468          1338.969
       357   10 Jun 2027 10:29:03.568   10 Jun 2027 10:29:10.958             7.390           460.844
       358   10 Jun 2027 10:29:30.103   10 Jun 2027 10:29:35.823             5.720           471.906
       359   10 Jun 2027 10:30:07.225   10 Jun 2027 10:30:07.225             0.000             0.000
       360   10 Jun 2027 10:30:31.199   10 Jun 2027 10:30:33.743             2.544           789.781
       361   10 Jun 2027 10:30:52.273   10 Jun 2027 10:30:55.190             2.917           576.156
       362   10 Jun 2027 10:31:11.441   10 Jun 2027 10:31:12.379             0.938           398.219
       363   11 Jun 2027 04:13:45.711   11 Jun 2027 04:14:12.773            27.062         13531.000
       364   11 Jun 2027 04:15:05.085   11 Jun 2027 04:15:46.639            41.554         20777.000
       365   11 Jun 2027 05:48:56.312   11 Jun 2027 05:51:26.243           149.931         74965.500
       366   11 Jun 2027 05:52:00.923   11 Jun 2027 05:52:07.931             7.008          3504.000
       367   11 Jun 2027 05:52:43.348   11 Jun 2027 05:53:32.439            49.091         24545.500
       368   11 Jun 2027 05:54:53.219   11 Jun 2027 05:54:56.417             3.198          1599.000
       369   11 Jun 2027 05:55:26.407   11 Jun 2027 05:55:34.545             8.138          4069.000
       370   11 Jun 2027 07:25:15.432   11 Jun 2027 07:25:35.563            20.131         10065.500
       371   11 Jun 2027 07:26:15.504   11 Jun 2027 07:26:35.900            20.396          9300.750
       372   11 Jun 2027 07:27:31.087   11 Jun 2027 07:27:34.170             3.083          1502.250
       373   11 Jun 2027 07:27:43.537   11 Jun 2027 07:27:47.853             4.316           266.906
       374   11 Jun 2027 07:28:36.983   11 Jun 2027 07:28:39.590             2.607          1286.031
       375   11 Jun 2027 07:28:59.538   11 Jun 2027 07:29:00.652             1.114           550.625
       376   11 Jun 2027 07:29:48.028   11 Jun 2027 07:29:52.472             4.444          1431.281
       377   11 Jun 2027 07:30:09.767   11 Jun 2027 07:30:09.767             0.000             0.000
       378   11 Jun 2027 07:30:20.641   11 Jun 2027 07:30:23.683             3.042           832.750
       379   11 Jun 2027 07:31:08.065   11 Jun 2027 07:31:12.814             4.749          1386.938
       380   11 Jun 2027 09:02:39.099   11 Jun 2027 09:03:02.917            23.818         11876.906
       381   11 Jun 2027 09:03:06.032   11 Jun 2027 09:03:15.742             9.710            97.344
       382   11 Jun 2027 09:03:23.460   11 Jun 2027 09:03:23.848             0.388            39.656
       383   11 Jun 2027 09:03:29.191   11 Jun 2027 09:03:36.468             7.277           105.781
       384   11 Jun 2027 09:03:56.064   11 Jun 2027 09:03:57.352             1.288           453.406
       385   11 Jun 2027 09:05:00.209   11 Jun 2027 09:05:04.253             4.044          1591.500
       386   11 Jun 2027 09:05:14.345   11 Jun 2027 09:05:14.345             0.000             0.000
       387   11 Jun 2027 09:05:34.033   11 Jun 2027 09:05:34.033             0.000             0.000
       388   11 Jun 2027 09:06:22.802   11 Jun 2027 09:06:28.006             5.204          2454.656
       389   11 Jun 2027 09:06:40.815   11 Jun 2027 09:06:41.609             0.794            31.781
       390   11 Jun 2027 10:38:51.546   11 Jun 2027 10:39:05.590            14.044          6573.500
       391   11 Jun 2027 10:39:34.534   11 Jun 2027 10:39:36.371             1.837           560.594
       392   11 Jun 2027 10:39:47.407   11 Jun 2027 10:39:49.583             2.176           110.563
       393   11 Jun 2027 10:40:47.456   11 Jun 2027 10:40:50.875             3.419           666.500
       394   11 Jun 2027 10:41:53.357   11 Jun 2027 10:41:56.862             3.505           877.281
       395   11 Jun 2027 10:42:19.059   11 Jun 2027 10:42:19.796             0.737           368.500
       396   11 Jun 2027 10:42:53.085   11 Jun 2027 10:42:59.872             6.787          1256.656
       397   11 Jun 2027 10:43:02.742   11 Jun 2027 10:43:03.000             0.258            31.312
       398   12 Jun 2027 04:25:46.682   12 Jun 2027 04:28:31.222           164.540         82270.000
       399   12 Jun 2027 06:00:59.450   12 Jun 2027 06:03:09.647           130.197         65098.500
       400   12 Jun 2027 06:03:20.730   12 Jun 2027 06:03:20.730             0.000             0.000
       401   12 Jun 2027 06:03:47.613   12 Jun 2027 06:03:49.571             1.958           979.000
       402   12 Jun 2027 06:04:24.734   12 Jun 2027 06:04:43.096            18.362          9181.000
       403   12 Jun 2027 06:05:05.695   12 Jun 2027 06:05:09.638             3.943          1409.375
       404   12 Jun 2027 06:07:09.311   12 Jun 2027 06:07:18.332             9.021          3579.125
       405   12 Jun 2027 07:36:54.563   12 Jun 2027 07:37:28.420            33.857         16170.531
       406   12 Jun 2027 07:38:00.215   12 Jun 2027 07:38:01.907             1.692            93.562
       407   12 Jun 2027 07:38:51.728   12 Jun 2027 07:39:02.487            10.759          1556.906
       408   12 Jun 2027 07:39:05.214   12 Jun 2027 07:39:10.707             5.493            47.062
       409   12 Jun 2027 07:39:34.635   12 Jun 2027 07:39:36.585             1.950           342.938
       410   12 Jun 2027 07:39:58.163   12 Jun 2027 07:39:58.265             0.102            31.500
       411   12 Jun 2027 07:40:40.447   12 Jun 2027 07:40:40.447             0.000             0.000
       412   12 Jun 2027 07:40:59.381   12 Jun 2027 07:41:03.949             4.568          1190.469
       413   12 Jun 2027 07:42:03.485   12 Jun 2027 07:42:08.600             5.115          1718.812
       414   12 Jun 2027 07:42:21.732   12 Jun 2027 07:42:23.000             1.268           410.375
       415   12 Jun 2027 07:43:12.413   12 Jun 2027 07:43:13.497             1.084           542.000
       416   12 Jun 2027 09:14:52.485   12 Jun 2027 09:15:16.340            23.855         10370.375
       417   12 Jun 2027 09:15:50.751   12 Jun 2027 09:15:53.879             3.128           732.031
       418   12 Jun 2027 09:16:38.359   12 Jun 2027 09:16:47.813             9.454          1166.500
       419   12 Jun 2027 09:17:16.676   12 Jun 2027 09:17:18.732             2.056           623.469
       420   12 Jun 2027 09:17:33.537   12 Jun 2027 09:17:42.577             9.040           311.656
       421   12 Jun 2027 09:18:03.315   12 Jun 2027 09:18:03.567             0.252           126.000
       422   12 Jun 2027 09:18:14.427   12 Jun 2027 09:18:14.743             0.316           158.000
       423   12 Jun 2027 09:18:37.056   12 Jun 2027 09:18:40.206             3.150          1355.187
       424   12 Jun 2027 10:50:45.081   12 Jun 2027 10:50:57.961            12.880          6247.938
       425   12 Jun 2027 10:51:17.295   12 Jun 2027 10:51:21.595             4.300           103.125
       426   12 Jun 2027 10:51:25.197   12 Jun 2027 10:51:25.197             0.000             0.000
       427   12 Jun 2027 10:52:18.949   12 Jun 2027 10:52:24.831             5.882          1782.687
       428   12 Jun 2027 10:53:01.572   12 Jun 2027 10:53:06.904             5.332           921.875
       429   12 Jun 2027 10:53:10.003   12 Jun 2027 10:53:11.608             1.605            50.781
       430   12 Jun 2027 10:54:28.549   12 Jun 2027 10:54:42.708            14.159          1816.687
       431   12 Jun 2027 10:55:28.600   12 Jun 2027 10:55:33.980             5.380          1354.250
       432   13 Jun 2027 03:01:07.307   13 Jun 2027 03:01:18.463            11.156          5578.000
       433   13 Jun 2027 03:01:53.560   13 Jun 2027 03:01:56.020             2.460          1230.000
       434   13 Jun 2027 03:03:01.948   13 Jun 2027 03:03:14.405            12.457          6228.500
       435   13 Jun 2027 03:03:50.795   13 Jun 2027 03:03:51.973             1.178           589.000
       436   13 Jun 2027 03:04:37.202   13 Jun 2027 03:04:39.330             2.128          1064.000
       437   13 Jun 2027 04:37:30.225   13 Jun 2027 04:39:17.022           106.797         53398.500
       438   13 Jun 2027 04:40:28.632   13 Jun 2027 04:41:51.134            82.502         41251.000
       439   13 Jun 2027 06:12:14.118   13 Jun 2027 06:13:53.888            99.770         48904.094
       440   13 Jun 2027 06:14:55.946   13 Jun 2027 06:15:01.519             5.573          1086.969
       441   13 Jun 2027 06:16:19.818   13 Jun 2027 06:16:26.669             6.851          2267.688
       442   13 Jun 2027 06:17:48.664   13 Jun 2027 06:17:53.801             5.137          1966.750
       443   13 Jun 2027 06:18:04.878   13 Jun 2027 06:18:07.483             2.605           205.813
       444   13 Jun 2027 06:19:04.003   13 Jun 2027 06:19:05.582             1.579           789.500
       445   13 Jun 2027 07:49:02.338   13 Jun 2027 07:49:36.699            34.361         16812.375
       446   13 Jun 2027 07:49:58.962   13 Jun 2027 07:50:03.746             4.784           618.844
       447   13 Jun 2027 07:50:56.737   13 Jun 2027 07:50:59.347             2.610           655.594
       448   13 Jun 2027 07:51:20.845   13 Jun 2027 07:51:23.297             2.452           362.156
       449   13 Jun 2027 07:51:58.722   13 Jun 2027 07:52:01.748             3.026           771.438
       450   13 Jun 2027 07:52:27.397   13 Jun 2027 07:52:29.557             2.160           301.531
       451   13 Jun 2027 07:53:00.217   13 Jun 2027 07:53:03.229             3.012           373.281
       452   13 Jun 2027 07:53:35.285   13 Jun 2027 07:53:42.363             7.078          1001.562
       453   13 Jun 2027 07:53:50.820   13 Jun 2027 07:53:52.127             1.307           264.281
       454   13 Jun 2027 07:54:10.912   13 Jun 2027 07:54:15.481             4.569           586.125
       455   13 Jun 2027 07:54:34.000   13 Jun 2027 07:54:36.186             2.186           578.719
       456   13 Jun 2027 07:54:49.352   13 Jun 2027 07:54:50.533             1.181           407.625
       457   13 Jun 2027 07:54:53.922   13 Jun 2027 07:54:54.512             0.590            63.813
       458   13 Jun 2027 09:27:16.990   13 Jun 2027 09:27:37.264            20.274          9479.281
       459   13 Jun 2027 09:27:41.454   13 Jun 2027 09:27:42.856             1.402            45.031
       460   13 Jun 2027 09:28:36.302   13 Jun 2027 09:28:39.198             2.896          1385.750
       461   13 Jun 2027 09:28:50.431   13 Jun 2027 09:28:52.413             1.982            32.125
       462   13 Jun 2027 09:29:18.245   13 Jun 2027 09:29:20.025             1.780           807.250
       463   13 Jun 2027 09:30:07.714   13 Jun 2027 09:30:11.502             3.788          1290.219
       464   13 Jun 2027 09:30:33.175   13 Jun 2027 09:30:34.752             1.577           677.281
       465   13 Jun 2027 09:31:07.058   13 Jun 2027 09:31:09.842             2.784          1009.562
       466   13 Jun 2027 11:00:34.167   13 Jun 2027 11:00:49.312            15.145          6662.844
       467   13 Jun 2027 11:02:10.759   13 Jun 2027 11:02:14.621             3.862          1743.469
       468   13 Jun 2027 11:03:06.868   13 Jun 2027 11:03:14.018             7.150           835.469
       469   13 Jun 2027 11:03:50.694   13 Jun 2027 11:03:53.224             2.530          1131.719
       470   13 Jun 2027 11:04:25.064   13 Jun 2027 11:04:27.530             2.466           916.625
       471   13 Jun 2027 11:05:31.769   13 Jun 2027 11:05:34.382             2.613          1306.500
       472   13 Jun 2027 11:05:51.452   13 Jun 2027 11:05:55.996             4.544           939.500
       473   13 Jun 2027 11:06:05.999   13 Jun 2027 11:06:08.234             2.235           226.438
       474   13 Jun 2027 11:06:43.656   13 Jun 2027 11:06:45.398             1.742           700.937
       475   13 Jun 2027 11:07:56.922   13 Jun 2027 11:08:01.243             4.321          1973.375
       476   13 Jun 2027 11:08:16.997   13 Jun 2027 11:08:17.562             0.565           282.500
