uniorb/output/strategy_2/Camera/Camera_KinoSat_110101.txt

KinoSat_110101
-------------------------
    Access    *     Start Time (UTCG)     *     Stop Time (UTCG)  *   Duration (s) *   Data (Mbytes)
         1   01 Jun 2027 03:08:30.346   01 Jun 2027 03:08:41.859            11.513          5756.500
         2   01 Jun 2027 03:09:05.916   01 Jun 2027 03:09:15.695             9.779          4889.500
         3   01 Jun 2027 03:10:20.492   01 Jun 2027 03:10:25.362             4.870          2435.000
         4   01 Jun 2027 03:10:44.954   01 Jun 2027 03:10:53.744             8.790          4395.000
         5   01 Jun 2027 03:11:38.048   01 Jun 2027 03:11:50.304            12.256          6128.000
         6   01 Jun 2027 03:12:47.740   01 Jun 2027 03:12:48.451             0.711           355.500
         7   01 Jun 2027 03:13:00.954   01 Jun 2027 03:13:05.032             4.078          2039.000
         8   01 Jun 2027 03:13:34.003   01 Jun 2027 03:13:40.412             6.409          3204.500
         9   01 Jun 2027 03:14:07.679   01 Jun 2027 03:14:08.060             0.381           190.500
        10   01 Jun 2027 03:14:25.796   01 Jun 2027 03:14:29.491             3.695          1847.500
        11   01 Jun 2027 03:15:21.896   01 Jun 2027 03:15:30.045             8.149          4074.500
        12   01 Jun 2027 04:45:33.998   01 Jun 2027 04:46:09.682            35.684         17842.000
        13   01 Jun 2027 04:48:04.355   01 Jun 2027 04:48:04.631             0.276           138.000
        14   01 Jun 2027 04:49:15.883   01 Jun 2027 04:49:18.769             2.886          1443.000
        15   01 Jun 2027 04:50:05.742   01 Jun 2027 04:50:13.539             7.797          3898.500
        16   01 Jun 2027 04:50:58.151   01 Jun 2027 04:51:27.631            29.480         14740.000
        17   01 Jun 2027 06:22:27.659   01 Jun 2027 06:22:32.041             4.382          2191.000
        18   01 Jun 2027 06:22:38.684   01 Jun 2027 06:22:47.328             8.644          4322.000
        19   01 Jun 2027 06:23:41.126   01 Jun 2027 06:23:45.819             4.693          2346.500
        20   01 Jun 2027 06:24:26.627   01 Jun 2027 06:24:29.380             2.753          1376.500
        21   01 Jun 2027 06:24:53.446   01 Jun 2027 06:25:02.997             9.551          4775.500
        22   01 Jun 2027 06:25:51.298   01 Jun 2027 06:25:57.706             6.408          3204.000
        23   01 Jun 2027 06:26:33.046   01 Jun 2027 06:26:34.297             1.251           625.500
        24   01 Jun 2027 06:27:05.371   01 Jun 2027 06:27:06.892             1.521           760.500
        25   01 Jun 2027 07:57:37.871   01 Jun 2027 07:57:38.438             0.567           283.500
        26   01 Jun 2027 07:57:52.237   01 Jun 2027 07:57:57.480             5.243          2621.500
        27   01 Jun 2027 07:59:12.904   01 Jun 2027 07:59:19.288             6.384          3192.000
        28   01 Jun 2027 08:00:19.853   01 Jun 2027 08:00:31.320            11.467          5733.500
        29   01 Jun 2027 08:01:24.327   01 Jun 2027 08:01:50.563            26.236         13118.000
        30   02 Jun 2027 03:20:56.823   02 Jun 2027 03:21:04.245             7.422          3711.000
        31   02 Jun 2027 03:21:35.773   02 Jun 2027 03:21:51.940            16.167          8083.500
        32   02 Jun 2027 03:23:16.097   02 Jun 2027 03:23:40.997            24.900         12450.000
        33   02 Jun 2027 03:25:34.766   02 Jun 2027 03:25:35.505             0.739           369.500
        34   02 Jun 2027 03:25:44.735   02 Jun 2027 03:25:46.513             1.778           889.000
        35   02 Jun 2027 03:26:11.173   02 Jun 2027 03:26:11.324             0.151            75.500
        36   02 Jun 2027 03:26:12.533   02 Jun 2027 03:26:13.077             0.544           272.000
        37   02 Jun 2027 03:26:16.900   02 Jun 2027 03:26:28.320            11.420          5710.000
        38   02 Jun 2027 04:57:58.741   02 Jun 2027 04:57:59.003             0.262           131.000
        39   02 Jun 2027 04:58:08.988   02 Jun 2027 04:58:18.643             9.655          4827.500
        40   02 Jun 2027 04:58:38.489   02 Jun 2027 04:58:49.921            11.432          5716.000
        41   02 Jun 2027 05:00:33.708   02 Jun 2027 05:00:40.162             6.454          3227.000
        42   02 Jun 2027 05:01:14.051   02 Jun 2027 05:01:15.792             1.741           870.500
        43   02 Jun 2027 05:01:38.094   02 Jun 2027 05:01:42.651             4.557          2278.500
        44   02 Jun 2027 05:02:07.440   02 Jun 2027 05:02:12.769             5.329          2664.500
        45   02 Jun 2027 05:02:57.379   02 Jun 2027 05:03:02.109             4.730          2365.000
        46   02 Jun 2027 06:34:42.465   02 Jun 2027 06:34:47.408             4.943          2471.500
        47   02 Jun 2027 06:35:10.846   02 Jun 2027 06:35:12.850             2.004          1002.000
        48   02 Jun 2027 06:35:35.695   02 Jun 2027 06:35:36.822             1.127           563.500
        49   02 Jun 2027 06:35:49.492   02 Jun 2027 06:35:52.831             3.339          1669.500
        50   02 Jun 2027 06:36:17.296   02 Jun 2027 06:36:18.999             1.703           851.500
        51   02 Jun 2027 06:36:27.398   02 Jun 2027 06:36:28.596             1.198           599.000
        52   02 Jun 2027 06:36:53.854   02 Jun 2027 06:36:55.536             1.682           841.000
        53   02 Jun 2027 06:37:23.280   02 Jun 2027 06:37:39.204            15.924          7962.000
        54   02 Jun 2027 06:38:50.989   02 Jun 2027 06:38:54.045             3.056          1528.000
        55   02 Jun 2027 08:12:51.545   02 Jun 2027 08:12:57.180             5.635          2817.500
        56   02 Jun 2027 08:13:59.861   02 Jun 2027 08:14:00.347             0.486           243.000
        57   03 Jun 2027 03:33:20.380   03 Jun 2027 03:33:30.932            10.552          5276.000
        58   03 Jun 2027 03:34:14.680   03 Jun 2027 03:34:19.553             4.873          2436.500
        59   03 Jun 2027 03:34:41.050   03 Jun 2027 03:34:52.557            11.507          5753.500
        60   03 Jun 2027 03:36:16.219   03 Jun 2027 03:36:18.563             2.344          1172.000
        61   03 Jun 2027 03:37:32.663   03 Jun 2027 03:37:33.754             1.091           545.500
        62   03 Jun 2027 03:37:39.260   03 Jun 2027 03:37:41.506             2.246          1123.000
        63   03 Jun 2027 03:38:10.544   03 Jun 2027 03:38:12.906             2.362          1181.000
        64   03 Jun 2027 03:38:46.581   03 Jun 2027 03:38:47.124             0.543           271.500
        65   03 Jun 2027 03:38:49.915   03 Jun 2027 03:39:10.527            20.612         10306.000
        66   03 Jun 2027 05:10:50.595   03 Jun 2027 05:10:59.378             8.783          4391.500
        67   03 Jun 2027 05:11:39.126   03 Jun 2027 05:11:41.275             2.149          1074.500
        68   03 Jun 2027 05:12:05.863   03 Jun 2027 05:12:11.676             5.813          2906.500
        69   03 Jun 2027 05:13:03.105   03 Jun 2027 05:13:13.377            10.272          5136.000
        70   03 Jun 2027 05:14:00.428   03 Jun 2027 05:14:12.112            11.684          5842.000
        71   03 Jun 2027 05:14:33.893   03 Jun 2027 05:14:47.246            13.353          6676.500
        72   03 Jun 2027 06:46:55.220   03 Jun 2027 06:46:56.126             0.906           453.000
        73   03 Jun 2027 06:47:03.784   03 Jun 2027 06:47:04.187             0.403           201.500
        74   03 Jun 2027 06:47:08.454   03 Jun 2027 06:47:13.075             4.621          2310.500
        75   03 Jun 2027 06:47:22.669   03 Jun 2027 06:47:23.161             0.492           246.000
        76   03 Jun 2027 06:47:55.175   03 Jun 2027 06:47:58.152             2.977          1488.500
        77   03 Jun 2027 06:48:29.783   03 Jun 2027 06:48:30.442             0.659           329.500
        78   03 Jun 2027 06:48:54.523   03 Jun 2027 06:49:04.802            10.279          5139.500
        79   03 Jun 2027 06:49:59.656   03 Jun 2027 06:50:01.739             2.083          1041.500
        80   03 Jun 2027 06:50:59.548   03 Jun 2027 06:51:02.454             2.906          1453.000
        81   04 Jun 2027 03:45:34.725   04 Jun 2027 03:45:37.822             3.097          1548.500
        82   04 Jun 2027 03:45:50.193   04 Jun 2027 03:45:55.359             5.166          2583.000
        83   04 Jun 2027 03:46:25.145   04 Jun 2027 03:46:36.535            11.390          5695.000
        84   04 Jun 2027 03:47:37.171   04 Jun 2027 03:47:42.512             5.341          2670.500
        85   04 Jun 2027 03:48:06.534   04 Jun 2027 03:48:14.316             7.782          3891.000
        86   04 Jun 2027 03:48:47.625   04 Jun 2027 03:48:59.753            12.128          6064.000
        87   04 Jun 2027 03:49:58.207   04 Jun 2027 03:50:11.106            12.899          6449.500
        88   04 Jun 2027 03:50:33.289   04 Jun 2027 03:50:37.892             4.603          2301.500
        89   04 Jun 2027 05:22:52.683   04 Jun 2027 05:22:55.281             2.598          1299.000
        90   04 Jun 2027 05:23:48.663   04 Jun 2027 05:24:02.653            13.990          6995.000
        91   04 Jun 2027 05:25:04.975   04 Jun 2027 05:25:11.483             6.508          3254.000
        92   04 Jun 2027 05:25:44.732   04 Jun 2027 05:25:47.134             2.402          1201.000
        93   04 Jun 2027 05:26:07.174   04 Jun 2027 05:26:09.040             1.866           933.000
        94   04 Jun 2027 05:26:46.339   04 Jun 2027 05:26:57.271            10.932          5466.000
        95   04 Jun 2027 06:59:04.653   04 Jun 2027 06:59:10.402             5.749          2874.500
        96   04 Jun 2027 06:59:54.598   04 Jun 2027 07:00:01.848             7.250          3625.000
        97   04 Jun 2027 07:00:32.137   04 Jun 2027 07:00:41.750             9.613          4806.500
        98   04 Jun 2027 07:01:27.993   04 Jun 2027 07:01:29.380             1.387           693.500
        99   04 Jun 2027 07:01:50.862   04 Jun 2027 07:01:54.002             3.140          1570.000
       100   04 Jun 2027 07:02:38.644   04 Jun 2027 07:02:40.062             1.418           709.000
       101   04 Jun 2027 07:03:32.729   04 Jun 2027 07:03:48.786            16.057          8028.500
       102   05 Jun 2027 03:57:11.359   05 Jun 2027 03:57:25.127            13.768          6884.000
       103   05 Jun 2027 03:58:22.696   05 Jun 2027 03:58:26.167             3.471          1735.500
       104   05 Jun 2027 03:59:03.515   05 Jun 2027 03:59:03.808             0.293           146.500
       105   05 Jun 2027 03:59:07.172   05 Jun 2027 03:59:18.277            11.105          5552.500
       106   05 Jun 2027 04:00:27.259   05 Jun 2027 04:00:28.680             1.421           710.500
       107   05 Jun 2027 04:00:39.596   05 Jun 2027 04:00:45.507             5.911          2955.500
       108   05 Jun 2027 04:01:28.248   05 Jun 2027 04:01:28.483             0.235           117.500
       109   05 Jun 2027 04:01:42.156   05 Jun 2027 04:01:51.896             9.740          4870.000
       110   05 Jun 2027 04:02:37.992   05 Jun 2027 04:02:47.727             9.735          4867.500
       111   05 Jun 2027 04:03:27.535   05 Jun 2027 04:03:33.261             5.726          2863.000
       112   05 Jun 2027 05:35:27.849   05 Jun 2027 05:35:41.677            13.828          6914.000
       113   05 Jun 2027 05:36:39.677   05 Jun 2027 05:36:42.906             3.229          1614.500
       114   05 Jun 2027 05:37:18.386   05 Jun 2027 05:37:19.802             1.416           708.000
       115   05 Jun 2027 05:37:50.183   05 Jun 2027 05:37:52.877             2.694          1347.000
       116   05 Jun 2027 05:38:16.638   05 Jun 2027 05:38:20.793             4.155          2077.500
       117   05 Jun 2027 05:38:59.641   05 Jun 2027 05:39:00.172             0.531           265.500
       118   05 Jun 2027 07:10:53.415   05 Jun 2027 07:10:57.536             4.121          2060.500
       119   05 Jun 2027 07:11:44.133   05 Jun 2027 07:11:50.961             6.828          3414.000
       120   05 Jun 2027 07:12:42.302   05 Jun 2027 07:12:56.525            14.223          7111.500
       121   05 Jun 2027 07:14:09.150   05 Jun 2027 07:14:14.246             5.096          2548.000
       122   05 Jun 2027 07:14:42.608   05 Jun 2027 07:14:54.649            12.041          6020.500
       123   05 Jun 2027 07:15:32.728   05 Jun 2027 07:15:46.469            13.741          6870.500
       124   06 Jun 2027 04:09:30.827   06 Jun 2027 04:09:34.227             3.400          1700.000
       125   06 Jun 2027 04:09:53.336   06 Jun 2027 04:09:58.234             4.898          2449.000
       126   06 Jun 2027 04:10:16.882   06 Jun 2027 04:10:54.212            37.330         18665.000
       127   06 Jun 2027 04:15:12.329   06 Jun 2027 04:15:21.798             9.469          4734.500
       128   06 Jun 2027 04:15:51.248   06 Jun 2027 04:15:52.836             1.588           794.000
       129   06 Jun 2027 05:47:28.695   06 Jun 2027 05:47:32.907             4.212          2106.000
       130   06 Jun 2027 05:48:13.941   06 Jun 2027 05:48:26.877            12.936          6468.000
       131   06 Jun 2027 05:49:23.791   06 Jun 2027 05:49:29.381             5.590          2795.000
       132   06 Jun 2027 05:49:34.049   06 Jun 2027 05:49:34.368             0.319           159.500
       133   06 Jun 2027 05:49:46.819   06 Jun 2027 05:49:49.331             2.512          1256.000
       134   06 Jun 2027 05:50:10.931   06 Jun 2027 05:50:20.686             9.755          4877.500
       135   06 Jun 2027 05:50:44.163   06 Jun 2027 05:50:50.224             6.061          3030.500
       136   06 Jun 2027 07:20:34.790   06 Jun 2027 07:21:05.696            30.906         15453.000
       137   06 Jun 2027 07:23:35.997   06 Jun 2027 07:23:45.276             9.279          4639.500
       138   06 Jun 2027 07:24:41.200   06 Jun 2027 07:24:44.124             2.924          1462.000
       139   06 Jun 2027 07:25:03.163   06 Jun 2027 07:25:12.329             9.166          4583.000
       140   06 Jun 2027 07:25:53.492   06 Jun 2027 07:26:03.400             9.908          4954.000
       141   06 Jun 2027 07:27:35.191   06 Jun 2027 07:27:39.130             3.939          1969.500
       142   06 Jun 2027 07:27:47.091   06 Jun 2027 07:27:47.091             0.000             0.000
       143   06 Jun 2027 07:28:20.978   06 Jun 2027 07:28:25.420             4.442          2221.000
       144   07 Jun 2027 04:21:31.020   07 Jun 2027 04:21:32.231             1.211           605.500
       145   07 Jun 2027 04:21:33.751   07 Jun 2027 04:21:50.437            16.686          8343.000
       146   07 Jun 2027 04:22:22.347   07 Jun 2027 04:22:25.367             3.020          1510.000
       147   07 Jun 2027 04:23:53.210   07 Jun 2027 04:23:59.280             6.070          3035.000
       148   07 Jun 2027 04:24:45.123   07 Jun 2027 04:24:47.069             1.946           973.000
       149   07 Jun 2027 04:25:28.052   07 Jun 2027 04:25:39.287            11.235          5617.500
       150   07 Jun 2027 04:26:26.223   07 Jun 2027 04:26:35.114             8.891          4445.500
       151   07 Jun 2027 04:27:42.759   07 Jun 2027 04:27:47.088             4.329          2164.500
       152   07 Jun 2027 04:27:59.697   07 Jun 2027 04:28:01.765             2.068          1034.000
       153   07 Jun 2027 05:59:29.200   07 Jun 2027 05:59:39.620            10.420          5210.000
       154   07 Jun 2027 06:00:25.909   07 Jun 2027 06:00:31.936             6.027          3013.500
       155   07 Jun 2027 06:01:06.331   07 Jun 2027 06:01:08.521             2.190          1095.000
       156   07 Jun 2027 06:01:30.201   07 Jun 2027 06:01:38.744             8.543          4271.500
       157   07 Jun 2027 06:02:31.071   07 Jun 2027 06:02:35.287             4.216          2108.000
       158   07 Jun 2027 06:03:12.161   07 Jun 2027 06:03:17.792             5.631          2815.500
       159   07 Jun 2027 07:33:06.727   07 Jun 2027 07:33:12.772             6.045          3022.500
       160   07 Jun 2027 07:34:31.605   07 Jun 2027 07:34:31.952             0.347           173.500
       161   07 Jun 2027 07:35:25.245   07 Jun 2027 07:36:03.758            38.513         19256.500
       162   07 Jun 2027 07:38:26.236   07 Jun 2027 07:38:26.236             0.000             0.000
       163   07 Jun 2027 07:39:09.797   07 Jun 2027 07:39:16.422             6.625          3312.500
       164   07 Jun 2027 07:39:42.944   07 Jun 2027 07:39:47.531             4.587          2293.500
       165   07 Jun 2027 07:40:10.712   07 Jun 2027 07:40:21.297            10.585          5292.500
       166   08 Jun 2027 03:00:00.000   08 Jun 2027 03:00:09.757             9.757          4878.500
       167   08 Jun 2027 03:00:53.628   08 Jun 2027 03:01:04.530            10.902          5451.000
       168   08 Jun 2027 03:02:11.253   08 Jun 2027 03:02:16.436             5.183          2591.500
       169   08 Jun 2027 03:02:33.561   08 Jun 2027 03:02:45.697            12.136          6068.000
       170   08 Jun 2027 03:03:46.210   08 Jun 2027 03:03:51.746             5.536          2768.000
       171   08 Jun 2027 04:33:22.755   08 Jun 2027 04:33:46.368            23.613         11806.500
       172   08 Jun 2027 04:35:23.503   08 Jun 2027 04:35:32.888             9.385          4692.500
       173   08 Jun 2027 04:36:16.788   08 Jun 2027 04:36:19.837             3.049          1524.500
       174   08 Jun 2027 04:36:44.368   08 Jun 2027 04:36:46.981             2.613          1306.500
       175   08 Jun 2027 04:37:13.042   08 Jun 2027 04:37:18.819             5.777          2888.500
       176   08 Jun 2027 04:37:52.571   08 Jun 2027 04:37:54.631             2.060          1030.000
       177   08 Jun 2027 04:39:02.440   08 Jun 2027 04:39:02.909             0.469           234.500
       178   08 Jun 2027 04:39:21.941   08 Jun 2027 04:39:22.419             0.478           239.000
       179   08 Jun 2027 04:39:27.499   08 Jun 2027 04:39:36.094             8.595          4297.500
       180   08 Jun 2027 06:11:32.665   08 Jun 2027 06:11:34.341             1.676           838.000
       181   08 Jun 2027 06:11:55.586   08 Jun 2027 06:12:03.063             7.477          3738.500
       182   08 Jun 2027 06:12:48.302   08 Jun 2027 06:12:49.806             1.504           752.000
       183   08 Jun 2027 06:13:12.317   08 Jun 2027 06:13:26.088            13.771          6885.500
       184   08 Jun 2027 06:14:25.737   08 Jun 2027 06:14:29.144             3.407          1703.500
       185   08 Jun 2027 06:14:59.380   08 Jun 2027 06:15:00.714             1.334           667.000
       186   08 Jun 2027 06:15:25.659   08 Jun 2027 06:15:27.477             1.818           909.000
       187   08 Jun 2027 07:47:10.763   08 Jun 2027 07:47:14.007             3.244          1622.000
       188   08 Jun 2027 07:48:14.844   08 Jun 2027 07:48:34.470            19.626          9813.000
       189   08 Jun 2027 07:49:26.279   08 Jun 2027 07:49:40.037            13.758          6879.000
       190   08 Jun 2027 07:51:03.641   08 Jun 2027 07:51:19.841            16.200          8100.000
       191   09 Jun 2027 03:08:45.423   09 Jun 2027 03:08:58.737            13.314          6657.000
       192   09 Jun 2027 03:10:32.891   09 Jun 2027 03:10:33.351             0.460           230.000
       193   09 Jun 2027 03:10:38.253   09 Jun 2027 03:10:40.017             1.764           882.000
       194   09 Jun 2027 03:10:47.167   09 Jun 2027 03:10:49.019             1.852           926.000
       195   09 Jun 2027 03:10:59.534   09 Jun 2027 03:11:08.644             9.110          4555.000
       196   09 Jun 2027 03:11:49.101   09 Jun 2027 03:12:05.294            16.193          8096.500
       197   09 Jun 2027 03:13:05.642   09 Jun 2027 03:13:05.642             0.000             0.000
       198   09 Jun 2027 03:13:19.922   09 Jun 2027 03:13:28.921             8.999          4499.500
       199   09 Jun 2027 03:13:50.177   09 Jun 2027 03:13:51.873             1.696           848.000
       200   09 Jun 2027 03:14:25.741   09 Jun 2027 03:14:25.808             0.067            33.500
       201   09 Jun 2027 03:15:12.972   09 Jun 2027 03:15:24.300            11.328          5664.000
       202   09 Jun 2027 04:45:49.889   09 Jun 2027 04:46:45.376            55.487         27743.500
       203   09 Jun 2027 04:50:02.836   09 Jun 2027 04:50:06.330             3.494          1747.000
       204   09 Jun 2027 04:50:17.487   09 Jun 2027 04:50:20.325             2.838          1419.000
       205   09 Jun 2027 04:50:59.022   09 Jun 2027 04:51:00.778             1.756           878.000
       206   09 Jun 2027 04:51:32.935   09 Jun 2027 04:51:43.791            10.856          5428.000
       207   09 Jun 2027 06:22:42.468   09 Jun 2027 06:22:48.205             5.737          2868.500
       208   09 Jun 2027 06:22:52.867   09 Jun 2027 06:23:02.569             9.702          4851.000
       209   09 Jun 2027 06:24:01.175   09 Jun 2027 06:24:02.957             1.782           891.000
       210   09 Jun 2027 06:24:13.428   09 Jun 2027 06:24:32.648            19.220          9610.000
       211   09 Jun 2027 06:25:54.858   09 Jun 2027 06:25:58.778             3.920          1960.000
       212   09 Jun 2027 06:26:25.489   09 Jun 2027 06:26:26.389             0.900           450.000
       213   09 Jun 2027 06:26:31.395   09 Jun 2027 06:26:48.712            17.317          8658.500
       214   09 Jun 2027 07:57:53.628   09 Jun 2027 07:58:07.314            13.686          6843.000
       215   09 Jun 2027 07:59:27.708   09 Jun 2027 07:59:35.011             7.303          3651.500
       216   09 Jun 2027 08:00:37.311   09 Jun 2027 08:00:47.498            10.187          5093.500
       217   09 Jun 2027 08:01:29.163   09 Jun 2027 08:01:38.925             9.762          4881.000
       218   10 Jun 2027 03:21:11.509   10 Jun 2027 03:21:20.431             8.922          4461.000
       219   10 Jun 2027 03:21:54.323   10 Jun 2027 03:21:59.168             4.845          2422.500
       220   10 Jun 2027 03:22:23.314   10 Jun 2027 03:22:34.899            11.585          5792.500
       221   10 Jun 2027 03:23:22.166   10 Jun 2027 03:23:29.921             7.755          3877.500
       222   10 Jun 2027 03:24:24.787   10 Jun 2027 03:24:28.035             3.248          1624.000
       223   10 Jun 2027 03:24:51.830   10 Jun 2027 03:25:10.163            18.333          9166.500
       224   10 Jun 2027 03:25:59.914   10 Jun 2027 03:26:00.947             1.033           516.500
       225   10 Jun 2027 03:26:30.624   10 Jun 2027 03:26:33.593             2.969          1484.500
       226   10 Jun 2027 03:27:11.819   10 Jun 2027 03:27:16.493             4.674          2337.000
       227   10 Jun 2027 04:58:13.420   10 Jun 2027 04:58:14.866             1.446           723.000
       228   10 Jun 2027 04:58:51.743   10 Jun 2027 04:59:04.408            12.665          6332.500
       229   10 Jun 2027 04:59:56.966   10 Jun 2027 05:00:00.599             3.633          1816.500
       230   10 Jun 2027 05:00:37.295   10 Jun 2027 05:00:39.432             2.137          1068.500
       231   10 Jun 2027 05:01:31.062   10 Jun 2027 05:01:42.414            11.352          5676.000
       232   10 Jun 2027 05:02:50.267   10 Jun 2027 05:02:54.452             4.185          2092.500
       233   10 Jun 2027 05:03:28.620   10 Jun 2027 05:03:36.803             8.183          4091.500
       234   10 Jun 2027 06:34:57.661   10 Jun 2027 06:35:03.708             6.047          3023.500
       235   10 Jun 2027 06:35:29.170   10 Jun 2027 06:35:34.689             5.519          2759.500
       236   10 Jun 2027 06:35:46.924   10 Jun 2027 06:35:50.750             3.826          1913.000
       237   10 Jun 2027 06:36:31.942   10 Jun 2027 06:36:34.516             2.574          1287.000
       238   10 Jun 2027 06:36:42.124   10 Jun 2027 06:36:42.292             0.168            84.000
       239   10 Jun 2027 06:37:06.113   10 Jun 2027 06:37:08.844             2.731          1365.500
       240   10 Jun 2027 06:37:21.353   10 Jun 2027 06:37:22.579             1.226           613.000
       241   10 Jun 2027 06:38:03.696   10 Jun 2027 06:38:05.019             1.323           661.500
       242   10 Jun 2027 06:38:11.011   10 Jun 2027 06:38:11.384             0.373           186.500
       243   10 Jun 2027 06:38:25.165   10 Jun 2027 06:38:26.037             0.872           436.000
       244   10 Jun 2027 06:38:33.661   10 Jun 2027 06:38:38.299             4.638          2319.000
       245   10 Jun 2027 06:39:08.814   10 Jun 2027 06:39:08.921             0.107            53.500
       246   10 Jun 2027 06:39:09.198   10 Jun 2027 06:39:09.198             0.000             0.000
       247   10 Jun 2027 08:13:06.936   10 Jun 2027 08:13:12.721             5.785          2892.500
       248   10 Jun 2027 08:14:14.568   10 Jun 2027 08:14:15.108             0.540           270.000
       249   11 Jun 2027 03:33:35.740   11 Jun 2027 03:33:36.836             1.096           548.000
       250   11 Jun 2027 03:33:59.507   11 Jun 2027 03:34:09.465             9.958          4979.000
       251   11 Jun 2027 03:34:57.571   11 Jun 2027 03:34:57.750             0.179            89.500
       252   11 Jun 2027 03:35:08.628   11 Jun 2027 03:35:13.134             4.506          2253.000
       253   11 Jun 2027 03:35:16.861   11 Jun 2027 03:35:30.400            13.539          6769.500
       254   11 Jun 2027 03:36:43.533   11 Jun 2027 03:36:54.726            11.193          5596.500
       255   11 Jun 2027 03:37:42.974   11 Jun 2027 03:37:48.259             5.285          2642.500
       256   11 Jun 2027 03:38:20.079   11 Jun 2027 03:38:28.135             8.056          4028.000
       257   11 Jun 2027 03:39:03.960   11 Jun 2027 03:39:04.625             0.665           332.500
       258   11 Jun 2027 03:39:28.634   11 Jun 2027 03:39:30.525             1.891           945.500
       259   11 Jun 2027 03:39:49.924   11 Jun 2027 03:39:50.590             0.666           333.000
       260   11 Jun 2027 03:39:53.167   11 Jun 2027 03:39:57.907             4.740          2370.000
       261   11 Jun 2027 05:11:06.420   11 Jun 2027 05:11:14.137             7.717          3858.500
       262   11 Jun 2027 05:11:53.618   11 Jun 2027 05:12:00.818             7.200          3600.000
       263   11 Jun 2027 05:13:02.653   11 Jun 2027 05:13:03.261             0.608           304.000
       264   11 Jun 2027 05:13:07.048   11 Jun 2027 05:13:14.812             7.764          3882.000
       265   11 Jun 2027 05:14:01.637   11 Jun 2027 05:14:02.324             0.687           343.500
       266   11 Jun 2027 05:14:14.552   11 Jun 2027 05:14:14.673             0.121            60.500
       267   11 Jun 2027 05:14:34.061   11 Jun 2027 05:14:37.596             3.535          1767.500
       268   11 Jun 2027 06:47:13.690   11 Jun 2027 06:47:18.442             4.752          2376.000
       269   11 Jun 2027 06:47:38.208   11 Jun 2027 06:47:40.628             2.420          1210.000
       270   11 Jun 2027 06:48:24.988   11 Jun 2027 06:48:29.636             4.648          2324.000
       271   11 Jun 2027 06:48:42.596   11 Jun 2027 06:48:43.265             0.669           334.500
       272   11 Jun 2027 06:49:30.941   11 Jun 2027 06:49:32.010             1.069           534.500
       273   11 Jun 2027 06:50:06.477   11 Jun 2027 06:50:09.527             3.050          1525.000
       274   11 Jun 2027 06:50:36.471   11 Jun 2027 06:50:38.250             1.779           889.500
       275   11 Jun 2027 06:50:49.528   11 Jun 2027 06:50:56.037             6.509          3254.500
       276   12 Jun 2027 03:45:49.630   12 Jun 2027 03:46:00.113            10.483          5241.500
       277   12 Jun 2027 03:46:52.407   12 Jun 2027 03:47:03.269            10.862          5431.000
       278   12 Jun 2027 03:47:58.005   12 Jun 2027 03:48:03.947             5.942          2971.000
       279   12 Jun 2027 03:48:36.852   12 Jun 2027 03:48:49.801            12.949          6474.500
       280   12 Jun 2027 03:49:44.868   12 Jun 2027 03:49:56.440            11.572          5786.000
       281   12 Jun 2027 03:50:49.330   12 Jun 2027 03:50:52.656             3.326          1663.000
       282   12 Jun 2027 03:51:17.862   12 Jun 2027 03:51:24.264             6.402          3201.000
       283   12 Jun 2027 05:23:07.257   12 Jun 2027 05:23:11.342             4.085          2042.500
       284   12 Jun 2027 05:24:05.164   12 Jun 2027 05:24:20.212            15.048          7524.000
       285   12 Jun 2027 05:25:31.275   12 Jun 2027 05:25:33.087             1.812           906.000
       286   12 Jun 2027 05:26:01.033   12 Jun 2027 05:26:02.406             1.373           686.500
       287   12 Jun 2027 05:26:09.185   12 Jun 2027 05:26:13.296             4.111          2055.500
       288   12 Jun 2027 05:26:35.826   12 Jun 2027 05:26:39.174             3.348          1674.000
       289   12 Jun 2027 05:27:24.244   12 Jun 2027 05:27:40.089            15.845          7922.500
       290   12 Jun 2027 06:59:19.329   12 Jun 2027 06:59:25.443             6.114          3057.000
       291   12 Jun 2027 07:00:09.152   12 Jun 2027 07:00:09.262             0.110            55.000
       292   12 Jun 2027 07:00:19.783   12 Jun 2027 07:00:23.066             3.283          1641.500
       293   12 Jun 2027 07:00:45.753   12 Jun 2027 07:00:49.702             3.949          1974.500
       294   12 Jun 2027 07:01:10.421   12 Jun 2027 07:01:18.086             7.665          3832.500
       295   12 Jun 2027 07:01:46.214   12 Jun 2027 07:01:46.214             0.000             0.000
       296   12 Jun 2027 07:02:09.200   12 Jun 2027 07:02:11.752             2.552          1276.000
       297   12 Jun 2027 07:02:25.802   12 Jun 2027 07:02:38.151            12.349          6174.500
       298   12 Jun 2027 07:03:45.746   12 Jun 2027 07:03:47.331             1.585           792.500
       299   13 Jun 2027 03:57:26.391   13 Jun 2027 03:57:39.497            13.106          6553.000
       300   13 Jun 2027 03:58:37.276   13 Jun 2027 03:58:43.668             6.392          3196.000
       301   13 Jun 2027 03:59:19.857   13 Jun 2027 03:59:22.027             2.170          1085.000
       302   13 Jun 2027 03:59:37.157   13 Jun 2027 03:59:46.782             9.625          4812.500
       303   13 Jun 2027 04:00:04.657   13 Jun 2027 04:00:09.442             4.785          2392.500
       304   13 Jun 2027 04:00:56.732   13 Jun 2027 04:00:57.120             0.388           194.000
       305   13 Jun 2027 04:01:07.501   13 Jun 2027 04:01:11.599             4.098          2049.000
       306   13 Jun 2027 04:01:16.252   13 Jun 2027 04:01:20.531             4.279          2139.500
       307   13 Jun 2027 04:02:07.721   13 Jun 2027 04:02:38.934            31.213         15606.500
       308   13 Jun 2027 05:35:43.503   13 Jun 2027 05:35:56.301            12.798          6399.000
       309   13 Jun 2027 05:36:55.595   13 Jun 2027 05:36:57.235             1.640           820.000
       310   13 Jun 2027 05:37:33.395   13 Jun 2027 05:37:36.918             3.523          1761.500
       311   13 Jun 2027 05:38:07.273   13 Jun 2027 05:38:08.243             0.970           485.000
       312   13 Jun 2027 05:38:32.355   13 Jun 2027 05:38:40.981             8.626          4313.000
       313   13 Jun 2027 05:39:14.145   13 Jun 2027 05:39:18.903             4.758          2379.000
       314   13 Jun 2027 07:11:09.882   13 Jun 2027 07:11:12.576             2.694          1347.000
       315   13 Jun 2027 07:11:58.809   13 Jun 2027 07:12:05.513             6.704          3352.000
       316   13 Jun 2027 07:12:59.250   13 Jun 2027 07:13:11.293            12.043          6021.500
       317   13 Jun 2027 07:14:07.256   13 Jun 2027 07:14:07.611             0.355           177.500
       318   13 Jun 2027 07:14:25.670   13 Jun 2027 07:14:29.200             3.530          1765.000
       319   13 Jun 2027 07:14:59.308   13 Jun 2027 07:15:09.647            10.339          5169.500
       320   13 Jun 2027 07:15:47.050   13 Jun 2027 07:16:01.852            14.802          7401.000
