uniorb/output/strategy_2/Camera/Camera_KinoSat_111206.txt

KinoSat_111206
-------------------------
    Access    *     Start Time (UTCG)     *     Stop Time (UTCG)  *   Duration (s) *   Data (Mbytes)
         1   01 Jun 2027 03:22:14.340   01 Jun 2027 03:25:47.702           213.362        106681.000
         2   01 Jun 2027 03:25:57.846   01 Jun 2027 03:25:57.846             0.000             0.000
         3   01 Jun 2027 04:45:36.273   01 Jun 2027 04:46:11.351            35.078         17539.000
         4   01 Jun 2027 04:46:38.281   01 Jun 2027 04:46:38.281             0.000             0.000
         5   01 Jun 2027 04:46:41.539   01 Jun 2027 04:46:59.583            18.044          9022.000
         6   01 Jun 2027 06:21:58.312   01 Jun 2027 06:23:44.522           106.210         53105.000
         7   01 Jun 2027 06:24:10.521   01 Jun 2027 06:24:35.817            25.296         12648.000
         8   01 Jun 2027 06:24:57.590   01 Jun 2027 06:25:32.150            34.560         17280.000
         9   01 Jun 2027 07:56:02.314   01 Jun 2027 07:58:51.927           169.613         84806.500
        10   01 Jun 2027 08:03:30.888   01 Jun 2027 08:03:43.773            12.885          6442.500
        11   01 Jun 2027 08:03:54.391   01 Jun 2027 08:04:01.015             6.624          3312.000
        12   01 Jun 2027 09:33:06.873   01 Jun 2027 09:35:25.410           138.537         69268.500
        13   01 Jun 2027 09:35:55.767   01 Jun 2027 09:35:59.853             4.086          2043.000
        14   01 Jun 2027 09:39:09.905   01 Jun 2027 09:39:15.559             5.654          2827.000
        15   01 Jun 2027 09:39:42.582   01 Jun 2027 09:39:42.582             0.000             0.000
        16   01 Jun 2027 11:10:02.914   01 Jun 2027 11:11:54.350           111.436         55718.000
        17   01 Jun 2027 11:14:55.497   01 Jun 2027 11:15:02.132             6.635          3317.500
        18   02 Jun 2027 03:34:42.555   02 Jun 2027 03:37:12.251           149.696         74848.000
        19   02 Jun 2027 03:37:36.983   02 Jun 2027 03:38:31.994            55.011         27505.500
        20   02 Jun 2027 04:57:39.827   02 Jun 2027 04:57:50.572            10.745          5372.500
        21   02 Jun 2027 04:57:56.271   02 Jun 2027 04:58:09.149            12.878          6439.000
        22   02 Jun 2027 04:58:44.129   02 Jun 2027 04:58:44.129             0.000             0.000
        23   02 Jun 2027 04:58:51.237   02 Jun 2027 04:59:00.355             9.118          4559.000
        24   02 Jun 2027 06:34:08.957   02 Jun 2027 06:36:48.170           159.213         79606.500
        25   02 Jun 2027 08:09:13.899   02 Jun 2027 08:11:33.343           139.444         69722.000
        26   02 Jun 2027 08:13:23.630   02 Jun 2027 08:13:38.542            14.912          6146.999
        27   02 Jun 2027 08:13:47.622   02 Jun 2027 08:13:51.496             3.874           206.156
        28   02 Jun 2027 08:14:10.053   02 Jun 2027 08:14:10.992             0.939           456.625
        29   02 Jun 2027 08:14:30.730   02 Jun 2027 08:14:32.567             1.837           383.125
        30   02 Jun 2027 08:15:16.545   02 Jun 2027 08:15:16.545             0.000             0.000
        31   02 Jun 2027 08:15:52.761   02 Jun 2027 08:15:57.740             4.979          2393.437
        32   02 Jun 2027 09:45:35.835   02 Jun 2027 09:45:51.977            16.142          7932.937
        33   02 Jun 2027 09:46:23.456   02 Jun 2027 09:46:25.193             1.737           257.844
        34   02 Jun 2027 09:47:14.615   02 Jun 2027 09:47:19.037             4.422          1099.375
        35   02 Jun 2027 09:47:50.451   02 Jun 2027 09:47:52.926             2.475           905.156
        36   02 Jun 2027 09:48:18.950   02 Jun 2027 09:48:21.627             2.677           790.188
        37   02 Jun 2027 09:48:26.073   02 Jun 2027 09:48:27.348             1.275           127.250
        38   02 Jun 2027 09:48:47.533   02 Jun 2027 09:48:51.567             4.034           140.781
        39   02 Jun 2027 09:49:10.320   02 Jun 2027 09:49:12.147             1.827           586.031
        40   02 Jun 2027 09:49:37.690   02 Jun 2027 09:49:38.737             1.047           523.500
        41   02 Jun 2027 09:50:06.807   02 Jun 2027 09:50:09.731             2.924          1151.906
        42   02 Jun 2027 09:50:56.592   02 Jun 2027 09:50:59.736             3.144          1400.344
        43   02 Jun 2027 09:51:13.210   02 Jun 2027 09:51:14.124             0.914           358.437
        44   02 Jun 2027 09:51:23.568   02 Jun 2027 09:51:24.924             1.356           145.250
        45   02 Jun 2027 11:23:06.150   02 Jun 2027 11:23:19.593            13.443          6582.719
        46   02 Jun 2027 11:23:34.361   02 Jun 2027 11:23:39.399             5.038           133.656
        47   02 Jun 2027 11:24:33.281   02 Jun 2027 11:24:36.876             3.595          1432.938
        48   02 Jun 2027 11:26:03.406   02 Jun 2027 11:26:11.165             7.759          2704.062
        49   02 Jun 2027 11:26:26.562   02 Jun 2027 11:26:28.332             1.770           395.844
        50   02 Jun 2027 11:26:51.684   02 Jun 2027 11:27:01.515             9.831           729.750
        51   02 Jun 2027 11:27:22.847   02 Jun 2027 11:27:26.029             3.182           666.625
        52   03 Jun 2027 03:46:17.055   03 Jun 2027 03:46:53.297            36.242         18121.000
        53   03 Jun 2027 03:47:06.067   03 Jun 2027 03:49:47.976           161.909         80954.500
        54   03 Jun 2027 03:49:53.168   03 Jun 2027 03:49:56.248             3.080          1540.000
        55   03 Jun 2027 05:09:35.944   03 Jun 2027 05:10:21.600            45.656         22828.000
        56   03 Jun 2027 05:10:36.584   03 Jun 2027 05:10:43.170             6.586          3293.000
        57   03 Jun 2027 05:11:12.555   03 Jun 2027 05:11:12.555             0.000             0.000
        58   03 Jun 2027 05:11:20.547   03 Jun 2027 05:11:38.063            17.516          8758.000
        59   03 Jun 2027 05:12:44.504   03 Jun 2027 05:12:44.504             0.000             0.000
        60   03 Jun 2027 06:46:13.727   03 Jun 2027 06:46:43.137            29.410         14705.000
        61   03 Jun 2027 06:46:56.501   03 Jun 2027 06:47:11.132            14.631          7155.500
        62   03 Jun 2027 06:48:02.656   03 Jun 2027 06:48:05.679             3.023          1414.781
        63   03 Jun 2027 06:48:21.985   03 Jun 2027 06:48:22.814             0.829           209.000
        64   03 Jun 2027 06:48:46.827   03 Jun 2027 06:48:46.827             0.000             0.000
        65   03 Jun 2027 06:49:19.212   03 Jun 2027 06:49:22.707             3.495          1688.188
        66   03 Jun 2027 08:21:24.096   03 Jun 2027 08:21:37.625            13.529          5188.594
        67   03 Jun 2027 08:22:50.736   03 Jun 2027 08:22:50.736             0.000             0.000
        68   03 Jun 2027 08:22:54.504   03 Jun 2027 08:23:04.785            10.281          2290.500
        69   03 Jun 2027 08:24:00.236   03 Jun 2027 08:24:05.296             5.060          1685.531
        70   03 Jun 2027 08:24:16.317   03 Jun 2027 08:24:18.394             2.077           195.969
        71   03 Jun 2027 08:24:56.006   03 Jun 2027 08:24:58.169             2.163           906.031
        72   03 Jun 2027 08:25:27.964   03 Jun 2027 08:25:39.720            11.756           856.844
        73   03 Jun 2027 08:25:53.002   03 Jun 2027 08:25:53.910             0.908           336.375
        74   03 Jun 2027 08:26:21.168   03 Jun 2027 08:26:26.296             5.128           774.438
        75   03 Jun 2027 08:26:34.730   03 Jun 2027 08:26:36.069             1.339            70.031
        76   03 Jun 2027 08:27:36.434   03 Jun 2027 08:27:40.169             3.735          1867.500
        77   03 Jun 2027 09:57:38.605   03 Jun 2027 09:57:53.426            14.821          6757.719
        78   03 Jun 2027 09:58:57.183   03 Jun 2027 09:59:08.965            11.782           956.656
        79   03 Jun 2027 10:00:03.346   03 Jun 2027 10:00:05.687             2.341          1057.375
        80   03 Jun 2027 10:01:52.281   03 Jun 2027 10:02:02.437            10.156          3211.406
        81   03 Jun 2027 10:03:06.738   03 Jun 2027 10:03:12.983             6.245          1890.188
        82   03 Jun 2027 11:35:11.835   03 Jun 2027 11:35:26.202            14.367          6224.531
        83   03 Jun 2027 11:35:38.093   03 Jun 2027 11:35:38.884             0.791           195.031
        84   03 Jun 2027 11:35:43.522   03 Jun 2027 11:35:48.567             5.045            36.031
        85   03 Jun 2027 11:35:48.685   03 Jun 2027 11:35:52.467             3.782             3.688
        86   03 Jun 2027 11:36:05.101   03 Jun 2027 11:36:05.101             0.000             0.000
        87   03 Jun 2027 11:36:07.646   03 Jun 2027 11:36:08.828             1.182           217.688
        88   03 Jun 2027 11:37:07.842   03 Jun 2027 11:37:12.546             4.704          1844.187
        89   03 Jun 2027 11:37:39.398   03 Jun 2027 11:37:43.066             3.668           569.000
        90   03 Jun 2027 11:37:51.575   03 Jun 2027 11:37:52.741             1.166            93.125
        91   03 Jun 2027 11:38:02.275   03 Jun 2027 11:38:06.388             4.113            91.156
        92   03 Jun 2027 11:38:43.422   03 Jun 2027 11:38:44.638             1.216           608.000
        93   03 Jun 2027 11:39:15.091   03 Jun 2027 11:39:19.385             4.294          1089.000
        94   03 Jun 2027 11:39:38.908   03 Jun 2027 11:39:42.982             4.074           610.094
        95   04 Jun 2027 03:47:24.588   04 Jun 2027 03:47:40.520            15.932          7966.000
        96   04 Jun 2027 03:58:13.523   04 Jun 2027 03:58:55.587            42.064         21032.000
        97   04 Jun 2027 03:59:01.721   04 Jun 2027 04:01:40.479           158.758         79379.000
        98   04 Jun 2027 05:22:11.858   04 Jun 2027 05:22:45.075            33.217         16608.500
        99   04 Jun 2027 05:23:00.955   04 Jun 2027 05:23:00.955             0.000             0.000
       100   04 Jun 2027 05:23:22.961   04 Jun 2027 05:23:31.779             8.818          4409.000
       101   04 Jun 2027 05:24:38.700   04 Jun 2027 05:24:50.659            11.959          5979.500
       102   04 Jun 2027 06:57:57.475   04 Jun 2027 06:58:48.427            50.952         25309.625
       103   04 Jun 2027 06:59:11.997   04 Jun 2027 06:59:11.997             0.000             0.000
       104   04 Jun 2027 06:59:33.436   04 Jun 2027 06:59:38.133             4.697          1123.031
       105   04 Jun 2027 07:00:03.288   04 Jun 2027 07:00:03.288             0.000             0.000
       106   04 Jun 2027 07:00:42.204   04 Jun 2027 07:00:44.664             2.460          1230.000
       107   04 Jun 2027 07:01:19.119   04 Jun 2027 07:01:19.119             0.000             0.000
       108   04 Jun 2027 07:01:21.023   04 Jun 2027 07:01:24.159             3.136          1292.625
       109   04 Jun 2027 07:02:03.226   04 Jun 2027 07:02:03.226             0.000             0.000
       110   04 Jun 2027 08:32:48.452   04 Jun 2027 08:32:57.516             9.064          4046.344
       111   04 Jun 2027 08:34:13.569   04 Jun 2027 08:34:21.930             8.361          2309.781
       112   04 Jun 2027 08:35:05.975   04 Jun 2027 08:35:09.008             3.033          1297.562
       113   04 Jun 2027 08:35:19.670   04 Jun 2027 08:35:19.670             0.000             0.000
       114   04 Jun 2027 08:36:11.456   04 Jun 2027 08:36:15.015             3.559          1678.688
       115   04 Jun 2027 08:37:29.538   04 Jun 2027 08:37:35.477             5.939          2328.844
       116   04 Jun 2027 08:38:20.417   04 Jun 2027 08:38:22.827             2.410          1199.469
       117   04 Jun 2027 08:38:27.637   04 Jun 2027 08:38:28.549             0.912           142.500
       118   04 Jun 2027 08:38:38.303   04 Jun 2027 08:38:43.281             4.978           219.469
       119   04 Jun 2027 08:39:30.831   04 Jun 2027 08:39:30.831             0.000             0.000
       120   04 Jun 2027 08:39:35.322   04 Jun 2027 08:39:39.772             4.450          1626.281
       121   04 Jun 2027 10:09:24.286   04 Jun 2027 10:09:41.570            17.284          7916.531
       122   04 Jun 2027 10:09:53.732   04 Jun 2027 10:09:58.771             5.039           324.031
       123   04 Jun 2027 10:10:32.708   04 Jun 2027 10:10:34.709             2.001           547.250
       124   04 Jun 2027 10:11:39.278   04 Jun 2027 10:11:40.643             1.365           666.750
       125   04 Jun 2027 10:11:56.808   04 Jun 2027 10:11:56.957             0.149            32.031
       126   04 Jun 2027 10:12:09.877   04 Jun 2027 10:12:11.524             1.647           233.812
       127   04 Jun 2027 10:12:48.853   04 Jun 2027 10:12:50.822             1.969           847.594
       128   04 Jun 2027 10:13:47.228   04 Jun 2027 10:13:51.678             4.450          1495.719
       129   04 Jun 2027 10:14:06.785   04 Jun 2027 10:14:06.785             0.000             0.000
       130   04 Jun 2027 10:14:32.173   04 Jun 2027 10:14:36.867             4.694           997.344
       131   04 Jun 2027 10:14:42.453   04 Jun 2027 10:14:43.738             1.285           174.562
       132   04 Jun 2027 11:47:41.974   04 Jun 2027 11:47:55.345            13.371          6685.500
       133   04 Jun 2027 11:48:29.595   04 Jun 2027 11:48:39.306             9.711          1370.437
       134   04 Jun 2027 11:49:14.811   04 Jun 2027 11:49:18.971             4.160          1097.813
       135   04 Jun 2027 11:49:50.455   04 Jun 2027 11:49:54.992             4.537           950.844
       136   04 Jun 2027 11:50:52.369   04 Jun 2027 11:50:56.317             3.948          1711.250
       137   04 Jun 2027 11:51:22.017   04 Jun 2027 11:51:22.588             0.571           285.500
       138   05 Jun 2027 03:58:41.201   05 Jun 2027 03:59:58.226            77.025         38512.500
       139   05 Jun 2027 04:10:11.442   05 Jun 2027 04:11:49.975            98.533         49266.500
       140   05 Jun 2027 05:32:50.701   05 Jun 2027 05:33:49.557            58.856         29428.000
       141   05 Jun 2027 05:34:26.212   05 Jun 2027 05:35:00.628            34.416         17208.000
       142   05 Jun 2027 05:36:40.395   05 Jun 2027 05:36:48.992             8.597          4298.500
       143   05 Jun 2027 07:08:09.722   05 Jun 2027 07:09:00.790            51.068         24907.969
       144   05 Jun 2027 07:10:33.873   05 Jun 2027 07:10:40.744             6.871          2897.906
       145   05 Jun 2027 07:11:46.435   05 Jun 2027 07:11:50.866             4.431          1709.531
       146   05 Jun 2027 07:12:26.958   05 Jun 2027 07:12:29.569             2.611          1005.844
       147   05 Jun 2027 07:13:22.752   05 Jun 2027 07:13:25.473             2.721          1360.500
       148   05 Jun 2027 07:13:50.083   05 Jun 2027 07:13:51.968             1.885           897.406
       149   05 Jun 2027 07:14:08.654   05 Jun 2027 07:14:09.633             0.979           297.250
       150   05 Jun 2027 08:44:41.477   05 Jun 2027 08:44:50.441             8.964          4286.719
       151   05 Jun 2027 08:45:07.754   05 Jun 2027 08:45:08.769             1.015           335.094
       152   05 Jun 2027 08:46:55.301   05 Jun 2027 08:47:04.725             9.424          2345.625
       153   05 Jun 2027 08:47:28.486   05 Jun 2027 08:47:30.565             2.079           674.562
       154   05 Jun 2027 08:47:53.274   05 Jun 2027 08:47:54.528             1.254           113.469
       155   05 Jun 2027 08:48:18.596   05 Jun 2027 08:48:18.596             0.000             0.000
       156   05 Jun 2027 08:49:00.099   05 Jun 2027 08:49:08.775             8.676          1725.344
       157   05 Jun 2027 08:49:24.954   05 Jun 2027 08:49:27.806             2.852           172.781
       158   05 Jun 2027 08:49:36.393   05 Jun 2027 08:49:39.265             2.872           268.344
       159   05 Jun 2027 08:49:49.645   05 Jun 2027 08:49:52.094             2.449           139.406
       160   05 Jun 2027 08:50:56.178   05 Jun 2027 08:51:00.930             4.752          1325.000
       161   05 Jun 2027 08:51:57.583   05 Jun 2027 08:51:59.900             2.317          1158.500
       162   05 Jun 2027 08:52:07.084   05 Jun 2027 08:52:10.090             3.006           836.406
       163   05 Jun 2027 10:21:45.477   05 Jun 2027 10:22:05.478            20.001          9203.438
       164   05 Jun 2027 10:23:13.870   05 Jun 2027 10:23:17.084             3.214          1120.719
       165   05 Jun 2027 10:24:19.591   05 Jun 2027 10:24:24.374             4.783          1953.344
       166   05 Jun 2027 10:24:44.772   05 Jun 2027 10:24:44.772             0.000             0.000
       167   05 Jun 2027 10:25:00.242   05 Jun 2027 10:25:05.547             5.305           868.688
       168   05 Jun 2027 10:25:12.759   05 Jun 2027 10:25:13.579             0.820           170.750
       169   05 Jun 2027 10:25:51.258   05 Jun 2027 10:25:54.993             3.735          1132.344
       170   05 Jun 2027 10:26:40.308   05 Jun 2027 10:26:51.033            10.725          1416.094
       171   05 Jun 2027 10:27:44.023   05 Jun 2027 10:27:51.273             7.250          1655.937
       172   05 Jun 2027 10:27:57.514   05 Jun 2027 10:27:57.621             0.107            53.500
       173   05 Jun 2027 11:59:39.779   05 Jun 2027 11:59:55.463            15.684          6641.906
       174   06 Jun 2027 04:09:58.182   06 Jun 2027 04:11:30.877            92.695         46347.500
       175   06 Jun 2027 04:22:10.704   06 Jun 2027 04:23:10.098            59.394         29697.000
       176   06 Jun 2027 05:44:26.527   06 Jun 2027 05:45:33.009            66.482         33241.000
       177   06 Jun 2027 05:46:21.950   06 Jun 2027 05:47:12.301            50.351         25175.500
       178   06 Jun 2027 05:47:13.559   06 Jun 2027 05:47:26.439            12.880          6440.000
       179   06 Jun 2027 07:19:19.819   06 Jun 2027 07:19:33.641            13.822          6911.000
       180   06 Jun 2027 07:20:46.674   06 Jun 2027 07:21:24.160            37.486         18743.000
       181   06 Jun 2027 07:21:29.813   06 Jun 2027 07:21:33.113             3.300          1542.250
       182   06 Jun 2027 07:21:44.707   06 Jun 2027 07:21:46.042             1.335           362.313
       183   06 Jun 2027 07:23:19.900   06 Jun 2027 07:23:25.249             5.349          2075.406
       184   06 Jun 2027 07:24:40.685   06 Jun 2027 07:24:48.517             7.832          2235.844
       185   06 Jun 2027 07:25:44.908   06 Jun 2027 07:25:48.307             3.399          1411.938
       186   06 Jun 2027 07:25:57.271   06 Jun 2027 07:26:03.400             6.129           127.250
       187   06 Jun 2027 07:26:41.681   06 Jun 2027 07:26:42.037             0.356           178.000
       188   06 Jun 2027 07:27:22.398   06 Jun 2027 07:27:25.555             3.157          1245.000
       189   06 Jun 2027 07:27:35.200   06 Jun 2027 07:27:39.130             3.930           111.781
       190   06 Jun 2027 07:27:47.091   06 Jun 2027 07:27:47.769             0.678           248.781
       191   06 Jun 2027 08:56:53.954   06 Jun 2027 08:57:08.818            14.864          6881.844
       192   06 Jun 2027 08:57:43.485   06 Jun 2027 08:57:47.091             3.606          1043.000
       193   06 Jun 2027 08:58:04.976   06 Jun 2027 08:58:10.665             5.689           558.906
       194   06 Jun 2027 08:59:08.107   06 Jun 2027 08:59:12.087             3.980          1497.437
       195   06 Jun 2027 09:00:20.087   06 Jun 2027 09:00:29.696             9.609          2125.000
       196   06 Jun 2027 09:01:09.054   06 Jun 2027 09:01:11.618             2.564          1183.688
       197   06 Jun 2027 09:01:11.809   06 Jun 2027 09:01:18.224             6.415             5.969
       198   06 Jun 2027 09:01:44.701   06 Jun 2027 09:01:45.981             1.280           640.000
       199   06 Jun 2027 09:02:31.390   06 Jun 2027 09:02:35.796             4.406          1549.687
       200   06 Jun 2027 09:03:02.824   06 Jun 2027 09:03:06.414             3.590           607.281
       201   06 Jun 2027 09:03:28.567   06 Jun 2027 09:03:31.304             2.737           440.594
       202   06 Jun 2027 09:03:52.866   06 Jun 2027 09:03:54.536             1.670           671.313
       203   06 Jun 2027 09:04:09.657   06 Jun 2027 09:04:09.657             0.000             0.000
       204   06 Jun 2027 10:33:36.695   06 Jun 2027 10:33:56.340            19.645          8468.875
       205   06 Jun 2027 10:34:31.944   06 Jun 2027 10:34:41.287             9.343          1054.875
       206   06 Jun 2027 10:34:51.255   06 Jun 2027 10:34:53.555             2.300           273.156
       207   06 Jun 2027 10:35:09.502   06 Jun 2027 10:35:13.562             4.060           237.688
       208   06 Jun 2027 10:36:20.776   06 Jun 2027 10:36:26.059             5.283          2082.094
       209   06 Jun 2027 10:36:27.216   06 Jun 2027 10:36:27.754             0.538            36.156
       210   06 Jun 2027 10:37:16.634   06 Jun 2027 10:37:22.652             6.018          1527.500
       211   06 Jun 2027 10:37:54.808   06 Jun 2027 10:37:57.042             2.234           849.594
       212   06 Jun 2027 10:39:49.655   06 Jun 2027 10:39:50.221             0.566           283.000
       213   06 Jun 2027 10:39:54.448   06 Jun 2027 10:40:01.954             7.506          3146.750
       214   07 Jun 2027 03:00:00.000   07 Jun 2027 03:00:21.492            21.492         10746.000
       215   07 Jun 2027 03:00:25.842   07 Jun 2027 03:00:26.793             0.951           475.500
       216   07 Jun 2027 03:00:46.798   07 Jun 2027 03:01:21.090            34.292         17146.000
       217   07 Jun 2027 03:01:38.604   07 Jun 2027 03:01:41.444             2.840          1420.000
       218   07 Jun 2027 03:01:47.209   07 Jun 2027 03:01:50.492             3.283          1641.500
       219   07 Jun 2027 03:02:15.789   07 Jun 2027 03:02:15.789             0.000             0.000
       220   07 Jun 2027 03:03:17.762   07 Jun 2027 03:03:39.581            21.819         10909.500
       221   07 Jun 2027 03:04:09.830   07 Jun 2027 03:04:26.681            16.851          8425.500
       222   07 Jun 2027 04:22:03.811   07 Jun 2027 04:22:58.395            54.584         27292.000
       223   07 Jun 2027 04:34:24.992   07 Jun 2027 04:34:44.561            19.569          9784.500
       224   07 Jun 2027 05:55:55.440   07 Jun 2027 05:57:18.649            83.209         41604.500
       225   07 Jun 2027 05:57:56.291   07 Jun 2027 05:58:42.970            46.679         23339.500
       226   07 Jun 2027 05:59:15.897   07 Jun 2027 05:59:28.184            12.287          6143.500
       227   07 Jun 2027 05:59:58.142   07 Jun 2027 06:00:03.578             5.436          2718.000
       228   07 Jun 2027 06:00:54.758   07 Jun 2027 06:00:57.795             3.037          1518.500
       229   07 Jun 2027 07:30:50.384   07 Jun 2027 07:31:13.023            22.639          8808.843
       230   07 Jun 2027 07:31:17.262   07 Jun 2027 07:31:24.974             7.712            47.094
       231   07 Jun 2027 07:33:34.933   07 Jun 2027 07:33:36.038             1.105           507.156
       232   07 Jun 2027 07:34:12.044   07 Jun 2027 07:34:13.495             1.451           718.156
       233   07 Jun 2027 07:35:08.554   07 Jun 2027 07:35:12.462             3.908          1720.594
       234   07 Jun 2027 07:35:54.145   07 Jun 2027 07:35:57.148             3.003          1066.594
       235   07 Jun 2027 07:36:59.737   07 Jun 2027 07:37:07.154             7.417          1955.906
       236   07 Jun 2027 07:37:49.703   07 Jun 2027 07:37:49.845             0.142            71.000
       237   07 Jun 2027 07:37:51.447   07 Jun 2027 07:37:53.396             1.949           532.375
       238   07 Jun 2027 07:38:13.457   07 Jun 2027 07:38:14.787             1.330           390.125
       239   07 Jun 2027 07:38:57.499   07 Jun 2027 07:38:58.710             1.211           605.500
       240   07 Jun 2027 07:39:19.317   07 Jun 2027 07:39:22.145             2.828          1039.625
       241   07 Jun 2027 07:39:26.707   07 Jun 2027 07:39:27.333             0.626           108.594
       242   07 Jun 2027 09:08:48.019   07 Jun 2027 09:09:03.283            15.264          7005.531
       243   07 Jun 2027 09:09:42.890   07 Jun 2027 09:09:48.577             5.687           276.531
       244   07 Jun 2027 09:10:53.639   07 Jun 2027 09:10:57.283             3.644          1822.000
       245   07 Jun 2027 09:10:58.759   07 Jun 2027 09:11:03.123             4.364           234.125
       246   07 Jun 2027 09:11:17.183   07 Jun 2027 09:11:19.221             2.038           379.219
       247   07 Jun 2027 09:11:40.336   07 Jun 2027 09:11:44.189             3.853            37.688
       248   07 Jun 2027 09:13:02.857   07 Jun 2027 09:13:05.650             2.793          1396.500
       249   07 Jun 2027 09:13:18.299   07 Jun 2027 09:13:23.056             4.757          1457.156
       250   07 Jun 2027 09:13:48.647   07 Jun 2027 09:13:52.379             3.732            17.281
       251   07 Jun 2027 09:14:24.244   07 Jun 2027 09:14:27.855             3.611           995.781
       252   07 Jun 2027 09:14:34.427   07 Jun 2027 09:14:37.480             3.053           205.375
       253   07 Jun 2027 09:14:51.490   07 Jun 2027 09:14:51.620             0.130            34.312
       254   07 Jun 2027 09:15:06.895   07 Jun 2027 09:15:07.805             0.910           267.781
       255   07 Jun 2027 09:15:43.106   07 Jun 2027 09:15:43.555             0.449           224.500
       256   07 Jun 2027 09:16:04.962   07 Jun 2027 09:16:04.962             0.000             0.000
       257   07 Jun 2027 10:45:42.852   07 Jun 2027 10:45:50.587             7.735          3867.500
       258   07 Jun 2027 10:46:12.045   07 Jun 2027 10:46:19.335             7.290          3502.844
       259   07 Jun 2027 10:46:46.249   07 Jun 2027 10:46:49.245             2.996           447.969
       260   07 Jun 2027 10:47:36.898   07 Jun 2027 10:47:37.703             0.805            92.844
       261   07 Jun 2027 10:48:20.192   07 Jun 2027 10:48:25.359             5.167           710.094
       262   07 Jun 2027 10:48:52.051   07 Jun 2027 10:48:53.664             1.613           769.375
       263   07 Jun 2027 10:49:19.529   07 Jun 2027 10:49:36.156            16.627           501.750
       264   07 Jun 2027 10:50:08.538   07 Jun 2027 10:50:11.411             2.873           960.031
       265   07 Jun 2027 10:50:13.538   07 Jun 2027 10:50:15.658             2.120            66.469
       266   07 Jun 2027 10:50:27.809   07 Jun 2027 10:50:32.100             4.291            42.875
       267   07 Jun 2027 10:51:51.107   07 Jun 2027 10:52:07.614            16.507          2451.781
       268   08 Jun 2027 03:10:11.345   08 Jun 2027 03:13:02.028           170.683         85341.500
       269   08 Jun 2027 03:13:25.956   08 Jun 2027 03:13:37.430            11.474          5737.000
       270   08 Jun 2027 04:33:59.604   08 Jun 2027 04:34:56.346            56.742         28371.000
       271   08 Jun 2027 04:36:03.201   08 Jun 2027 04:36:03.201             0.000             0.000
       272   08 Jun 2027 06:09:59.751   08 Jun 2027 06:11:22.879            83.128         41564.000
       273   08 Jun 2027 06:11:31.026   08 Jun 2027 06:11:42.193            11.167          3865.687
       274   08 Jun 2027 06:11:47.428   08 Jun 2027 06:11:48.797             1.369           163.594
       275   08 Jun 2027 06:13:04.983   08 Jun 2027 06:13:12.317             7.334          1846.813
       276   08 Jun 2027 07:43:43.970   08 Jun 2027 07:44:00.681            16.711          6470.500
       277   08 Jun 2027 07:45:11.121   08 Jun 2027 07:45:12.543             1.422           381.594
       278   08 Jun 2027 07:46:03.776   08 Jun 2027 07:46:08.819             5.043           888.438
       279   08 Jun 2027 07:47:07.130   08 Jun 2027 07:47:10.763             3.633          1570.219
       280   08 Jun 2027 07:47:34.616   08 Jun 2027 07:47:36.322             1.706           615.594
       281   08 Jun 2027 07:48:21.941   08 Jun 2027 07:48:27.111             5.170           788.250
       282   08 Jun 2027 07:49:05.780   08 Jun 2027 07:49:12.687             6.907           815.313
       283   08 Jun 2027 07:49:44.399   08 Jun 2027 07:49:49.932             5.533           991.000
       284   08 Jun 2027 07:50:36.136   08 Jun 2027 07:50:39.659             3.523          1442.062
       285   08 Jun 2027 07:50:51.469   08 Jun 2027 07:50:55.940             4.471            92.656
       286   08 Jun 2027 07:51:16.906   08 Jun 2027 07:51:18.288             1.382           655.188
       287   08 Jun 2027 07:51:37.576   08 Jun 2027 07:51:39.591             2.015           554.219
       288   08 Jun 2027 07:52:01.243   08 Jun 2027 07:52:03.053             1.810           590.031
       289   08 Jun 2027 07:52:16.230   08 Jun 2027 07:52:17.644             1.414           374.656
       290   08 Jun 2027 09:21:09.272   08 Jun 2027 09:21:26.236            16.964          8314.687
       291   08 Jun 2027 09:21:43.055   08 Jun 2027 09:21:44.588             1.533           462.719
       292   08 Jun 2027 09:23:27.796   08 Jun 2027 09:23:30.927             3.131          1565.500
       293   08 Jun 2027 09:23:51.880   08 Jun 2027 09:23:55.217             3.337           780.844
       294   08 Jun 2027 09:24:53.331   08 Jun 2027 09:24:55.761             2.430           613.406
       295   08 Jun 2027 09:26:17.598   08 Jun 2027 09:26:22.585             4.987          2365.562
       296   08 Jun 2027 09:26:50.988   08 Jun 2027 09:26:53.960             2.972           213.656
       297   08 Jun 2027 09:27:28.689   08 Jun 2027 09:27:31.156             2.467           584.594
       298   08 Jun 2027 09:28:03.258   08 Jun 2027 09:28:07.699             4.441          1003.187
       299   08 Jun 2027 10:58:12.842   08 Jun 2027 10:58:28.901            16.059          7763.000
       300   08 Jun 2027 10:58:45.126   08 Jun 2027 10:58:47.146             2.020           507.031
       301   08 Jun 2027 11:00:02.513   08 Jun 2027 11:00:04.374             1.861           736.438
       302   08 Jun 2027 11:01:19.880   08 Jun 2027 11:01:25.536             5.656          2280.031
       303   08 Jun 2027 11:01:58.968   08 Jun 2027 11:02:03.709             4.741          1044.750
       304   08 Jun 2027 11:02:08.767   08 Jun 2027 11:02:09.912             1.145           115.594
       305   08 Jun 2027 11:02:56.416   08 Jun 2027 11:03:00.461             4.045          1453.250
       306   08 Jun 2027 11:03:15.597   08 Jun 2027 11:03:20.011             4.414           378.969
       307   08 Jun 2027 11:03:43.134   08 Jun 2027 11:03:46.743             3.609           722.594
       308   08 Jun 2027 11:03:59.335   08 Jun 2027 11:04:03.295             3.960           393.500
       309   09 Jun 2027 03:22:29.996   09 Jun 2027 03:26:02.905           212.909        106454.500
       310   09 Jun 2027 04:45:51.170   09 Jun 2027 04:46:25.779            34.609         17304.500
       311   09 Jun 2027 04:46:53.813   09 Jun 2027 04:46:53.813             0.000             0.000
       312   09 Jun 2027 04:47:19.360   09 Jun 2027 04:47:20.656             1.296           648.000
       313   09 Jun 2027 06:22:14.325   09 Jun 2027 06:23:23.324            68.999         34283.562
       314   09 Jun 2027 06:24:15.835   09 Jun 2027 06:24:21.311             5.476          1385.312
       315   09 Jun 2027 06:24:47.776   09 Jun 2027 06:24:50.776             3.000           564.375
       316   09 Jun 2027 06:25:01.113   09 Jun 2027 06:25:01.113             0.000             0.000
       317   09 Jun 2027 06:25:19.553   09 Jun 2027 06:25:23.732             4.179           892.875
       318   09 Jun 2027 07:56:18.613   09 Jun 2027 07:56:28.381             9.768          4660.875
       319   09 Jun 2027 07:57:35.644   09 Jun 2027 07:57:38.223             2.579          1203.750
       320   09 Jun 2027 07:58:27.149   09 Jun 2027 07:58:31.333             4.184          1244.250
       321   09 Jun 2027 07:59:41.234   09 Jun 2027 07:59:44.774             3.540          1009.844
       322   09 Jun 2027 08:01:27.980   09 Jun 2027 08:01:35.045             7.065          2708.250
       323   09 Jun 2027 08:01:41.426   09 Jun 2027 08:01:43.591             2.165           199.406
       324   09 Jun 2027 08:01:55.033   09 Jun 2027 08:02:02.643             7.610            94.500
       325   09 Jun 2027 08:02:35.803   09 Jun 2027 08:02:36.169             0.366           171.375
       326   09 Jun 2027 08:02:52.345   09 Jun 2027 08:02:52.345             0.000             0.000
       327   09 Jun 2027 08:03:02.680   09 Jun 2027 08:03:03.639             0.959           337.531
       328   09 Jun 2027 08:04:02.163   09 Jun 2027 08:04:11.099             8.936          1828.875
       329   09 Jun 2027 08:04:13.807   09 Jun 2027 08:04:15.014             1.207            84.625
       330   09 Jun 2027 09:33:22.481   09 Jun 2027 09:33:39.962            17.481          6352.594
       331   09 Jun 2027 09:34:44.152   09 Jun 2027 09:34:48.497             4.345           398.156
       332   09 Jun 2027 09:36:03.679   09 Jun 2027 09:36:08.615             4.936          1206.281
       333   09 Jun 2027 09:36:32.456   09 Jun 2027 09:36:34.019             1.563           532.687
       334   09 Jun 2027 09:37:03.060   09 Jun 2027 09:37:20.400            17.340           907.531
       335   09 Jun 2027 09:38:18.453   09 Jun 2027 09:38:22.044             3.591          1356.875
       336   09 Jun 2027 09:38:35.918   09 Jun 2027 09:38:37.946             2.028           433.563
       337   09 Jun 2027 09:39:56.270   09 Jun 2027 09:40:01.986             5.716          2447.625
       338   09 Jun 2027 09:40:02.477   09 Jun 2027 09:40:05.268             2.791            15.344
       339   09 Jun 2027 11:10:18.737   09 Jun 2027 11:10:31.336            12.599          5896.937
       340   09 Jun 2027 11:10:42.833   09 Jun 2027 11:10:43.809             0.976           213.250
       341   09 Jun 2027 11:11:35.734   09 Jun 2027 11:11:37.834             2.100          1050.000
       342   09 Jun 2027 11:11:57.303   09 Jun 2027 11:11:57.303             0.000             0.000
       343   09 Jun 2027 11:12:29.037   09 Jun 2027 11:12:35.363             6.326          1936.844
       344   09 Jun 2027 11:12:54.204   09 Jun 2027 11:12:57.036             2.832           588.781
       345   09 Jun 2027 11:13:42.026   09 Jun 2027 11:13:45.686             3.660          1118.406
       346   09 Jun 2027 11:14:28.195   09 Jun 2027 11:14:31.329             3.134           874.188
       347   09 Jun 2027 11:14:43.744   09 Jun 2027 11:14:45.701             1.957           387.969
       348   09 Jun 2027 11:15:07.219   09 Jun 2027 11:15:12.694             5.475           659.219
       349   10 Jun 2027 03:34:58.931   10 Jun 2027 03:38:24.321           205.390        102695.000
       350   10 Jun 2027 04:57:55.860   10 Jun 2027 04:58:54.723            58.863         29431.500
       351   10 Jun 2027 04:59:36.730   10 Jun 2027 04:59:54.918            18.188          9094.000
       352   10 Jun 2027 06:34:24.806   10 Jun 2027 06:34:52.340            27.534         13767.000
       353   10 Jun 2027 06:35:08.761   10 Jun 2027 06:35:15.009             6.248          1299.906
       354   10 Jun 2027 06:35:33.001   10 Jun 2027 06:35:34.689             1.688           185.406
       355   10 Jun 2027 06:36:07.271   10 Jun 2027 06:36:08.870             1.599           133.406
       356   10 Jun 2027 06:36:40.113   10 Jun 2027 06:36:42.124             2.011           698.875
       357   10 Jun 2027 06:36:52.812   10 Jun 2027 06:36:54.224             1.412           140.094
       358   10 Jun 2027 08:09:30.387   10 Jun 2027 08:09:39.195             8.808          3912.000
       359   10 Jun 2027 08:10:12.709   10 Jun 2027 08:10:14.570             1.861           514.000
       360   10 Jun 2027 08:10:32.633   10 Jun 2027 08:10:36.285             3.652           156.281
       361   10 Jun 2027 08:11:10.371   10 Jun 2027 08:11:16.808             6.437           663.125
       362   10 Jun 2027 08:11:26.257   10 Jun 2027 08:11:27.584             1.327            15.563
       363   10 Jun 2027 08:11:50.624   10 Jun 2027 08:11:51.421             0.797           304.812
       364   10 Jun 2027 08:13:11.221   10 Jun 2027 08:13:13.881             2.660          1111.563
       365   10 Jun 2027 08:13:40.836   10 Jun 2027 08:13:40.836             0.000             0.000
       366   10 Jun 2027 08:14:52.750   10 Jun 2027 08:15:04.206            11.456          3089.656
       367   10 Jun 2027 08:15:23.485   10 Jun 2027 08:15:27.467             3.982           602.469
       368   10 Jun 2027 08:15:49.177   10 Jun 2027 08:15:50.008             0.831           415.500
       369   10 Jun 2027 08:16:02.993   10 Jun 2027 08:16:04.092             1.099           549.500
       370   10 Jun 2027 08:16:08.184   10 Jun 2027 08:16:10.569             2.385           156.938
       371   10 Jun 2027 09:45:52.590   10 Jun 2027 09:46:07.141            14.551          6504.562
       372   10 Jun 2027 09:46:56.927   10 Jun 2027 09:46:59.351             2.424           188.406
       373   10 Jun 2027 09:47:39.686   10 Jun 2027 09:47:43.739             4.053          1260.469
       374   10 Jun 2027 09:48:14.523   10 Jun 2027 09:48:20.378             5.855           962.000
       375   10 Jun 2027 09:48:36.732   10 Jun 2027 09:48:38.671             1.939           465.781
       376   10 Jun 2027 09:49:26.505   10 Jun 2027 09:49:32.293             5.788          1331.406
       377   10 Jun 2027 09:49:54.658   10 Jun 2027 09:49:56.043             1.385           478.312
       378   10 Jun 2027 09:50:32.492   10 Jun 2027 09:50:35.666             3.174           585.281
       379   10 Jun 2027 09:51:34.411   10 Jun 2027 09:51:38.700             4.289          1827.719
       380   10 Jun 2027 09:51:58.417   10 Jun 2027 09:52:01.168             2.751           616.156
       381   10 Jun 2027 09:52:04.034   10 Jun 2027 09:52:04.629             0.595            22.906
       382   10 Jun 2027 11:23:20.969   10 Jun 2027 11:23:34.293            13.324          6168.375
       383   10 Jun 2027 11:23:44.168   10 Jun 2027 11:23:44.921             0.753           279.937
       384   10 Jun 2027 11:24:23.922   10 Jun 2027 11:24:27.881             3.959          1162.844
       385   10 Jun 2027 11:24:32.402   10 Jun 2027 11:24:46.555            14.153            97.469
       386   10 Jun 2027 11:24:58.944   10 Jun 2027 11:25:04.613             5.669           387.156
       387   10 Jun 2027 11:25:17.705   10 Jun 2027 11:25:18.788             1.083           409.125
       388   10 Jun 2027 11:25:38.465   10 Jun 2027 11:25:44.046             5.581           549.344
       389   10 Jun 2027 11:25:52.236   10 Jun 2027 11:25:53.505             1.269           255.938
       390   10 Jun 2027 11:26:42.780   10 Jun 2027 11:26:44.989             2.209          1104.500
       391   10 Jun 2027 11:27:20.628   10 Jun 2027 11:27:23.814             3.186          1543.937
       392   10 Jun 2027 11:27:43.994   10 Jun 2027 11:27:43.994             0.000             0.000
       393   11 Jun 2027 03:46:32.012   11 Jun 2027 03:47:09.196            37.184         18592.000
       394   11 Jun 2027 03:47:21.758   11 Jun 2027 03:50:06.749           164.991         82495.500
       395   11 Jun 2027 05:10:00.167   11 Jun 2027 05:11:27.600            87.433         43716.500
       396   11 Jun 2027 06:46:29.134   11 Jun 2027 06:46:57.684            28.550         13464.688
       397   11 Jun 2027 06:48:08.342   11 Jun 2027 06:48:11.066             2.724          1062.781
       398   11 Jun 2027 06:48:42.732   11 Jun 2027 06:48:42.732             0.000             0.000
       399   11 Jun 2027 06:49:02.703   11 Jun 2027 06:49:05.518             2.815          1333.281
       400   11 Jun 2027 08:21:39.564   11 Jun 2027 08:21:51.936            12.372          5563.594
       401   11 Jun 2027 08:21:58.416   11 Jun 2027 08:21:59.006             0.590           147.313
       402   11 Jun 2027 08:23:21.425   11 Jun 2027 08:23:22.143             0.718           359.000
       403   11 Jun 2027 08:23:32.295   11 Jun 2027 08:23:35.917             3.622           492.750
       404   11 Jun 2027 08:24:02.765   11 Jun 2027 08:24:05.183             2.418           839.000
       405   11 Jun 2027 08:24:32.085   11 Jun 2027 08:24:33.273             1.188           165.219
       406   11 Jun 2027 08:25:13.636   11 Jun 2027 08:25:24.200            10.564          1019.125
       407   11 Jun 2027 08:25:45.520   11 Jun 2027 08:25:56.039            10.519           666.250
       408   11 Jun 2027 08:26:09.181   11 Jun 2027 08:26:10.476             1.295           372.313
       409   11 Jun 2027 08:26:36.433   11 Jun 2027 08:26:42.377             5.944           811.156
       410   11 Jun 2027 08:27:18.556   11 Jun 2027 08:27:20.799             2.243          1100.375
       411   11 Jun 2027 09:57:52.456   11 Jun 2027 09:58:07.245            14.789          7312.750
       412   11 Jun 2027 09:58:43.908   11 Jun 2027 09:58:44.808             0.900           439.531
       413   11 Jun 2027 10:00:19.261   11 Jun 2027 10:00:20.440             1.179           589.500
       414   11 Jun 2027 10:00:38.155   11 Jun 2027 10:00:40.265             2.110          1026.281
       415   11 Jun 2027 10:00:51.525   11 Jun 2027 10:00:52.727             1.202           153.031
       416   11 Jun 2027 10:02:07.268   11 Jun 2027 10:02:11.764             4.496          2248.000
       417   11 Jun 2027 10:02:21.358   11 Jun 2027 10:02:24.320             2.962           381.219
       418   11 Jun 2027 10:03:00.700   11 Jun 2027 10:03:03.507             2.807          1136.875
       419   11 Jun 2027 10:03:12.754   11 Jun 2027 10:03:14.971             2.217           273.594
       420   11 Jun 2027 10:03:35.460   11 Jun 2027 10:03:35.460             0.000             0.000
       421   11 Jun 2027 11:35:27.451   11 Jun 2027 11:35:45.159            17.708          8255.250
       422   11 Jun 2027 11:36:33.142   11 Jun 2027 11:36:53.371            20.229          1079.000
       423   11 Jun 2027 11:37:14.645   11 Jun 2027 11:37:19.632             4.987           617.594
       424   11 Jun 2027 11:37:36.849   11 Jun 2027 11:37:40.104             3.255           449.187
       425   11 Jun 2027 11:37:42.284   11 Jun 2027 11:37:44.965             2.681            20.406
       426   11 Jun 2027 11:38:54.598   11 Jun 2027 11:38:59.266             4.668          2176.031
       427   11 Jun 2027 11:39:29.819   11 Jun 2027 11:39:31.823             2.004           954.781
       428   11 Jun 2027 11:39:52.381   11 Jun 2027 11:39:55.023             2.642           642.437
       429   12 Jun 2027 03:47:38.742   12 Jun 2027 03:47:57.316            18.574          9287.000
       430   12 Jun 2027 03:58:29.098   12 Jun 2027 04:01:56.243           207.145        103572.500
       431   12 Jun 2027 05:22:26.969   12 Jun 2027 05:23:00.859            33.890         16945.000
       432   12 Jun 2027 05:23:07.069   12 Jun 2027 05:23:16.373             9.304          4652.000
       433   12 Jun 2027 05:25:05.314   12 Jun 2027 05:25:11.744             6.430          3215.000
       434   12 Jun 2027 06:58:13.390   12 Jun 2027 06:59:03.743            50.353         25116.001
       435   12 Jun 2027 06:59:27.971   12 Jun 2027 06:59:28.331             0.360           180.000
       436   12 Jun 2027 06:59:30.480   12 Jun 2027 06:59:31.839             1.359           305.875
       437   12 Jun 2027 06:59:49.743   12 Jun 2027 06:59:51.946             2.203           536.750
       438   12 Jun 2027 07:01:33.364   12 Jun 2027 07:01:38.603             5.239          2436.938
       439   12 Jun 2027 08:32:59.595   12 Jun 2027 08:33:11.741            12.146          4151.969
       440   12 Jun 2027 08:33:33.797   12 Jun 2027 08:33:35.207             1.410           334.469
       441   12 Jun 2027 08:33:56.912   12 Jun 2027 08:33:56.912             0.000             0.000
       442   12 Jun 2027 08:35:12.053   12 Jun 2027 08:35:18.967             6.914          2985.719
       443   12 Jun 2027 08:35:49.052   12 Jun 2027 08:35:54.966             5.914           901.312
       444   12 Jun 2027 08:36:30.871   12 Jun 2027 08:36:32.512             1.641           820.500
       445   12 Jun 2027 08:37:15.802   12 Jun 2027 08:37:26.161            10.359          1522.719
       446   12 Jun 2027 08:37:59.420   12 Jun 2027 08:38:06.711             7.291           490.000
       447   12 Jun 2027 08:38:48.450   12 Jun 2027 08:38:51.816             3.366           495.937
       448   12 Jun 2027 08:39:01.484   12 Jun 2027 08:39:02.173             0.689           302.125
       449   12 Jun 2027 08:39:32.332   12 Jun 2027 08:39:35.752             3.420           942.469
       450   12 Jun 2027 08:40:21.966   12 Jun 2027 08:40:25.503             3.537          1363.844
       451   12 Jun 2027 10:09:40.217   12 Jun 2027 10:09:55.595            15.378          7131.750
       452   12 Jun 2027 10:11:56.769   12 Jun 2027 10:11:59.462             2.693           733.469
       453   12 Jun 2027 10:12:12.314   12 Jun 2027 10:12:14.372             2.058            41.312
       454   12 Jun 2027 10:12:19.673   12 Jun 2027 10:12:20.681             1.008           155.250
       455   12 Jun 2027 10:13:18.322   12 Jun 2027 10:13:21.454             3.132           883.312
       456   12 Jun 2027 10:13:26.792   12 Jun 2027 10:13:28.415             1.623           166.813
       457   12 Jun 2027 10:14:15.761   12 Jun 2027 10:14:20.900             5.139          1332.531
       458   12 Jun 2027 10:15:18.856   12 Jun 2027 10:15:36.381            17.525          1792.063
       459   12 Jun 2027 10:15:42.409   12 Jun 2027 10:15:48.413             6.004           133.594
       460   12 Jun 2027 10:16:03.365   12 Jun 2027 10:16:03.899             0.534           267.000
       461   12 Jun 2027 11:47:58.023   12 Jun 2027 11:48:15.395            17.372          7161.625
       462   12 Jun 2027 11:48:44.730   12 Jun 2027 11:48:44.730             0.000             0.000
       463   12 Jun 2027 11:48:54.772   12 Jun 2027 11:48:57.909             3.137          1166.937
       464   12 Jun 2027 11:50:26.861   12 Jun 2027 11:50:32.967             6.106          2779.750
       465   12 Jun 2027 11:50:54.451   12 Jun 2027 11:50:57.861             3.410           519.000
       466   12 Jun 2027 11:51:12.689   12 Jun 2027 11:51:13.549             0.860           128.344
       467   13 Jun 2027 03:58:54.897   13 Jun 2027 04:00:13.812            78.915         39457.500
       468   13 Jun 2027 04:10:27.255   13 Jun 2027 04:12:05.206            97.951         48975.500
       469   13 Jun 2027 05:33:06.152   13 Jun 2027 05:34:04.343            58.191         29095.500
       470   13 Jun 2027 05:34:41.824   13 Jun 2027 05:35:37.945            56.121         28060.500
       471   13 Jun 2027 07:08:18.238   13 Jun 2027 07:09:08.496            50.258         22786.531
       472   13 Jun 2027 07:10:18.652   13 Jun 2027 07:10:18.652             0.000             0.000
       473   13 Jun 2027 07:10:24.303   13 Jun 2027 07:10:29.281             4.978          1900.937
       474   13 Jun 2027 07:11:10.909   13 Jun 2027 07:11:11.249             0.340           170.000
       475   13 Jun 2027 07:11:46.551   13 Jun 2027 07:11:50.900             4.349          1659.844
       476   13 Jun 2027 07:12:56.328   13 Jun 2027 07:12:57.247             0.919           459.500
       477   13 Jun 2027 07:13:19.725   13 Jun 2027 07:13:28.088             8.363          2100.125
       478   13 Jun 2027 07:13:50.384   13 Jun 2027 07:13:54.306             3.922           314.531
       479   13 Jun 2027 07:14:23.400   13 Jun 2027 07:14:24.061             0.661           330.500
       480   13 Jun 2027 07:14:45.431   13 Jun 2027 07:14:46.075             0.644           322.000
       481   13 Jun 2027 08:44:58.559   13 Jun 2027 08:45:09.463            10.904          4211.250
       482   13 Jun 2027 08:45:57.847   13 Jun 2027 08:46:00.953             3.106          1005.781
       483   13 Jun 2027 08:46:32.144   13 Jun 2027 08:46:34.871             2.727           353.156
       484   13 Jun 2027 08:47:22.195   13 Jun 2027 08:47:26.908             4.713          1181.313
       485   13 Jun 2027 08:48:20.487   13 Jun 2027 08:48:27.522             7.035           427.469
       486   13 Jun 2027 08:48:42.532   13 Jun 2027 08:48:45.038             2.506           469.063
       487   13 Jun 2027 08:49:32.582   13 Jun 2027 08:49:35.303             2.721          1271.250
       488   13 Jun 2027 08:49:39.767   13 Jun 2027 08:49:46.121             6.354           122.094
       489   13 Jun 2027 08:49:54.181   13 Jun 2027 08:49:55.673             1.492           251.875
       490   13 Jun 2027 08:50:05.870   13 Jun 2027 08:50:07.250             1.380           176.719
       491   13 Jun 2027 08:50:38.333   13 Jun 2027 08:50:39.378             1.045           289.719
       492   13 Jun 2027 08:51:20.118   13 Jun 2027 08:51:20.512             0.394           197.000
       493   13 Jun 2027 08:51:41.829   13 Jun 2027 08:51:45.482             3.653          1742.281
       494   13 Jun 2027 08:52:10.415   13 Jun 2027 08:52:12.856             2.441           195.031
       495   13 Jun 2027 08:52:26.451   13 Jun 2027 08:52:27.012             0.561           280.500
       496   13 Jun 2027 10:22:01.318   13 Jun 2027 10:22:20.694            19.376          9082.687
       497   13 Jun 2027 10:23:29.321   13 Jun 2027 10:23:33.274             3.953          1065.594
       498   13 Jun 2027 10:24:37.715   13 Jun 2027 10:24:42.582             4.867          2010.125
       499   13 Jun 2027 10:25:33.649   13 Jun 2027 10:25:35.989             2.340          1160.531
       500   13 Jun 2027 10:25:41.992   13 Jun 2027 10:25:42.047             0.055             7.625
       501   13 Jun 2027 10:26:25.092   13 Jun 2027 10:26:28.023             2.931          1194.156
       502   13 Jun 2027 10:26:31.213   13 Jun 2027 10:26:35.116             3.903            99.687
       503   13 Jun 2027 10:26:46.595   13 Jun 2027 10:26:52.569             5.974           358.719
       504   13 Jun 2027 10:27:14.393   13 Jun 2027 10:27:17.735             3.342           604.156
       505   13 Jun 2027 10:27:49.424   13 Jun 2027 10:27:51.117             1.693           371.000
       506   13 Jun 2027 10:27:54.887   13 Jun 2027 10:27:59.841             4.954            70.031
       507   13 Jun 2027 11:59:55.461   13 Jun 2027 12:00:00.000             4.539          2269.500
