uniorb/output/strategy_2/Camera/Camera_KinoSat_111302.txt

KinoSat_111302
-------------------------
    Access    *     Start Time (UTCG)     *     Stop Time (UTCG)  *   Duration (s) *   Data (Mbytes)
         1   01 Jun 2027 03:57:06.523   01 Jun 2027 04:00:30.832           204.309        102154.500
         2   01 Jun 2027 05:20:02.070   01 Jun 2027 05:21:09.431            67.361         33680.500
         3   01 Jun 2027 06:56:37.080   01 Jun 2027 06:59:24.085           167.005         83502.500
         4   01 Jun 2027 06:59:46.564   01 Jun 2027 07:00:10.752            24.188         12094.000
         5   01 Jun 2027 08:31:45.488   01 Jun 2027 08:34:08.038           142.550         71275.000
         6   01 Jun 2027 08:35:22.525   01 Jun 2027 08:35:35.722            13.197          6598.500
         7   01 Jun 2027 08:35:56.487   01 Jun 2027 08:36:24.606            28.119         14059.500
         8   01 Jun 2027 08:38:13.958   01 Jun 2027 08:38:20.708             6.750          3375.000
         9   01 Jun 2027 08:38:28.021   01 Jun 2027 08:38:32.844             4.823          2411.500
        10   01 Jun 2027 10:08:05.606   01 Jun 2027 10:08:48.173            42.567         21283.500
        11   01 Jun 2027 10:09:26.048   01 Jun 2027 10:10:53.180            87.132         43566.000
        12   01 Jun 2027 10:12:50.925   01 Jun 2027 10:13:19.678            28.753         14376.500
        13   01 Jun 2027 10:14:03.299   01 Jun 2027 10:14:14.561            11.262          5631.000
        14   01 Jun 2027 11:45:38.560   01 Jun 2027 11:46:24.518            45.958         22979.000
        15   01 Jun 2027 11:47:01.677   01 Jun 2027 11:47:41.800            40.123         20061.500
        16   01 Jun 2027 11:49:40.557   01 Jun 2027 11:49:59.312            18.755          9377.500
        17   02 Jun 2027 04:08:52.092   02 Jun 2027 04:09:25.694            33.602         16801.000
        18   02 Jun 2027 04:09:40.559   02 Jun 2027 04:12:40.515           179.956         89978.000
        19   02 Jun 2027 05:32:13.130   02 Jun 2027 05:33:07.688            54.558         27279.000
        20   02 Jun 2027 05:35:06.687   02 Jun 2027 05:35:06.687             0.000             0.000
        21   02 Jun 2027 07:08:47.920   02 Jun 2027 07:11:48.469           180.549         90274.500
        22   02 Jun 2027 08:43:57.626   02 Jun 2027 08:45:39.632           102.006         51003.000
        23   02 Jun 2027 08:45:46.869   02 Jun 2027 08:46:11.059            24.190         10009.031
        24   02 Jun 2027 08:46:52.802   02 Jun 2027 08:46:52.802             0.000             0.000
        25   02 Jun 2027 08:47:57.630   02 Jun 2027 08:48:03.933             6.303          3061.750
        26   02 Jun 2027 08:48:25.321   02 Jun 2027 08:48:28.866             3.545           668.375
        27   02 Jun 2027 08:48:42.950   02 Jun 2027 08:48:44.950             2.000           415.094
        28   02 Jun 2027 08:49:25.544   02 Jun 2027 08:49:26.259             0.715           357.500
        29   02 Jun 2027 08:50:00.713   02 Jun 2027 08:50:04.147             3.434          1717.000
        30   02 Jun 2027 10:20:18.853   02 Jun 2027 10:20:34.716            15.863          7664.219
        31   02 Jun 2027 10:21:00.359   02 Jun 2027 10:21:03.622             3.263           441.406
        32   02 Jun 2027 10:22:10.251   02 Jun 2027 10:22:14.453             4.202          1181.969
        33   02 Jun 2027 10:22:24.413   02 Jun 2027 10:22:25.133             0.720            27.719
        34   02 Jun 2027 10:22:35.410   02 Jun 2027 10:22:36.440             1.030           317.000
        35   02 Jun 2027 10:24:02.736   02 Jun 2027 10:24:09.293             6.557          2696.750
        36   02 Jun 2027 10:24:32.860   02 Jun 2027 10:24:32.966             0.106            53.000
        37   02 Jun 2027 10:24:41.178   02 Jun 2027 10:24:46.876             5.698           940.094
        38   02 Jun 2027 10:25:26.883   02 Jun 2027 10:25:29.406             2.523           962.406
        39   02 Jun 2027 11:57:35.975   02 Jun 2027 11:57:52.675            16.700          8344.219
        40   02 Jun 2027 11:58:24.210   02 Jun 2027 11:58:29.244             5.034           956.125
        41   02 Jun 2027 11:58:37.218   02 Jun 2027 11:58:37.870             0.652           249.187
        42   02 Jun 2027 11:58:51.554   02 Jun 2027 11:58:55.199             3.645           408.344
        43   02 Jun 2027 11:59:05.842   02 Jun 2027 11:59:14.509             8.667           332.594
        44   02 Jun 2027 11:59:21.456   02 Jun 2027 11:59:21.901             0.445           217.094
        45   03 Jun 2027 04:20:48.793   03 Jun 2027 04:21:28.674            39.881         19940.500
        46   03 Jun 2027 04:21:47.603   03 Jun 2027 04:24:24.060           156.457         78228.500
        47   03 Jun 2027 05:44:44.196   03 Jun 2027 05:45:47.450            63.254         31627.000
        48   03 Jun 2027 05:47:13.744   03 Jun 2027 05:47:21.749             8.005          4002.500
        49   03 Jun 2027 07:20:36.626   03 Jun 2027 07:21:30.695            54.069         26889.844
        50   03 Jun 2027 07:21:47.425   03 Jun 2027 07:21:48.667             1.242           480.344
        51   03 Jun 2027 07:23:05.542   03 Jun 2027 07:23:14.873             9.331          2302.469
        52   03 Jun 2027 07:23:48.321   03 Jun 2027 07:23:50.344             2.023          1011.500
        53   03 Jun 2027 07:23:57.909   03 Jun 2027 07:24:00.940             3.031           265.625
        54   03 Jun 2027 07:24:22.274   03 Jun 2027 07:24:24.576             2.302           642.312
        55   03 Jun 2027 08:55:30.225   03 Jun 2027 08:55:42.366            12.141          4118.094
        56   03 Jun 2027 08:56:13.116   03 Jun 2027 08:56:16.988             3.872           626.156
        57   03 Jun 2027 08:56:50.571   03 Jun 2027 08:56:51.885             1.314           520.438
        58   03 Jun 2027 08:56:58.238   03 Jun 2027 08:56:59.604             1.366            47.563
        59   03 Jun 2027 08:58:42.082   03 Jun 2027 08:58:48.255             6.173          3078.813
        60   03 Jun 2027 08:59:27.396   03 Jun 2027 08:59:39.238            11.842          1223.156
        61   03 Jun 2027 09:00:05.185   03 Jun 2027 09:00:12.171             6.986           228.969
        62   03 Jun 2027 09:00:47.100   03 Jun 2027 09:00:48.567             1.467           605.594
        63   03 Jun 2027 09:00:53.726   03 Jun 2027 09:00:55.812             2.086           161.219
        64   03 Jun 2027 09:01:47.027   03 Jun 2027 09:01:53.943             6.916          1486.719
        65   03 Jun 2027 09:01:57.499   03 Jun 2027 09:01:58.102             0.603            31.187
        66   03 Jun 2027 09:02:11.797   03 Jun 2027 09:02:14.930             3.133           408.938
        67   03 Jun 2027 09:02:33.360   03 Jun 2027 09:02:38.638             5.278           246.656
        68   03 Jun 2027 10:31:56.542   03 Jun 2027 10:32:09.967            13.425          6492.000
        69   03 Jun 2027 10:33:13.556   03 Jun 2027 10:33:18.406             4.850           617.938
        70   03 Jun 2027 10:34:04.587   03 Jun 2027 10:34:09.404             4.817          1330.063
        71   03 Jun 2027 10:34:20.529   03 Jun 2027 10:34:25.080             4.551           248.188
        72   03 Jun 2027 10:34:45.617   03 Jun 2027 10:34:50.560             4.943           581.563
        73   03 Jun 2027 10:35:03.567   03 Jun 2027 10:35:05.401             1.834           195.531
        74   03 Jun 2027 10:35:22.981   03 Jun 2027 10:35:27.398             4.417           549.375
        75   03 Jun 2027 10:35:54.748   03 Jun 2027 10:36:02.356             7.608           743.219
        76   03 Jun 2027 10:36:10.319   03 Jun 2027 10:36:10.931             0.612           175.000
        77   03 Jun 2027 10:37:00.460   03 Jun 2027 10:37:03.944             3.484          1439.500
        78   03 Jun 2027 10:37:07.215   03 Jun 2027 10:37:10.725             3.510            74.812
        79   03 Jun 2027 10:37:22.497   03 Jun 2027 10:37:30.428             7.931           367.875
        80   03 Jun 2027 10:37:52.988   03 Jun 2027 10:37:54.690             1.702           705.000
        81   03 Jun 2027 10:38:04.551   03 Jun 2027 10:38:06.206             1.655           182.781
        82   03 Jun 2027 10:38:17.920   03 Jun 2027 10:38:18.879             0.959           155.563
        83   04 Jun 2027 03:00:00.000   04 Jun 2027 03:00:16.947            16.947          8473.500
        84   04 Jun 2027 03:00:18.674   04 Jun 2027 03:00:44.340            25.666         12833.000
        85   04 Jun 2027 03:00:53.601   04 Jun 2027 03:00:55.650             2.049          1024.500
        86   04 Jun 2027 03:01:33.350   04 Jun 2027 03:02:11.750            38.400         19200.000
        87   04 Jun 2027 03:02:38.315   04 Jun 2027 03:02:38.315             0.000             0.000
        88   04 Jun 2027 03:02:47.265   04 Jun 2027 03:03:22.588            35.323         17661.500
        89   04 Jun 2027 04:21:26.051   04 Jun 2027 04:21:58.100            32.049         16024.500
        90   04 Jun 2027 04:32:44.964   04 Jun 2027 04:34:24.246            99.282         49641.000
        91   04 Jun 2027 04:35:25.252   04 Jun 2027 04:35:29.104             3.852          1926.000
        92   04 Jun 2027 05:55:20.170   04 Jun 2027 05:56:01.610            41.440         20720.000
        93   04 Jun 2027 05:56:38.173   04 Jun 2027 05:56:41.236             3.063          1531.500
        94   04 Jun 2027 05:57:01.827   04 Jun 2027 05:57:08.435             6.608          3304.000
        95   04 Jun 2027 05:57:31.797   04 Jun 2027 05:57:49.251            17.454          8727.000
        96   04 Jun 2027 05:59:53.000   04 Jun 2027 05:59:55.654             2.654          1327.000
        97   04 Jun 2027 07:30:52.614   04 Jun 2027 07:31:11.801            19.187          9593.500
        98   04 Jun 2027 07:31:42.640   04 Jun 2027 07:31:42.868             0.228           114.000
        99   04 Jun 2027 07:32:21.002   04 Jun 2027 07:32:27.426             6.424          1841.437
       100   04 Jun 2027 07:33:22.000   04 Jun 2027 07:33:29.940             7.940          1690.594
       101   04 Jun 2027 07:33:34.855   04 Jun 2027 07:33:40.832             5.977           153.594
       102   04 Jun 2027 07:35:05.018   04 Jun 2027 07:35:09.639             4.621          2202.813
       103   04 Jun 2027 07:35:25.305   04 Jun 2027 07:35:28.845             3.540           292.094
       104   04 Jun 2027 07:36:09.113   04 Jun 2027 07:36:12.118             3.005          1254.281
       105   04 Jun 2027 07:36:16.065   04 Jun 2027 07:36:21.041             4.976           123.344
       106   04 Jun 2027 07:36:40.934   04 Jun 2027 07:36:41.605             0.671           335.500
       107   04 Jun 2027 09:07:10.600   04 Jun 2027 09:07:17.367             6.767          3315.656
       108   04 Jun 2027 09:07:36.614   04 Jun 2027 09:07:36.866             0.252           124.094
       109   04 Jun 2027 09:07:38.353   04 Jun 2027 09:07:42.255             3.902            46.469
       110   04 Jun 2027 09:10:42.074   04 Jun 2027 09:10:52.034             9.960          4763.500
       111   04 Jun 2027 09:11:29.444   04 Jun 2027 09:11:32.639             3.195          1169.063
       112   04 Jun 2027 09:12:07.580   04 Jun 2027 09:12:11.179             3.599          1025.625
       113   04 Jun 2027 09:12:50.921   04 Jun 2027 09:12:52.771             1.850           673.906
       114   04 Jun 2027 09:13:11.575   04 Jun 2027 09:13:13.473             1.898           576.719
       115   04 Jun 2027 09:13:14.043   04 Jun 2027 09:13:15.936             1.893            17.812
       116   04 Jun 2027 09:13:34.246   04 Jun 2027 09:13:37.369             3.123           480.938
       117   04 Jun 2027 09:14:39.316   04 Jun 2027 09:14:43.390             4.074          1808.719
       118   04 Jun 2027 10:44:16.369   04 Jun 2027 10:44:35.509            19.140          9186.969
       119   04 Jun 2027 10:45:54.177   04 Jun 2027 10:46:00.449             6.272            89.562
       120   04 Jun 2027 10:46:15.979   04 Jun 2027 10:46:18.749             2.770           390.719
       121   04 Jun 2027 10:46:20.893   04 Jun 2027 10:46:23.085             2.192             0.562
       122   04 Jun 2027 10:46:35.933   04 Jun 2027 10:46:36.593             0.660            33.750
       123   04 Jun 2027 10:46:57.566   04 Jun 2027 10:46:59.576             2.010           342.531
       124   04 Jun 2027 10:47:09.034   04 Jun 2027 10:47:11.111             2.077           295.562
       125   04 Jun 2027 10:48:06.664   04 Jun 2027 10:48:11.591             4.927          1573.281
       126   04 Jun 2027 10:48:34.470   04 Jun 2027 10:48:36.297             1.827           714.969
       127   04 Jun 2027 10:49:21.760   04 Jun 2027 10:49:28.533             6.773          1420.719
       128   04 Jun 2027 10:50:35.713   04 Jun 2027 10:50:37.315             1.602           801.000
       129   05 Jun 2027 03:08:13.810   05 Jun 2027 03:11:04.764           170.954         85477.000
       130   05 Jun 2027 03:11:24.768   05 Jun 2027 03:11:26.381             1.613           806.500
       131   05 Jun 2027 03:13:37.945   05 Jun 2027 03:14:02.270            24.325         12162.500
       132   05 Jun 2027 03:14:23.813   05 Jun 2027 03:14:23.872             0.059            29.500
       133   05 Jun 2027 03:14:29.951   05 Jun 2027 03:14:59.446            29.495         14747.500
       134   05 Jun 2027 04:33:04.231   05 Jun 2027 04:33:15.572            11.341          5670.500
       135   05 Jun 2027 04:34:10.449   05 Jun 2027 04:34:32.772            22.323         11161.500
       136   05 Jun 2027 04:44:48.178   05 Jun 2027 04:45:47.494            59.316         29658.000
       137   05 Jun 2027 06:07:03.444   05 Jun 2027 06:07:21.686            18.242          9121.000
       138   05 Jun 2027 06:07:49.136   05 Jun 2027 06:07:56.234             7.098          1846.156
       139   05 Jun 2027 06:08:02.609   05 Jun 2027 06:08:03.204             0.595           196.469
       140   05 Jun 2027 06:09:31.150   05 Jun 2027 06:09:34.682             3.532          1641.563
       141   05 Jun 2027 06:11:19.314   05 Jun 2027 06:11:19.314             0.000             0.000
       142   05 Jun 2027 06:11:20.485   05 Jun 2027 06:11:28.959             8.474          2758.531
       143   05 Jun 2027 07:42:01.264   05 Jun 2027 07:42:15.230            13.966          6285.750
       144   05 Jun 2027 07:42:40.499   05 Jun 2027 07:42:42.420             1.921           319.219
       145   05 Jun 2027 07:43:27.637   05 Jun 2027 07:43:32.680             5.043          1121.469
       146   05 Jun 2027 07:44:11.354   05 Jun 2027 07:44:14.542             3.188          1175.000
       147   05 Jun 2027 07:44:41.010   05 Jun 2027 07:44:41.010             0.000             0.000
       148   05 Jun 2027 07:45:55.175   05 Jun 2027 07:46:02.168             6.993          2895.312
       149   05 Jun 2027 07:47:16.454   05 Jun 2027 07:47:22.520             6.066          2215.719
       150   05 Jun 2027 07:47:59.164   05 Jun 2027 07:48:01.731             2.567           956.062
       151   05 Jun 2027 07:48:28.126   05 Jun 2027 07:48:31.017             2.891           824.844
       152   05 Jun 2027 07:48:38.998   05 Jun 2027 07:48:39.875             0.877           207.875
       153   05 Jun 2027 07:49:59.518   05 Jun 2027 07:50:06.140             6.622          2295.531
       154   05 Jun 2027 09:19:29.772   05 Jun 2027 09:19:43.357            13.585          4425.812
       155   05 Jun 2027 09:20:13.654   05 Jun 2027 09:20:20.559             6.905           461.625
       156   05 Jun 2027 09:20:49.605   05 Jun 2027 09:20:50.204             0.599            34.781
       157   05 Jun 2027 09:21:39.769   05 Jun 2027 09:21:42.881             3.112           461.156
       158   05 Jun 2027 09:22:13.345   05 Jun 2027 09:22:15.767             2.422           949.813
       159   05 Jun 2027 09:23:16.482   05 Jun 2027 09:23:30.472            13.990          1766.844
       160   05 Jun 2027 09:24:16.574   05 Jun 2027 09:24:20.085             3.511          1418.906
       161   05 Jun 2027 09:24:35.270   05 Jun 2027 09:24:38.674             3.404           312.594
       162   05 Jun 2027 09:24:51.501   05 Jun 2027 09:24:56.986             5.485           400.844
       163   05 Jun 2027 09:25:10.573   05 Jun 2027 09:25:13.142             2.569           302.250
       164   05 Jun 2027 09:25:41.779   05 Jun 2027 09:25:44.643             2.864           798.250
       165   05 Jun 2027 09:25:53.643   05 Jun 2027 09:25:56.589             2.946            67.656
       166   05 Jun 2027 09:26:34.511   05 Jun 2027 09:26:42.790             8.279           927.344
       167   05 Jun 2027 10:56:14.579   05 Jun 2027 10:56:28.978            14.399          6196.844
       168   05 Jun 2027 10:57:49.202   05 Jun 2027 10:57:50.811             1.609           300.125
       169   05 Jun 2027 10:58:45.653   05 Jun 2027 10:58:46.772             1.119           471.469
       170   05 Jun 2027 10:59:05.769   05 Jun 2027 10:59:07.374             1.605           593.656
       171   05 Jun 2027 10:59:17.915   05 Jun 2027 10:59:20.601             2.686           232.219
       172   05 Jun 2027 11:00:18.330   05 Jun 2027 11:00:23.574             5.244          1333.656
       173   05 Jun 2027 11:01:07.631   05 Jun 2027 11:01:13.424             5.793          1332.063
       174   05 Jun 2027 11:01:56.285   05 Jun 2027 11:01:58.254             1.969           944.719
       175   05 Jun 2027 11:02:18.169   05 Jun 2027 11:02:19.772             1.603           558.750
       176   05 Jun 2027 11:02:43.455   05 Jun 2027 11:02:46.289             2.834           740.094
       177   05 Jun 2027 11:02:46.478   05 Jun 2027 11:02:46.616             0.138             5.906
       178   06 Jun 2027 03:20:15.865   06 Jun 2027 03:23:53.082           217.217        108608.500
       179   06 Jun 2027 03:26:19.206   06 Jun 2027 03:26:21.837             2.631          1315.500
       180   06 Jun 2027 03:26:39.048   06 Jun 2027 03:27:03.286            24.238         12119.000
       181   06 Jun 2027 03:27:14.468   06 Jun 2027 03:27:16.457             1.989           994.500
       182   06 Jun 2027 04:44:37.586   06 Jun 2027 04:45:39.269            61.683         30841.500
       183   06 Jun 2027 04:56:53.705   06 Jun 2027 04:57:21.220            27.515         13757.500
       184   06 Jun 2027 06:18:36.758   06 Jun 2027 06:18:52.269            15.511          6825.124
       185   06 Jun 2027 06:20:29.862   06 Jun 2027 06:20:34.913             5.051          1635.406
       186   06 Jun 2027 06:20:53.892   06 Jun 2027 06:20:53.892             0.000             0.000
       187   06 Jun 2027 06:21:01.948   06 Jun 2027 06:21:03.326             1.378           660.688
       188   06 Jun 2027 06:21:18.416   06 Jun 2027 06:21:21.020             2.604            76.875
       189   06 Jun 2027 06:21:33.884   06 Jun 2027 06:21:38.368             4.484           402.000
       190   06 Jun 2027 06:22:37.091   06 Jun 2027 06:22:40.673             3.582          1143.469
       191   06 Jun 2027 06:22:46.600   06 Jun 2027 06:22:47.361             0.761           137.562
       192   06 Jun 2027 06:23:51.908   06 Jun 2027 06:23:51.908             0.000             0.000
       193   06 Jun 2027 07:53:29.279   06 Jun 2027 07:53:36.868             7.589          3779.125
       194   06 Jun 2027 07:54:29.391   06 Jun 2027 07:54:34.529             5.138          1393.906
       195   06 Jun 2027 07:55:11.291   06 Jun 2027 07:55:13.558             2.267           301.344
       196   06 Jun 2027 07:55:34.883   06 Jun 2027 07:55:38.516             3.633            78.031
       197   06 Jun 2027 07:56:49.691   06 Jun 2027 07:56:59.787            10.096          2156.656
       198   06 Jun 2027 07:57:16.194   06 Jun 2027 07:57:20.797             4.603           512.719
       199   06 Jun 2027 07:58:06.701   06 Jun 2027 07:58:08.632             1.931           837.875
       200   06 Jun 2027 07:59:15.556   06 Jun 2027 07:59:18.960             3.404          1326.094
       201   06 Jun 2027 08:00:24.294   06 Jun 2027 08:00:27.919             3.625          1642.219
       202   06 Jun 2027 08:00:42.871   06 Jun 2027 08:00:43.718             0.847           349.094
       203   06 Jun 2027 08:01:52.777   06 Jun 2027 08:01:59.799             7.022          1883.531
       204   06 Jun 2027 09:31:22.973   06 Jun 2027 09:31:37.389            14.416          5890.844
       205   06 Jun 2027 09:32:17.223   06 Jun 2027 09:32:21.523             4.300          1244.812
       206   06 Jun 2027 09:32:48.898   06 Jun 2027 09:32:52.853             3.955           154.375
       207   06 Jun 2027 09:33:03.468   06 Jun 2027 09:33:07.111             3.643           160.125
       208   06 Jun 2027 09:33:24.239   06 Jun 2027 09:33:24.593             0.354           177.000
       209   06 Jun 2027 09:33:25.281   06 Jun 2027 09:33:25.724             0.443           114.031
       210   06 Jun 2027 09:34:24.987   06 Jun 2027 09:34:35.452            10.465          1851.969
       211   06 Jun 2027 09:35:02.740   06 Jun 2027 09:35:04.102             1.362           673.563
       212   06 Jun 2027 09:35:54.488   06 Jun 2027 09:35:58.894             4.406          1148.813
       213   06 Jun 2027 09:36:24.690   06 Jun 2027 09:36:27.774             3.084           452.375
       214   06 Jun 2027 09:37:16.128   06 Jun 2027 09:37:22.052             5.924          1490.875
       215   06 Jun 2027 09:37:55.731   06 Jun 2027 09:37:55.731             0.000             0.000
       216   06 Jun 2027 09:38:29.509   06 Jun 2027 09:38:39.454             9.945          1897.375
       217   06 Jun 2027 11:08:06.918   06 Jun 2027 11:08:15.633             8.715          4357.500
       218   06 Jun 2027 11:08:41.262   06 Jun 2027 11:08:49.442             8.180          3009.438
       219   06 Jun 2027 11:09:44.197   06 Jun 2027 11:09:47.139             2.942           729.063
       220   06 Jun 2027 11:10:54.936   06 Jun 2027 11:11:02.134             7.198          2010.031
       221   06 Jun 2027 11:12:10.305   06 Jun 2027 11:12:14.253             3.948          1959.750
       222   06 Jun 2027 11:12:32.727   06 Jun 2027 11:12:37.017             4.290           562.438
       223   06 Jun 2027 11:13:08.897   06 Jun 2027 11:13:13.552             4.655           996.250
       224   06 Jun 2027 11:13:45.969   06 Jun 2027 11:13:48.092             2.123           964.719
       225   06 Jun 2027 11:13:55.659   06 Jun 2027 11:13:55.659             0.000             0.000
       226   06 Jun 2027 11:14:12.500   06 Jun 2027 11:14:16.254             3.754           762.750
       227   06 Jun 2027 11:14:30.361   06 Jun 2027 11:14:37.468             7.107           414.656
       228   06 Jun 2027 11:14:45.343   06 Jun 2027 11:14:45.968             0.625           107.906
       229   07 Jun 2027 03:32:39.768   07 Jun 2027 03:36:17.859           218.091        109045.500
       230   07 Jun 2027 04:56:33.612   07 Jun 2027 04:57:44.758            71.146         35573.000
       231   07 Jun 2027 06:32:34.512   07 Jun 2027 06:33:00.482            25.970         12985.000
       232   07 Jun 2027 06:33:22.236   07 Jun 2027 06:33:24.257             2.021           939.312
       233   07 Jun 2027 06:35:40.899   07 Jun 2027 06:35:50.346             9.447          4159.344
       234   07 Jun 2027 08:06:21.965   07 Jun 2027 08:06:38.906            16.941          6319.281
       235   07 Jun 2027 08:07:35.739   07 Jun 2027 08:07:36.291             0.552             4.687
       236   07 Jun 2027 08:07:57.407   07 Jun 2027 08:07:58.079             0.672           125.688
       237   07 Jun 2027 08:08:43.115   07 Jun 2027 08:08:49.664             6.549           302.500
       238   07 Jun 2027 08:09:04.155   07 Jun 2027 08:09:05.084             0.929           447.250
       239   07 Jun 2027 08:10:10.365   07 Jun 2027 08:10:12.551             2.186           884.406
       240   07 Jun 2027 08:12:18.501   07 Jun 2027 08:12:21.942             3.441          1720.500
       241   07 Jun 2027 08:13:04.809   07 Jun 2027 08:13:08.771             3.962          1579.125
       242   07 Jun 2027 08:14:09.869   07 Jun 2027 08:14:13.490             3.621          1710.781
       243   07 Jun 2027 09:43:30.791   07 Jun 2027 09:43:44.745            13.954          5924.500
       244   07 Jun 2027 09:44:16.730   07 Jun 2027 09:44:17.745             1.015           123.719
       245   07 Jun 2027 09:44:53.079   07 Jun 2027 09:44:57.985             4.906           778.156
       246   07 Jun 2027 09:45:09.387   07 Jun 2027 09:45:13.355             3.968           176.563
       247   07 Jun 2027 09:47:33.453   07 Jun 2027 09:47:44.015            10.562          3937.687
       248   07 Jun 2027 09:48:32.169   07 Jun 2027 09:48:33.740             1.571           784.469
       249   07 Jun 2027 09:48:37.772   07 Jun 2027 09:48:39.133             1.361            88.906
       250   07 Jun 2027 09:48:56.226   07 Jun 2027 09:48:56.372             0.146            73.000
       251   07 Jun 2027 09:49:19.690   07 Jun 2027 09:49:25.623             5.933          1041.406
       252   07 Jun 2027 09:49:51.953   07 Jun 2027 09:49:52.236             0.283           137.344
       253   07 Jun 2027 09:50:24.451   07 Jun 2027 09:50:25.185             0.734           367.000
       254   07 Jun 2027 11:20:45.359   07 Jun 2027 11:21:01.515            16.156          7711.156
       255   07 Jun 2027 11:22:12.477   07 Jun 2027 11:22:17.189             4.712          2129.406
       256   07 Jun 2027 11:22:41.724   07 Jun 2027 11:22:44.957             3.233           623.281
       257   07 Jun 2027 11:23:01.291   07 Jun 2027 11:23:03.780             2.489           495.531
       258   07 Jun 2027 11:24:11.917   07 Jun 2027 11:24:16.249             4.332          2091.906
       259   07 Jun 2027 11:24:31.678   07 Jun 2027 11:24:35.797             4.119           472.812
       260   07 Jun 2027 11:24:51.220   07 Jun 2027 11:24:53.088             1.868           481.969
       261   07 Jun 2027 11:26:15.057   07 Jun 2027 11:26:20.642             5.585          2234.000
       262   08 Jun 2027 03:45:04.483   08 Jun 2027 03:48:39.262           214.779        107389.500
       263   08 Jun 2027 03:49:09.683   08 Jun 2027 03:49:09.683             0.000             0.000
       264   08 Jun 2027 05:08:26.662   08 Jun 2027 05:09:23.999            57.337         28668.500
       265   08 Jun 2027 05:09:58.513   08 Jun 2027 05:10:07.658             9.145          4572.500
       266   08 Jun 2027 06:44:47.661   08 Jun 2027 06:45:18.791            31.130         14960.500
       267   08 Jun 2027 06:45:40.328   08 Jun 2027 06:45:41.991             1.663           539.469
       268   08 Jun 2027 06:46:22.148   08 Jun 2027 06:46:22.674             0.526           263.000
       269   08 Jun 2027 06:47:06.888   08 Jun 2027 06:47:08.727             1.839           919.500
       270   08 Jun 2027 08:18:47.051   08 Jun 2027 08:18:58.482            11.431          5163.656
       271   08 Jun 2027 08:20:30.117   08 Jun 2027 08:20:34.138             4.021          1697.469
       272   08 Jun 2027 08:21:43.963   08 Jun 2027 08:21:53.393             9.430          1974.656
       273   08 Jun 2027 08:22:48.308   08 Jun 2027 08:22:48.308             0.000             0.000
       274   08 Jun 2027 08:23:57.825   08 Jun 2027 08:24:08.586            10.761          3888.500
       275   08 Jun 2027 08:24:15.025   08 Jun 2027 08:24:17.076             2.051           196.063
       276   08 Jun 2027 08:24:51.570   08 Jun 2027 08:24:53.930             2.360          1077.938
       277   08 Jun 2027 08:25:24.571   08 Jun 2027 08:25:28.828             4.257           311.969
       278   08 Jun 2027 08:26:22.580   08 Jun 2027 08:26:27.109             4.529          1679.750
       279   08 Jun 2027 09:55:56.294   08 Jun 2027 09:56:14.224            17.930          6495.937
       280   08 Jun 2027 09:57:57.523   08 Jun 2027 09:58:00.517             2.994           672.125
       281   08 Jun 2027 09:59:04.523   08 Jun 2027 09:59:06.693             2.170           967.156
       282   08 Jun 2027 09:59:36.477   08 Jun 2027 09:59:41.229             4.752           897.406
       283   08 Jun 2027 10:00:14.011   08 Jun 2027 10:00:17.362             3.351           122.250
       284   08 Jun 2027 10:00:45.330   08 Jun 2027 10:00:47.082             1.752           695.062
       285   08 Jun 2027 10:01:02.267   08 Jun 2027 10:01:03.798             1.531           474.531
       286   08 Jun 2027 10:01:31.851   08 Jun 2027 10:01:34.996             3.145           751.000
       287   08 Jun 2027 10:01:56.470   08 Jun 2027 10:02:02.120             5.650           671.063
       288   08 Jun 2027 10:02:06.627   08 Jun 2027 10:02:11.636             5.009           118.875
       289   08 Jun 2027 10:02:28.249   08 Jun 2027 10:02:29.482             1.233           465.656
       290   08 Jun 2027 11:32:55.388   08 Jun 2027 11:33:11.601            16.213          7668.844
       291   08 Jun 2027 11:34:46.991   08 Jun 2027 11:34:53.275             6.284          2519.281
       292   08 Jun 2027 11:35:12.613   08 Jun 2027 11:35:14.899             2.286           565.937
       293   08 Jun 2027 11:37:10.290   08 Jun 2027 11:37:19.944             9.654          3605.969
       294   08 Jun 2027 11:37:52.202   08 Jun 2027 11:37:55.487             3.285           785.562
       295   09 Jun 2027 03:57:22.758   09 Jun 2027 03:59:40.047           137.289         68644.500
       296   09 Jun 2027 03:59:47.907   09 Jun 2027 04:00:58.461            70.554         35277.000
       297   09 Jun 2027 04:01:17.348   09 Jun 2027 04:01:25.408             8.060          4030.000
       298   09 Jun 2027 05:20:20.333   09 Jun 2027 05:21:23.820            63.487         31743.500
       299   09 Jun 2027 06:56:53.325   09 Jun 2027 06:57:34.681            41.356         18833.093
       300   09 Jun 2027 06:57:59.026   09 Jun 2027 06:58:01.818             2.792           361.687
       301   09 Jun 2027 07:00:04.422   09 Jun 2027 07:00:14.919            10.497          3632.906
       302   09 Jun 2027 08:32:02.164   09 Jun 2027 08:32:11.028             8.864          4145.563
       303   09 Jun 2027 08:32:40.367   09 Jun 2027 08:32:43.679             3.312           200.781
       304   09 Jun 2027 08:33:33.760   09 Jun 2027 08:33:42.487             8.727           988.812
       305   09 Jun 2027 08:35:12.159   09 Jun 2027 08:35:12.159             0.000             0.000
       306   09 Jun 2027 08:35:40.451   09 Jun 2027 08:35:48.216             7.765          3591.188
       307   09 Jun 2027 08:36:13.924   09 Jun 2027 08:36:18.017             4.093           734.781
       308   09 Jun 2027 08:36:59.713   09 Jun 2027 08:37:00.207             0.494           196.969
       309   09 Jun 2027 08:37:38.258   09 Jun 2027 08:37:43.670             5.412           945.938
       310   09 Jun 2027 08:38:28.166   09 Jun 2027 08:38:30.224             2.058          1011.188
       311   09 Jun 2027 08:38:38.334   09 Jun 2027 08:38:39.350             1.016           230.750
       312   09 Jun 2027 10:08:22.492   09 Jun 2027 10:08:35.210            12.718          5982.031
       313   09 Jun 2027 10:09:37.902   09 Jun 2027 10:09:40.002             2.100           656.125
       314   09 Jun 2027 10:10:10.364   09 Jun 2027 10:10:13.167             2.803           209.406
       315   09 Jun 2027 10:10:30.715   09 Jun 2027 10:10:30.962             0.247            71.625
       316   09 Jun 2027 10:10:37.147   09 Jun 2027 10:10:38.843             1.696            91.938
       317   09 Jun 2027 10:11:09.280   09 Jun 2027 10:11:12.657             3.377           951.156
       318   09 Jun 2027 10:12:08.408   09 Jun 2027 10:12:13.008             4.600          1704.031
       319   09 Jun 2027 10:12:32.620   09 Jun 2027 10:12:34.203             1.583           612.875
       320   09 Jun 2027 10:12:43.036   09 Jun 2027 10:12:44.610             1.574           233.125
       321   09 Jun 2027 10:13:48.510   09 Jun 2027 10:13:52.762             4.252          1996.875
       322   09 Jun 2027 10:13:59.134   09 Jun 2027 10:14:04.995             5.861           153.438
       323   09 Jun 2027 10:14:36.535   09 Jun 2027 10:14:42.664             6.129           985.625
       324   09 Jun 2027 11:45:56.588   09 Jun 2027 11:46:12.838            16.250          6992.562
       325   09 Jun 2027 11:46:19.638   09 Jun 2027 11:46:23.672             4.034           212.500
       326   09 Jun 2027 11:46:51.521   09 Jun 2027 11:46:54.657             3.136           689.281
       327   09 Jun 2027 11:47:16.973   09 Jun 2027 11:47:19.774             2.801           328.375
       328   09 Jun 2027 11:49:55.814   09 Jun 2027 11:50:05.256             9.442          4721.000
       329   10 Jun 2027 04:09:07.605   10 Jun 2027 04:09:42.087            34.482         17241.000
       330   10 Jun 2027 04:09:56.235   10 Jun 2027 04:12:28.140           151.905         75952.500
       331   10 Jun 2027 05:32:28.319   10 Jun 2027 05:33:23.121            54.802         27401.000
       332   10 Jun 2027 05:35:22.122   10 Jun 2027 05:35:40.285            18.163          9081.500
       333   10 Jun 2027 07:09:03.799   10 Jun 2027 07:10:04.397            60.598         30142.969
       334   10 Jun 2027 07:10:27.057   10 Jun 2027 07:10:29.487             2.430           545.875
       335   10 Jun 2027 07:10:53.857   10 Jun 2027 07:10:56.137             2.280           656.656
       336   10 Jun 2027 07:11:20.217   10 Jun 2027 07:11:27.506             7.289           725.656
       337   10 Jun 2027 07:11:36.624   10 Jun 2027 07:11:37.888             1.264           205.656
       338   10 Jun 2027 08:44:14.046   10 Jun 2027 08:44:25.865            11.819          4485.344
       339   10 Jun 2027 08:45:39.450   10 Jun 2027 08:45:44.325             4.875          2201.187
       340   10 Jun 2027 08:45:52.731   10 Jun 2027 08:45:54.439             1.708           187.781
       341   10 Jun 2027 08:47:08.850   10 Jun 2027 08:47:14.217             5.367           981.875
       342   10 Jun 2027 08:47:42.984   10 Jun 2027 08:47:47.840             4.856           619.125
       343   10 Jun 2027 08:48:19.530   10 Jun 2027 08:48:21.972             2.442           652.156
       344   10 Jun 2027 08:49:37.176   10 Jun 2027 08:49:40.858             3.682          1223.438
       345   10 Jun 2027 08:49:53.105   10 Jun 2027 08:49:56.702             3.597           382.719
       346   10 Jun 2027 08:50:09.902   10 Jun 2027 08:50:11.388             1.486           138.062
       347   10 Jun 2027 08:50:44.855   10 Jun 2027 08:50:49.353             4.498          1002.031
       348   10 Jun 2027 10:20:34.519   10 Jun 2027 10:20:56.287            21.768          8967.031
       349   10 Jun 2027 10:21:46.848   10 Jun 2027 10:21:50.857             4.009           899.844
       350   10 Jun 2027 10:22:21.135   10 Jun 2027 10:22:26.374             5.239           691.500
       351   10 Jun 2027 10:24:06.444   10 Jun 2027 10:24:16.879            10.435          3127.188
       352   10 Jun 2027 10:24:25.932   10 Jun 2027 10:24:32.493             6.561           248.438
       353   10 Jun 2027 10:24:47.881   10 Jun 2027 10:24:47.881             0.000             0.000
       354   10 Jun 2027 10:24:56.891   10 Jun 2027 10:24:59.689             2.798           762.437
       355   10 Jun 2027 10:25:50.590   10 Jun 2027 10:25:55.512             4.922          1590.656
       356   10 Jun 2027 10:26:02.009   10 Jun 2027 10:26:03.310             1.301           104.813
       357   10 Jun 2027 10:26:23.276   10 Jun 2027 10:26:25.431             2.155           623.938
       358   10 Jun 2027 10:26:36.108   10 Jun 2027 10:26:39.349             3.241           329.625
       359   10 Jun 2027 11:58:00.126   10 Jun 2027 11:58:18.863            18.737          7782.250
       360   10 Jun 2027 11:58:32.175   10 Jun 2027 11:58:34.692             2.517           416.000
       361   10 Jun 2027 11:58:44.341   10 Jun 2027 11:58:47.665             3.324           171.375
       362   10 Jun 2027 11:59:01.066   10 Jun 2027 11:59:02.681             1.615           225.469
       363   10 Jun 2027 11:59:30.167   10 Jun 2027 11:59:36.322             6.155           758.469
       364   11 Jun 2027 04:10:21.178   11 Jun 2027 04:10:22.097             0.919           459.500
       365   11 Jun 2027 04:21:04.475   11 Jun 2027 04:21:44.828            40.353         20176.500
       366   11 Jun 2027 04:22:02.297   11 Jun 2027 04:24:40.131           157.834         78917.000
       367   11 Jun 2027 05:45:01.762   11 Jun 2027 05:46:15.056            73.294         36647.000
       368   11 Jun 2027 05:46:40.512   11 Jun 2027 05:47:11.385            30.873         14259.937
       369   11 Jun 2027 07:20:50.965   11 Jun 2027 07:21:13.103            22.138         10531.281
       370   11 Jun 2027 07:21:49.446   11 Jun 2027 07:21:52.642             3.196           840.313
       371   11 Jun 2027 07:22:27.042   11 Jun 2027 07:22:27.042             0.000             0.000
       372   11 Jun 2027 07:22:42.488   11 Jun 2027 07:22:45.347             2.859          1218.937
       373   11 Jun 2027 07:24:08.192   11 Jun 2027 07:24:12.419             4.227          2113.500
       374   11 Jun 2027 07:24:50.063   11 Jun 2027 07:24:53.980             3.917          1455.094
       375   11 Jun 2027 08:55:43.767   11 Jun 2027 08:55:46.747             2.980          1490.000
       376   11 Jun 2027 08:56:24.312   11 Jun 2027 08:56:32.693             8.381          3616.906
       377   11 Jun 2027 08:58:07.925   11 Jun 2027 08:58:11.216             3.291           638.938
       378   11 Jun 2027 08:59:04.222   11 Jun 2027 08:59:04.222             0.000             0.000
       379   11 Jun 2027 08:59:45.278   11 Jun 2027 08:59:54.133             8.855          2203.219
       380   11 Jun 2027 09:00:20.550   11 Jun 2027 09:00:28.415             7.865           268.469
       381   11 Jun 2027 09:01:04.960   11 Jun 2027 09:01:10.031             5.071           969.500
       382   11 Jun 2027 09:01:16.534   11 Jun 2027 09:01:19.596             3.062           186.344
       383   11 Jun 2027 09:01:41.295   11 Jun 2027 09:01:42.731             1.436           678.094
       384   11 Jun 2027 09:02:54.865   11 Jun 2027 09:02:58.773             3.908          1954.000
       385   11 Jun 2027 10:32:13.943   11 Jun 2027 10:32:32.535            18.592          9186.875
       386   11 Jun 2027 10:32:46.201   11 Jun 2027 10:32:49.785             3.584           206.781
       387   11 Jun 2027 10:33:24.342   11 Jun 2027 10:33:25.394             1.052           283.687
       388   11 Jun 2027 10:33:36.636   11 Jun 2027 10:33:38.419             1.783           244.656
       389   11 Jun 2027 10:34:20.646   11 Jun 2027 10:34:26.176             5.530          1249.375
       390   11 Jun 2027 10:34:35.017   11 Jun 2027 10:34:37.530             2.513           142.688
       391   11 Jun 2027 10:35:00.433   11 Jun 2027 10:35:04.652             4.219           551.031
       392   11 Jun 2027 10:35:20.012   11 Jun 2027 10:35:20.796             0.784           199.750
       393   11 Jun 2027 10:35:42.473   11 Jun 2027 10:35:45.467             2.994           677.406
       394   11 Jun 2027 10:36:30.152   11 Jun 2027 10:36:32.424             2.272          1136.000
       395   11 Jun 2027 10:36:50.803   11 Jun 2027 10:36:53.176             2.373           601.844
       396   11 Jun 2027 10:37:44.951   11 Jun 2027 10:37:55.344            10.393          1512.312
       397   11 Jun 2027 10:38:13.983   11 Jun 2027 10:38:15.531             1.548           516.344
       398   11 Jun 2027 10:38:19.967   11 Jun 2027 10:38:23.008             3.041           138.625
       399   12 Jun 2027 03:00:00.000   12 Jun 2027 03:00:12.385            12.385          6192.500
       400   12 Jun 2027 03:01:11.635   12 Jun 2027 03:01:39.935            28.300         14150.000
       401   12 Jun 2027 03:01:47.220   12 Jun 2027 03:01:48.836             1.616           808.000
       402   12 Jun 2027 03:02:25.094   12 Jun 2027 03:02:53.082            27.988         13994.000
       403   12 Jun 2027 03:03:03.941   12 Jun 2027 03:03:37.793            33.852         16926.000
       404   12 Jun 2027 04:21:39.781   12 Jun 2027 04:21:56.364            16.583          8291.500
       405   12 Jun 2027 04:22:33.195   12 Jun 2027 04:22:46.826            13.631          6815.500
       406   12 Jun 2027 04:33:00.948   12 Jun 2027 04:34:02.955            62.007         31003.500
       407   12 Jun 2027 04:34:05.889   12 Jun 2027 04:34:38.744            32.855         16427.500
       408   12 Jun 2027 05:55:36.508   12 Jun 2027 05:56:19.619            43.111         21555.500
       409   12 Jun 2027 05:57:25.342   12 Jun 2027 05:57:44.852            19.510          9755.000
       410   12 Jun 2027 05:59:35.704   12 Jun 2027 05:59:35.877             0.173            86.500
       411   12 Jun 2027 06:00:08.548   12 Jun 2027 06:00:13.481             4.933          2466.500
       412   12 Jun 2027 07:31:07.540   12 Jun 2027 07:31:48.929            41.389         20694.500
       413   12 Jun 2027 07:33:21.075   12 Jun 2027 07:33:30.556             9.481          3811.001
       414   12 Jun 2027 07:33:52.231   12 Jun 2027 07:33:55.602             3.371           189.187
       415   12 Jun 2027 07:35:23.070   12 Jun 2027 07:35:32.266             9.196          2229.094
       416   12 Jun 2027 07:35:43.302   12 Jun 2027 07:35:45.326             2.024           344.875
       417   12 Jun 2027 07:36:25.727   12 Jun 2027 07:36:29.018             3.291          1262.531
       418   12 Jun 2027 07:36:57.215   12 Jun 2027 07:36:59.113             1.898           734.250
       419   12 Jun 2027 07:36:59.708   12 Jun 2027 07:36:59.941             0.233            18.594
       420   12 Jun 2027 09:07:27.544   12 Jun 2027 09:07:36.627             9.083          4028.750
       421   12 Jun 2027 09:09:47.729   12 Jun 2027 09:09:55.136             7.407          3654.000
       422   12 Jun 2027 09:10:25.044   12 Jun 2027 09:10:27.879             2.835           860.656
       423   12 Jun 2027 09:10:52.199   12 Jun 2027 09:10:54.693             2.494           725.031
       424   12 Jun 2027 09:11:47.294   12 Jun 2027 09:11:53.516             6.222          1542.406
       425   12 Jun 2027 09:13:27.347   12 Jun 2027 09:13:33.702             6.355          2932.219
       426   12 Jun 2027 09:13:44.418   12 Jun 2027 09:13:45.393             0.975           118.937
       427   12 Jun 2027 09:13:56.168   12 Jun 2027 09:13:56.853             0.685           288.625
       428   12 Jun 2027 09:14:53.965   12 Jun 2027 09:14:59.578             5.613          1784.750
       429   12 Jun 2027 10:44:33.738   12 Jun 2027 10:44:50.441            16.703          8328.250
       430   12 Jun 2027 10:45:58.964   12 Jun 2027 10:46:06.512             7.548          2105.531
       431   12 Jun 2027 10:46:10.724   12 Jun 2027 10:46:14.289             3.565           123.563
       432   12 Jun 2027 10:46:31.020   12 Jun 2027 10:46:33.591             2.571           410.594
       433   12 Jun 2027 10:46:38.678   12 Jun 2027 10:46:39.206             0.528            72.250
       434   12 Jun 2027 10:47:21.007   12 Jun 2027 10:47:23.694             2.687          1130.125
       435   12 Jun 2027 10:48:01.104   12 Jun 2027 10:48:03.992             2.888          1169.063
       436   12 Jun 2027 10:48:36.484   12 Jun 2027 10:48:42.711             6.227           768.938
       437   12 Jun 2027 10:49:14.869   12 Jun 2027 10:49:17.204             2.335          1004.937
       438   12 Jun 2027 10:49:48.863   12 Jun 2027 10:50:01.804            12.941           865.781
       439   12 Jun 2027 10:50:10.764   12 Jun 2027 10:50:12.464             1.700           141.094
       440   13 Jun 2027 03:08:30.363   13 Jun 2027 03:10:41.809           131.446         65723.000
       441   13 Jun 2027 03:10:50.330   13 Jun 2027 03:11:13.114            22.784         11392.000
       442   13 Jun 2027 03:12:12.642   13 Jun 2027 03:12:16.462             3.820          1910.000
       443   13 Jun 2027 03:12:59.904   13 Jun 2027 03:12:59.904             0.000             0.000
       444   13 Jun 2027 03:13:53.575   13 Jun 2027 03:14:32.991            39.416         19708.000
       445   13 Jun 2027 03:15:18.422   13 Jun 2027 03:15:38.419            19.997          9998.500
       446   13 Jun 2027 04:33:20.179   13 Jun 2027 04:33:56.599            36.420         18210.000
       447   13 Jun 2027 04:34:41.251   13 Jun 2027 04:34:41.251             0.000             0.000
       448   13 Jun 2027 04:45:04.620   13 Jun 2027 04:46:02.922            58.302         29151.000
       449   13 Jun 2027 06:07:18.887   13 Jun 2027 06:08:03.161            44.274         21586.719
       450   13 Jun 2027 06:09:12.972   13 Jun 2027 06:09:17.406             4.434          1852.750
       451   13 Jun 2027 06:09:46.789   13 Jun 2027 06:09:46.789             0.000             0.000
       452   13 Jun 2027 06:10:18.636   13 Jun 2027 06:10:26.901             8.265          1913.438
       453   13 Jun 2027 06:11:07.453   13 Jun 2027 06:11:07.453             0.000             0.000
       454   13 Jun 2027 07:42:15.458   13 Jun 2027 07:42:27.817            12.359          5995.094
       455   13 Jun 2027 07:43:21.687   13 Jun 2027 07:43:21.967             0.280           140.000
       456   13 Jun 2027 07:44:10.648   13 Jun 2027 07:44:12.499             1.851           925.500
       457   13 Jun 2027 07:44:20.734   13 Jun 2027 07:44:23.441             2.707          1277.687
       458   13 Jun 2027 07:45:18.720   13 Jun 2027 07:45:24.730             6.010          1580.094
       459   13 Jun 2027 07:45:54.832   13 Jun 2027 07:46:02.006             7.174           748.031
       460   13 Jun 2027 07:46:22.424   13 Jun 2027 07:46:22.424             0.000             0.000
       461   13 Jun 2027 07:47:32.733   13 Jun 2027 07:47:38.382             5.649          2744.219
       462   13 Jun 2027 07:48:15.662   13 Jun 2027 07:48:30.014            14.352           909.531
       463   13 Jun 2027 07:48:54.204   13 Jun 2027 07:48:55.537             1.333           408.219
       464   13 Jun 2027 07:50:14.954   13 Jun 2027 07:50:22.719             7.765          2261.094
       465   13 Jun 2027 09:19:45.237   13 Jun 2027 09:19:53.275             8.038          4019.000
       466   13 Jun 2027 09:20:30.180   13 Jun 2027 09:20:32.644             2.464          1169.469
       467   13 Jun 2027 09:20:43.739   13 Jun 2027 09:20:46.822             3.083           276.937
       468   13 Jun 2027 09:20:53.396   13 Jun 2027 09:20:56.384             2.988           190.875
       469   13 Jun 2027 09:21:54.222   13 Jun 2027 09:21:56.182             1.960           444.562
       470   13 Jun 2027 09:22:29.359   13 Jun 2027 09:22:35.864             6.505           948.187
       471   13 Jun 2027 09:23:19.442   13 Jun 2027 09:23:23.541             4.099           936.219
       472   13 Jun 2027 09:23:48.988   13 Jun 2027 09:23:56.766             7.778           541.750
       473   13 Jun 2027 09:24:15.522   13 Jun 2027 09:24:18.173             2.651           483.500
       474   13 Jun 2027 09:25:25.057   13 Jun 2027 09:25:30.519             5.462          1568.250
       475   13 Jun 2027 09:25:54.154   13 Jun 2027 09:25:54.154             0.000             0.000
       476   13 Jun 2027 09:26:19.409   13 Jun 2027 09:26:25.553             6.144          1309.531
       477   13 Jun 2027 09:26:42.541   13 Jun 2027 09:26:44.706             2.165           299.000
       478   13 Jun 2027 10:56:29.922   13 Jun 2027 10:56:45.933            16.011          7402.500
       479   13 Jun 2027 10:57:34.426   13 Jun 2027 10:57:38.630             4.204          1483.187
       480   13 Jun 2027 10:58:07.570   13 Jun 2027 10:58:12.078             4.508           754.063
       481   13 Jun 2027 10:58:51.609   13 Jun 2027 10:58:53.355             1.746           849.625
       482   13 Jun 2027 10:59:29.447   13 Jun 2027 10:59:31.788             2.341           881.406
       483   13 Jun 2027 10:59:51.961   13 Jun 2027 10:59:55.613             3.652           596.812
       484   13 Jun 2027 11:00:31.126   13 Jun 2027 11:00:33.182             2.056           808.875
       485   13 Jun 2027 11:00:43.904   13 Jun 2027 11:00:45.535             1.631           335.062
       486   13 Jun 2027 11:00:54.731   13 Jun 2027 11:01:06.487            11.756           261.094
       487   13 Jun 2027 11:02:33.575   13 Jun 2027 11:02:40.133             6.558          2356.594
