uniorb/output/strategy_2/Camera/Camera_KinoSat_110510.txt

KinoSat_110510
-------------------------
    Access    *     Start Time (UTCG)     *     Stop Time (UTCG)  *   Duration (s) *   Data (Mbytes)
         1   01 Jun 2027 03:00:31.132   01 Jun 2027 03:00:38.155             7.023          3511.500
         2   01 Jun 2027 03:01:13.369   01 Jun 2027 03:01:15.069             1.700           850.000
         3   01 Jun 2027 03:01:24.544   01 Jun 2027 03:01:28.763             4.219          2109.500
         4   01 Jun 2027 03:02:01.530   01 Jun 2027 03:02:05.220             3.690          1845.000
         5   01 Jun 2027 03:02:40.007   01 Jun 2027 03:02:41.562             1.555           777.500
         6   01 Jun 2027 03:02:50.277   01 Jun 2027 03:02:55.356             5.079          2539.500
         7   01 Jun 2027 03:03:48.677   01 Jun 2027 03:03:51.803             3.126          1563.000
         8   01 Jun 2027 04:35:39.972   01 Jun 2027 04:35:46.740             6.768          3384.000
         9   01 Jun 2027 04:36:48.698   01 Jun 2027 04:36:48.963             0.265           132.500
        10   01 Jun 2027 04:37:01.722   01 Jun 2027 04:37:05.398             3.676          1838.000
        11   01 Jun 2027 04:37:57.811   01 Jun 2027 04:38:02.266             4.455          2227.500
        12   01 Jun 2027 04:38:53.158   01 Jun 2027 04:38:54.970             1.812           906.000
        13   01 Jun 2027 04:40:05.360   01 Jun 2027 04:40:18.169            12.809          6404.500
        14   01 Jun 2027 04:41:03.636   01 Jun 2027 04:41:09.472             5.836          2918.000
        15   01 Jun 2027 04:41:54.980   01 Jun 2027 04:42:18.909            23.929         11964.500
        16   01 Jun 2027 06:11:59.893   01 Jun 2027 06:12:02.040             2.147          1073.500
        17   01 Jun 2027 06:12:08.196   01 Jun 2027 06:12:37.228            29.032         14516.000
        18   01 Jun 2027 06:14:52.758   01 Jun 2027 06:14:55.040             2.282          1141.000
        19   01 Jun 2027 06:15:09.599   01 Jun 2027 06:15:17.918             8.319          4159.500
        20   01 Jun 2027 06:15:43.588   01 Jun 2027 06:15:52.386             8.798          4399.000
        21   01 Jun 2027 06:16:32.459   01 Jun 2027 06:16:33.877             1.418           709.000
        22   01 Jun 2027 06:16:43.010   01 Jun 2027 06:17:07.646            24.636         12318.000
        23   01 Jun 2027 07:49:34.576   01 Jun 2027 07:49:35.263             0.687           343.500
        24   01 Jun 2027 07:50:13.894   01 Jun 2027 07:50:23.650             9.756          4878.000
        25   01 Jun 2027 07:51:32.289   01 Jun 2027 07:51:34.915             2.626          1313.000
        26   01 Jun 2027 07:52:25.893   01 Jun 2027 07:52:26.856             0.963           481.500
        27   01 Jun 2027 07:52:27.858   01 Jun 2027 07:52:35.665             7.807          3903.500
        28   01 Jun 2027 07:53:13.320   01 Jun 2027 07:53:25.535            12.215          6107.500
        29   01 Jun 2027 09:25:37.258   01 Jun 2027 09:25:43.436             6.178          3089.000
        30   01 Jun 2027 09:26:10.610   01 Jun 2027 09:26:19.803             9.193          4596.500
        31   01 Jun 2027 09:27:41.896   01 Jun 2027 09:27:52.892            10.996          5498.000
        32   01 Jun 2027 09:28:38.941   01 Jun 2027 09:28:52.342            13.401          6700.500
        33   02 Jun 2027 03:12:41.557   02 Jun 2027 03:12:46.370             4.813          2406.500
        34   02 Jun 2027 03:13:16.318   02 Jun 2027 03:13:20.193             3.875          1937.500
        35   02 Jun 2027 03:13:36.726   02 Jun 2027 03:13:40.814             4.088          2044.000
        36   02 Jun 2027 03:14:25.595   02 Jun 2027 03:14:28.251             2.656          1328.000
        37   02 Jun 2027 03:14:39.024   02 Jun 2027 03:14:39.108             0.084            42.000
        38   02 Jun 2027 03:15:28.659   02 Jun 2027 03:15:41.195            12.536          6268.000
        39   02 Jun 2027 04:47:51.565   02 Jun 2027 04:47:58.251             6.686          3343.000
        40   02 Jun 2027 04:48:33.218   02 Jun 2027 04:49:04.346            31.128         15564.000
        41   02 Jun 2027 04:51:30.151   02 Jun 2027 04:51:36.435             6.284          3142.000
        42   02 Jun 2027 04:51:48.774   02 Jun 2027 04:52:10.937            22.163         11081.500
        43   02 Jun 2027 04:52:53.729   02 Jun 2027 04:52:53.785             0.056            28.000
        44   02 Jun 2027 04:53:41.781   02 Jun 2027 04:53:41.781             0.000             0.000
        45   02 Jun 2027 04:54:11.401   02 Jun 2027 04:54:13.839             2.438          1219.000
        46   02 Jun 2027 06:24:12.536   02 Jun 2027 06:24:31.772            19.236          9618.000
        47   02 Jun 2027 06:25:10.545   02 Jun 2027 06:25:18.914             8.369          4184.500
        48   02 Jun 2027 06:26:39.133   02 Jun 2027 06:26:42.809             3.676          1838.000
        49   02 Jun 2027 06:27:03.508   02 Jun 2027 06:27:15.305            11.797          5898.500
        50   02 Jun 2027 06:28:14.032   02 Jun 2027 06:28:22.278             8.246          4123.000
        51   02 Jun 2027 06:28:56.435   02 Jun 2027 06:28:58.688             2.253          1126.500
        52   02 Jun 2027 06:29:26.874   02 Jun 2027 06:29:29.539             2.665          1332.500
        53   02 Jun 2027 06:29:51.969   02 Jun 2027 06:30:03.486            11.517          5758.500
        54   02 Jun 2027 08:01:29.406   02 Jun 2027 08:01:31.355             1.949           974.500
        55   02 Jun 2027 08:01:55.970   02 Jun 2027 08:01:59.668             3.698          1849.000
        56   02 Jun 2027 08:03:11.961   02 Jun 2027 08:03:13.016             1.055           527.500
        57   02 Jun 2027 08:03:33.695   02 Jun 2027 08:03:37.609             3.914          1957.000
        58   02 Jun 2027 08:03:49.442   02 Jun 2027 08:04:04.660            15.218          7609.000
        59   02 Jun 2027 08:05:14.118   02 Jun 2027 08:05:20.892             6.774          3387.000
        60   02 Jun 2027 08:06:09.477   02 Jun 2027 08:06:10.293             0.816           408.000
        61   02 Jun 2027 09:37:41.730   02 Jun 2027 09:37:48.436             6.706          3353.000
        62   02 Jun 2027 09:38:21.959   02 Jun 2027 09:38:31.947             9.988          4994.000
        63   02 Jun 2027 09:39:58.915   02 Jun 2027 09:40:03.288             4.373          2186.500
        64   02 Jun 2027 09:40:25.470   02 Jun 2027 09:40:32.664             7.194          3597.000
        65   02 Jun 2027 09:41:17.091   02 Jun 2027 09:41:32.982            15.891          7945.500
        66   03 Jun 2027 03:24:29.421   03 Jun 2027 03:24:34.845             5.424          2712.000
        67   03 Jun 2027 03:25:00.389   03 Jun 2027 03:25:03.778             3.389          1694.500
        68   03 Jun 2027 03:25:12.801   03 Jun 2027 03:25:13.710             0.909           454.500
        69   03 Jun 2027 03:25:24.248   03 Jun 2027 03:25:24.798             0.550           275.000
        70   03 Jun 2027 03:25:38.520   03 Jun 2027 03:25:41.255             2.735          1367.500
        71   03 Jun 2027 03:26:06.846   03 Jun 2027 03:26:25.342            18.496          9248.000
        72   03 Jun 2027 03:27:45.068   03 Jun 2027 03:27:48.660             3.592          1796.000
        73   03 Jun 2027 03:28:21.309   03 Jun 2027 03:28:32.780            11.471          5735.500
        74   03 Jun 2027 04:59:22.994   03 Jun 2027 04:59:27.026             4.032          2016.000
        75   03 Jun 2027 05:00:10.773   03 Jun 2027 05:00:22.426            11.653          5826.500
        76   03 Jun 2027 05:00:34.531   03 Jun 2027 05:00:39.804             5.273          2636.500
        77   03 Jun 2027 05:01:51.696   03 Jun 2027 05:01:58.212             6.516          3258.000
        78   03 Jun 2027 05:03:00.313   03 Jun 2027 05:03:06.790             6.477          3238.500
        79   03 Jun 2027 05:03:37.347   03 Jun 2027 05:03:41.549             4.202          2101.000
        80   03 Jun 2027 05:04:16.556   03 Jun 2027 05:04:34.840            18.284          9142.000
        81   03 Jun 2027 05:06:33.268   03 Jun 2027 05:06:34.593             1.325           662.500
        82   03 Jun 2027 06:35:50.445   03 Jun 2027 06:35:52.149             1.704           852.000
        83   03 Jun 2027 06:36:30.856   03 Jun 2027 06:36:46.093            15.237          7618.500
        84   03 Jun 2027 06:37:54.019   03 Jun 2027 06:37:58.055             4.036          2018.000
        85   03 Jun 2027 06:38:06.264   03 Jun 2027 06:38:12.040             5.776          2888.000
        86   03 Jun 2027 06:39:08.371   03 Jun 2027 06:39:19.463            11.092          5546.000
        87   03 Jun 2027 06:40:04.142   03 Jun 2027 06:40:09.511             5.369          2684.500
        88   03 Jun 2027 06:40:40.162   03 Jun 2027 06:40:41.797             1.635           817.500
        89   03 Jun 2027 06:40:48.874   03 Jun 2027 06:40:50.105             1.231           615.500
        90   03 Jun 2027 06:41:10.337   03 Jun 2027 06:41:16.953             6.616          3308.000
        91   03 Jun 2027 06:42:01.240   03 Jun 2027 06:42:14.988            13.748          6874.000
        92   03 Jun 2027 08:14:08.729   03 Jun 2027 08:14:19.027            10.298          5149.000
        93   03 Jun 2027 08:15:11.188   03 Jun 2027 08:15:12.870             1.682           841.000
        94   03 Jun 2027 08:15:39.825   03 Jun 2027 08:15:40.142             0.317           158.500
        95   03 Jun 2027 08:16:12.240   03 Jun 2027 08:16:15.386             3.146          1573.000
        96   03 Jun 2027 08:16:33.818   03 Jun 2027 08:16:41.302             7.484          3742.000
        97   03 Jun 2027 08:17:19.784   03 Jun 2027 08:17:27.229             7.445          3722.500
        98   03 Jun 2027 09:49:35.384   03 Jun 2027 09:49:40.256             4.872          2436.000
        99   03 Jun 2027 09:50:17.627   03 Jun 2027 09:50:17.685             0.058            29.000
       100   03 Jun 2027 09:50:38.026   03 Jun 2027 09:50:44.200             6.174          3087.000
       101   03 Jun 2027 09:52:06.519   03 Jun 2027 09:52:21.354            14.835          7417.500
       102   03 Jun 2027 09:53:32.258   03 Jun 2027 09:53:35.137             2.879          1439.500
       103   03 Jun 2027 09:54:04.760   03 Jun 2027 09:54:08.254             3.494          1747.000
       104   03 Jun 2027 09:54:32.179   03 Jun 2027 09:54:33.132             0.953           476.500
       105   04 Jun 2027 03:34:45.665   04 Jun 2027 03:35:08.609            22.944         11472.000
       106   04 Jun 2027 03:37:03.187   04 Jun 2027 03:37:09.668             6.481          3240.500
       107   04 Jun 2027 03:37:38.723   04 Jun 2027 03:37:42.125             3.402          1701.000
       108   04 Jun 2027 03:38:16.804   04 Jun 2027 03:38:24.701             7.897          3948.500
       109   04 Jun 2027 03:39:15.669   04 Jun 2027 03:39:15.939             0.270           135.000
       110   04 Jun 2027 03:39:22.314   04 Jun 2027 03:39:28.922             6.608          3304.000
       111   04 Jun 2027 03:40:05.457   04 Jun 2027 03:40:05.666             0.209           104.500
       112   04 Jun 2027 03:40:06.881   04 Jun 2027 03:40:11.530             4.649          2324.500
       113   04 Jun 2027 05:11:04.084   04 Jun 2027 05:11:04.164             0.080            40.000
       114   04 Jun 2027 05:11:15.696   04 Jun 2027 05:11:20.492             4.796          2398.000
       115   04 Jun 2027 05:12:33.894   04 Jun 2027 05:12:40.917             7.023          3511.500
       116   04 Jun 2027 05:13:09.174   04 Jun 2027 05:13:10.432             1.258           629.000
       117   04 Jun 2027 05:13:37.771   04 Jun 2027 05:13:41.821             4.050          2025.000
       118   04 Jun 2027 05:14:56.654   04 Jun 2027 05:14:58.757             2.103          1051.500
       119   04 Jun 2027 05:16:01.199   04 Jun 2027 05:16:05.421             4.222          2111.000
       120   04 Jun 2027 05:17:01.537   04 Jun 2027 05:17:04.990             3.453          1726.500
       121   04 Jun 2027 05:17:29.499   04 Jun 2027 05:17:36.242             6.743          3371.500
       122   04 Jun 2027 05:17:51.359   04 Jun 2027 05:17:52.574             1.215           607.500
       123   04 Jun 2027 05:18:20.382   04 Jun 2027 05:18:20.567             0.185            92.500
       124   04 Jun 2027 05:18:22.297   04 Jun 2027 05:18:24.421             2.124          1062.000
       125   04 Jun 2027 05:18:35.375   04 Jun 2027 05:18:37.167             1.792           896.000
       126   04 Jun 2027 06:48:10.006   04 Jun 2027 06:48:28.490            18.484          9242.000
       127   04 Jun 2027 06:49:34.949   04 Jun 2027 06:49:44.514             9.565          4782.500
       128   04 Jun 2027 06:50:34.645   04 Jun 2027 06:50:38.745             4.100          2050.000
       129   04 Jun 2027 06:50:53.468   04 Jun 2027 06:50:56.552             3.084          1542.000
       130   04 Jun 2027 06:51:20.185   04 Jun 2027 06:51:29.024             8.839          4419.500
       131   04 Jun 2027 06:52:14.973   04 Jun 2027 06:52:16.311             1.338           669.000
       132   04 Jun 2027 06:52:50.811   04 Jun 2027 06:52:54.943             4.132          2066.000
       133   04 Jun 2027 06:53:15.509   04 Jun 2027 06:53:16.453             0.944           472.000
       134   04 Jun 2027 06:54:28.753   04 Jun 2027 06:54:30.402             1.649           824.500
       135   04 Jun 2027 08:26:06.890   04 Jun 2027 08:26:15.560             8.670          4335.000
       136   04 Jun 2027 08:27:11.719   04 Jun 2027 08:27:14.639             2.920          1460.000
       137   04 Jun 2027 08:27:46.990   04 Jun 2027 08:27:48.677             1.687           843.500
       138   04 Jun 2027 08:28:20.752   04 Jun 2027 08:28:27.873             7.121          3560.500
       139   04 Jun 2027 08:29:16.234   04 Jun 2027 08:29:20.478             4.244          2122.000
       140   04 Jun 2027 08:29:45.137   04 Jun 2027 08:29:52.002             6.865          3432.500
       141   04 Jun 2027 09:59:11.709   04 Jun 2027 09:59:35.575            23.866         11933.000
       142   04 Jun 2027 09:59:41.275   04 Jun 2027 09:59:56.472            15.197          7598.500
       143   04 Jun 2027 10:02:31.036   04 Jun 2027 10:02:39.510             8.474          4237.000
       144   04 Jun 2027 10:03:32.229   04 Jun 2027 10:03:33.279             1.050           525.000
       145   04 Jun 2027 10:03:44.386   04 Jun 2027 10:03:51.071             6.685          3342.500
       146   04 Jun 2027 10:04:30.543   04 Jun 2027 10:04:32.111             1.568           784.000
       147   04 Jun 2027 10:04:52.369   04 Jun 2027 10:05:08.999            16.630          8315.000
       148   04 Jun 2027 10:05:22.053   04 Jun 2027 10:05:24.376             2.323          1161.500
       149   04 Jun 2027 10:06:32.424   04 Jun 2027 10:06:41.267             8.843          4421.500
       150   05 Jun 2027 03:45:54.567   05 Jun 2027 03:46:04.142             9.575          4787.500
       151   05 Jun 2027 03:47:10.304   05 Jun 2027 03:47:18.807             8.503          4251.500
       152   05 Jun 2027 03:47:47.178   05 Jun 2027 03:47:47.178             0.000             0.000
       153   05 Jun 2027 03:47:58.157   05 Jun 2027 03:48:05.661             7.504          3752.000
       154   05 Jun 2027 03:48:43.959   05 Jun 2027 03:48:50.396             6.437          3218.500
       155   05 Jun 2027 03:49:15.247   05 Jun 2027 03:49:18.682             3.435          1717.500
       156   05 Jun 2027 03:49:33.733   05 Jun 2027 03:49:34.513             0.780           390.000
       157   05 Jun 2027 03:49:57.362   05 Jun 2027 03:50:13.342            15.980          7990.000
       158   05 Jun 2027 03:51:20.857   05 Jun 2027 03:51:31.227            10.370          5185.000
       159   05 Jun 2027 03:51:51.255   05 Jun 2027 03:51:54.285             3.030          1515.000
       160   05 Jun 2027 03:53:51.560   05 Jun 2027 03:53:52.973             1.413           706.500
       161   05 Jun 2027 05:23:22.966   05 Jun 2027 05:23:29.200             6.234          3117.000
       162   05 Jun 2027 05:24:09.215   05 Jun 2027 05:24:20.594            11.379          5689.500
       163   05 Jun 2027 05:25:12.340   05 Jun 2027 05:25:14.659             2.319          1159.500
       164   05 Jun 2027 05:25:52.631   05 Jun 2027 05:25:55.750             3.119          1559.500
       165   05 Jun 2027 05:26:36.333   05 Jun 2027 05:26:50.960            14.627          7313.500
       166   05 Jun 2027 05:28:09.156   05 Jun 2027 05:28:28.186            19.030          9515.000
       167   05 Jun 2027 05:29:23.884   05 Jun 2027 05:29:33.123             9.239          4619.500
       168   05 Jun 2027 07:00:07.781   05 Jun 2027 07:00:11.988             4.207          2103.500
       169   05 Jun 2027 07:00:39.232   05 Jun 2027 07:00:48.114             8.882          4441.000
       170   05 Jun 2027 07:01:19.895   05 Jun 2027 07:01:27.146             7.251          3625.500
       171   05 Jun 2027 07:01:59.379   05 Jun 2027 07:02:12.712            13.333          6666.500
       172   05 Jun 2027 07:03:17.027   05 Jun 2027 07:03:21.124             4.097          2048.500
       173   05 Jun 2027 07:03:54.173   05 Jun 2027 07:03:54.455             0.282           141.000
       174   05 Jun 2027 07:03:57.022   05 Jun 2027 07:04:07.041            10.019          5009.500
       175   05 Jun 2027 07:05:35.583   05 Jun 2027 07:05:40.780             5.197          2598.500
       176   05 Jun 2027 07:06:19.878   05 Jun 2027 07:06:20.687             0.809           404.500
       177   05 Jun 2027 08:38:06.102   05 Jun 2027 08:38:06.148             0.046            23.000
       178   05 Jun 2027 08:38:14.426   05 Jun 2027 08:38:20.133             5.707          2853.500
       179   05 Jun 2027 08:38:44.804   05 Jun 2027 08:38:51.741             6.937          3468.500
       180   05 Jun 2027 08:40:09.440   05 Jun 2027 08:40:16.379             6.939          3469.500
       181   05 Jun 2027 08:41:00.205   05 Jun 2027 08:41:02.886             2.681          1340.500
       182   05 Jun 2027 08:41:32.010   05 Jun 2027 08:41:35.115             3.105          1552.500
       183   05 Jun 2027 08:41:52.519   05 Jun 2027 08:41:59.211             6.692          3346.000
       184   05 Jun 2027 10:11:43.976   05 Jun 2027 10:11:53.788             9.812          4906.000
       185   05 Jun 2027 10:12:49.923   05 Jun 2027 10:12:53.954             4.031          2015.500
       186   05 Jun 2027 10:13:27.539   05 Jun 2027 10:13:45.162            17.623          8811.500
       187   05 Jun 2027 10:15:16.315   05 Jun 2027 10:15:18.976             2.661          1330.500
       188   05 Jun 2027 10:15:52.332   05 Jun 2027 10:15:52.704             0.372           186.000
       189   05 Jun 2027 10:15:59.861   05 Jun 2027 10:16:09.122             9.261          4630.500
       190   05 Jun 2027 10:17:48.582   05 Jun 2027 10:17:50.815             2.233          1116.500
       191   05 Jun 2027 10:18:09.553   05 Jun 2027 10:18:09.831             0.278           139.000
       192   05 Jun 2027 10:18:34.948   05 Jun 2027 10:18:39.858             4.910          2455.000
       193   05 Jun 2027 10:19:04.960   05 Jun 2027 10:19:06.230             1.270           635.000
       194   06 Jun 2027 03:57:22.519   06 Jun 2027 03:57:26.115             3.596          1798.000
       195   06 Jun 2027 03:58:09.883   06 Jun 2027 03:58:15.396             5.513          2756.500
       196   06 Jun 2027 03:59:46.330   06 Jun 2027 03:59:48.431             2.101          1050.500
       197   06 Jun 2027 04:00:01.021   06 Jun 2027 04:00:09.248             8.227          4113.500
       198   06 Jun 2027 04:00:52.087   06 Jun 2027 04:01:05.549            13.462          6731.000
       199   06 Jun 2027 04:02:42.607   06 Jun 2027 04:02:44.477             1.870           935.000
       200   06 Jun 2027 04:03:00.599   06 Jun 2027 04:03:02.378             1.779           889.500
       201   06 Jun 2027 04:03:11.217   06 Jun 2027 04:03:24.357            13.140          6570.000
       202   06 Jun 2027 04:05:09.651   06 Jun 2027 04:05:25.515            15.864          7932.000
       203   06 Jun 2027 05:35:16.015   06 Jun 2027 05:35:19.035             3.020          1510.000
       204   06 Jun 2027 05:35:36.704   06 Jun 2027 05:35:42.489             5.785          2892.500
       205   06 Jun 2027 05:36:43.154   06 Jun 2027 05:36:43.265             0.111            55.500
       206   06 Jun 2027 05:37:03.529   06 Jun 2027 05:37:06.375             2.846          1423.000
       207   06 Jun 2027 05:37:41.088   06 Jun 2027 05:37:45.866             4.778          2389.000
       208   06 Jun 2027 05:38:07.239   06 Jun 2027 05:38:10.885             3.646          1823.000
       209   06 Jun 2027 05:38:41.778   06 Jun 2027 05:38:43.997             2.219          1109.500
       210   06 Jun 2027 05:38:57.206   06 Jun 2027 05:39:01.284             4.078          2039.000
       211   06 Jun 2027 05:39:19.256   06 Jun 2027 05:39:25.812             6.556          3278.000
       212   06 Jun 2027 05:40:39.081   06 Jun 2027 05:40:49.071             9.990          4995.000
       213   06 Jun 2027 05:41:44.299   06 Jun 2027 05:41:58.376            14.077          7038.500
       214   06 Jun 2027 07:11:59.924   06 Jun 2027 07:12:08.043             8.119          4059.500
       215   06 Jun 2027 07:12:45.718   06 Jun 2027 07:12:47.766             2.048          1024.000
       216   06 Jun 2027 07:13:22.708   06 Jun 2027 07:13:30.865             8.157          4078.500
       217   06 Jun 2027 07:14:31.060   06 Jun 2027 07:14:54.741            23.681         11840.500
       218   06 Jun 2027 07:16:29.504   06 Jun 2027 07:16:33.935             4.431          2215.500
       219   06 Jun 2027 07:17:05.980   06 Jun 2027 07:17:14.074             8.094          4047.000
       220   06 Jun 2027 07:17:56.762   06 Jun 2027 07:18:06.003             9.241          4620.500
       221   06 Jun 2027 07:18:19.135   06 Jun 2027 07:18:25.628             6.493          3246.500
       222   06 Jun 2027 08:50:06.325   06 Jun 2027 08:50:07.709             1.384           692.000
       223   06 Jun 2027 08:50:19.551   06 Jun 2027 08:50:37.179            17.628          8814.000
       224   06 Jun 2027 08:52:11.013   06 Jun 2027 08:52:15.036             4.023          2011.500
       225   06 Jun 2027 08:52:58.334   06 Jun 2027 08:52:59.261             0.927           463.500
       226   06 Jun 2027 08:53:19.201   06 Jun 2027 08:53:27.714             8.513          4256.500
       227   06 Jun 2027 10:25:50.405   06 Jun 2027 10:25:52.826             2.421          1210.500
       228   06 Jun 2027 10:26:11.181   06 Jun 2027 10:26:12.675             1.494           747.000
       229   06 Jun 2027 10:26:55.250   06 Jun 2027 10:27:04.057             8.807          4403.500
       230   06 Jun 2027 10:28:19.579   06 Jun 2027 10:28:27.490             7.911          3955.500
       231   06 Jun 2027 10:29:18.725   06 Jun 2027 10:29:28.503             9.778          4889.000
       232   07 Jun 2027 04:10:14.718   07 Jun 2027 04:10:16.914             2.196          1098.000
       233   07 Jun 2027 04:11:14.888   07 Jun 2027 04:11:17.777             2.889          1444.500
       234   07 Jun 2027 04:11:35.172   07 Jun 2027 04:11:59.053            23.881         11940.500
       235   07 Jun 2027 04:12:52.751   07 Jun 2027 04:13:06.230            13.479          6739.500
       236   07 Jun 2027 04:14:46.088   07 Jun 2027 04:14:52.287             6.199          3099.500
       237   07 Jun 2027 04:15:31.085   07 Jun 2027 04:15:35.088             4.003          2001.500
       238   07 Jun 2027 04:15:53.374   07 Jun 2027 04:15:55.807             2.433          1216.500
       239   07 Jun 2027 04:16:36.864   07 Jun 2027 04:16:37.640             0.776           388.000
       240   07 Jun 2027 04:16:57.201   07 Jun 2027 04:16:59.435             2.234          1117.000
       241   07 Jun 2027 04:17:47.507   07 Jun 2027 04:17:52.575             5.068          2534.000
       242   07 Jun 2027 04:17:55.562   07 Jun 2027 04:18:03.804             8.242          4121.000
       243   07 Jun 2027 04:18:45.009   07 Jun 2027 04:18:45.252             0.243           121.500
       244   07 Jun 2027 05:47:23.509   07 Jun 2027 05:47:29.571             6.062          3031.000
       245   07 Jun 2027 05:48:00.954   07 Jun 2027 05:48:01.064             0.110            55.000
       246   07 Jun 2027 05:48:23.338   07 Jun 2027 05:48:26.062             2.724          1362.000
       247   07 Jun 2027 05:48:37.554   07 Jun 2027 05:48:45.598             8.044          4022.000
       248   07 Jun 2027 05:49:40.232   07 Jun 2027 05:49:42.825             2.593          1296.500
       249   07 Jun 2027 05:49:47.659   07 Jun 2027 05:49:55.718             8.059          4029.500
       250   07 Jun 2027 05:51:04.109   07 Jun 2027 05:51:07.492             3.383          1691.500
       251   07 Jun 2027 05:51:26.537   07 Jun 2027 05:51:28.885             2.348          1174.000
       252   07 Jun 2027 05:51:53.477   07 Jun 2027 05:51:53.958             0.481           240.500
       253   07 Jun 2027 05:53:25.218   07 Jun 2027 05:53:38.359            13.141          6570.500
       254   07 Jun 2027 07:24:37.965   07 Jun 2027 07:24:44.125             6.160          3080.000
       255   07 Jun 2027 07:25:14.285   07 Jun 2027 07:25:24.017             9.732          4866.000
       256   07 Jun 2027 07:26:04.970   07 Jun 2027 07:26:08.197             3.227          1613.500
       257   07 Jun 2027 07:26:32.109   07 Jun 2027 07:26:35.650             3.541          1770.500
       258   07 Jun 2027 07:27:23.648   07 Jun 2027 07:27:27.258             3.610          1805.000
       259   07 Jun 2027 07:28:03.095   07 Jun 2027 07:28:05.243             2.148          1074.000
       260   07 Jun 2027 07:28:08.697   07 Jun 2027 07:28:11.371             2.674          1337.000
       261   07 Jun 2027 07:28:33.675   07 Jun 2027 07:28:41.797             8.122          4061.000
       262   07 Jun 2027 07:29:47.364   07 Jun 2027 07:29:55.181             7.817          3908.500
       263   07 Jun 2027 07:30:11.513   07 Jun 2027 07:30:12.075             0.562           281.000
       264   07 Jun 2027 09:01:20.191   07 Jun 2027 09:01:29.946             9.755          4877.500
       265   07 Jun 2027 09:02:32.744   07 Jun 2027 09:02:35.252             2.508          1254.000
       266   07 Jun 2027 09:02:55.549   07 Jun 2027 09:02:57.580             2.031          1015.500
       267   07 Jun 2027 09:04:12.716   07 Jun 2027 09:04:17.554             4.838          2419.000
       268   07 Jun 2027 09:04:43.065   07 Jun 2027 09:04:51.168             8.103          4051.500
       269   07 Jun 2027 09:05:26.363   07 Jun 2027 09:05:28.467             2.104          1052.000
       270   07 Jun 2027 09:06:06.330   07 Jun 2027 09:06:11.873             5.543          2771.500
       271   07 Jun 2027 10:36:31.786   07 Jun 2027 10:36:42.932            11.146          5573.000
       272   07 Jun 2027 10:38:06.444   07 Jun 2027 10:38:07.534             1.090           545.000
       273   07 Jun 2027 10:39:08.659   07 Jun 2027 10:39:11.526             2.867          1433.500
       274   07 Jun 2027 10:39:36.035   07 Jun 2027 10:39:40.091             4.056          2028.000
       275   07 Jun 2027 10:40:15.149   07 Jun 2027 10:40:18.869             3.720          1860.000
       276   07 Jun 2027 10:40:35.930   07 Jun 2027 10:40:39.621             3.691          1845.500
       277   08 Jun 2027 04:22:38.268   08 Jun 2027 04:22:51.014            12.746          6373.000
       278   08 Jun 2027 04:23:17.579   08 Jun 2027 04:23:17.579             0.000             0.000
       279   08 Jun 2027 04:23:37.324   08 Jun 2027 04:23:38.706             1.382           691.000
       280   08 Jun 2027 04:23:52.581   08 Jun 2027 04:23:53.737             1.156           578.000
       281   08 Jun 2027 04:24:23.283   08 Jun 2027 04:24:33.140             9.857          4928.500
       282   08 Jun 2027 04:25:34.613   08 Jun 2027 04:25:38.044             3.431          1715.500
       283   08 Jun 2027 04:26:21.264   08 Jun 2027 04:26:23.775             2.511          1255.500
       284   08 Jun 2027 04:27:11.746   08 Jun 2027 04:27:19.188             7.442          3721.000
       285   08 Jun 2027 04:28:41.741   08 Jun 2027 04:28:42.964             1.223           611.500
       286   08 Jun 2027 04:29:02.192   08 Jun 2027 04:29:06.779             4.587          2293.500
       287   08 Jun 2027 04:29:28.913   08 Jun 2027 04:29:31.448             2.535          1267.500
       288   08 Jun 2027 04:30:08.967   08 Jun 2027 04:30:14.615             5.648          2824.000
       289   08 Jun 2027 04:30:40.988   08 Jun 2027 04:30:43.829             2.841          1420.500
       290   08 Jun 2027 05:59:48.872   08 Jun 2027 05:59:52.143             3.271          1635.500
       291   08 Jun 2027 06:00:15.513   08 Jun 2027 06:00:23.126             7.613          3806.500
       292   08 Jun 2027 06:00:56.395   08 Jun 2027 06:01:07.340            10.945          5472.500
       293   08 Jun 2027 06:02:00.646   08 Jun 2027 06:02:08.819             8.173          4086.500
       294   08 Jun 2027 06:02:41.106   08 Jun 2027 06:02:41.656             0.550           275.000
       295   08 Jun 2027 06:03:01.138   08 Jun 2027 06:03:03.183             2.045          1022.500
       296   08 Jun 2027 06:03:29.124   08 Jun 2027 06:03:33.050             3.926          1963.000
       297   08 Jun 2027 06:04:00.471   08 Jun 2027 06:04:10.683            10.212          5106.000
       298   08 Jun 2027 06:04:42.402   08 Jun 2027 06:04:49.475             7.073          3536.500
       299   08 Jun 2027 06:05:31.313   08 Jun 2027 06:05:35.499             4.186          2093.000
       300   08 Jun 2027 06:05:58.657   08 Jun 2027 06:06:00.940             2.283          1141.500
       301   08 Jun 2027 06:06:15.825   08 Jun 2027 06:06:17.248             1.423           711.500
       302   08 Jun 2027 07:36:48.612   08 Jun 2027 07:36:58.991            10.379          5189.500
       303   08 Jun 2027 07:37:50.282   08 Jun 2027 07:37:52.946             2.664          1332.000
       304   08 Jun 2027 07:38:44.465   08 Jun 2027 07:38:57.846            13.381          6690.500
       305   08 Jun 2027 07:39:56.569   08 Jun 2027 07:40:00.056             3.487          1743.500
       306   08 Jun 2027 07:40:22.908   08 Jun 2027 07:40:24.744             1.836           918.000
       307   08 Jun 2027 07:40:46.988   08 Jun 2027 07:40:47.735             0.747           373.500
       308   08 Jun 2027 07:41:30.164   08 Jun 2027 07:41:33.972             3.808          1904.000
       309   08 Jun 2027 07:41:52.609   08 Jun 2027 07:41:55.766             3.157          1578.500
       310   08 Jun 2027 07:42:11.783   08 Jun 2027 07:42:12.446             0.663           331.500
       311   08 Jun 2027 09:13:34.995   08 Jun 2027 09:13:36.960             1.965           982.500
       312   08 Jun 2027 09:14:21.951   08 Jun 2027 09:14:22.065             0.114            57.000
       313   08 Jun 2027 09:14:47.766   08 Jun 2027 09:14:54.138             6.372          3186.000
       314   08 Jun 2027 09:16:07.814   08 Jun 2027 09:16:13.654             5.840          2920.000
       315   08 Jun 2027 09:16:48.845   08 Jun 2027 09:16:49.460             0.615           307.500
       316   08 Jun 2027 09:16:53.814   08 Jun 2027 09:17:07.553            13.739          6869.500
       317   08 Jun 2027 10:51:45.106   08 Jun 2027 10:52:02.330            17.224          8612.000
       318   09 Jun 2027 03:00:45.815   09 Jun 2027 03:00:55.285             9.470          4735.000
       319   09 Jun 2027 03:01:44.250   09 Jun 2027 03:01:46.295             2.045          1022.500
       320   09 Jun 2027 03:01:58.171   09 Jun 2027 03:01:58.493             0.322           161.000
       321   09 Jun 2027 03:02:41.309   09 Jun 2027 03:02:42.066             0.757           378.500
       322   09 Jun 2027 03:02:49.550   09 Jun 2027 03:02:54.635             5.085          2542.500
       323   09 Jun 2027 03:03:43.963   09 Jun 2027 03:03:46.289             2.326          1163.000
       324   09 Jun 2027 03:04:06.894   09 Jun 2027 03:04:18.663            11.769          5884.500
       325   09 Jun 2027 04:35:54.650   09 Jun 2027 04:36:09.861            15.211          7605.500
       326   09 Jun 2027 04:37:17.260   09 Jun 2027 04:37:22.476             5.216          2608.000
       327   09 Jun 2027 04:38:00.916   09 Jun 2027 04:38:12.818            11.902          5951.000
       328   09 Jun 2027 04:39:09.299   09 Jun 2027 04:39:12.970             3.671          1835.500
       329   09 Jun 2027 04:39:44.244   09 Jun 2027 04:39:45.225             0.981           490.500
       330   09 Jun 2027 04:40:55.513   09 Jun 2027 04:40:59.690             4.177          2088.500
       331   09 Jun 2027 04:41:45.095   09 Jun 2027 04:41:45.319             0.224           112.000
       332   09 Jun 2027 04:42:01.323   09 Jun 2027 04:42:06.143             4.820          2410.000
       333   09 Jun 2027 04:42:27.371   09 Jun 2027 04:42:33.381             6.010          3005.000
       334   09 Jun 2027 06:12:14.723   09 Jun 2027 06:12:23.637             8.914          4457.000
       335   09 Jun 2027 06:13:37.274   09 Jun 2027 06:13:37.468             0.194            97.000
       336   09 Jun 2027 06:13:59.522   09 Jun 2027 06:14:07.331             7.809          3904.500
       337   09 Jun 2027 06:15:07.479   09 Jun 2027 06:15:10.516             3.037          1518.500
       338   09 Jun 2027 06:15:24.300   09 Jun 2027 06:15:32.594             8.294          4147.000
       339   09 Jun 2027 06:15:45.258   09 Jun 2027 06:15:45.553             0.295           147.500
       340   09 Jun 2027 06:16:12.220   09 Jun 2027 06:16:12.287             0.067            33.500
       341   09 Jun 2027 06:16:38.343   09 Jun 2027 06:16:39.849             1.506           753.000
       342   09 Jun 2027 06:16:49.455   09 Jun 2027 06:16:50.502             1.047           523.500
       343   09 Jun 2027 06:16:55.401   09 Jun 2027 06:16:57.539             2.138          1069.000
       344   09 Jun 2027 06:17:23.252   09 Jun 2027 06:17:35.616            12.364          6182.000
       345   09 Jun 2027 07:49:49.124   09 Jun 2027 07:49:50.985             1.861           930.500
       346   09 Jun 2027 07:50:26.674   09 Jun 2027 07:50:28.471             1.797           898.500
       347   09 Jun 2027 07:50:47.968   09 Jun 2027 07:50:59.370            11.402          5701.000
       348   09 Jun 2027 07:51:48.537   09 Jun 2027 07:51:50.780             2.243          1121.500
       349   09 Jun 2027 07:52:40.814   09 Jun 2027 07:52:42.735             1.921           960.500
       350   09 Jun 2027 07:53:02.383   09 Jun 2027 07:53:09.003             6.620          3310.000
       351   09 Jun 2027 07:53:44.925   09 Jun 2027 07:53:51.126             6.201          3100.500
       352   09 Jun 2027 09:25:52.018   09 Jun 2027 09:25:52.471             0.453           226.500
       353   09 Jun 2027 09:27:32.820   09 Jun 2027 09:27:42.328             9.508          4754.000
       354   09 Jun 2027 09:28:28.909   09 Jun 2027 09:28:34.564             5.655          2827.500
       355   09 Jun 2027 09:29:07.985   09 Jun 2027 09:29:09.612             1.627           813.500
       356   09 Jun 2027 09:29:38.028   09 Jun 2027 09:29:49.774            11.746          5873.000
       357   10 Jun 2027 03:12:56.143   10 Jun 2027 03:13:03.192             7.049          3524.500
       358   10 Jun 2027 03:13:48.004   10 Jun 2027 03:13:52.878             4.874          2437.000
       359   10 Jun 2027 03:14:51.238   10 Jun 2027 03:14:53.531             2.293          1146.500
       360   10 Jun 2027 03:15:07.618   10 Jun 2027 03:15:16.556             8.938          4469.000
       361   10 Jun 2027 04:48:06.307   10 Jun 2027 04:48:13.001             6.694          3347.000
       362   10 Jun 2027 04:48:47.628   10 Jun 2027 04:49:08.660            21.032         10516.000
       363   10 Jun 2027 04:49:27.270   10 Jun 2027 04:49:32.367             5.097          2548.500
       364   10 Jun 2027 04:49:46.757   10 Jun 2027 04:49:49.254             2.497          1248.500
       365   10 Jun 2027 04:51:16.608   10 Jun 2027 04:51:21.801             5.193          2596.500
       366   10 Jun 2027 04:51:44.997   10 Jun 2027 04:51:45.387             0.390           195.000
       367   10 Jun 2027 04:52:44.685   10 Jun 2027 04:52:44.932             0.247           123.500
       368   10 Jun 2027 04:53:08.716   10 Jun 2027 04:53:12.286             3.570          1785.000
       369   10 Jun 2027 04:53:34.234   10 Jun 2027 04:53:40.077             5.843          2921.500
       370   10 Jun 2027 04:54:35.718   10 Jun 2027 04:54:40.500             4.782          2391.000
       371   10 Jun 2027 06:24:27.132   10 Jun 2027 06:24:47.258            20.126         10063.000
       372   10 Jun 2027 06:25:25.782   10 Jun 2027 06:25:33.500             7.718          3859.000
       373   10 Jun 2027 06:26:52.979   10 Jun 2027 06:26:57.592             4.613          2306.500
       374   10 Jun 2027 06:27:18.177   10 Jun 2027 06:27:30.026            11.849          5924.500
       375   10 Jun 2027 06:28:29.160   10 Jun 2027 06:28:37.801             8.641          4320.500
       376   10 Jun 2027 06:29:12.791   10 Jun 2027 06:29:14.253             1.462           731.000
       377   10 Jun 2027 06:29:41.550   10 Jun 2027 06:29:44.241             2.691          1345.500
       378   10 Jun 2027 06:30:09.300   10 Jun 2027 06:30:10.099             0.799           399.500
       379   10 Jun 2027 06:30:12.465   10 Jun 2027 06:30:19.093             6.628          3314.000
       380   10 Jun 2027 08:01:43.864   10 Jun 2027 08:01:46.082             2.218          1109.000
       381   10 Jun 2027 08:02:10.608   10 Jun 2027 08:02:14.279             3.671          1835.500
       382   10 Jun 2027 08:03:26.792   10 Jun 2027 08:03:27.732             0.940           470.000
       383   10 Jun 2027 08:03:48.218   10 Jun 2027 08:03:52.557             4.339          2169.500
       384   10 Jun 2027 08:04:55.802   10 Jun 2027 08:04:56.413             0.611           305.500
       385   10 Jun 2027 08:05:29.810   10 Jun 2027 08:05:35.436             5.626          2813.000
       386   10 Jun 2027 09:37:56.347   10 Jun 2027 09:38:03.024             6.677          3338.500
       387   10 Jun 2027 09:38:33.589   10 Jun 2027 09:38:37.057             3.468          1734.000
       388   10 Jun 2027 09:39:23.215   10 Jun 2027 09:39:25.807             2.592          1296.000
       389   10 Jun 2027 09:39:48.046   10 Jun 2027 09:39:51.863             3.817          1908.500
       390   10 Jun 2027 09:40:15.097   10 Jun 2027 09:40:15.180             0.083            41.500
       391   10 Jun 2027 09:40:53.169   10 Jun 2027 09:40:59.904             6.735          3367.500
       392   10 Jun 2027 09:41:32.154   10 Jun 2027 09:41:48.111            15.957          7978.500
       393   11 Jun 2027 03:24:43.613   11 Jun 2027 03:24:49.417             5.804          2902.000
       394   11 Jun 2027 03:25:07.607   11 Jun 2027 03:25:07.607             0.000             0.000
       395   11 Jun 2027 03:25:15.943   11 Jun 2027 03:25:28.175            12.232          6116.000
       396   11 Jun 2027 03:26:20.655   11 Jun 2027 03:26:21.379             0.724           362.000
       397   11 Jun 2027 03:26:44.239   11 Jun 2027 03:26:52.174             7.935          3967.500
       398   11 Jun 2027 03:27:45.669   11 Jun 2027 03:27:48.381             2.712          1356.000
       399   11 Jun 2027 03:28:03.846   11 Jun 2027 03:28:05.120             1.274           637.000
       400   11 Jun 2027 03:28:37.133   11 Jun 2027 03:28:40.374             3.241          1620.500
       401   11 Jun 2027 04:59:36.918   11 Jun 2027 04:59:38.903             1.985           992.500
       402   11 Jun 2027 05:00:25.072   11 Jun 2027 05:00:31.576             6.504          3252.000
       403   11 Jun 2027 05:01:18.876   11 Jun 2027 05:01:22.365             3.489          1744.500
       404   11 Jun 2027 05:02:02.703   11 Jun 2027 05:02:06.446             3.743          1871.500
       405   11 Jun 2027 05:02:13.463   11 Jun 2027 05:02:13.525             0.062            31.000
       406   11 Jun 2027 05:02:21.850   11 Jun 2027 05:02:21.969             0.119            59.500
       407   11 Jun 2027 05:03:15.244   11 Jun 2027 05:03:26.663            11.419          5709.500
       408   11 Jun 2027 05:04:31.779   11 Jun 2027 05:04:49.963            18.184          9092.000
       409   11 Jun 2027 06:36:05.652   11 Jun 2027 06:36:09.104             3.452          1726.000
       410   11 Jun 2027 06:36:46.005   11 Jun 2027 06:37:00.658            14.653          7326.500
       411   11 Jun 2027 06:38:08.072   11 Jun 2027 06:38:11.434             3.362          1681.000
       412   11 Jun 2027 06:38:23.888   11 Jun 2027 06:38:26.699             2.811          1405.500
       413   11 Jun 2027 06:39:23.310   11 Jun 2027 06:39:34.454            11.144          5572.000
       414   11 Jun 2027 06:40:20.767   11 Jun 2027 06:40:25.025             4.258          2129.000
       415   11 Jun 2027 06:40:57.871   11 Jun 2027 06:40:59.927             2.056          1028.000
       416   11 Jun 2027 06:41:31.834   11 Jun 2027 06:41:32.865             1.031           515.500
       417   11 Jun 2027 06:41:37.166   11 Jun 2027 06:42:03.463            26.297         13148.500
       418   11 Jun 2027 08:14:23.474   11 Jun 2027 08:14:35.447            11.973          5986.500
       419   11 Jun 2027 08:15:25.998   11 Jun 2027 08:15:28.441             2.443          1221.500
       420   11 Jun 2027 08:15:42.454   11 Jun 2027 08:15:54.470            12.016          6008.000
       421   11 Jun 2027 08:16:55.921   11 Jun 2027 08:16:58.675             2.754          1377.000
       422   11 Jun 2027 08:17:34.598   11 Jun 2027 08:17:45.426            10.828          5414.000
       423   11 Jun 2027 09:49:50.494   11 Jun 2027 09:49:54.858             4.364          2182.000
       424   11 Jun 2027 09:50:32.738   11 Jun 2027 09:50:33.062             0.324           162.000
       425   11 Jun 2027 09:50:58.658   11 Jun 2027 09:50:59.021             0.363           181.500
       426   11 Jun 2027 09:51:04.513   11 Jun 2027 09:51:07.132             2.619          1309.500
       427   11 Jun 2027 09:51:44.686   11 Jun 2027 09:51:49.102             4.416          2208.000
       428   11 Jun 2027 09:52:17.990   11 Jun 2027 09:52:20.282             2.292          1146.000
       429   11 Jun 2027 09:52:39.367   11 Jun 2027 09:52:46.896             7.529          3764.500
       430   11 Jun 2027 09:53:23.164   11 Jun 2027 09:53:23.221             0.057            28.500
       431   11 Jun 2027 09:54:12.559   11 Jun 2027 09:54:19.721             7.162          3581.000
       432   11 Jun 2027 09:54:50.015   11 Jun 2027 09:54:54.346             4.331          2165.500
       433   12 Jun 2027 03:34:59.950   12 Jun 2027 03:35:12.022            12.072          6036.000
       434   12 Jun 2027 03:36:28.813   12 Jun 2027 03:36:30.211             1.398           699.000
       435   12 Jun 2027 03:36:31.620   12 Jun 2027 03:36:37.804             6.184          3092.000
       436   12 Jun 2027 03:37:10.765   12 Jun 2027 03:37:18.740             7.975          3987.500
       437   12 Jun 2027 03:37:53.325   12 Jun 2027 03:37:58.023             4.698          2349.000
       438   12 Jun 2027 03:38:32.309   12 Jun 2027 03:38:41.213             8.904          4452.000
       439   12 Jun 2027 03:39:30.433   12 Jun 2027 03:39:30.663             0.230           115.000
       440   12 Jun 2027 03:39:37.261   12 Jun 2027 03:39:44.688             7.427          3713.500
       441   12 Jun 2027 03:40:21.002   12 Jun 2027 03:40:24.163             3.161          1580.500
       442   12 Jun 2027 03:40:53.604   12 Jun 2027 03:40:59.436             5.832          2916.000
       443   12 Jun 2027 05:11:19.061   12 Jun 2027 05:11:21.046             1.985           992.500
       444   12 Jun 2027 05:12:31.923   12 Jun 2027 05:12:46.604            14.681          7340.500
       445   12 Jun 2027 05:13:05.847   12 Jun 2027 05:13:07.091             1.244           622.000
       446   12 Jun 2027 05:14:01.115   12 Jun 2027 05:14:13.767            12.652          6326.000
       447   12 Jun 2027 05:14:32.134   12 Jun 2027 05:14:42.893            10.759          5379.500
       448   12 Jun 2027 05:16:01.281   12 Jun 2027 05:16:06.091             4.810          2405.000
       449   12 Jun 2027 05:16:29.172   12 Jun 2027 05:16:31.931             2.759          1379.500
       450   12 Jun 2027 05:17:18.330   12 Jun 2027 05:17:20.234             1.904           952.000
       451   12 Jun 2027 05:17:44.529   12 Jun 2027 05:17:51.072             6.543          3271.500
       452   12 Jun 2027 05:18:05.788   12 Jun 2027 05:18:08.426             2.638          1319.000
       453   12 Jun 2027 05:18:40.402   12 Jun 2027 05:18:49.538             9.136          4568.000
       454   12 Jun 2027 05:18:51.719   12 Jun 2027 05:18:51.855             0.136            68.000
       455   12 Jun 2027 06:48:25.880   12 Jun 2027 06:48:43.648            17.768          8884.000
       456   12 Jun 2027 06:49:49.766   12 Jun 2027 06:49:58.706             8.940          4470.000
       457   12 Jun 2027 06:50:49.383   12 Jun 2027 06:50:54.291             4.908          2454.000
       458   12 Jun 2027 06:51:29.584   12 Jun 2027 06:51:35.183             5.599          2799.500
       459   12 Jun 2027 06:52:16.302   12 Jun 2027 06:52:17.513             1.211           605.500
       460   12 Jun 2027 06:52:35.102   12 Jun 2027 06:52:38.613             3.511          1755.500
       461   12 Jun 2027 06:52:53.802   12 Jun 2027 06:53:02.183             8.381          4190.500
       462   12 Jun 2027 06:54:13.997   12 Jun 2027 06:54:20.028             6.031          3015.500
       463   12 Jun 2027 08:26:21.314   12 Jun 2027 08:26:32.572            11.258          5629.000
       464   12 Jun 2027 08:27:28.482   12 Jun 2027 08:27:28.721             0.239           119.500
       465   12 Jun 2027 08:28:14.266   12 Jun 2027 08:28:20.393             6.127          3063.500
       466   12 Jun 2027 08:28:26.735   12 Jun 2027 08:28:27.706             0.971           485.500
       467   12 Jun 2027 08:28:54.741   12 Jun 2027 08:28:58.348             3.607          1803.500
       468   12 Jun 2027 08:29:14.135   12 Jun 2027 08:29:22.316             8.181          4090.500
       469   12 Jun 2027 08:30:00.574   12 Jun 2027 08:30:07.452             6.878          3439.000
       470   12 Jun 2027 09:59:26.343   12 Jun 2027 09:59:50.261            23.918         11959.000
       471   12 Jun 2027 10:01:36.111   12 Jun 2027 10:01:47.694            11.583          5791.500
       472   12 Jun 2027 10:03:26.573   12 Jun 2027 10:03:27.408             0.835           417.500
       473   12 Jun 2027 10:03:49.697   12 Jun 2027 10:03:50.323             0.626           313.000
       474   12 Jun 2027 10:03:59.140   12 Jun 2027 10:04:07.033             7.893          3946.500
       475   12 Jun 2027 10:04:46.025   12 Jun 2027 10:04:46.833             0.808           404.000
       476   12 Jun 2027 10:05:07.083   12 Jun 2027 10:05:24.334            17.251          8625.500
       477   12 Jun 2027 10:05:35.887   12 Jun 2027 10:05:38.751             2.864          1432.000
       478   12 Jun 2027 10:07:09.997   12 Jun 2027 10:07:19.739             9.742          4871.000
       479   13 Jun 2027 03:46:08.723   13 Jun 2027 03:46:19.246            10.523          5261.500
       480   13 Jun 2027 03:47:26.732   13 Jun 2027 03:47:33.540             6.808          3404.000
       481   13 Jun 2027 03:48:01.415   13 Jun 2027 03:48:03.624             2.209          1104.500
       482   13 Jun 2027 03:48:22.529   13 Jun 2027 03:48:30.257             7.728          3864.000
       483   13 Jun 2027 03:49:18.954   13 Jun 2027 03:49:21.580             2.626          1313.000
       484   13 Jun 2027 03:49:35.819   13 Jun 2027 03:49:43.363             7.544          3772.000
       485   13 Jun 2027 03:50:14.260   13 Jun 2027 03:50:28.703            14.443          7221.500
       486   13 Jun 2027 03:51:32.115   13 Jun 2027 03:51:36.793             4.678          2339.000
       487   13 Jun 2027 03:52:09.111   13 Jun 2027 03:52:18.018             8.907          4453.500
       488   13 Jun 2027 03:54:06.097   13 Jun 2027 03:54:07.675             1.578           789.000
       489   13 Jun 2027 03:54:09.558   13 Jun 2027 03:54:16.122             6.564          3282.000
       490   13 Jun 2027 05:23:37.447   13 Jun 2027 05:23:38.808             1.361           680.500
       491   13 Jun 2027 05:24:24.027   13 Jun 2027 05:24:48.830            24.803         12401.500
       492   13 Jun 2027 05:24:55.883   13 Jun 2027 05:25:02.275             6.392          3196.000
       493   13 Jun 2027 05:27:20.997   13 Jun 2027 05:27:25.800             4.803          2401.500
       494   13 Jun 2027 05:27:56.838   13 Jun 2027 05:28:10.464            13.626          6813.000
       495   13 Jun 2027 05:29:20.267   13 Jun 2027 05:29:21.432             1.165           582.500
       496   13 Jun 2027 05:29:47.964   13 Jun 2027 05:30:03.107            15.143          7571.500
       497   13 Jun 2027 07:00:22.080   13 Jun 2027 07:00:22.839             0.759           379.500
       498   13 Jun 2027 07:01:04.588   13 Jun 2027 07:01:09.004             4.416          2208.000
       499   13 Jun 2027 07:02:27.344   13 Jun 2027 07:02:42.892            15.548          7774.000
       500   13 Jun 2027 07:03:57.017   13 Jun 2027 07:04:02.703             5.686          2843.000
       501   13 Jun 2027 07:04:45.169   13 Jun 2027 07:04:51.752             6.583          3291.500
       502   13 Jun 2027 07:05:04.399   13 Jun 2027 07:05:04.399             0.000             0.000
       503   13 Jun 2027 07:05:19.053   13 Jun 2027 07:05:20.087             1.034           517.000
       504   13 Jun 2027 07:05:41.903   13 Jun 2027 07:05:51.980            10.077          5038.500
       505   13 Jun 2027 07:06:38.432   13 Jun 2027 07:06:40.096             1.664           832.000
       506   13 Jun 2027 07:06:49.462   13 Jun 2027 07:06:54.852             5.390          2695.000
       507   13 Jun 2027 08:38:20.533   13 Jun 2027 08:38:23.019             2.486          1243.000
       508   13 Jun 2027 08:38:55.639   13 Jun 2027 08:39:02.149             6.510          3255.000
       509   13 Jun 2027 08:39:30.483   13 Jun 2027 08:39:33.374             2.891          1445.500
       510   13 Jun 2027 08:40:00.994   13 Jun 2027 08:40:16.436            15.442          7721.000
       511   13 Jun 2027 08:41:29.157   13 Jun 2027 08:41:47.838            18.681          9340.500
       512   13 Jun 2027 10:11:58.471   13 Jun 2027 10:12:22.552            24.081         12040.500
       513   13 Jun 2027 10:14:00.364   13 Jun 2027 10:14:26.014            25.650         12825.000
       514   13 Jun 2027 10:16:40.207   13 Jun 2027 10:16:47.044             6.837          3418.500
       515   13 Jun 2027 10:17:43.982   13 Jun 2027 10:17:56.153            12.171          6085.500
       516   13 Jun 2027 10:19:05.784   13 Jun 2027 10:19:07.564             1.780           890.000
       517   13 Jun 2027 10:19:19.582   13 Jun 2027 10:19:21.760             2.178          1089.000
