uniorb/output/strategy_2/Camera/Camera_KinoSat_111209.txt

KinoSat_111209
-------------------------
    Access    *     Start Time (UTCG)     *     Stop Time (UTCG)  *   Duration (s) *   Data (Mbytes)
         1   01 Jun 2027 04:17:02.863   01 Jun 2027 04:18:52.012           109.149         54574.500
         2   01 Jun 2027 04:18:53.989   01 Jun 2027 04:18:53.989             0.000             0.000
         3   01 Jun 2027 04:19:14.436   01 Jun 2027 04:19:16.122             1.686           843.000
         4   01 Jun 2027 04:29:16.485   01 Jun 2027 04:29:48.557            32.072         16036.000
         5   01 Jun 2027 05:51:12.727   01 Jun 2027 05:52:27.695            74.968         37484.000
         6   01 Jun 2027 05:53:15.381   01 Jun 2027 05:53:56.602            41.221         20610.500
         7   01 Jun 2027 05:54:05.711   01 Jun 2027 05:54:27.596            21.885         10942.500
         8   01 Jun 2027 05:56:05.325   01 Jun 2027 05:56:19.525            14.200          7100.000
         9   01 Jun 2027 07:26:01.017   01 Jun 2027 07:28:51.317           170.300         85150.000
        10   01 Jun 2027 07:29:49.996   01 Jun 2027 07:30:04.234            14.238          7119.000
        11   01 Jun 2027 07:32:41.112   01 Jun 2027 07:32:41.112             0.000             0.000
        12   01 Jun 2027 07:33:05.869   01 Jun 2027 07:33:06.069             0.200           100.000
        13   01 Jun 2027 07:33:42.946   01 Jun 2027 07:33:45.466             2.520          1260.000
        14   01 Jun 2027 07:34:27.848   01 Jun 2027 07:34:52.345            24.497         12248.500
        15   01 Jun 2027 07:34:54.414   01 Jun 2027 07:35:01.464             7.050          3525.000
        16   01 Jun 2027 09:03:49.786   01 Jun 2027 09:06:18.035           148.249         74124.500
        17   01 Jun 2027 09:07:23.771   01 Jun 2027 09:07:28.333             4.562          2281.000
        18   01 Jun 2027 09:09:25.369   01 Jun 2027 09:09:29.985             4.616          2308.000
        19   01 Jun 2027 09:09:49.242   01 Jun 2027 09:09:52.754             3.512          1756.000
        20   01 Jun 2027 09:10:30.427   01 Jun 2027 09:10:33.256             2.829          1414.500
        21   01 Jun 2027 09:10:51.149   01 Jun 2027 09:11:08.315            17.166          8583.000
        22   01 Jun 2027 10:40:34.211   01 Jun 2027 10:42:14.279           100.068         50034.000
        23   01 Jun 2027 10:43:20.527   01 Jun 2027 10:43:59.035            38.508         19254.000
        24   01 Jun 2027 10:44:33.339   01 Jun 2027 10:44:38.196             4.857          2428.500
        25   01 Jun 2027 10:44:49.393   01 Jun 2027 10:44:51.782             2.389          1194.500
        26   01 Jun 2027 10:45:28.566   01 Jun 2027 10:45:28.570             0.004             2.000
        27   01 Jun 2027 10:46:54.866   01 Jun 2027 10:47:09.417            14.551          7275.500
        28   02 Jun 2027 03:05:00.120   02 Jun 2027 03:06:51.704           111.584         55792.000
        29   02 Jun 2027 03:07:00.242   02 Jun 2027 03:07:11.807            11.565          5782.500
        30   02 Jun 2027 03:07:29.567   02 Jun 2027 03:07:51.752            22.185         11092.500
        31   02 Jun 2027 03:08:30.673   02 Jun 2027 03:08:34.801             4.128          2064.000
        32   02 Jun 2027 04:29:01.883   02 Jun 2027 04:30:14.760            72.877         36438.500
        33   02 Jun 2027 06:04:58.714   02 Jun 2027 06:07:02.586           123.872         61936.000
        34   02 Jun 2027 06:07:48.202   02 Jun 2027 06:08:05.742            17.540          8770.000
        35   02 Jun 2027 07:38:49.587   02 Jun 2027 07:40:52.823           123.236         61618.000
        36   02 Jun 2027 07:42:20.066   02 Jun 2027 07:42:40.232            20.166         10083.000
        37   02 Jun 2027 07:42:41.318   02 Jun 2027 07:42:50.272             8.954          4477.000
        38   02 Jun 2027 07:43:08.808   02 Jun 2027 07:43:14.116             5.308          2654.000
        39   02 Jun 2027 07:43:40.059   02 Jun 2027 07:43:40.944             0.885           442.500
        40   02 Jun 2027 07:44:04.222   02 Jun 2027 07:44:04.222             0.000             0.000
        41   02 Jun 2027 07:44:20.905   02 Jun 2027 07:44:26.299             5.394          2697.000
        42   02 Jun 2027 07:46:36.319   02 Jun 2027 07:47:03.877            27.558         13779.000
        43   02 Jun 2027 09:15:56.326   02 Jun 2027 09:17:20.206            83.880         41208.532
        44   02 Jun 2027 09:18:19.977   02 Jun 2027 09:18:23.730             3.753          1417.250
        45   02 Jun 2027 09:18:38.379   02 Jun 2027 09:18:39.869             1.490           301.156
        46   02 Jun 2027 09:19:10.347   02 Jun 2027 09:19:12.995             2.648           891.094
        47   02 Jun 2027 09:20:35.673   02 Jun 2027 09:20:40.238             4.565          2282.500
        48   02 Jun 2027 09:21:29.889   02 Jun 2027 09:21:37.993             8.104          1672.594
        49   02 Jun 2027 09:22:43.176   02 Jun 2027 09:22:48.523             5.347          2007.750
        50   02 Jun 2027 09:22:58.616   02 Jun 2027 09:22:59.474             0.858           315.406
        51   02 Jun 2027 10:52:58.800   02 Jun 2027 10:53:11.127            12.327          6163.500
        52   02 Jun 2027 10:53:23.838   02 Jun 2027 10:53:31.893             8.055          3321.312
        53   02 Jun 2027 10:53:47.381   02 Jun 2027 10:53:49.208             1.827           406.438
        54   02 Jun 2027 10:55:17.644   02 Jun 2027 10:55:23.427             5.783          1916.000
        55   02 Jun 2027 10:55:40.877   02 Jun 2027 10:55:44.883             4.006            85.125
        56   02 Jun 2027 10:55:54.527   02 Jun 2027 10:55:55.371             0.844           301.375
        57   02 Jun 2027 10:56:32.782   02 Jun 2027 10:56:37.259             4.477          1055.594
        58   02 Jun 2027 10:56:58.054   02 Jun 2027 10:57:00.180             2.126           649.844
        59   02 Jun 2027 10:57:25.890   02 Jun 2027 10:57:29.996             4.106           803.437
        60   02 Jun 2027 10:57:39.792   02 Jun 2027 10:57:40.450             0.658           306.125
        61   02 Jun 2027 10:58:31.048   02 Jun 2027 10:58:31.444             0.396           198.000
        62   02 Jun 2027 10:58:34.485   02 Jun 2027 10:58:37.451             2.966           968.719
        63   03 Jun 2027 03:17:34.650   03 Jun 2027 03:19:00.480            85.830         42915.000
        64   03 Jun 2027 03:19:45.333   03 Jun 2027 03:20:56.846            71.513         35756.500
        65   03 Jun 2027 04:40:56.223   03 Jun 2027 04:42:15.845            79.622         39811.000
        66   03 Jun 2027 06:17:20.536   03 Jun 2027 06:18:37.541            77.005         36653.469
        67   03 Jun 2027 06:19:01.221   03 Jun 2027 06:19:01.618             0.397           152.750
        68   03 Jun 2027 06:19:11.549   03 Jun 2027 06:19:14.535             2.986           168.562
        69   03 Jun 2027 06:19:40.374   03 Jun 2027 06:19:43.094             2.720           685.313
        70   03 Jun 2027 06:19:51.976   03 Jun 2027 06:19:52.741             0.765            33.000
        71   03 Jun 2027 07:51:00.492   03 Jun 2027 07:51:11.616            11.124          4776.625
        72   03 Jun 2027 07:52:12.457   03 Jun 2027 07:52:15.626             3.169           400.875
        73   03 Jun 2027 07:53:11.830   03 Jun 2027 07:53:13.578             1.748           507.344
        74   03 Jun 2027 07:53:19.771   03 Jun 2027 07:53:22.345             2.574           169.750
        75   03 Jun 2027 07:54:05.111   03 Jun 2027 07:54:08.145             3.034           619.031
        76   03 Jun 2027 07:54:38.369   03 Jun 2027 07:54:45.781             7.412           938.313
        77   03 Jun 2027 07:55:16.343   03 Jun 2027 07:55:17.668             1.325           561.219
        78   03 Jun 2027 07:55:36.587   03 Jun 2027 07:55:36.846             0.259            99.375
        79   03 Jun 2027 07:56:29.471   03 Jun 2027 07:56:34.981             5.510          1644.531
        80   03 Jun 2027 07:56:43.274   03 Jun 2027 07:56:44.947             1.673            25.250
        81   03 Jun 2027 07:57:16.623   03 Jun 2027 07:57:21.554             4.931           639.000
        82   03 Jun 2027 07:57:30.004   03 Jun 2027 07:57:36.590             6.586           230.531
        83   03 Jun 2027 07:57:55.342   03 Jun 2027 07:58:00.807             5.465           586.000
        84   03 Jun 2027 07:58:33.963   03 Jun 2027 07:58:35.735             1.772           822.375
        85   03 Jun 2027 07:58:42.454   03 Jun 2027 07:58:43.200             0.746           209.969
        86   03 Jun 2027 07:59:02.354   03 Jun 2027 07:59:04.822             2.468           122.469
        87   03 Jun 2027 09:28:22.381   03 Jun 2027 09:28:37.233            14.852          7117.500
        88   03 Jun 2027 09:29:02.558   03 Jun 2027 09:29:03.293             0.735           235.375
        89   03 Jun 2027 09:30:05.174   03 Jun 2027 09:30:08.455             3.281          1233.875
        90   03 Jun 2027 09:31:03.294   03 Jun 2027 09:31:06.052             2.758          1379.000
        91   03 Jun 2027 09:31:23.508   03 Jun 2027 09:31:24.696             1.188           555.250
        92   03 Jun 2027 09:31:36.134   03 Jun 2027 09:31:37.775             1.641           357.437
        93   03 Jun 2027 09:31:58.183   03 Jun 2027 09:31:59.029             0.846           206.000
        94   03 Jun 2027 09:33:21.320   03 Jun 2027 09:33:29.448             8.128          2441.906
        95   03 Jun 2027 09:34:19.269   03 Jun 2027 09:34:25.693             6.424          1170.062
        96   03 Jun 2027 09:34:33.267   03 Jun 2027 09:34:34.267             1.000           165.406
        97   03 Jun 2027 11:05:19.522   03 Jun 2027 11:05:38.777            19.255          8793.531
        98   03 Jun 2027 11:07:02.927   03 Jun 2027 11:07:07.094             4.167          1329.094
        99   03 Jun 2027 11:08:07.949   03 Jun 2027 11:08:19.899            11.950          1795.250
       100   03 Jun 2027 11:08:41.661   03 Jun 2027 11:08:42.659             0.998           499.000
       101   03 Jun 2027 11:09:12.343   03 Jun 2027 11:09:12.343             0.000             0.000
       102   03 Jun 2027 11:09:42.876   03 Jun 2027 11:09:48.224             5.348          2016.188
       103   03 Jun 2027 11:10:12.882   03 Jun 2027 11:10:15.391             2.509           744.063
       104   03 Jun 2027 11:10:34.559   03 Jun 2027 11:10:35.423             0.864           409.781
       105   04 Jun 2027 03:29:12.480   04 Jun 2027 03:32:52.987           220.507        110253.500
       106   04 Jun 2027 04:52:43.590   04 Jun 2027 04:54:00.191            76.601         38300.500
       107   04 Jun 2027 06:29:22.224   04 Jun 2027 06:29:54.801            32.577         15923.531
       108   04 Jun 2027 06:31:02.093   04 Jun 2027 06:31:05.825             3.732          1689.625
       109   04 Jun 2027 06:31:11.721   04 Jun 2027 06:31:13.762             2.041           130.812
       110   04 Jun 2027 06:31:34.632   04 Jun 2027 06:31:37.713             3.081           547.469
       111   04 Jun 2027 06:31:52.866   04 Jun 2027 06:31:55.246             2.380           240.656
       112   04 Jun 2027 06:32:53.803   04 Jun 2027 06:32:53.909             0.106            53.000
       113   04 Jun 2027 08:04:17.441   04 Jun 2027 08:04:34.835            17.394          4812.781
       114   04 Jun 2027 08:05:32.797   04 Jun 2027 08:05:34.120             1.323           661.500
       115   04 Jun 2027 08:06:09.953   04 Jun 2027 08:06:12.256             2.303          1120.562
       116   04 Jun 2027 08:06:38.978   04 Jun 2027 08:06:44.150             5.172           285.469
       117   04 Jun 2027 08:07:37.665   04 Jun 2027 08:07:41.714             4.049          1599.250
       118   04 Jun 2027 08:08:13.063   04 Jun 2027 08:08:19.452             6.389           884.000
       119   04 Jun 2027 08:09:24.684   04 Jun 2027 08:09:29.956             5.272          2034.031
       120   04 Jun 2027 08:09:45.828   04 Jun 2027 08:09:47.380             1.552           409.906
       121   04 Jun 2027 08:10:22.009   04 Jun 2027 08:10:26.860             4.851          1082.156
       122   04 Jun 2027 08:10:48.801   04 Jun 2027 08:10:49.236             0.435           184.875
       123   04 Jun 2027 09:40:29.971   04 Jun 2027 09:40:45.833            15.862          6435.469
       124   04 Jun 2027 09:42:15.805   04 Jun 2027 09:42:21.970             6.165          1303.781
       125   04 Jun 2027 09:43:14.169   04 Jun 2027 09:43:14.752             0.583           291.500
       126   04 Jun 2027 09:43:18.151   04 Jun 2027 09:43:20.277             2.126           830.125
       127   04 Jun 2027 09:43:47.614   04 Jun 2027 09:43:48.104             0.490           245.000
       128   04 Jun 2027 09:44:52.411   04 Jun 2027 09:44:58.614             6.203          2546.750
       129   04 Jun 2027 09:45:17.291   04 Jun 2027 09:45:23.388             6.097           583.656
       130   04 Jun 2027 09:46:18.367   04 Jun 2027 09:46:23.806             5.439          1547.687
       131   04 Jun 2027 11:18:13.511   04 Jun 2027 11:18:30.542            17.031          8515.500
       132   04 Jun 2027 11:19:07.147   04 Jun 2027 11:19:15.146             7.999          1433.031
       133   04 Jun 2027 11:20:09.844   04 Jun 2027 11:20:11.882             2.038          1019.000
       134   04 Jun 2027 11:20:58.330   04 Jun 2027 11:21:04.097             5.767          2141.812
       135   04 Jun 2027 11:21:41.843   04 Jun 2027 11:21:44.569             2.726          1179.563
       136   04 Jun 2027 11:22:12.157   04 Jun 2027 11:22:14.142             1.985           735.375
       137   04 Jun 2027 11:22:20.580   04 Jun 2027 11:22:24.748             4.168           201.188
       138   04 Jun 2027 11:22:34.927   04 Jun 2027 11:22:34.927             0.000             0.000
       139   05 Jun 2027 03:41:35.459   05 Jun 2027 03:42:06.126            30.667         15333.500
       140   05 Jun 2027 03:42:24.653   05 Jun 2027 03:45:27.558           182.905         91452.500
       141   05 Jun 2027 05:04:57.987   05 Jun 2027 05:05:50.225            52.238         26119.000
       142   05 Jun 2027 05:05:52.265   05 Jun 2027 05:05:58.901             6.636          3318.000
       143   05 Jun 2027 05:06:02.939   05 Jun 2027 05:06:17.293            14.354          7177.000
       144   05 Jun 2027 06:41:31.116   05 Jun 2027 06:42:10.213            39.097         18009.312
       145   05 Jun 2027 06:42:55.657   05 Jun 2027 06:42:58.800             3.143          1408.344
       146   05 Jun 2027 06:43:30.329   05 Jun 2027 06:43:32.638             2.309           985.281
       147   05 Jun 2027 06:43:54.540   05 Jun 2027 06:43:56.819             2.279           576.063
       148   05 Jun 2027 08:16:39.894   05 Jun 2027 08:16:48.865             8.971          4156.344
       149   05 Jun 2027 08:18:11.198   05 Jun 2027 08:18:16.088             4.890          2234.719
       150   05 Jun 2027 08:18:24.222   05 Jun 2027 08:18:26.068             1.846           254.188
       151   05 Jun 2027 08:18:37.121   05 Jun 2027 08:18:37.420             0.299            56.187
       152   05 Jun 2027 08:19:58.256   05 Jun 2027 08:20:03.034             4.778          1901.750
       153   05 Jun 2027 08:20:58.237   05 Jun 2027 08:21:02.597             4.360          1613.250
       154   05 Jun 2027 08:21:28.223   05 Jun 2027 08:21:31.275             3.052           694.250
       155   05 Jun 2027 08:22:01.303   05 Jun 2027 08:22:03.524             2.221           766.938
       156   05 Jun 2027 08:22:31.443   05 Jun 2027 08:22:36.422             4.979           434.156
       157   05 Jun 2027 08:22:42.917   05 Jun 2027 08:22:43.457             0.540            99.469
       158   05 Jun 2027 08:22:57.649   05 Jun 2027 08:22:58.100             0.451           120.063
       159   05 Jun 2027 08:23:13.594   05 Jun 2027 08:23:15.182             1.588           484.187
       160   05 Jun 2027 09:53:04.532   05 Jun 2027 09:53:15.844            11.312          5533.719
       161   05 Jun 2027 09:54:40.934   05 Jun 2027 09:54:43.452             2.518          1040.094
       162   05 Jun 2027 09:54:46.752   05 Jun 2027 09:54:53.562             6.810           103.125
       163   05 Jun 2027 09:55:12.047   05 Jun 2027 09:55:18.268             6.221           577.656
       164   05 Jun 2027 09:56:12.629   05 Jun 2027 09:56:17.166             4.537          1698.781
       165   05 Jun 2027 09:56:48.785   05 Jun 2027 09:56:49.543             0.758           379.000
       166   05 Jun 2027 09:56:57.037   05 Jun 2027 09:56:59.875             2.838           571.375
       167   05 Jun 2027 09:57:35.725   05 Jun 2027 09:57:37.467             1.742           754.000
       168   05 Jun 2027 09:58:35.214   05 Jun 2027 09:58:37.770             2.556           908.969
       169   05 Jun 2027 09:58:45.065   05 Jun 2027 09:58:46.232             1.167            46.094
       170   05 Jun 2027 09:58:56.800   05 Jun 2027 09:59:01.072             4.272           207.063
       171   05 Jun 2027 11:30:20.093   05 Jun 2027 11:30:38.652            18.559          7684.094
       172   05 Jun 2027 11:31:06.375   05 Jun 2027 11:31:11.827             5.452           860.594
       173   05 Jun 2027 11:31:29.163   05 Jun 2027 11:31:29.991             0.828           245.563
       174   05 Jun 2027 11:31:41.056   05 Jun 2027 11:31:43.845             2.789           284.750
       175   05 Jun 2027 11:32:03.494   05 Jun 2027 11:32:07.164             3.670           614.031
       176   05 Jun 2027 11:33:01.053   05 Jun 2027 11:33:04.623             3.570          1170.250
       177   05 Jun 2027 11:33:37.284   05 Jun 2027 11:33:39.508             2.224          1020.656
       178   05 Jun 2027 11:34:26.309   05 Jun 2027 11:34:29.859             3.550          1462.531
       179   05 Jun 2027 11:34:38.779   05 Jun 2027 11:34:43.358             4.579           278.750
       180   06 Jun 2027 03:53:32.205   06 Jun 2027 03:54:11.128            38.923         19461.500
       181   06 Jun 2027 03:54:35.325   06 Jun 2027 03:56:56.540           141.215         70607.500
       182   06 Jun 2027 05:17:00.515   06 Jun 2027 05:18:39.389            98.874         49437.000
       183   06 Jun 2027 06:53:22.727   06 Jun 2027 06:54:07.366            44.639         21201.907
       184   06 Jun 2027 06:54:36.081   06 Jun 2027 06:54:39.238             3.157           705.781
       185   06 Jun 2027 06:55:52.397   06 Jun 2027 06:55:57.907             5.510          1878.219
       186   06 Jun 2027 06:56:37.582   06 Jun 2027 06:56:38.035             0.453           226.500
       187   06 Jun 2027 06:56:59.255   06 Jun 2027 06:57:06.200             6.945          1536.281
       188   06 Jun 2027 08:28:18.697   06 Jun 2027 08:28:30.709            12.012          4403.938
       189   06 Jun 2027 08:28:57.099   06 Jun 2027 08:29:00.854             3.755           355.469
       190   06 Jun 2027 08:29:40.868   06 Jun 2027 08:29:45.193             4.325           775.156
       191   06 Jun 2027 08:30:21.694   06 Jun 2027 08:30:22.658             0.964           482.000
       192   06 Jun 2027 08:30:51.118   06 Jun 2027 08:30:53.325             2.207          1016.656
       193   06 Jun 2027 08:30:53.502   06 Jun 2027 08:30:56.054             2.552             5.531
       194   06 Jun 2027 08:31:03.059   06 Jun 2027 08:31:08.290             5.231           218.906
       195   06 Jun 2027 08:31:11.115   06 Jun 2027 08:31:11.252             0.137            68.500
       196   06 Jun 2027 08:31:20.070   06 Jun 2027 08:31:21.805             1.735           295.344
       197   06 Jun 2027 08:31:46.102   06 Jun 2027 08:31:50.931             4.829           759.281
       198   06 Jun 2027 08:32:41.568   06 Jun 2027 08:32:44.795             3.227          1324.375
       199   06 Jun 2027 08:33:59.521   06 Jun 2027 08:34:09.690            10.169          2335.187
       200   06 Jun 2027 08:34:32.681   06 Jun 2027 08:34:35.446             2.765           435.875
       201   06 Jun 2027 08:34:43.269   06 Jun 2027 08:34:45.326             2.057           244.469
       202   06 Jun 2027 10:04:38.041   06 Jun 2027 10:04:57.588            19.547          7984.094
       203   06 Jun 2027 10:06:20.697   06 Jun 2027 10:06:27.865             7.168           998.906
       204   06 Jun 2027 10:06:39.336   06 Jun 2027 10:06:40.184             0.848           358.469
       205   06 Jun 2027 10:06:53.036   06 Jun 2027 10:06:57.019             3.983           401.625
       206   06 Jun 2027 10:07:12.569   06 Jun 2027 10:07:15.392             2.823           259.750
       207   06 Jun 2027 10:07:23.888   06 Jun 2027 10:07:24.936             1.048           126.031
       208   06 Jun 2027 10:07:49.623   06 Jun 2027 10:07:52.859             3.236           495.813
       209   06 Jun 2027 10:08:08.925   06 Jun 2027 10:08:10.467             1.542           502.062
       210   06 Jun 2027 10:08:38.044   06 Jun 2027 10:08:39.260             1.216           580.781
       211   06 Jun 2027 10:09:02.340   06 Jun 2027 10:09:03.860             1.520           608.031
       212   06 Jun 2027 10:09:40.214   06 Jun 2027 10:09:43.149             2.935          1136.063
       213   06 Jun 2027 10:10:21.462   06 Jun 2027 10:10:24.326             2.864          1113.781
       214   06 Jun 2027 11:42:53.109   06 Jun 2027 11:43:07.533            14.424          6848.125
       215   06 Jun 2027 11:43:56.651   06 Jun 2027 11:44:10.356            13.705          1209.844
       216   06 Jun 2027 11:44:37.140   06 Jun 2027 11:44:38.748             1.608           374.875
       217   06 Jun 2027 11:44:43.830   06 Jun 2027 11:44:45.560             1.730           110.250
       218   06 Jun 2027 11:45:01.540   06 Jun 2027 11:45:05.102             3.562           219.094
       219   06 Jun 2027 11:45:31.322   06 Jun 2027 11:45:32.625             1.303           598.188
       220   06 Jun 2027 11:45:45.512   06 Jun 2027 11:45:46.657             1.145           402.719
       221   06 Jun 2027 11:46:38.588   06 Jun 2027 11:46:42.241             3.653          1535.625
       222   07 Jun 2027 03:54:16.149   07 Jun 2027 03:55:07.784            51.635         25817.500
       223   07 Jun 2027 04:05:28.573   07 Jun 2027 04:07:09.635           101.062         50531.000
       224   07 Jun 2027 04:07:35.392   07 Jun 2027 04:08:37.141            61.749         30874.500
       225   07 Jun 2027 05:28:05.343   07 Jun 2027 05:28:53.114            47.771         23885.500
       226   07 Jun 2027 05:32:01.300   07 Jun 2027 05:32:19.607            18.307          9153.500
       227   07 Jun 2027 07:03:41.293   07 Jun 2027 07:04:20.444            39.151         19575.500
       228   07 Jun 2027 07:05:06.886   07 Jun 2027 07:05:19.067            12.181          5822.407
       229   07 Jun 2027 07:06:36.144   07 Jun 2027 07:06:36.144             0.000             0.000
       230   07 Jun 2027 07:07:39.170   07 Jun 2027 07:07:45.573             6.403          3201.500
       231   07 Jun 2027 07:08:16.931   07 Jun 2027 07:08:24.038             7.107          2081.688
       232   07 Jun 2027 07:08:37.841   07 Jun 2027 07:08:39.349             1.508            51.063
       233   07 Jun 2027 07:09:24.198   07 Jun 2027 07:09:28.264             4.066          1401.531
       234   07 Jun 2027 07:09:33.838   07 Jun 2027 07:09:36.742             2.904           168.188
       235   07 Jun 2027 08:39:52.136   07 Jun 2027 08:40:01.601             9.465          4334.187
       236   07 Jun 2027 08:40:56.909   07 Jun 2027 08:40:59.427             2.518          1010.875
       237   07 Jun 2027 08:42:25.859   07 Jun 2027 08:42:29.076             3.217          1268.625
       238   07 Jun 2027 08:42:53.690   07 Jun 2027 08:42:55.967             2.277            31.875
       239   07 Jun 2027 08:43:29.992   07 Jun 2027 08:43:32.198             2.206          1063.281
       240   07 Jun 2027 08:44:37.988   07 Jun 2027 08:44:47.391             9.403          1327.969
       241   07 Jun 2027 08:45:41.172   07 Jun 2027 08:45:45.899             4.727          1680.656
       242   07 Jun 2027 08:46:34.112   07 Jun 2027 08:46:36.854             2.742          1371.000
       243   07 Jun 2027 08:47:01.123   07 Jun 2027 08:47:02.926             1.803           894.062
       244   07 Jun 2027 10:16:57.701   07 Jun 2027 10:17:16.252            18.551          8269.187
       245   07 Jun 2027 10:17:53.154   07 Jun 2027 10:17:56.924             3.770           898.719
       246   07 Jun 2027 10:19:01.452   07 Jun 2027 10:19:03.544             2.092          1046.000
       247   07 Jun 2027 10:19:03.693   07 Jun 2027 10:19:04.651             0.958            38.531
       248   07 Jun 2027 10:19:54.795   07 Jun 2027 10:19:57.845             3.050           909.125
       249   07 Jun 2027 10:20:51.624   07 Jun 2027 10:21:00.416             8.792          1635.156
       250   07 Jun 2027 10:21:19.892   07 Jun 2027 10:21:21.655             1.763           416.719
       251   07 Jun 2027 10:21:53.267   07 Jun 2027 10:21:53.267             0.000             0.000
       252   07 Jun 2027 10:22:19.774   07 Jun 2027 10:22:32.454            12.680          1760.844
       253   07 Jun 2027 10:22:40.470   07 Jun 2027 10:22:43.477             3.007           148.594
       254   07 Jun 2027 10:22:51.396   07 Jun 2027 10:22:51.396             0.000             0.000
       255   07 Jun 2027 10:22:56.314   07 Jun 2027 10:22:58.702             2.388           401.156
       256   07 Jun 2027 10:23:07.878   07 Jun 2027 10:23:08.902             1.024           286.750
       257   07 Jun 2027 11:54:56.250   07 Jun 2027 11:55:17.426            21.176          9059.687
       258   07 Jun 2027 11:55:56.022   07 Jun 2027 11:55:59.007             2.985          1206.125
       259   07 Jun 2027 11:56:26.576   07 Jun 2027 11:56:26.650             0.074            37.000
       260   07 Jun 2027 11:57:27.773   07 Jun 2027 11:57:33.278             5.505          2553.187
       261   07 Jun 2027 11:58:03.418   07 Jun 2027 11:58:06.669             3.251           828.219
       262   07 Jun 2027 11:58:24.321   07 Jun 2027 11:58:24.903             0.582           251.688
       263   07 Jun 2027 11:58:33.136   07 Jun 2027 11:58:33.782             0.646            48.750
       264   08 Jun 2027 04:05:48.086   08 Jun 2027 04:06:01.147            13.061          6530.500
       265   08 Jun 2027 04:06:10.035   08 Jun 2027 04:07:00.167            50.132         25066.000
       266   08 Jun 2027 04:17:31.573   08 Jun 2027 04:18:44.514            72.941         36470.500
       267   08 Jun 2027 05:39:44.302   08 Jun 2027 05:40:54.564            70.262         35131.000
       268   08 Jun 2027 05:41:44.802   08 Jun 2027 05:42:33.500            48.698         24349.000
       269   08 Jun 2027 05:44:07.932   08 Jun 2027 05:44:18.262            10.330          5165.000
       270   08 Jun 2027 07:14:47.518   08 Jun 2027 07:15:46.104            58.586         29191.718
       271   08 Jun 2027 07:16:13.706   08 Jun 2027 07:16:20.223             6.517           784.062
       272   08 Jun 2027 07:17:49.006   08 Jun 2027 07:17:55.022             6.016          2774.469
       273   08 Jun 2027 07:18:43.245   08 Jun 2027 07:18:43.245             0.000             0.000
       274   08 Jun 2027 07:19:57.399   08 Jun 2027 07:20:05.437             8.038          3580.438
       275   08 Jun 2027 07:20:32.391   08 Jun 2027 07:20:35.742             3.351           593.750
       276   08 Jun 2027 07:21:35.786   08 Jun 2027 07:21:40.892             5.106          1712.000
       277   08 Jun 2027 08:52:11.051   08 Jun 2027 08:52:18.480             7.429          3655.281
       278   08 Jun 2027 08:52:59.201   08 Jun 2027 08:53:03.117             3.916          1019.812
       279   08 Jun 2027 08:53:26.120   08 Jun 2027 08:53:28.083             1.963           718.844
       280   08 Jun 2027 08:53:32.785   08 Jun 2027 08:53:33.674             0.889           138.250
       281   08 Jun 2027 08:53:42.991   08 Jun 2027 08:53:45.210             2.219           291.156
       282   08 Jun 2027 08:53:55.099   08 Jun 2027 08:53:59.934             4.835           251.125
       283   08 Jun 2027 08:54:26.213   08 Jun 2027 08:54:26.912             0.699           142.875
       284   08 Jun 2027 08:54:54.034   08 Jun 2027 08:54:56.212             2.178           285.188
       285   08 Jun 2027 08:55:27.331   08 Jun 2027 08:55:30.260             2.929           972.469
       286   08 Jun 2027 08:55:48.528   08 Jun 2027 08:55:50.216             1.688           474.656
       287   08 Jun 2027 08:56:27.984   08 Jun 2027 08:56:33.206             5.222          1180.250
       288   08 Jun 2027 08:57:17.186   08 Jun 2027 08:57:20.054             2.868           930.781
       289   08 Jun 2027 08:57:33.605   08 Jun 2027 08:57:36.193             2.588           293.781
       290   08 Jun 2027 08:58:32.885   08 Jun 2027 08:58:36.707             3.822          1623.000
       291   08 Jun 2027 08:58:44.787   08 Jun 2027 08:58:47.372             2.585           252.500
       292   08 Jun 2027 08:59:28.113   08 Jun 2027 08:59:30.038             1.925           962.500
       293   08 Jun 2027 10:28:59.193   08 Jun 2027 10:29:15.978            16.785          7787.687
       294   08 Jun 2027 10:29:57.957   08 Jun 2027 10:30:01.124             3.167          1251.062
       295   08 Jun 2027 10:30:50.863   08 Jun 2027 10:30:52.338             1.475           581.500
       296   08 Jun 2027 10:31:16.138   08 Jun 2027 10:31:17.645             1.507           224.375
       297   08 Jun 2027 10:31:20.251   08 Jun 2027 10:31:21.654             1.403            42.344
       298   08 Jun 2027 10:31:54.207   08 Jun 2027 10:31:57.417             3.210           702.375
       299   08 Jun 2027 10:32:18.556   08 Jun 2027 10:32:24.350             5.794           481.875
       300   08 Jun 2027 10:32:50.466   08 Jun 2027 10:32:51.829             1.363           333.812
       301   08 Jun 2027 10:33:02.705   08 Jun 2027 10:33:03.819             1.114           303.375
       302   08 Jun 2027 10:33:16.654   08 Jun 2027 10:33:17.708             1.054           268.813
       303   08 Jun 2027 10:33:25.661   08 Jun 2027 10:33:27.877             2.216           248.531
       304   08 Jun 2027 10:34:50.197   08 Jun 2027 10:34:57.160             6.963          2019.094
       305   09 Jun 2027 03:00:00.000   09 Jun 2027 03:00:03.426             3.426          1713.000
       306   09 Jun 2027 04:17:19.099   09 Jun 2027 04:19:31.729           132.630         66315.000
       307   09 Jun 2027 04:29:32.210   09 Jun 2027 04:30:03.994            31.784         15892.000
       308   09 Jun 2027 05:51:27.807   09 Jun 2027 05:52:41.816            74.009         37004.500
       309   09 Jun 2027 05:53:30.654   09 Jun 2027 05:54:15.533            44.879         22439.500
       310   09 Jun 2027 05:55:30.055   09 Jun 2027 05:55:59.243            29.188         14527.094
       311   09 Jun 2027 05:56:47.082   09 Jun 2027 05:56:47.082             0.000             0.000
       312   09 Jun 2027 07:26:15.910   09 Jun 2027 07:26:30.484            14.574          6244.594
       313   09 Jun 2027 07:26:39.483   09 Jun 2027 07:26:43.504             4.021           191.219
       314   09 Jun 2027 07:28:05.836   09 Jun 2027 07:28:12.170             6.334          2361.000
       315   09 Jun 2027 07:28:14.868   09 Jun 2027 07:28:17.016             2.148            79.687
       316   09 Jun 2027 07:28:44.215   09 Jun 2027 07:28:44.215             0.000             0.000
       317   09 Jun 2027 07:28:51.572   09 Jun 2027 07:28:54.049             2.477          1011.188
       318   09 Jun 2027 07:29:15.000   09 Jun 2027 07:29:17.311             2.311           443.031
       319   09 Jun 2027 07:30:37.084   09 Jun 2027 07:30:42.796             5.712          1900.281
       320   09 Jun 2027 07:31:57.437   09 Jun 2027 07:32:08.348            10.911          2209.531
       321   09 Jun 2027 07:32:57.031   09 Jun 2027 07:33:01.023             3.992          1191.563
       322   09 Jun 2027 07:34:06.585   09 Jun 2027 07:34:11.846             5.261          1785.625
       323   09 Jun 2027 07:35:09.489   09 Jun 2027 07:35:14.111             4.622          1663.313
       324   09 Jun 2027 09:04:05.475   09 Jun 2027 09:04:17.525            12.050          6011.375
       325   09 Jun 2027 09:05:46.718   09 Jun 2027 09:05:50.353             3.635          1496.156
       326   09 Jun 2027 09:06:13.632   09 Jun 2027 09:06:16.838             3.206            80.906
       327   09 Jun 2027 09:06:17.062   09 Jun 2027 09:06:17.413             0.351             7.000
       328   09 Jun 2027 09:07:39.985   09 Jun 2027 09:07:47.249             7.264          2447.781
       329   09 Jun 2027 09:09:04.433   09 Jun 2027 09:09:10.549             6.116          2403.687
       330   09 Jun 2027 09:09:46.321   09 Jun 2027 09:09:49.087             2.766          1117.875
       331   09 Jun 2027 09:10:13.527   09 Jun 2027 09:10:15.234             1.707           656.219
       332   09 Jun 2027 09:10:54.478   09 Jun 2027 09:10:57.477             2.999           999.062
       333   09 Jun 2027 10:40:49.889   09 Jun 2027 10:41:04.174            14.285          6238.125
       334   09 Jun 2027 10:41:20.352   09 Jun 2027 10:41:21.786             1.434           303.000
       335   09 Jun 2027 10:41:38.167   09 Jun 2027 10:41:44.534             6.367           166.188
       336   09 Jun 2027 10:42:08.366   09 Jun 2027 10:42:11.657             3.291           744.750
       337   09 Jun 2027 10:44:14.590   09 Jun 2027 10:44:22.286             7.696          3841.656
       338   09 Jun 2027 10:44:51.691   09 Jun 2027 10:44:54.562             2.871           918.906
       339   09 Jun 2027 10:45:21.752   09 Jun 2027 10:45:24.109             2.357           849.687
       340   09 Jun 2027 10:46:20.685   09 Jun 2027 10:46:24.972             4.287          1768.000
       341   09 Jun 2027 10:46:50.769   09 Jun 2027 10:46:52.884             2.115           577.687
       342   09 Jun 2027 10:47:33.624   09 Jun 2027 10:47:35.909             2.285          1098.406
       343   10 Jun 2027 03:05:15.967   10 Jun 2027 03:07:15.535           119.568         59784.000
       344   10 Jun 2027 03:07:28.134   10 Jun 2027 03:07:30.515             2.381          1190.500
       345   10 Jun 2027 03:07:35.413   10 Jun 2027 03:07:45.499            10.086          5043.000
       346   10 Jun 2027 03:08:39.027   10 Jun 2027 03:08:43.397             4.370          2185.000
       347   10 Jun 2027 03:09:17.028   10 Jun 2027 03:09:32.422            15.394          7697.000
       348   10 Jun 2027 04:29:17.537   10 Jun 2027 04:30:30.229            72.692         36346.000
       349   10 Jun 2027 06:05:14.268   10 Jun 2027 06:07:06.221           111.953         55693.343
       350   10 Jun 2027 07:39:04.624   10 Jun 2027 07:39:19.503            14.879          5049.500
       351   10 Jun 2027 07:41:14.519   10 Jun 2027 07:41:17.223             2.704          1078.781
       352   10 Jun 2027 07:42:04.777   10 Jun 2027 07:42:06.824             2.047           738.969
       353   10 Jun 2027 07:42:49.762   10 Jun 2027 07:42:52.841             3.079           822.656
       354   10 Jun 2027 07:43:42.440   10 Jun 2027 07:43:45.276             2.836           923.156
       355   10 Jun 2027 07:44:02.106   10 Jun 2027 07:44:05.773             3.667           397.438
       356   10 Jun 2027 07:44:37.013   10 Jun 2027 07:44:42.546             5.533           471.812
       357   10 Jun 2027 07:45:24.200   10 Jun 2027 07:45:28.157             3.957          1261.844
       358   10 Jun 2027 07:45:53.385   10 Jun 2027 07:45:54.850             1.465           527.125
       359   10 Jun 2027 07:46:49.931   10 Jun 2027 07:46:52.648             2.717          1358.500
       360   10 Jun 2027 07:46:59.121   10 Jun 2027 07:46:59.308             0.187            93.500
       361   10 Jun 2027 07:47:17.892   10 Jun 2027 07:47:25.387             7.495          1052.312
       362   10 Jun 2027 07:47:31.951   10 Jun 2027 07:47:34.075             2.124           205.125
       363   10 Jun 2027 09:16:12.192   10 Jun 2027 09:16:30.664            18.472          7457.188
       364   10 Jun 2027 09:17:40.188   10 Jun 2027 09:17:44.753             4.565          1361.281
       365   10 Jun 2027 09:18:39.517   10 Jun 2027 09:18:43.693             4.176          1544.844
       366   10 Jun 2027 09:18:53.842   10 Jun 2027 09:18:53.905             0.063            31.500
       367   10 Jun 2027 09:20:20.604   10 Jun 2027 09:20:27.091             6.487          2976.656
       368   10 Jun 2027 09:21:34.355   10 Jun 2027 09:21:38.020             3.665          1576.875
       369   10 Jun 2027 09:21:52.369   10 Jun 2027 09:21:56.036             3.667           415.125
       370   10 Jun 2027 09:22:55.438   10 Jun 2027 09:22:58.713             3.275          1599.094
       371   10 Jun 2027 09:23:06.759   10 Jun 2027 09:23:08.266             1.507           251.438
       372   10 Jun 2027 10:53:15.245   10 Jun 2027 10:53:23.524             8.279          4139.500
       373   10 Jun 2027 10:53:31.436   10 Jun 2027 10:53:38.686             7.250          3478.156
       374   10 Jun 2027 10:55:17.209   10 Jun 2027 10:55:26.353             9.144          2313.250
       375   10 Jun 2027 10:55:42.250   10 Jun 2027 10:55:43.229             0.979           324.906
       376   10 Jun 2027 10:55:59.838   10 Jun 2027 10:56:01.998             2.160           164.813
       377   10 Jun 2027 10:56:33.304   10 Jun 2027 10:56:39.903             6.599           978.312
       378   10 Jun 2027 10:56:58.896   10 Jun 2027 10:56:59.846             0.950            82.531
       379   10 Jun 2027 10:57:17.188   10 Jun 2027 10:57:18.315             1.127           500.406
       380   10 Jun 2027 10:58:14.629   10 Jun 2027 10:58:18.531             3.902          1613.812
       381   10 Jun 2027 10:58:24.346   10 Jun 2027 10:58:26.268             1.922           181.719
       382   10 Jun 2027 10:58:47.867   10 Jun 2027 10:58:49.492             1.625           672.344
       383   11 Jun 2027 03:17:50.741   11 Jun 2027 03:20:40.559           169.818         84909.000
       384   11 Jun 2027 03:20:46.491   11 Jun 2027 03:21:06.914            20.423         10211.500
       385   11 Jun 2027 03:21:14.661   11 Jun 2027 03:21:14.661             0.000             0.000
       386   11 Jun 2027 04:41:11.356   11 Jun 2027 04:41:48.610            37.254         18627.000
       387   11 Jun 2027 04:42:09.430   11 Jun 2027 04:42:31.305            21.875         10937.500
       388   11 Jun 2027 06:17:35.987   11 Jun 2027 06:18:46.698            70.711         35250.781
       389   11 Jun 2027 06:19:28.744   11 Jun 2027 06:19:32.451             3.707          1274.281
       390   11 Jun 2027 06:19:55.820   11 Jun 2027 06:19:58.360             2.540           672.625
       391   11 Jun 2027 06:20:07.000   11 Jun 2027 06:20:07.747             0.747             9.563
       392   11 Jun 2027 06:20:35.122   11 Jun 2027 06:20:35.122             0.000             0.000
       393   11 Jun 2027 07:51:18.914   11 Jun 2027 07:51:29.158            10.244          4757.781
       394   11 Jun 2027 07:53:08.409   11 Jun 2027 07:53:09.964             1.555           209.094
       395   11 Jun 2027 07:53:28.590   11 Jun 2027 07:53:31.151             2.561           513.437
       396   11 Jun 2027 07:54:25.339   11 Jun 2027 07:54:30.406             5.067          1693.375
       397   11 Jun 2027 07:55:16.739   11 Jun 2027 07:55:20.031             3.292          1269.031
       398   11 Jun 2027 07:55:55.612   11 Jun 2027 07:56:04.901             9.289          1111.906
       399   11 Jun 2027 07:56:24.792   11 Jun 2027 07:56:27.612             2.820           183.281
       400   11 Jun 2027 07:57:55.159   11 Jun 2027 07:58:01.160             6.001          2196.063
       401   11 Jun 2027 07:58:08.595   11 Jun 2027 07:58:09.033             0.438            18.344
       402   11 Jun 2027 07:58:52.356   11 Jun 2027 07:58:56.848             4.492          1353.844
       403   11 Jun 2027 07:59:32.273   11 Jun 2027 07:59:34.637             2.364          1025.906
       404   11 Jun 2027 09:28:38.631   11 Jun 2027 09:28:54.080            15.449          6979.719
       405   11 Jun 2027 09:30:36.807   11 Jun 2027 09:30:37.376             0.569           284.500
       406   11 Jun 2027 09:31:00.883   11 Jun 2027 09:31:07.870             6.987          2154.094
       407   11 Jun 2027 09:31:26.148   11 Jun 2027 09:31:27.046             0.898           172.938
       408   11 Jun 2027 09:31:38.991   11 Jun 2027 09:31:40.310             1.319           192.906
       409   11 Jun 2027 09:32:18.934   11 Jun 2027 09:32:21.025             2.091           965.219
       410   11 Jun 2027 09:33:04.851   11 Jun 2027 09:33:06.578             1.727           599.344
       411   11 Jun 2027 09:33:34.262   11 Jun 2027 09:33:36.000             1.738           815.406
       412   11 Jun 2027 09:33:41.320   11 Jun 2027 09:33:42.365             1.045           153.000
       413   11 Jun 2027 09:34:46.450   11 Jun 2027 09:34:48.719             2.269          1031.813
       414   11 Jun 2027 09:34:59.286   11 Jun 2027 09:35:00.851             1.565           330.219
       415   11 Jun 2027 11:05:35.395   11 Jun 2027 11:05:54.973            19.578          7820.094
       416   11 Jun 2027 11:06:37.379   11 Jun 2027 11:06:38.714             1.335           667.500
       417   11 Jun 2027 11:07:15.453   11 Jun 2027 11:07:18.678             3.225          1612.500
       418   11 Jun 2027 11:07:47.868   11 Jun 2027 11:07:54.445             6.577          1029.062
       419   11 Jun 2027 11:07:56.507   11 Jun 2027 11:08:01.798             5.291            51.344
       420   11 Jun 2027 11:08:34.970   11 Jun 2027 11:08:37.409             2.439           771.406
       421   11 Jun 2027 11:08:42.694   11 Jun 2027 11:08:43.075             0.381           165.156
       422   11 Jun 2027 11:09:50.723   11 Jun 2027 11:09:55.096             4.373          2114.000
       423   11 Jun 2027 11:10:27.589   11 Jun 2027 11:10:31.555             3.966           949.125
       424   11 Jun 2027 11:10:41.169   11 Jun 2027 11:10:41.169             0.000             0.000
       425   11 Jun 2027 11:10:49.565   11 Jun 2027 11:10:50.528             0.963           363.906
       426   12 Jun 2027 03:29:28.459   12 Jun 2027 03:33:08.761           220.302        110151.000
       427   12 Jun 2027 04:52:59.044   12 Jun 2027 04:54:11.991            72.947         36473.500
       428   12 Jun 2027 06:29:39.273   12 Jun 2027 06:30:04.371            25.098         11532.437
       429   12 Jun 2027 06:30:29.281   12 Jun 2027 06:30:33.401             4.120           720.000
       430   12 Jun 2027 06:30:49.510   12 Jun 2027 06:30:49.510             0.000             0.000
       431   12 Jun 2027 06:31:40.100   12 Jun 2027 06:31:44.460             4.360          2035.844
       432   12 Jun 2027 06:32:51.484   12 Jun 2027 06:32:51.484             0.000             0.000
       433   12 Jun 2027 08:04:38.334   12 Jun 2027 08:04:49.420            11.086          4183.188
       434   12 Jun 2027 08:05:27.419   12 Jun 2027 08:05:31.318             3.899           947.719
       435   12 Jun 2027 08:05:51.093   12 Jun 2027 08:05:53.270             2.177            48.250
       436   12 Jun 2027 08:07:03.646   12 Jun 2027 08:07:12.447             8.801          1147.625
       437   12 Jun 2027 08:08:17.561   12 Jun 2027 08:08:22.255             4.694          1764.531
       438   12 Jun 2027 08:10:09.625   12 Jun 2027 08:10:15.827             6.202          3101.000
       439   12 Jun 2027 08:10:23.372   12 Jun 2027 08:10:25.475             2.103           326.531
       440   12 Jun 2027 08:11:24.664   12 Jun 2027 08:11:30.908             6.244          1634.625
       441   12 Jun 2027 09:40:46.604   12 Jun 2027 09:41:01.103            14.499          6770.875
       442   12 Jun 2027 09:43:03.489   12 Jun 2027 09:43:05.772             2.283          1082.719
       443   12 Jun 2027 09:43:22.431   12 Jun 2027 09:43:23.452             1.021           179.594
       444   12 Jun 2027 09:44:57.709   12 Jun 2027 09:45:01.345             3.636          1701.813
       445   12 Jun 2027 09:45:16.008   12 Jun 2027 09:45:18.143             2.135           458.219
       446   12 Jun 2027 09:45:54.715   12 Jun 2027 09:45:57.174             2.459           723.313
       447   12 Jun 2027 09:46:43.358   12 Jun 2027 09:46:48.893             5.535           448.469
       448   12 Jun 2027 09:46:50.362   12 Jun 2027 09:46:53.049             2.687            45.906
       449   12 Jun 2027 09:47:19.176   12 Jun 2027 09:47:21.892             2.716           781.156
       450   12 Jun 2027 11:18:30.723   12 Jun 2027 11:18:43.837            13.114          6401.688
       451   12 Jun 2027 11:19:22.778   12 Jun 2027 11:19:32.360             9.582          1094.062
       452   12 Jun 2027 11:20:24.275   12 Jun 2027 11:20:27.191             2.916          1458.000
       453   12 Jun 2027 11:21:11.023   12 Jun 2027 11:21:12.884             1.861           930.500
       454   12 Jun 2027 11:21:54.363   12 Jun 2027 11:21:59.565             5.202          1899.812
       455   12 Jun 2027 11:22:50.491   12 Jun 2027 11:22:54.010             3.519          1499.656
       456   13 Jun 2027 03:41:51.238   13 Jun 2027 03:42:22.310            31.072         15536.000
       457   13 Jun 2027 03:42:40.837   13 Jun 2027 03:44:28.498           107.661         53830.500
       458   13 Jun 2027 03:44:39.252   13 Jun 2027 03:45:42.920            63.668         31834.000
       459   13 Jun 2027 05:05:13.479   13 Jun 2027 05:06:32.749            79.270         39635.000
       460   13 Jun 2027 06:41:45.701   13 Jun 2027 06:42:24.656            38.955         16758.593
       461   13 Jun 2027 06:43:46.074   13 Jun 2027 06:43:52.707             6.633          2449.875
       462   13 Jun 2027 06:44:20.110   13 Jun 2027 06:44:23.706             3.596           821.625
       463   13 Jun 2027 06:44:45.135   13 Jun 2027 06:44:48.705             3.570           669.656
       464   13 Jun 2027 08:16:55.936   13 Jun 2027 08:17:11.734            15.798          5618.344
       465   13 Jun 2027 08:18:14.625   13 Jun 2027 08:18:21.467             6.842          1843.406
       466   13 Jun 2027 08:18:30.567   13 Jun 2027 08:18:32.272             1.705           103.563
       467   13 Jun 2027 08:19:48.841   13 Jun 2027 08:19:54.036             5.195          2359.750
       468   13 Jun 2027 08:20:29.992   13 Jun 2027 08:20:43.933            13.941           546.656
       469   13 Jun 2027 08:20:56.414   13 Jun 2027 08:20:58.856             2.442           150.906
       470   13 Jun 2027 08:22:09.703   13 Jun 2027 08:22:14.586             4.883          2213.969
       471   13 Jun 2027 08:23:11.533   13 Jun 2027 08:23:13.441             1.908           954.000
       472   13 Jun 2027 08:23:20.532   13 Jun 2027 08:23:25.244             4.712          1047.188
       473   13 Jun 2027 09:53:18.883   13 Jun 2027 09:53:30.753            11.870          5837.344
       474   13 Jun 2027 09:53:47.557   13 Jun 2027 09:53:50.742             3.185           209.562
       475   13 Jun 2027 09:54:39.854   13 Jun 2027 09:54:42.785             2.931          1294.156
       476   13 Jun 2027 09:55:25.509   13 Jun 2027 09:55:29.669             4.160           763.750
       477   13 Jun 2027 09:55:53.011   13 Jun 2027 09:55:53.206             0.195            97.500
       478   13 Jun 2027 09:56:02.643   13 Jun 2027 09:56:04.838             2.195           899.750
       479   13 Jun 2027 09:57:13.854   13 Jun 2027 09:57:18.817             4.963          2156.750
       480   13 Jun 2027 09:57:26.605   13 Jun 2027 09:57:28.292             1.687           166.063
       481   13 Jun 2027 09:57:50.950   13 Jun 2027 09:57:52.607             1.657           650.844
       482   13 Jun 2027 09:58:29.954   13 Jun 2027 09:58:34.597             4.643          1167.094
       483   13 Jun 2027 09:59:09.791   13 Jun 2027 09:59:13.234             3.443           959.656
       484   13 Jun 2027 11:30:36.153   13 Jun 2027 11:30:54.046            17.893          6930.719
       485   13 Jun 2027 11:31:21.460   13 Jun 2027 11:31:22.452             0.992           496.000
       486   13 Jun 2027 11:31:35.931   13 Jun 2027 11:31:37.907             1.976           668.719
       487   13 Jun 2027 11:31:42.879   13 Jun 2027 11:31:44.024             1.145           155.375
       488   13 Jun 2027 11:32:11.416   13 Jun 2027 11:32:16.847             5.431           856.000
       489   13 Jun 2027 11:33:21.164   13 Jun 2027 11:33:27.683             6.519          1921.156
       490   13 Jun 2027 11:33:40.953   13 Jun 2027 11:33:40.953             0.000             0.000
       491   13 Jun 2027 11:33:54.657   13 Jun 2027 11:33:58.558             3.901           773.687
       492   13 Jun 2027 11:34:52.341   13 Jun 2027 11:34:58.264             5.923          1680.719
