uniorb/output/strategy_2/Camera/Camera_KinoSat_110906.txt

KinoSat_110906
-------------------------
    Access    *     Start Time (UTCG)     *     Stop Time (UTCG)  *   Duration (s) *   Data (Mbytes)
         1   01 Jun 2027 03:21:26.235   01 Jun 2027 03:22:38.003            71.768         35884.000
         2   01 Jun 2027 03:23:14.376   01 Jun 2027 03:23:39.214            24.838         12419.000
         3   01 Jun 2027 03:23:43.468   01 Jun 2027 03:23:59.689            16.221          8110.500
         4   01 Jun 2027 04:57:48.616   01 Jun 2027 05:00:38.530           169.914         84957.000
         5   01 Jun 2027 06:31:43.679   01 Jun 2027 06:34:20.227           156.548         78274.000
         6   01 Jun 2027 06:36:00.309   01 Jun 2027 06:36:13.232            12.923          6461.500
         7   01 Jun 2027 06:36:27.005   01 Jun 2027 06:36:33.862             6.857          3428.500
         8   01 Jun 2027 06:38:29.649   01 Jun 2027 06:38:35.736             6.087          3043.500
         9   01 Jun 2027 06:39:35.042   01 Jun 2027 06:39:40.047             5.005          2502.500
        10   01 Jun 2027 08:08:55.387   01 Jun 2027 08:11:48.758           173.371         86685.500
        11   01 Jun 2027 08:12:01.738   01 Jun 2027 08:12:35.621            33.883         16941.500
        12   01 Jun 2027 09:45:57.333   01 Jun 2027 09:48:15.834           138.501         69250.500
        13   01 Jun 2027 09:48:37.147   01 Jun 2027 09:48:53.022            15.875          7937.500
        14   01 Jun 2027 09:49:18.767   01 Jun 2027 09:49:21.882             3.115          1557.500
        15   01 Jun 2027 09:49:41.449   01 Jun 2027 09:49:46.139             4.690          2345.000
        16   01 Jun 2027 11:22:42.132   01 Jun 2027 11:24:27.771           105.639         52819.500
        17   02 Jun 2027 03:33:18.481   02 Jun 2027 03:33:45.337            26.856         13428.000
        18   02 Jun 2027 03:34:39.091   02 Jun 2027 03:35:06.281            27.190         13595.000
        19   02 Jun 2027 03:35:17.927   02 Jun 2027 03:35:26.685             8.758          4379.000
        20   02 Jun 2027 03:35:40.113   02 Jun 2027 03:36:02.009            21.896         10948.000
        21   02 Jun 2027 05:09:52.244   02 Jun 2027 05:11:00.354            68.110         34055.000
        22   02 Jun 2027 05:11:34.950   02 Jun 2027 05:12:34.248            59.298         29649.000
        23   02 Jun 2027 05:12:40.253   02 Jun 2027 05:13:25.486            45.233         22616.500
        24   02 Jun 2027 06:45:00.779   02 Jun 2027 06:47:58.210           177.431         88715.500
        25   02 Jun 2027 06:48:05.290   02 Jun 2027 06:48:08.479             3.189          1594.500
        26   02 Jun 2027 06:48:15.729   02 Jun 2027 06:48:15.868             0.139            69.500
        27   02 Jun 2027 06:48:45.117   02 Jun 2027 06:49:03.415            18.298          9149.000
        28   02 Jun 2027 06:51:03.772   02 Jun 2027 06:51:21.856            18.084          9042.000
        29   02 Jun 2027 06:51:42.515   02 Jun 2027 06:51:48.141             5.626          2813.000
        30   02 Jun 2027 08:21:20.810   02 Jun 2027 08:23:10.210           109.400         52174.250
        31   02 Jun 2027 08:23:27.830   02 Jun 2027 08:23:30.788             2.958           354.813
        32   02 Jun 2027 08:24:55.208   02 Jun 2027 08:24:58.612             3.404          1702.000
        33   02 Jun 2027 08:25:58.514   02 Jun 2027 08:26:03.997             5.483          2741.500
        34   02 Jun 2027 08:27:22.374   02 Jun 2027 08:27:28.820             6.446          2487.344
        35   02 Jun 2027 09:58:54.372   02 Jun 2027 09:59:16.127            21.755         10877.500
        36   02 Jun 2027 09:59:44.592   02 Jun 2027 09:59:46.823             2.231          1115.500
        37   02 Jun 2027 09:59:49.797   02 Jun 2027 09:59:51.070             1.273           308.438
        38   02 Jun 2027 10:00:51.305   02 Jun 2027 10:00:51.305             0.000             0.000
        39   02 Jun 2027 10:01:12.407   02 Jun 2027 10:01:16.063             3.656           952.219
        40   02 Jun 2027 10:02:15.390   02 Jun 2027 10:02:21.209             5.819          1590.562
        41   02 Jun 2027 10:02:36.393   02 Jun 2027 10:02:37.421             1.028           474.500
        42   02 Jun 2027 10:02:55.081   02 Jun 2027 10:03:00.926             5.845           150.750
        43   02 Jun 2027 10:03:15.190   02 Jun 2027 10:03:15.892             0.702           278.156
        44   02 Jun 2027 11:34:58.317   02 Jun 2027 11:35:16.171            17.854          8446.563
        45   02 Jun 2027 11:35:39.008   02 Jun 2027 11:35:43.687             4.679           169.844
        46   02 Jun 2027 11:36:12.566   02 Jun 2027 11:36:19.347             6.781           832.156
        47   02 Jun 2027 11:36:46.126   02 Jun 2027 11:36:51.981             5.855           836.500
        48   02 Jun 2027 11:37:27.127   02 Jun 2027 11:37:30.493             3.366          1098.313
        49   02 Jun 2027 11:38:17.503   02 Jun 2027 11:38:21.533             4.030          1299.094
        50   02 Jun 2027 11:38:39.949   02 Jun 2027 11:38:40.587             0.638           319.000
        51   02 Jun 2027 11:38:50.916   02 Jun 2027 11:38:50.916             0.000             0.000
        52   02 Jun 2027 11:39:00.607   02 Jun 2027 11:39:05.037             4.430           744.250
        53   03 Jun 2027 03:45:27.892   03 Jun 2027 03:45:42.415            14.523          7261.500
        54   03 Jun 2027 03:46:30.014   03 Jun 2027 03:46:46.168            16.154          8077.000
        55   03 Jun 2027 03:46:58.041   03 Jun 2027 03:47:20.065            22.024         11012.000
        56   03 Jun 2027 03:47:39.097   03 Jun 2027 03:47:39.097             0.000             0.000
        57   03 Jun 2027 03:48:09.128   03 Jun 2027 03:48:39.183            30.055         15027.500
        58   03 Jun 2027 05:22:02.854   03 Jun 2027 05:22:50.103            47.249         23624.500
        59   03 Jun 2027 05:22:54.919   03 Jun 2027 05:25:30.939           156.020         78010.000
        60   03 Jun 2027 06:57:12.626   03 Jun 2027 06:57:39.231            26.605         13302.500
        61   03 Jun 2027 06:58:26.845   03 Jun 2027 06:58:35.954             9.109          3343.156
        62   03 Jun 2027 06:59:08.351   03 Jun 2027 06:59:14.185             5.834          1012.406
        63   03 Jun 2027 06:59:44.681   03 Jun 2027 06:59:50.063             5.382           646.750
        64   03 Jun 2027 07:00:08.482   03 Jun 2027 07:00:08.482             0.000             0.000
        65   03 Jun 2027 07:01:58.911   03 Jun 2027 07:02:08.441             9.530          3868.125
        66   03 Jun 2027 07:02:47.127   03 Jun 2027 07:02:54.064             6.937          1208.938
        67   03 Jun 2027 07:03:48.388   03 Jun 2027 07:03:48.528             0.140            70.000
        68   03 Jun 2027 08:33:33.814   03 Jun 2027 08:33:55.127            21.313          9953.656
        69   03 Jun 2027 08:35:05.646   03 Jun 2027 08:35:10.748             5.102          1531.000
        70   03 Jun 2027 08:35:25.807   03 Jun 2027 08:35:26.389             0.582           249.031
        71   03 Jun 2027 08:35:57.397   03 Jun 2027 08:35:59.822             2.425           623.312
        72   03 Jun 2027 08:36:51.496   03 Jun 2027 08:36:55.787             4.291          1551.125
        73   03 Jun 2027 08:37:01.189   03 Jun 2027 08:37:02.829             1.640            75.875
        74   03 Jun 2027 08:37:17.858   03 Jun 2027 08:37:21.368             3.510           469.656
        75   03 Jun 2027 08:38:06.788   03 Jun 2027 08:38:08.642             1.854           853.531
        76   03 Jun 2027 08:39:04.889   03 Jun 2027 08:39:08.500             3.611          1418.438
        77   03 Jun 2027 08:39:16.273   03 Jun 2027 08:39:18.622             2.349           242.906
        78   03 Jun 2027 10:10:50.876   03 Jun 2027 10:11:04.916            14.040          7020.000
        79   03 Jun 2027 10:11:47.211   03 Jun 2027 10:11:58.290            11.079          2671.937
        80   03 Jun 2027 10:12:39.168   03 Jun 2027 10:12:41.652             2.484          1058.875
        81   03 Jun 2027 10:13:23.280   03 Jun 2027 10:13:26.657             3.377          1300.875
        82   03 Jun 2027 10:13:51.984   03 Jun 2027 10:13:53.091             1.107           541.437
        83   03 Jun 2027 10:14:14.164   03 Jun 2027 10:14:16.239             2.075           554.281
        84   03 Jun 2027 10:15:07.564   03 Jun 2027 10:15:10.768             3.204          1447.188
        85   03 Jun 2027 10:15:17.958   03 Jun 2027 10:15:17.958             0.000             0.000
        86   03 Jun 2027 11:47:03.061   03 Jun 2027 11:47:16.290            13.229          6071.344
        87   03 Jun 2027 11:47:55.205   03 Jun 2027 11:47:57.919             2.714           927.000
        88   03 Jun 2027 11:48:52.404   03 Jun 2027 11:48:54.628             2.224          1112.000
        89   03 Jun 2027 11:48:55.788   03 Jun 2027 11:48:55.788             0.000             0.000
        90   03 Jun 2027 11:49:10.701   03 Jun 2027 11:49:17.428             6.727           732.313
        91   03 Jun 2027 11:49:32.478   03 Jun 2027 11:49:33.600             1.122            78.375
        92   03 Jun 2027 11:50:02.383   03 Jun 2027 11:50:10.350             7.967           899.469
        93   03 Jun 2027 11:50:49.761   03 Jun 2027 11:50:52.275             2.514           752.906
        94   04 Jun 2027 03:57:59.409   04 Jun 2027 03:59:16.433            77.024         38512.000
        95   04 Jun 2027 04:00:38.520   04 Jun 2027 04:00:43.307             4.787          2393.500
        96   04 Jun 2027 05:33:51.304   04 Jun 2027 05:34:36.829            45.525         22762.500
        97   04 Jun 2027 05:34:42.898   04 Jun 2027 05:37:03.357           140.459         70229.500
        98   04 Jun 2027 05:37:19.281   04 Jun 2027 05:37:52.619            33.338         16669.000
        99   04 Jun 2027 07:08:45.305   04 Jun 2027 07:09:20.706            35.401         15755.844
       100   04 Jun 2027 07:10:30.118   04 Jun 2027 07:10:31.934             1.816           484.969
       101   04 Jun 2027 07:11:50.847   04 Jun 2027 07:11:54.435             3.588          1277.812
       102   04 Jun 2027 07:12:11.787   04 Jun 2027 07:12:15.024             3.237           509.531
       103   04 Jun 2027 07:12:41.706   04 Jun 2027 07:12:44.908             3.202           750.562
       104   04 Jun 2027 07:13:58.560   04 Jun 2027 07:14:11.245            12.685          2263.094
       105   04 Jun 2027 07:14:42.361   04 Jun 2027 07:14:44.151             1.790           881.156
       106   04 Jun 2027 07:15:21.805   04 Jun 2027 07:15:24.471             2.666          1176.687
       107   04 Jun 2027 07:15:37.997   04 Jun 2027 07:15:38.747             0.750           263.375
       108   04 Jun 2027 08:45:11.278   04 Jun 2027 08:45:35.334            24.056         11293.781
       109   04 Jun 2027 08:45:51.730   04 Jun 2027 08:45:52.704             0.974           131.844
       110   04 Jun 2027 08:46:12.076   04 Jun 2027 08:46:13.494             1.418           316.937
       111   04 Jun 2027 08:46:51.937   04 Jun 2027 08:46:53.748             1.811           154.531
       112   04 Jun 2027 08:47:28.998   04 Jun 2027 08:47:39.269            10.271            97.469
       113   04 Jun 2027 08:48:29.510   04 Jun 2027 08:48:33.158             3.648           969.250
       114   04 Jun 2027 08:49:32.292   04 Jun 2027 08:49:37.473             5.181          1847.937
       115   04 Jun 2027 08:50:21.318   04 Jun 2027 08:50:24.118             2.800          1242.531
       116   04 Jun 2027 08:51:28.864   04 Jun 2027 08:51:32.535             3.671          1835.500
       117   04 Jun 2027 10:23:29.701   04 Jun 2027 10:23:46.880            17.179          7579.156
       118   04 Jun 2027 10:24:11.326   04 Jun 2027 10:24:13.066             1.740           152.062
       119   04 Jun 2027 10:24:37.748   04 Jun 2027 10:24:44.150             6.402           771.313
       120   04 Jun 2027 10:25:09.158   04 Jun 2027 10:25:10.233             1.075           323.219
       121   04 Jun 2027 10:26:04.287   04 Jun 2027 10:26:08.252             3.965          1660.750
       122   04 Jun 2027 10:26:54.763   04 Jun 2027 10:26:58.674             3.911          1453.469
       123   04 Jun 2027 10:27:16.672   04 Jun 2027 10:27:19.454             2.782           562.438
       124   04 Jun 2027 11:58:56.119   04 Jun 2027 11:59:15.666            19.547          8223.062
       125   05 Jun 2027 04:08:34.895   05 Jun 2027 04:09:39.402            64.507         32253.500
       126   05 Jun 2027 04:09:52.732   05 Jun 2027 04:10:30.624            37.892         18946.000
       127   05 Jun 2027 04:13:07.177   05 Jun 2027 04:13:07.177             0.000             0.000
       128   05 Jun 2027 05:44:07.600   05 Jun 2027 05:44:57.603            50.003         25001.500
       129   05 Jun 2027 05:45:35.703   05 Jun 2027 05:47:27.279           111.576         55788.000
       130   05 Jun 2027 05:48:12.080   05 Jun 2027 05:48:16.962             4.882          2441.000
       131   05 Jun 2027 05:49:23.644   05 Jun 2027 05:49:38.655            15.011          7505.500
       132   05 Jun 2027 07:20:25.143   05 Jun 2027 07:21:13.298            48.155         22818.500
       133   05 Jun 2027 07:22:15.933   05 Jun 2027 07:22:20.395             4.462          1678.750
       134   05 Jun 2027 07:23:12.522   05 Jun 2027 07:23:16.935             4.413          1224.969
       135   05 Jun 2027 07:23:32.083   05 Jun 2027 07:23:33.404             1.321           214.281
       136   05 Jun 2027 07:23:45.052   05 Jun 2027 07:23:46.931             1.879           364.000
       137   05 Jun 2027 07:23:54.335   05 Jun 2027 07:23:54.707             0.372           181.062
       138   05 Jun 2027 07:25:57.558   05 Jun 2027 07:26:04.296             6.738          2969.594
       139   05 Jun 2027 07:26:39.786   05 Jun 2027 07:26:39.885             0.099            49.500
       140   05 Jun 2027 07:27:23.110   05 Jun 2027 07:27:30.230             7.120          1821.093
       141   05 Jun 2027 07:27:33.885   05 Jun 2027 07:27:37.423             3.538           114.219
       142   05 Jun 2027 08:57:30.878   05 Jun 2027 08:57:53.388            22.510         10610.000
       143   05 Jun 2027 08:58:07.058   05 Jun 2027 08:58:08.602             1.544           427.187
       144   05 Jun 2027 08:59:00.687   05 Jun 2027 08:59:02.843             2.156           791.625
       145   05 Jun 2027 08:59:58.865   05 Jun 2027 09:00:00.876             2.011           706.500
       146   05 Jun 2027 09:00:27.539   05 Jun 2027 09:00:31.715             4.176           819.938
       147   05 Jun 2027 09:00:52.088   05 Jun 2027 09:00:53.557             1.469           622.344
       148   05 Jun 2027 09:01:10.265   05 Jun 2027 09:01:15.394             5.129           522.125
       149   05 Jun 2027 09:01:53.999   05 Jun 2027 09:01:57.153             3.154           857.187
       150   05 Jun 2027 09:03:36.254   05 Jun 2027 09:03:42.630             6.376          2857.719
       151   05 Jun 2027 09:03:50.251   05 Jun 2027 09:03:50.822             0.571           235.031
       152   05 Jun 2027 10:35:28.180   05 Jun 2027 10:35:42.276            14.096          7048.000
       153   05 Jun 2027 10:36:22.615   05 Jun 2027 10:36:29.312             6.697          2156.375
       154   05 Jun 2027 10:37:04.830   05 Jun 2027 10:37:08.212             3.382          1109.937
       155   05 Jun 2027 10:37:53.255   05 Jun 2027 10:37:56.735             3.480          1407.594
       156   05 Jun 2027 10:38:06.804   05 Jun 2027 10:38:10.400             3.596           314.656
       157   05 Jun 2027 10:38:56.513   05 Jun 2027 10:38:57.891             1.378           689.000
       158   06 Jun 2027 04:20:18.106   06 Jun 2027 04:21:23.952            65.846         32923.000
       159   06 Jun 2027 04:22:14.890   06 Jun 2027 04:23:13.606            58.716         29358.000
       160   06 Jun 2027 04:24:40.472   06 Jun 2027 04:24:46.769             6.297          3148.500
       161   06 Jun 2027 04:25:24.531   06 Jun 2027 04:25:30.444             5.913          2956.500
       162   06 Jun 2027 05:55:16.207   06 Jun 2027 05:57:10.479           114.272         57136.000
       163   06 Jun 2027 05:57:19.619   06 Jun 2027 05:57:27.085             7.466          3733.000
       164   06 Jun 2027 05:58:23.603   06 Jun 2027 05:58:37.721            14.118          7059.000
       165   06 Jun 2027 05:58:42.055   06 Jun 2027 05:58:52.447            10.392          5196.000
       166   06 Jun 2027 06:00:13.362   06 Jun 2027 06:00:15.768             2.406          1203.000
       167   06 Jun 2027 06:00:27.190   06 Jun 2027 06:00:29.101             1.911           955.500
       168   06 Jun 2027 06:00:46.781   06 Jun 2027 06:00:46.781             0.000             0.000
       169   06 Jun 2027 06:00:53.580   06 Jun 2027 06:01:11.572            17.992          8996.000
       170   06 Jun 2027 06:01:42.013   06 Jun 2027 06:01:55.903            13.890          5377.531
       171   06 Jun 2027 07:32:44.443   06 Jun 2027 07:33:00.463            16.020          7743.188
       172   06 Jun 2027 07:34:14.994   06 Jun 2027 07:34:24.634             9.640          2204.500
       173   06 Jun 2027 07:34:45.924   06 Jun 2027 07:34:49.399             3.475           375.656
       174   06 Jun 2027 07:34:59.017   06 Jun 2027 07:34:59.632             0.615            67.656
       175   06 Jun 2027 07:35:48.512   06 Jun 2027 07:35:50.543             2.031           150.094
       176   06 Jun 2027 07:36:25.107   06 Jun 2027 07:36:28.741             3.634           955.969
       177   06 Jun 2027 07:37:55.773   06 Jun 2027 07:38:00.073             4.300          1827.750
       178   06 Jun 2027 07:38:24.863   06 Jun 2027 07:38:27.401             2.538           460.719
       179   06 Jun 2027 07:38:55.553   06 Jun 2027 07:38:57.393             1.840           879.750
       180   06 Jun 2027 09:09:29.485   06 Jun 2027 09:09:49.293            19.808          9880.687
       181   06 Jun 2027 09:09:59.433   06 Jun 2027 09:10:00.535             1.102            30.750
       182   06 Jun 2027 09:11:45.213   06 Jun 2027 09:11:50.547             5.334          2064.625
       183   06 Jun 2027 09:13:01.122   06 Jun 2027 09:13:06.392             5.270          1964.000
       184   06 Jun 2027 09:13:25.342   06 Jun 2027 09:13:28.356             3.014           428.563
       185   06 Jun 2027 09:13:28.592   06 Jun 2027 09:13:28.768             0.176             7.375
       186   06 Jun 2027 09:13:39.743   06 Jun 2027 09:13:40.355             0.612            70.531
       187   06 Jun 2027 09:14:17.277   06 Jun 2027 09:14:19.891             2.614          1153.812
       188   06 Jun 2027 09:14:45.820   06 Jun 2027 09:14:47.176             1.356           646.094
       189   06 Jun 2027 09:15:01.053   06 Jun 2027 09:15:04.152             3.099           433.656
       190   06 Jun 2027 09:15:45.756   06 Jun 2027 09:15:51.740             5.984          1204.219
       191   06 Jun 2027 10:47:27.700   06 Jun 2027 10:47:43.139            15.439          6616.375
       192   06 Jun 2027 10:48:33.981   06 Jun 2027 10:48:38.543             4.562          1588.813
       193   06 Jun 2027 10:48:46.024   06 Jun 2027 10:48:46.024             0.000             0.000
       194   06 Jun 2027 10:49:07.667   06 Jun 2027 10:49:10.298             2.631           889.656
       195   06 Jun 2027 10:49:49.945   06 Jun 2027 10:49:57.805             7.860          1131.125
       196   06 Jun 2027 10:50:18.526   06 Jun 2027 10:50:25.369             6.843           540.719
       197   06 Jun 2027 10:50:45.817   06 Jun 2027 10:50:48.116             2.299           490.813
       198   06 Jun 2027 10:51:07.535   06 Jun 2027 10:51:09.843             2.308           606.844
       199   06 Jun 2027 10:51:22.929   06 Jun 2027 10:51:22.929             0.000             0.000
       200   07 Jun 2027 03:10:04.309   07 Jun 2027 03:10:35.791            31.482         15741.000
       201   07 Jun 2027 04:31:52.254   07 Jun 2027 04:33:10.863            78.609         39304.500
       202   07 Jun 2027 04:33:59.299   07 Jun 2027 04:35:21.978            82.679         41339.500
       203   07 Jun 2027 04:36:15.778   07 Jun 2027 04:36:37.802            22.024         11012.000
       204   07 Jun 2027 06:06:44.085   07 Jun 2027 06:08:07.933            83.848         41804.969
       205   07 Jun 2027 06:11:45.676   07 Jun 2027 06:11:45.998             0.322           161.000
       206   07 Jun 2027 06:12:56.025   07 Jun 2027 06:13:00.824             4.799          2399.500
       207   07 Jun 2027 06:13:02.869   07 Jun 2027 06:13:09.465             6.596          3298.000
       208   07 Jun 2027 06:13:30.504   07 Jun 2027 06:13:41.279            10.775          3624.656
       209   07 Jun 2027 06:13:50.533   07 Jun 2027 06:13:53.823             3.290           260.000
       210   07 Jun 2027 06:14:30.625   07 Jun 2027 06:14:30.676             0.051            25.500
       211   07 Jun 2027 06:15:07.176   07 Jun 2027 06:15:10.588             3.412          1706.000
       212   07 Jun 2027 06:15:33.377   07 Jun 2027 06:15:33.377             0.000             0.000
       213   07 Jun 2027 06:15:57.184   07 Jun 2027 06:15:59.542             2.358          1179.000
       214   07 Jun 2027 07:44:37.478   07 Jun 2027 07:44:53.032            15.554          7282.469
       215   07 Jun 2027 07:46:14.312   07 Jun 2027 07:46:19.119             4.807          2074.531
       216   07 Jun 2027 07:47:01.041   07 Jun 2027 07:47:05.010             3.969           751.188
       217   07 Jun 2027 07:47:53.278   07 Jun 2027 07:47:58.501             5.223           279.750
       218   07 Jun 2027 07:48:14.538   07 Jun 2027 07:48:16.907             2.369           501.156
       219   07 Jun 2027 07:48:25.584   07 Jun 2027 07:48:26.393             0.809           112.031
       220   07 Jun 2027 07:49:06.896   07 Jun 2027 07:49:09.252             2.356          1135.656
       221   07 Jun 2027 07:49:43.598   07 Jun 2027 07:49:50.401             6.803           873.156
       222   07 Jun 2027 07:50:29.756   07 Jun 2027 07:50:33.532             3.776           924.500
       223   07 Jun 2027 07:50:46.009   07 Jun 2027 07:50:46.765             0.756           152.281
       224   07 Jun 2027 07:51:22.135   07 Jun 2027 07:51:23.782             1.647           247.906
       225   07 Jun 2027 07:51:54.341   07 Jun 2027 07:51:56.594             2.253           954.969
       226   07 Jun 2027 09:21:21.361   07 Jun 2027 09:21:43.756            22.395          9589.094
       227   07 Jun 2027 09:22:02.722   07 Jun 2027 09:22:07.564             4.842           420.281
       228   07 Jun 2027 09:22:29.362   07 Jun 2027 09:22:29.965             0.603            44.969
       229   07 Jun 2027 09:24:02.830   07 Jun 2027 09:24:14.718            11.888          2710.313
       230   07 Jun 2027 09:24:42.001   07 Jun 2027 09:24:43.676             1.675           680.656
       231   07 Jun 2027 09:25:20.090   07 Jun 2027 09:25:21.936             1.846           812.094
       232   07 Jun 2027 09:26:23.421   07 Jun 2027 09:26:26.074             2.653          1326.500
       233   07 Jun 2027 09:26:30.906   07 Jun 2027 09:26:31.950             1.044           522.000
       234   07 Jun 2027 09:27:43.956   07 Jun 2027 09:27:47.938             3.982          1991.000
       235   07 Jun 2027 10:59:27.998   07 Jun 2027 10:59:42.576            14.578          7289.000
       236   07 Jun 2027 10:59:44.209   07 Jun 2027 10:59:44.209             0.000             0.000
       237   07 Jun 2027 11:00:33.286   07 Jun 2027 11:00:36.910             3.624          1625.062
       238   07 Jun 2027 11:01:03.251   07 Jun 2027 11:01:04.753             1.502           722.625
       239   07 Jun 2027 11:01:43.910   07 Jun 2027 11:01:46.249             2.339          1138.438
       240   07 Jun 2027 11:02:14.293   07 Jun 2027 11:02:16.091             1.798           671.656
       241   07 Jun 2027 11:02:30.341   07 Jun 2027 11:02:41.025            10.684           285.281
       242   07 Jun 2027 11:02:45.555   07 Jun 2027 11:02:46.323             0.768           141.563
       243   07 Jun 2027 11:02:59.278   07 Jun 2027 11:03:00.373             1.095           404.844
       244   07 Jun 2027 11:03:00.779   07 Jun 2027 11:03:04.117             3.338            12.687
       245   07 Jun 2027 11:03:26.207   07 Jun 2027 11:03:27.984             1.777           613.344
       246   08 Jun 2027 03:09:47.964   08 Jun 2027 03:10:15.561            27.597         13798.500
       247   08 Jun 2027 03:10:15.823   08 Jun 2027 03:10:39.697            23.874         11937.000
       248   08 Jun 2027 03:10:53.924   08 Jun 2027 03:11:27.544            33.620         16810.000
       249   08 Jun 2027 04:45:48.784   08 Jun 2027 04:48:12.095           143.311         71655.500
       250   08 Jun 2027 04:48:19.771   08 Jun 2027 04:48:19.771             0.000             0.000
       251   08 Jun 2027 04:48:24.662   08 Jun 2027 04:48:28.317             3.655          1827.500
       252   08 Jun 2027 04:48:53.592   08 Jun 2027 04:48:53.592             0.000             0.000
       253   08 Jun 2027 04:49:02.386   08 Jun 2027 04:49:12.769            10.383          5191.500
       254   08 Jun 2027 04:49:19.054   08 Jun 2027 04:49:21.104             2.050          1025.000
       255   08 Jun 2027 06:19:36.143   08 Jun 2027 06:20:43.725            67.582         33707.031
       256   08 Jun 2027 06:21:49.618   08 Jun 2027 06:21:51.277             1.659           534.375
       257   08 Jun 2027 06:22:10.401   08 Jun 2027 06:22:12.664             2.263           560.063
       258   08 Jun 2027 06:22:34.686   08 Jun 2027 06:22:36.606             1.920           346.656
       259   08 Jun 2027 06:22:55.541   08 Jun 2027 06:22:57.201             1.660           591.719
       260   08 Jun 2027 06:24:02.726   08 Jun 2027 06:24:15.184            12.458          1742.531
       261   08 Jun 2027 06:25:01.196   08 Jun 2027 06:25:01.196             0.000             0.000
       262   08 Jun 2027 06:25:09.528   08 Jun 2027 06:25:14.010             4.482          1649.000
       263   08 Jun 2027 06:25:43.219   08 Jun 2027 06:25:44.029             0.810           405.000
       264   08 Jun 2027 06:25:49.738   08 Jun 2027 06:25:52.009             2.271           636.188
       265   08 Jun 2027 06:26:12.698   08 Jun 2027 06:26:18.614             5.916           394.188
       266   08 Jun 2027 06:26:26.665   08 Jun 2027 06:26:29.893             3.228           251.594
       267   08 Jun 2027 06:27:33.789   08 Jun 2027 06:27:41.241             7.452          1952.031
       268   08 Jun 2027 06:27:42.425   08 Jun 2027 06:27:42.444             0.019             7.594
       269   08 Jun 2027 07:56:44.924   08 Jun 2027 07:57:05.507            20.583          8869.469
       270   08 Jun 2027 07:58:12.912   08 Jun 2027 07:58:15.999             3.087           517.687
       271   08 Jun 2027 07:58:42.279   08 Jun 2027 07:58:42.924             0.645           289.438
       272   08 Jun 2027 07:59:24.656   08 Jun 2027 07:59:29.355             4.699           998.406
       273   08 Jun 2027 08:00:38.183   08 Jun 2027 08:00:39.514             1.331           433.750
       274   08 Jun 2027 08:01:45.733   08 Jun 2027 08:01:47.672             1.939           823.594
       275   08 Jun 2027 08:02:22.690   08 Jun 2027 08:02:28.514             5.824          1089.781
       276   08 Jun 2027 08:03:20.236   08 Jun 2027 08:03:21.285             1.049           524.500
       277   08 Jun 2027 08:03:57.677   08 Jun 2027 08:04:03.172             5.495          2023.156
       278   08 Jun 2027 09:33:59.283   08 Jun 2027 09:34:23.726            24.443          9528.625
       279   08 Jun 2027 09:35:21.603   08 Jun 2027 09:35:26.197             4.594          1630.844
       280   08 Jun 2027 09:35:51.293   08 Jun 2027 09:35:53.693             2.400           773.469
       281   08 Jun 2027 09:35:59.815   08 Jun 2027 09:36:01.585             1.770           191.313
       282   08 Jun 2027 09:37:03.127   08 Jun 2027 09:37:05.504             2.377          1188.500
       283   08 Jun 2027 09:37:26.795   08 Jun 2027 09:37:30.641             3.846          1370.187
       284   08 Jun 2027 09:38:13.612   08 Jun 2027 09:38:17.834             4.222          1279.437
       285   08 Jun 2027 09:38:20.982   08 Jun 2027 09:38:21.358             0.376            98.375
       286   08 Jun 2027 09:38:27.275   08 Jun 2027 09:38:27.620             0.345           122.656
       287   08 Jun 2027 09:39:33.200   08 Jun 2027 09:39:41.388             8.188          1987.781
       288   08 Jun 2027 11:10:41.779   08 Jun 2027 11:10:59.396            17.617          8283.937
       289   08 Jun 2027 11:11:36.441   08 Jun 2027 11:11:39.264             2.823           255.594
       290   08 Jun 2027 11:12:20.593   08 Jun 2027 11:12:23.371             2.778          1098.375
       291   08 Jun 2027 11:13:02.440   08 Jun 2027 11:13:06.288             3.848          1220.906
       292   08 Jun 2027 11:13:38.615   08 Jun 2027 11:13:38.615             0.000             0.000
       293   08 Jun 2027 11:13:53.714   08 Jun 2027 11:14:00.223             6.509          1440.469
       294   08 Jun 2027 11:14:51.365   08 Jun 2027 11:14:55.321             3.956          1598.187
       295   08 Jun 2027 11:15:16.821   08 Jun 2027 11:15:20.229             3.408           595.969
       296   08 Jun 2027 11:15:29.036   08 Jun 2027 11:15:31.257             2.221           197.187
       297   09 Jun 2027 03:21:40.926   09 Jun 2027 03:23:13.215            92.289         46144.500
       298   09 Jun 2027 03:23:30.242   09 Jun 2027 03:23:36.977             6.735          3367.500
       299   09 Jun 2027 04:58:02.211   09 Jun 2027 05:00:34.477           152.266         76133.000
       300   09 Jun 2027 05:01:01.382   09 Jun 2027 05:01:06.986             5.604          2802.000
       301   09 Jun 2027 06:31:59.606   09 Jun 2027 06:32:52.780            53.174         24436.031
       302   09 Jun 2027 06:33:46.051   09 Jun 2027 06:33:47.112             1.061           213.531
       303   09 Jun 2027 06:34:15.232   09 Jun 2027 06:34:16.361             1.129           564.500
       304   09 Jun 2027 06:34:26.861   09 Jun 2027 06:34:28.274             1.413           596.437
       305   09 Jun 2027 06:34:56.176   09 Jun 2027 06:34:57.515             1.339           669.500
       306   09 Jun 2027 06:36:15.456   09 Jun 2027 06:36:15.456             0.000             0.000
       307   09 Jun 2027 06:36:20.510   09 Jun 2027 06:36:26.138             5.628          2791.750
       308   09 Jun 2027 06:37:04.253   09 Jun 2027 06:37:06.493             2.240          1070.781
       309   09 Jun 2027 06:37:45.616   09 Jun 2027 06:37:49.384             3.768           944.188
       310   09 Jun 2027 06:38:29.899   09 Jun 2027 06:38:32.264             2.365           504.344
       311   09 Jun 2027 06:39:49.522   09 Jun 2027 06:39:54.890             5.368          2045.875
       312   09 Jun 2027 08:09:10.385   09 Jun 2027 08:09:28.538            18.153          7028.594
       313   09 Jun 2027 08:12:06.354   09 Jun 2027 08:12:13.717             7.363          2948.344
       314   09 Jun 2027 08:12:24.943   09 Jun 2027 08:12:25.558             0.615           256.094
       315   09 Jun 2027 08:13:05.313   09 Jun 2027 08:13:08.270             2.957           872.000
       316   09 Jun 2027 08:13:21.082   09 Jun 2027 08:13:21.637             0.555           154.781
       317   09 Jun 2027 08:14:02.258   09 Jun 2027 08:14:06.353             4.095          1243.594
       318   09 Jun 2027 08:15:19.051   09 Jun 2027 08:15:22.759             3.708          1638.969
       319   09 Jun 2027 08:15:35.024   09 Jun 2027 08:15:36.921             1.897           369.594
       320   09 Jun 2027 09:46:10.529   09 Jun 2027 09:46:22.232            11.703          5851.500
       321   09 Jun 2027 09:46:28.297   09 Jun 2027 09:46:37.811             9.514          3766.125
       322   09 Jun 2027 09:46:49.176   09 Jun 2027 09:46:52.756             3.580           310.750
       323   09 Jun 2027 09:47:22.796   09 Jun 2027 09:47:27.246             4.450           938.750
       324   09 Jun 2027 09:47:48.822   09 Jun 2027 09:47:56.128             7.306           635.406
       325   09 Jun 2027 09:48:04.335   09 Jun 2027 09:48:05.720             1.385           256.469
       326   09 Jun 2027 09:48:53.429   09 Jun 2027 09:49:00.572             7.143          1490.906
       327   09 Jun 2027 09:50:03.048   09 Jun 2027 09:50:08.499             5.451          1952.375
       328   09 Jun 2027 09:50:28.184   09 Jun 2027 09:50:29.868             1.684           358.562
       329   09 Jun 2027 09:50:47.220   09 Jun 2027 09:50:50.334             3.114           542.250
       330   09 Jun 2027 09:51:23.125   09 Jun 2027 09:51:28.945             5.820           982.938
       331   09 Jun 2027 11:22:56.655   09 Jun 2027 11:23:17.997            21.342          8538.906
       332   09 Jun 2027 11:23:26.574   09 Jun 2027 11:23:29.680             3.106           268.031
       333   09 Jun 2027 11:24:14.461   09 Jun 2027 11:24:17.361             2.900          1399.406
       334   09 Jun 2027 11:24:52.239   09 Jun 2027 11:24:52.965             0.726           363.000
       335   09 Jun 2027 11:25:08.045   09 Jun 2027 11:25:13.536             5.491          1198.187
       336   09 Jun 2027 11:25:40.677   09 Jun 2027 11:25:43.308             2.631           848.156
       337   09 Jun 2027 11:26:11.628   09 Jun 2027 11:26:15.755             4.127           758.094
       338   09 Jun 2027 11:26:57.714   09 Jun 2027 11:26:59.196             1.482           708.375
       339   09 Jun 2027 11:27:18.769   09 Jun 2027 11:27:20.783             2.014           550.563
       340   10 Jun 2027 03:33:34.057   10 Jun 2027 03:33:53.944            19.887          9943.500
       341   10 Jun 2027 03:34:19.447   10 Jun 2027 03:35:17.791            58.344         29172.000
       342   10 Jun 2027 03:35:31.580   10 Jun 2027 03:35:31.580             0.000             0.000
       343   10 Jun 2027 03:35:38.516   10 Jun 2027 03:35:54.799            16.283          8141.500
       344   10 Jun 2027 05:10:07.364   10 Jun 2027 05:10:27.457            20.093         10046.500
       345   10 Jun 2027 05:11:49.025   10 Jun 2027 05:12:48.953            59.928         29964.000
       346   10 Jun 2027 05:12:56.104   10 Jun 2027 05:13:40.293            44.189         22094.500
       347   10 Jun 2027 06:45:16.223   10 Jun 2027 06:46:51.562            95.339         47425.219
       348   10 Jun 2027 06:47:04.311   10 Jun 2027 06:47:04.311             0.000             0.000
       349   10 Jun 2027 06:48:13.330   10 Jun 2027 06:48:22.913             9.583          2434.406
       350   10 Jun 2027 06:48:32.461   10 Jun 2027 06:48:32.608             0.147            73.500
       351   10 Jun 2027 06:49:01.296   10 Jun 2027 06:49:01.296             0.000             0.000
       352   10 Jun 2027 06:49:02.620   10 Jun 2027 06:49:07.525             4.905          1162.750
       353   10 Jun 2027 06:49:42.091   10 Jun 2027 06:49:47.291             5.200           977.156
       354   10 Jun 2027 06:49:55.882   10 Jun 2027 06:50:00.506             4.624           268.469
       355   10 Jun 2027 06:50:53.481   10 Jun 2027 06:50:53.942             0.461           230.500
       356   10 Jun 2027 06:51:22.044   10 Jun 2027 06:51:31.185             9.141          2064.469
       357   10 Jun 2027 06:51:40.447   10 Jun 2027 06:51:40.575             0.128            64.000
       358   10 Jun 2027 06:51:43.930   10 Jun 2027 06:51:46.798             2.868           330.281
       359   10 Jun 2027 06:51:57.364   10 Jun 2027 06:52:01.986             4.622           273.531
       360   10 Jun 2027 08:21:36.241   10 Jun 2027 08:21:55.607            19.366          8350.875
       361   10 Jun 2027 08:22:59.217   10 Jun 2027 08:23:03.051             3.834           786.656
       362   10 Jun 2027 08:23:35.683   10 Jun 2027 08:23:39.980             4.297           595.312
       363   10 Jun 2027 08:23:46.507   10 Jun 2027 08:23:48.448             1.941            78.219
       364   10 Jun 2027 08:24:09.562   10 Jun 2027 08:24:10.431             0.869           434.500
       365   10 Jun 2027 08:24:39.215   10 Jun 2027 08:24:43.987             4.772          1001.968
       366   10 Jun 2027 08:25:12.163   10 Jun 2027 08:25:14.454             2.291           751.344
       367   10 Jun 2027 08:25:27.833   10 Jun 2027 08:25:29.182             1.349           418.094
       368   10 Jun 2027 08:26:55.874   10 Jun 2027 08:27:00.964             5.090          2257.656
       369   10 Jun 2027 08:27:18.608   10 Jun 2027 08:27:21.798             3.190           486.906
       370   10 Jun 2027 08:27:37.016   10 Jun 2027 08:27:38.847             1.831           436.062
       371   10 Jun 2027 09:59:10.737   10 Jun 2027 09:59:26.874            16.137          7895.969
       372   10 Jun 2027 09:59:47.609   10 Jun 2027 09:59:53.255             5.646           536.344
       373   10 Jun 2027 10:00:56.535   10 Jun 2027 10:01:00.511             3.976          1895.062
       374   10 Jun 2027 10:01:51.842   10 Jun 2027 10:01:55.176             3.334          1419.438
       375   10 Jun 2027 10:01:57.583   10 Jun 2027 10:02:01.792             4.209            62.406
       376   10 Jun 2027 10:02:11.052   10 Jun 2027 10:02:13.451             2.399           289.375
       377   10 Jun 2027 10:02:37.475   10 Jun 2027 10:02:44.506             7.031           632.438
       378   10 Jun 2027 10:03:21.145   10 Jun 2027 10:03:26.221             5.076          1140.750
       379   10 Jun 2027 11:35:13.572   10 Jun 2027 11:35:29.073            15.501          7650.531
       380   10 Jun 2027 11:36:13.488   10 Jun 2027 11:36:18.644             5.156          1067.469
       381   10 Jun 2027 11:36:33.978   10 Jun 2027 11:36:35.953             1.975           225.844
       382   10 Jun 2027 11:37:00.882   10 Jun 2027 11:37:03.831             2.949           779.031
       383   10 Jun 2027 11:37:06.965   10 Jun 2027 11:37:07.920             0.955            97.937
       384   10 Jun 2027 11:37:17.899   10 Jun 2027 11:37:22.982             5.083           311.844
       385   10 Jun 2027 11:37:36.070   10 Jun 2027 11:37:37.888             1.818           331.625
       386   10 Jun 2027 11:37:51.531   10 Jun 2027 11:37:52.833             1.302           390.625
       387   10 Jun 2027 11:39:06.676   10 Jun 2027 11:39:11.560             4.884          2307.594
       388   11 Jun 2027 03:45:42.497   11 Jun 2027 03:45:54.703            12.206          6103.000
       389   11 Jun 2027 03:46:36.353   11 Jun 2027 03:47:01.047            24.694         12347.000
       390   11 Jun 2027 03:47:12.718   11 Jun 2027 03:47:27.882            15.164          7582.000
       391   11 Jun 2027 03:48:52.524   11 Jun 2027 03:48:54.372             1.848           924.000
       392   11 Jun 2027 05:22:17.798   11 Jun 2027 05:22:38.210            20.412         10206.000
       393   11 Jun 2027 05:23:04.615   11 Jun 2027 05:23:09.086             4.471          2235.500
       394   11 Jun 2027 05:24:32.310   11 Jun 2027 05:25:45.550            73.240         36620.000
       395   11 Jun 2027 06:57:27.923   11 Jun 2027 07:00:02.614           154.691         77046.813
       396   11 Jun 2027 07:01:00.709   11 Jun 2027 07:01:04.632             3.923          1577.844
       397   11 Jun 2027 07:01:48.646   11 Jun 2027 07:01:49.998             1.352           296.906
       398   11 Jun 2027 07:01:50.189   11 Jun 2027 07:01:51.303             1.114             5.969
       399   11 Jun 2027 07:03:01.805   11 Jun 2027 07:03:08.302             6.497          2141.312
       400   11 Jun 2027 07:03:59.030   11 Jun 2027 07:03:59.030             0.000             0.000
       401   11 Jun 2027 08:33:48.777   11 Jun 2027 08:34:08.793            20.016          8840.063
       402   11 Jun 2027 08:35:00.043   11 Jun 2027 08:35:02.854             2.811           894.250
       403   11 Jun 2027 08:36:12.480   11 Jun 2027 08:36:15.141             2.661          1293.000
       404   11 Jun 2027 08:37:01.067   11 Jun 2027 08:37:01.782             0.715           357.500
       405   11 Jun 2027 08:37:51.522   11 Jun 2027 08:37:59.174             7.652          2595.313
       406   11 Jun 2027 08:39:10.693   11 Jun 2027 08:39:14.664             3.971          1838.469
       407   11 Jun 2027 08:39:24.428   11 Jun 2027 08:39:24.632             0.204           102.000
       408   11 Jun 2027 08:39:36.696   11 Jun 2027 08:39:38.346             1.650           386.875
       409   11 Jun 2027 10:11:05.546   11 Jun 2027 10:11:19.609            14.063          7031.500
       410   11 Jun 2027 10:12:01.856   11 Jun 2027 10:12:15.113            13.257          2393.937
       411   11 Jun 2027 10:12:53.784   11 Jun 2027 10:12:58.236             4.452          1055.438
       412   11 Jun 2027 10:13:19.292   11 Jun 2027 10:13:21.080             1.788           221.688
       413   11 Jun 2027 10:13:40.091   11 Jun 2027 10:13:42.870             2.779           474.719
       414   11 Jun 2027 10:14:28.451   11 Jun 2027 10:14:34.175             5.724          1424.406
       415   11 Jun 2027 10:15:22.417   11 Jun 2027 10:15:25.885             3.468          1452.344
       416   11 Jun 2027 10:15:32.618   11 Jun 2027 10:15:32.618             0.000             0.000
       417   11 Jun 2027 11:47:17.994   11 Jun 2027 11:47:32.425            14.431          6720.812
       418   11 Jun 2027 11:48:12.478   11 Jun 2027 11:48:19.903             7.425           976.156
       419   11 Jun 2027 11:49:09.653   11 Jun 2027 11:49:12.466             2.813          1290.406
       420   11 Jun 2027 11:49:46.591   11 Jun 2027 11:49:51.803             5.212          1025.250
       421   11 Jun 2027 11:50:16.414   11 Jun 2027 11:50:18.075             1.661           769.094
       422   11 Jun 2027 11:50:45.039   11 Jun 2027 11:50:52.054             7.015           397.313
       423   11 Jun 2027 11:51:00.443   11 Jun 2027 11:51:02.213             1.770           146.656
       424   11 Jun 2027 11:51:06.877   11 Jun 2027 11:51:07.607             0.730           145.750
       425   12 Jun 2027 03:58:15.530   12 Jun 2027 03:59:25.962            70.432         35216.000
       426   12 Jun 2027 05:34:05.458   12 Jun 2027 05:34:57.446            51.988         25994.000
       427   12 Jun 2027 05:36:09.414   12 Jun 2027 05:38:14.279           124.865         62432.500
       428   12 Jun 2027 07:08:58.698   12 Jun 2027 07:09:56.523            57.825         28581.531
       429   12 Jun 2027 07:10:47.840   12 Jun 2027 07:10:49.756             1.916           538.594
       430   12 Jun 2027 07:11:57.075   12 Jun 2027 07:11:57.905             0.830           412.656
       431   12 Jun 2027 07:12:30.042   12 Jun 2027 07:12:32.454             2.412           754.562
       432   12 Jun 2027 07:13:02.578   12 Jun 2027 07:13:06.161             3.583           791.344
       433   12 Jun 2027 07:13:28.012   12 Jun 2027 07:13:29.495             1.483           682.844
       434   12 Jun 2027 07:13:45.236   12 Jun 2027 07:13:49.741             4.505           321.469
       435   12 Jun 2027 07:14:39.187   12 Jun 2027 07:14:40.778             1.591           780.188
       436   12 Jun 2027 07:14:58.812   12 Jun 2027 07:15:01.548             2.736            38.125
       437   12 Jun 2027 07:15:44.423   12 Jun 2027 07:15:47.842             3.419          1256.125
       438   12 Jun 2027 07:16:09.862   12 Jun 2027 07:16:09.862             0.000             0.000
       439   12 Jun 2027 08:45:27.307   12 Jun 2027 08:45:49.479            22.172         10886.094
       440   12 Jun 2027 08:46:27.418   12 Jun 2027 08:46:28.917             1.499           738.250
       441   12 Jun 2027 08:47:34.395   12 Jun 2027 08:47:38.942             4.547          2046.187
       442   12 Jun 2027 08:48:13.715   12 Jun 2027 08:48:16.798             3.083           938.031
       443   12 Jun 2027 08:48:28.159   12 Jun 2027 08:48:29.491             1.332             4.063
       444   12 Jun 2027 08:49:10.930   12 Jun 2027 08:49:14.412             3.482          1132.187
       445   12 Jun 2027 08:49:39.405   12 Jun 2027 08:49:39.888             0.483            50.563
       446   12 Jun 2027 08:50:00.027   12 Jun 2027 08:50:01.733             1.706           629.344
       447   12 Jun 2027 08:51:04.704   12 Jun 2027 08:51:09.239             4.535          1846.562
       448   12 Jun 2027 08:51:40.153   12 Jun 2027 08:51:45.580             5.427           620.312
       449   12 Jun 2027 10:23:45.135   12 Jun 2027 10:24:01.510            16.375          7631.281
       450   12 Jun 2027 10:24:10.023   12 Jun 2027 10:24:13.866             3.843           266.031
       451   12 Jun 2027 10:24:21.965   12 Jun 2027 10:24:25.054             3.089           253.094
       452   12 Jun 2027 10:25:34.095   12 Jun 2027 10:25:40.330             6.235          2101.281
       453   12 Jun 2027 10:26:20.173   12 Jun 2027 10:26:23.796             3.623          1081.844
       454   12 Jun 2027 10:27:10.819   12 Jun 2027 10:27:16.594             5.775          1469.469
       455   12 Jun 2027 10:27:32.476   12 Jun 2027 10:27:33.976             1.500           496.312
       456   12 Jun 2027 11:59:12.218   12 Jun 2027 11:59:32.556            20.338          9054.562
       457   12 Jun 2027 11:59:51.534   12 Jun 2027 11:59:51.534             0.000             0.000
       458   13 Jun 2027 04:08:49.952   13 Jun 2027 04:09:54.087            64.135         32067.500
       459   13 Jun 2027 04:10:25.041   13 Jun 2027 04:10:58.905            33.864         16932.000
       460   13 Jun 2027 04:11:04.899   13 Jun 2027 04:11:04.899             0.000             0.000
       461   13 Jun 2027 04:11:59.192   13 Jun 2027 04:12:12.029            12.837          6418.500
       462   13 Jun 2027 04:12:32.726   13 Jun 2027 04:12:32.726             0.000             0.000
       463   13 Jun 2027 05:44:21.691   13 Jun 2027 05:45:12.424            50.733         25366.500
       464   13 Jun 2027 05:45:50.553   13 Jun 2027 05:46:53.340            62.787         31393.500
       465   13 Jun 2027 05:47:09.277   13 Jun 2027 05:47:35.844            26.567         13283.500
       466   13 Jun 2027 05:49:30.163   13 Jun 2027 05:50:01.875            31.712         15856.000
       467   13 Jun 2027 05:50:22.727   13 Jun 2027 05:50:22.727             0.000             0.000
       468   13 Jun 2027 07:20:40.794   13 Jun 2027 07:21:34.065            53.271         25874.219
       469   13 Jun 2027 07:22:51.035   13 Jun 2027 07:22:55.358             4.323           624.969
       470   13 Jun 2027 07:24:18.514   13 Jun 2027 07:24:23.636             5.122          1388.500
       471   13 Jun 2027 07:24:39.219   13 Jun 2027 07:24:40.234             1.015           180.969
       472   13 Jun 2027 07:25:56.599   13 Jun 2027 07:26:00.014             3.415          1550.844
       473   13 Jun 2027 07:26:57.641   13 Jun 2027 07:27:02.653             5.012          1440.625
       474   13 Jun 2027 07:27:27.813   13 Jun 2027 07:27:28.942             1.129           347.719
       475   13 Jun 2027 07:28:11.564   13 Jun 2027 07:28:11.564             0.000             0.000
       476   13 Jun 2027 08:57:47.589   13 Jun 2027 08:58:08.540            20.951         10352.562
       477   13 Jun 2027 08:58:21.767   13 Jun 2027 08:58:23.736             1.969           379.219
       478   13 Jun 2027 08:58:59.210   13 Jun 2027 08:59:00.319             1.109           267.406
       479   13 Jun 2027 08:59:14.849   13 Jun 2027 08:59:16.637             1.788           454.063
       480   13 Jun 2027 08:59:53.439   13 Jun 2027 08:59:56.126             2.687          1125.469
       481   13 Jun 2027 09:01:12.300   13 Jun 2027 09:01:18.276             5.976          1820.063
       482   13 Jun 2027 09:01:50.435   13 Jun 2027 09:01:54.362             3.927          1004.969
       483   13 Jun 2027 09:01:58.835   13 Jun 2027 09:02:00.093             1.258            79.094
       484   13 Jun 2027 09:02:03.909   13 Jun 2027 09:02:04.319             0.410            66.938
       485   13 Jun 2027 09:02:20.176   13 Jun 2027 09:02:27.500             7.324           437.250
       486   13 Jun 2027 09:03:00.296   13 Jun 2027 09:03:04.407             4.111           912.344
       487   13 Jun 2027 10:35:43.074   13 Jun 2027 10:35:57.006            13.932          6966.000
       488   13 Jun 2027 10:36:37.385   13 Jun 2027 10:36:41.805             4.420          1405.281
       489   13 Jun 2027 10:37:17.220   13 Jun 2027 10:37:23.205             5.985          1038.531
       490   13 Jun 2027 10:37:41.198   13 Jun 2027 10:37:43.034             1.836           562.281
       491   13 Jun 2027 10:38:12.658   13 Jun 2027 10:38:18.131             5.473           130.437
       492   13 Jun 2027 10:39:19.226   13 Jun 2027 10:39:24.258             5.032          1803.063
       493   13 Jun 2027 10:39:35.950   13 Jun 2027 10:39:37.412             1.462           365.375
