uniorb/output/strategy_2/Camera/Camera_KinoSat_111005.txt

KinoSat_111005
-------------------------
    Access    *     Start Time (UTCG)     *     Stop Time (UTCG)  *   Duration (s) *   Data (Mbytes)
         1   01 Jun 2027 03:27:16.157   01 Jun 2027 03:27:38.878            22.721         11360.500
         2   01 Jun 2027 03:29:11.646   01 Jun 2027 03:29:21.599             9.953          4976.500
         3   01 Jun 2027 03:39:32.066   01 Jun 2027 03:39:59.617            27.551         13775.500
         4   01 Jun 2027 05:01:12.965   01 Jun 2027 05:02:32.554            79.589         39794.500
         5   01 Jun 2027 05:03:20.746   01 Jun 2027 05:05:24.301           123.555         61777.500
         6   01 Jun 2027 05:06:09.064   01 Jun 2027 05:06:09.592             0.528           264.000
         7   01 Jun 2027 05:06:29.265   01 Jun 2027 05:06:49.194            19.929          9964.500
         8   01 Jun 2027 06:36:06.414   01 Jun 2027 06:38:29.649           143.235         71617.500
         9   01 Jun 2027 06:38:39.761   01 Jun 2027 06:38:50.141            10.380          5190.000
        10   01 Jun 2027 06:39:47.840   01 Jun 2027 06:39:57.139             9.299          4649.500
        11   01 Jun 2027 06:42:02.040   01 Jun 2027 06:42:02.040             0.000             0.000
        12   01 Jun 2027 06:43:22.453   01 Jun 2027 06:43:27.601             5.148          2574.000
        13   01 Jun 2027 06:45:00.546   01 Jun 2027 06:45:02.475             1.929           964.500
        14   01 Jun 2027 06:45:16.003   01 Jun 2027 06:45:29.374            13.371          6685.500
        15   01 Jun 2027 08:14:01.597   01 Jun 2027 08:16:51.127           169.530         84765.000
        16   01 Jun 2027 08:19:51.125   01 Jun 2027 08:19:54.138             3.013          1506.500
        17   01 Jun 2027 08:20:29.942   01 Jun 2027 08:20:58.491            28.549         14274.500
        18   01 Jun 2027 09:50:46.857   01 Jun 2027 09:50:56.502             9.645          4822.500
        19   01 Jun 2027 09:51:21.082   01 Jun 2027 09:53:24.538           123.456         61728.000
        20   01 Jun 2027 09:54:45.637   01 Jun 2027 09:55:02.208            16.571          8285.500
        21   01 Jun 2027 09:55:31.496   01 Jun 2027 09:55:34.669             3.173          1586.500
        22   01 Jun 2027 09:56:49.520   01 Jun 2027 09:57:06.209            16.689          8344.500
        23   01 Jun 2027 11:28:39.096   01 Jun 2027 11:30:09.102            90.006         45003.000
        24   01 Jun 2027 11:31:49.339   01 Jun 2027 11:31:49.339             0.000             0.000
        25   02 Jun 2027 03:39:11.695   02 Jun 2027 03:40:49.518            97.823         48911.500
        26   02 Jun 2027 03:40:51.662   02 Jun 2027 03:40:59.013             7.351          3675.500
        27   02 Jun 2027 05:15:11.490   02 Jun 2027 05:17:47.365           155.875         77937.500
        28   02 Jun 2027 05:18:09.867   02 Jun 2027 05:18:29.369            19.502          9751.000
        29   02 Jun 2027 06:48:59.663   02 Jun 2027 06:50:38.724            99.061         49530.500
        30   02 Jun 2027 06:51:40.019   02 Jun 2027 06:53:08.361            88.342         44171.000
        31   02 Jun 2027 06:53:29.615   02 Jun 2027 06:53:29.615             0.000             0.000
        32   02 Jun 2027 06:56:39.895   02 Jun 2027 06:56:51.394            11.499          5749.500
        33   02 Jun 2027 06:57:30.329   02 Jun 2027 06:57:30.739             0.410           205.000
        34   02 Jun 2027 08:26:11.691   02 Jun 2027 08:28:08.366           116.675         53585.499
        35   02 Jun 2027 08:28:38.308   02 Jun 2027 08:28:41.605             3.297           807.094
        36   02 Jun 2027 08:28:53.238   02 Jun 2027 08:28:57.686             4.448           304.063
        37   02 Jun 2027 08:29:33.082   02 Jun 2027 08:29:36.668             3.586           767.937
        38   02 Jun 2027 08:30:23.772   02 Jun 2027 08:30:27.471             3.699          1313.594
        39   02 Jun 2027 08:31:51.798   02 Jun 2027 08:31:57.994             6.196          2635.219
        40   02 Jun 2027 08:33:23.352   02 Jun 2027 08:33:26.361             3.009          1504.500
        41   02 Jun 2027 10:03:25.248   02 Jun 2027 10:03:43.810            18.562          9158.531
        42   02 Jun 2027 10:04:37.860   02 Jun 2027 10:04:41.510             3.650          1689.062
        43   02 Jun 2027 10:04:59.531   02 Jun 2027 10:05:00.148             0.617           279.156
        44   02 Jun 2027 10:05:21.156   02 Jun 2027 10:05:23.476             2.320           656.500
        45   02 Jun 2027 10:05:39.975   02 Jun 2027 10:05:42.116             2.141           417.344
        46   02 Jun 2027 10:06:56.103   02 Jun 2027 10:07:01.997             5.894          2263.531
        47   02 Jun 2027 10:08:35.233   02 Jun 2027 10:08:41.060             5.827          2791.969
        48   02 Jun 2027 11:40:05.769   02 Jun 2027 11:40:25.225            19.456          7150.406
        49   02 Jun 2027 11:40:59.492   02 Jun 2027 11:41:04.640             5.148          1070.844
        50   02 Jun 2027 11:42:07.491   02 Jun 2027 11:42:11.366             3.875           857.406
        51   02 Jun 2027 11:43:10.561   02 Jun 2027 11:43:13.339             2.778          1389.000
        52   02 Jun 2027 11:43:49.894   02 Jun 2027 11:44:01.367            11.473          1236.406
        53   02 Jun 2027 11:44:29.304   02 Jun 2027 11:44:29.304             0.000             0.000
        54   03 Jun 2027 03:51:03.706   03 Jun 2027 03:52:35.745            92.039         46019.500
        55   03 Jun 2027 03:52:44.068   03 Jun 2027 03:52:59.863            15.795          7897.500
        56   03 Jun 2027 03:53:11.636   03 Jun 2027 03:53:35.864            24.228         12114.000
        57   03 Jun 2027 05:27:25.012   03 Jun 2027 05:29:14.699           109.687         54843.500
        58   03 Jun 2027 05:29:45.079   03 Jun 2027 05:30:32.593            47.514         23757.000
        59   03 Jun 2027 07:01:28.174   03 Jun 2027 07:01:58.587            30.413         15109.156
        60   03 Jun 2027 07:03:10.593   03 Jun 2027 07:03:16.357             5.764          1619.438
        61   03 Jun 2027 07:03:32.278   03 Jun 2027 07:03:33.750             1.472           368.063
        62   03 Jun 2027 07:04:03.998   03 Jun 2027 07:04:07.114             3.116           893.656
        63   03 Jun 2027 07:04:34.375   03 Jun 2027 07:04:37.569             3.194           818.313
        64   03 Jun 2027 07:05:12.531   03 Jun 2027 07:05:14.936             2.405          1064.187
        65   03 Jun 2027 07:07:04.253   03 Jun 2027 07:07:11.374             7.121          3305.187
        66   03 Jun 2027 07:07:51.733   03 Jun 2027 07:07:59.523             7.790           665.625
        67   03 Jun 2027 07:08:03.691   03 Jun 2027 07:08:03.692             0.001             0.500
        68   03 Jun 2027 07:08:10.295   03 Jun 2027 07:08:11.826             1.531           255.031
        69   03 Jun 2027 07:08:34.684   03 Jun 2027 07:08:41.651             6.967           567.031
        70   03 Jun 2027 07:09:20.315   03 Jun 2027 07:09:24.515             4.200          1208.250
        71   03 Jun 2027 08:38:34.766   03 Jun 2027 08:38:53.278            18.512          7796.719
        72   03 Jun 2027 08:41:24.739   03 Jun 2027 08:41:30.121             5.382          2207.844
        73   03 Jun 2027 08:41:36.577   03 Jun 2027 08:41:36.800             0.223             8.500
        74   03 Jun 2027 08:42:18.466   03 Jun 2027 08:42:23.173             4.707          1267.406
        75   03 Jun 2027 08:42:45.147   03 Jun 2027 08:42:47.716             2.569           592.188
        76   03 Jun 2027 08:43:22.327   03 Jun 2027 08:43:24.762             2.435          1069.281
        77   03 Jun 2027 08:43:34.779   03 Jun 2027 08:43:35.884             1.105           236.875
        78   03 Jun 2027 08:43:47.336   03 Jun 2027 08:43:48.119             0.783           351.813
        79   03 Jun 2027 08:44:30.352   03 Jun 2027 08:44:39.997             9.645          1319.781
        80   03 Jun 2027 08:44:58.918   03 Jun 2027 08:45:01.526             2.608           167.937
        81   03 Jun 2027 10:15:32.353   03 Jun 2027 10:15:48.993            16.640          7422.000
        82   03 Jun 2027 10:16:41.836   03 Jun 2027 10:16:47.062             5.226           755.500
        83   03 Jun 2027 10:17:15.524   03 Jun 2027 10:17:16.481             0.957           209.094
        84   03 Jun 2027 10:18:19.180   03 Jun 2027 10:18:23.127             3.947          1845.750
        85   03 Jun 2027 10:18:32.796   03 Jun 2027 10:18:37.715             4.919           153.375
        86   03 Jun 2027 10:18:45.337   03 Jun 2027 10:18:46.539             1.202           132.375
        87   03 Jun 2027 10:19:00.695   03 Jun 2027 10:19:01.618             0.923           442.375
        88   03 Jun 2027 10:19:47.104   03 Jun 2027 10:19:49.914             2.810           907.000
        89   03 Jun 2027 11:52:19.675   03 Jun 2027 11:52:38.019            18.344          8937.750
        90   03 Jun 2027 11:53:49.264   03 Jun 2027 11:53:55.600             6.336          1938.156
        91   03 Jun 2027 11:54:58.118   03 Jun 2027 11:55:01.054             2.936          1468.000
        92   03 Jun 2027 11:55:26.670   03 Jun 2027 11:55:31.061             4.391          1286.187
        93   04 Jun 2027 04:03:05.927   04 Jun 2027 04:04:32.037            86.110         43055.000
        94   04 Jun 2027 04:04:36.417   04 Jun 2027 04:05:04.883            28.466         14233.000
        95   04 Jun 2027 05:39:31.505   04 Jun 2027 05:40:20.613            49.108         24554.000
        96   04 Jun 2027 05:40:46.974   04 Jun 2027 05:42:59.484           132.510         66255.000
        97   04 Jun 2027 07:14:39.691   04 Jun 2027 07:15:15.726            36.035         15792.563
        98   04 Jun 2027 07:15:40.542   04 Jun 2027 07:15:42.025             1.483           456.906
        99   04 Jun 2027 07:16:40.239   04 Jun 2027 07:16:42.163             1.924           962.000
       100   04 Jun 2027 07:17:41.339   04 Jun 2027 07:17:46.060             4.721          2309.000
       101   04 Jun 2027 07:18:10.342   04 Jun 2027 07:18:11.187             0.845           422.500
       102   04 Jun 2027 07:18:21.465   04 Jun 2027 07:18:25.246             3.781           387.187
       103   04 Jun 2027 07:18:35.811   04 Jun 2027 07:18:36.103             0.292           146.000
       104   04 Jun 2027 07:18:37.928   04 Jun 2027 07:18:38.548             0.620           241.188
       105   04 Jun 2027 07:19:30.321   04 Jun 2027 07:19:35.184             4.863          1121.219
       106   04 Jun 2027 07:19:57.485   04 Jun 2027 07:19:58.740             1.255           301.156
       107   04 Jun 2027 07:20:30.440   04 Jun 2027 07:20:37.961             7.521           975.938
       108   04 Jun 2027 07:20:56.293   04 Jun 2027 07:21:00.051             3.758           498.438
       109   04 Jun 2027 07:21:11.949   04 Jun 2027 07:21:13.238             1.289           336.281
       110   04 Jun 2027 07:21:17.367   04 Jun 2027 07:21:17.367             0.000             0.000
       111   04 Jun 2027 08:51:00.425   04 Jun 2027 08:51:16.699            16.274          7134.500
       112   04 Jun 2027 08:52:10.357   04 Jun 2027 08:52:14.951             4.594           901.469
       113   04 Jun 2027 08:52:54.732   04 Jun 2027 08:52:59.294             4.562           849.063
       114   04 Jun 2027 08:53:04.876   04 Jun 2027 08:53:05.577             0.701           174.437
       115   04 Jun 2027 08:53:25.812   04 Jun 2027 08:53:28.002             2.190            14.813
       116   04 Jun 2027 08:53:45.000   04 Jun 2027 08:53:47.468             2.468           531.187
       117   04 Jun 2027 08:55:26.657   04 Jun 2027 08:55:37.988            11.331          2255.781
       118   04 Jun 2027 08:56:01.159   04 Jun 2027 08:56:03.387             2.228           600.906
       119   04 Jun 2027 08:56:29.733   04 Jun 2027 08:56:33.388             3.655           797.813
       120   04 Jun 2027 08:56:41.603   04 Jun 2027 08:56:46.279             4.676           256.719
       121   04 Jun 2027 08:56:57.754   04 Jun 2027 08:57:00.007             2.253            80.750
       122   04 Jun 2027 10:28:34.308   04 Jun 2027 10:28:50.312            16.004          6798.438
       123   04 Jun 2027 10:29:08.557   04 Jun 2027 10:29:08.557             0.000             0.000
       124   04 Jun 2027 10:29:29.786   04 Jun 2027 10:29:32.262             2.476          1172.969
       125   04 Jun 2027 10:30:08.781   04 Jun 2027 10:30:18.125             9.344           606.812
       126   04 Jun 2027 10:31:30.117   04 Jun 2027 10:31:34.958             4.841          2076.750
       127   04 Jun 2027 10:31:55.332   04 Jun 2027 10:31:55.642             0.310           155.000
       128   04 Jun 2027 10:32:10.528   04 Jun 2027 10:32:16.116             5.588           669.125
       129   04 Jun 2027 10:32:47.773   04 Jun 2027 10:32:50.383             2.610           868.594
       130   05 Jun 2027 04:15:04.999   05 Jun 2027 04:16:19.541            74.542         37271.000
       131   05 Jun 2027 04:16:27.282   05 Jun 2027 04:16:36.785             9.503          4751.500
       132   05 Jun 2027 04:17:01.836   05 Jun 2027 04:17:56.206            54.370         27185.000
       133   05 Jun 2027 04:18:02.492   05 Jun 2027 04:18:02.492             0.000             0.000
       134   05 Jun 2027 05:51:41.642   05 Jun 2027 05:53:23.984           102.342         51171.000
       135   05 Jun 2027 05:54:23.547   05 Jun 2027 05:55:08.486            44.939         22469.500
       136   05 Jun 2027 07:26:51.784   05 Jun 2027 07:27:25.548            33.764         16090.469
       137   05 Jun 2027 07:28:52.714   05 Jun 2027 07:28:56.791             4.077          1516.625
       138   05 Jun 2027 07:29:38.061   05 Jun 2027 07:29:41.072             3.011          1208.813
       139   05 Jun 2027 07:29:56.920   05 Jun 2027 07:30:00.176             3.256           495.250
       140   05 Jun 2027 07:30:38.390   05 Jun 2027 07:30:40.403             2.013           801.125
       141   05 Jun 2027 07:31:10.377   05 Jun 2027 07:31:12.460             2.083           657.813
       142   05 Jun 2027 07:32:08.036   05 Jun 2027 07:32:13.201             5.165          1736.750
       143   05 Jun 2027 07:32:44.737   05 Jun 2027 07:32:47.273             2.536           904.969
       144   05 Jun 2027 07:33:01.139   05 Jun 2027 07:33:02.090             0.951           377.250
       145   05 Jun 2027 07:33:16.208   05 Jun 2027 07:33:16.208             0.000             0.000
       146   05 Jun 2027 09:03:09.072   05 Jun 2027 09:03:27.163            18.091          8653.906
       147   05 Jun 2027 09:04:56.913   05 Jun 2027 09:05:01.654             4.741          1621.969
       148   05 Jun 2027 09:05:07.368   05 Jun 2027 09:05:11.077             3.709           178.562
       149   05 Jun 2027 09:05:39.405   05 Jun 2027 09:05:41.242             1.837           831.625
       150   05 Jun 2027 09:05:59.075   05 Jun 2027 09:06:02.605             3.530           557.281
       151   05 Jun 2027 09:06:06.436   05 Jun 2027 09:06:08.997             2.561            88.938
       152   05 Jun 2027 09:06:09.504   05 Jun 2027 09:06:10.649             1.145            11.625
       153   05 Jun 2027 09:06:46.785   05 Jun 2027 09:06:46.785             0.000             0.000
       154   05 Jun 2027 09:07:12.021   05 Jun 2027 09:07:18.212             6.191          1703.563
       155   05 Jun 2027 09:07:39.053   05 Jun 2027 09:07:40.746             1.693           651.281
       156   05 Jun 2027 10:40:39.071   05 Jun 2027 10:40:54.486            15.415          7707.500
       157   05 Jun 2027 10:41:43.360   05 Jun 2027 10:41:46.395             3.035          1517.500
       158   05 Jun 2027 10:42:49.198   05 Jun 2027 10:42:58.810             9.612          2095.625
       159   05 Jun 2027 10:44:06.813   05 Jun 2027 10:44:13.742             6.929          1867.844
       160   05 Jun 2027 10:44:42.521   05 Jun 2027 10:44:46.380             3.859           873.438
       161   06 Jun 2027 03:03:42.414   06 Jun 2027 03:04:22.737            40.323         20161.500
       162   06 Jun 2027 03:04:40.114   06 Jun 2027 03:05:35.626            55.512         27756.000
       163   06 Jun 2027 03:06:25.067   06 Jun 2027 03:06:56.465            31.398         15699.000
       164   06 Jun 2027 04:27:41.081   06 Jun 2027 04:28:11.776            30.695         15347.500
       165   06 Jun 2027 04:28:21.621   06 Jun 2027 04:28:33.023            11.402          5701.000
       166   06 Jun 2027 04:28:42.647   06 Jun 2027 04:29:02.897            20.250         10125.000
       167   06 Jun 2027 04:30:22.496   06 Jun 2027 04:30:22.755             0.259           129.500
       168   06 Jun 2027 06:03:25.828   06 Jun 2027 06:03:53.634            27.806         13903.000
       169   06 Jun 2027 06:04:00.228   06 Jun 2027 06:05:34.154            93.926         46963.000
       170   06 Jun 2027 06:06:09.869   06 Jun 2027 06:06:09.869             0.000             0.000
       171   06 Jun 2027 06:06:51.709   06 Jun 2027 06:06:52.275             0.566           283.000
       172   06 Jun 2027 06:07:11.116   06 Jun 2027 06:07:17.209             6.093          2735.469
       173   06 Jun 2027 07:38:20.496   06 Jun 2027 07:38:32.339            11.843          5599.594
       174   06 Jun 2027 07:40:07.475   06 Jun 2027 07:40:13.076             5.601          2190.062
       175   06 Jun 2027 07:41:11.446   06 Jun 2027 07:41:15.766             4.320          1816.719
       176   06 Jun 2027 07:41:56.573   06 Jun 2027 07:41:56.573             0.000             0.000
       177   06 Jun 2027 07:42:14.929   06 Jun 2027 07:42:23.728             8.799          1294.375
       178   06 Jun 2027 07:43:48.912   06 Jun 2027 07:43:51.921             3.009          1504.500
       179   06 Jun 2027 07:44:09.125   06 Jun 2027 07:44:12.098             2.973          1144.594
       180   06 Jun 2027 07:44:28.957   06 Jun 2027 07:44:33.979             5.022           496.469
       181   06 Jun 2027 07:45:03.009   06 Jun 2027 07:45:05.951             2.942           428.125
       182   06 Jun 2027 07:45:28.477   06 Jun 2027 07:45:32.107             3.630           413.531
       183   06 Jun 2027 09:14:51.524   06 Jun 2027 09:15:14.815            23.291         10288.750
       184   06 Jun 2027 09:15:33.918   06 Jun 2027 09:15:39.571             5.653           151.281
       185   06 Jun 2027 09:16:42.793   06 Jun 2027 09:16:45.742             2.949          1071.062
       186   06 Jun 2027 09:17:29.451   06 Jun 2027 09:17:30.236             0.785           385.438
       187   06 Jun 2027 09:17:33.041   06 Jun 2027 09:17:34.822             1.781             4.156
       188   06 Jun 2027 09:18:29.755   06 Jun 2027 09:18:35.930             6.175          1481.281
       189   06 Jun 2027 09:18:46.114   06 Jun 2027 09:18:47.672             1.558           300.062
       190   06 Jun 2027 09:18:49.704   06 Jun 2027 09:18:55.133             5.429            32.844
       191   06 Jun 2027 09:19:28.872   06 Jun 2027 09:19:34.786             5.914           851.469
       192   06 Jun 2027 09:19:41.728   06 Jun 2027 09:19:42.240             0.512           184.062
       193   06 Jun 2027 09:20:11.204   06 Jun 2027 09:20:11.761             0.557           278.500
       194   06 Jun 2027 09:20:48.401   06 Jun 2027 09:20:52.905             4.504          1502.406
       195   06 Jun 2027 10:53:09.680   06 Jun 2027 10:53:28.382            18.702          8746.094
       196   06 Jun 2027 10:53:56.699   06 Jun 2027 10:53:59.017             2.318           815.062
       197   06 Jun 2027 10:54:04.908   06 Jun 2027 10:54:04.908             0.000             0.000
       198   06 Jun 2027 10:54:47.897   06 Jun 2027 10:54:51.569             3.672          1527.500
       199   06 Jun 2027 10:54:56.464   06 Jun 2027 10:54:59.003             2.539           152.969
       200   06 Jun 2027 10:55:13.177   06 Jun 2027 10:55:14.520             1.343           115.000
       201   06 Jun 2027 10:56:21.742   06 Jun 2027 10:56:25.987             4.245          2100.688
       202   07 Jun 2027 03:04:13.890   07 Jun 2027 03:04:44.657            30.767         15383.500
       203   07 Jun 2027 03:15:38.767   07 Jun 2027 03:17:54.440           135.673         67836.500
       204   07 Jun 2027 04:38:15.512   07 Jun 2027 04:39:01.343            45.831         22915.500
       205   07 Jun 2027 04:39:31.106   07 Jun 2027 04:39:38.916             7.810          3905.000
       206   07 Jun 2027 04:39:56.696   07 Jun 2027 04:40:04.658             7.962          3981.000
       207   07 Jun 2027 04:40:23.478   07 Jun 2027 04:40:36.337            12.859          6429.500
       208   07 Jun 2027 04:42:23.576   07 Jun 2027 04:42:36.231            12.655          6327.500
       209   07 Jun 2027 04:42:52.178   07 Jun 2027 04:42:57.098             4.920          2460.000
       210   07 Jun 2027 06:13:41.279   07 Jun 2027 06:14:35.824            54.545         27272.500
       211   07 Jun 2027 06:16:31.393   07 Jun 2027 06:16:42.167            10.774          5117.188
       212   07 Jun 2027 06:18:00.845   07 Jun 2027 06:18:02.848             2.003          1001.500
       213   07 Jun 2027 06:18:39.478   07 Jun 2027 06:18:45.805             6.327          2523.500
       214   07 Jun 2027 06:19:08.915   07 Jun 2027 06:19:09.271             0.356           149.812
       215   07 Jun 2027 06:19:46.539   07 Jun 2027 06:19:48.093             1.554           777.000
       216   07 Jun 2027 07:50:05.830   07 Jun 2027 07:50:16.551            10.721          4982.406
       217   07 Jun 2027 07:50:57.102   07 Jun 2027 07:51:03.700             6.598           854.562
       218   07 Jun 2027 07:52:10.418   07 Jun 2027 07:52:15.003             4.585          1192.813
       219   07 Jun 2027 07:53:29.792   07 Jun 2027 07:53:33.587             3.795          1897.500
       220   07 Jun 2027 07:54:41.688   07 Jun 2027 07:54:46.869             5.181          2520.625
       221   07 Jun 2027 07:55:11.529   07 Jun 2027 07:55:16.373             4.844           770.625
       222   07 Jun 2027 07:56:00.441   07 Jun 2027 07:56:02.625             2.184           568.562
       223   07 Jun 2027 07:56:10.346   07 Jun 2027 07:56:10.713             0.367           183.500
       224   07 Jun 2027 07:56:11.014   07 Jun 2027 07:56:11.014             0.000             0.000
       225   07 Jun 2027 07:56:42.450   07 Jun 2027 07:56:45.208             2.758          1049.562
       226   07 Jun 2027 07:57:37.451   07 Jun 2027 07:57:37.819             0.368           184.000
       227   07 Jun 2027 09:27:11.860   07 Jun 2027 09:27:31.913            20.053          9752.781
       228   07 Jun 2027 09:28:40.966   07 Jun 2027 09:28:45.658             4.692           253.031
       229   07 Jun 2027 09:29:09.469   07 Jun 2027 09:29:10.634             1.165           221.375
       230   07 Jun 2027 09:29:54.429   07 Jun 2027 09:29:55.825             1.396           663.875
       231   07 Jun 2027 09:30:13.838   07 Jun 2027 09:30:15.668             1.830           517.687
       232   07 Jun 2027 09:31:23.447   07 Jun 2027 09:31:28.697             5.250          1804.187
       233   07 Jun 2027 09:31:39.981   07 Jun 2027 09:31:43.068             3.087           272.844
       234   07 Jun 2027 09:32:07.361   07 Jun 2027 09:32:08.604             1.243           621.500
       235   07 Jun 2027 09:32:15.368   07 Jun 2027 09:32:31.124            15.756           335.469
       236   07 Jun 2027 09:33:05.645   07 Jun 2027 09:33:09.820             4.175          1078.781
       237   07 Jun 2027 11:05:07.259   07 Jun 2027 11:05:16.300             9.041          4520.500
       238   07 Jun 2027 11:05:59.191   07 Jun 2027 11:06:12.141            12.950          3725.094
       239   07 Jun 2027 11:06:34.307   07 Jun 2027 11:06:36.227             1.920           272.188
       240   07 Jun 2027 11:07:08.925   07 Jun 2027 11:07:10.402             1.477           738.500
       241   07 Jun 2027 11:07:40.437   07 Jun 2027 11:07:46.767             6.330          1219.437
       242   07 Jun 2027 11:07:49.044   07 Jun 2027 11:07:49.044             0.000             0.000
       243   07 Jun 2027 11:08:27.653   07 Jun 2027 11:08:35.367             7.714          1277.688
       244   07 Jun 2027 11:08:40.391   07 Jun 2027 11:08:40.729             0.338           155.187
       245   08 Jun 2027 03:15:58.566   08 Jun 2027 03:16:47.551            48.985         24492.500
       246   08 Jun 2027 03:27:42.176   08 Jun 2027 03:28:40.658            58.482         29241.000
       247   08 Jun 2027 04:49:55.711   08 Jun 2027 04:51:01.912            66.201         33100.500
       248   08 Jun 2027 04:51:49.605   08 Jun 2027 04:52:44.000            54.395         27197.500
       249   08 Jun 2027 04:53:17.090   08 Jun 2027 04:54:08.744            51.654         25827.000
       250   08 Jun 2027 06:24:51.000   08 Jun 2027 06:25:22.178            31.178         14658.468
       251   08 Jun 2027 06:25:59.615   08 Jun 2027 06:26:00.084             0.469           234.500
       252   08 Jun 2027 06:26:12.698   08 Jun 2027 06:26:18.614             5.916           461.000
       253   08 Jun 2027 06:26:26.665   08 Jun 2027 06:26:29.893             3.228           251.594
       254   08 Jun 2027 06:27:42.030   08 Jun 2027 06:27:45.515             3.485          1726.719
       255   08 Jun 2027 06:28:38.277   08 Jun 2027 06:28:42.496             4.219          1570.594
       256   08 Jun 2027 06:30:01.238   08 Jun 2027 06:30:07.887             6.649          2460.688
       257   08 Jun 2027 06:31:15.526   08 Jun 2027 06:31:19.550             4.024          1856.281
       258   08 Jun 2027 06:31:24.911   08 Jun 2027 06:31:31.434             6.523           167.531
       259   08 Jun 2027 06:31:37.934   08 Jun 2027 06:31:37.934             0.000             0.000
       260   08 Jun 2027 06:32:51.332   08 Jun 2027 06:32:57.490             6.158          2226.719
       261   08 Jun 2027 08:02:21.945   08 Jun 2027 08:02:31.942             9.997          4458.375
       262   08 Jun 2027 08:04:07.495   08 Jun 2027 08:04:19.228            11.733          2131.594
       263   08 Jun 2027 08:05:23.799   08 Jun 2027 08:05:27.754             3.955          1948.938
       264   08 Jun 2027 08:06:33.807   08 Jun 2027 08:06:37.349             3.542          1699.719
       265   08 Jun 2027 08:06:46.317   08 Jun 2027 08:06:52.248             5.931           280.250
       266   08 Jun 2027 08:07:05.172   08 Jun 2027 08:07:08.637             3.465           319.375
       267   08 Jun 2027 08:07:49.789   08 Jun 2027 08:07:51.117             1.328           559.031
       268   08 Jun 2027 08:08:18.665   08 Jun 2027 08:08:21.409             2.744           751.781
       269   08 Jun 2027 08:09:32.139   08 Jun 2027 08:09:38.977             6.838          1986.344
       270   08 Jun 2027 09:39:07.521   08 Jun 2027 09:39:27.930            20.409         10156.469
       271   08 Jun 2027 09:40:17.034   08 Jun 2027 09:40:19.324             2.290           750.344
       272   08 Jun 2027 09:40:34.724   08 Jun 2027 09:40:38.083             3.359           481.250
       273   08 Jun 2027 09:42:40.399   08 Jun 2027 09:42:48.980             8.581          3011.563
       274   08 Jun 2027 09:42:52.027   08 Jun 2027 09:42:52.548             0.521            95.219
       275   08 Jun 2027 09:43:07.731   08 Jun 2027 09:43:09.640             1.909           358.500
       276   08 Jun 2027 09:43:14.816   08 Jun 2027 09:43:16.061             1.245           161.750
       277   08 Jun 2027 09:44:07.468   08 Jun 2027 09:44:09.718             2.250          1125.000
       278   08 Jun 2027 09:44:32.057   08 Jun 2027 09:44:37.285             5.228          1096.469
       279   08 Jun 2027 09:45:07.703   08 Jun 2027 09:45:10.743             3.040           750.875
       280   08 Jun 2027 11:17:06.743   08 Jun 2027 11:17:25.530            18.787          8782.250
       281   08 Jun 2027 11:18:35.363   08 Jun 2027 11:18:40.439             5.076          1921.219
       282   08 Jun 2027 11:18:48.563   08 Jun 2027 11:18:50.706             2.143            62.687
       283   08 Jun 2027 11:19:12.555   08 Jun 2027 11:19:14.964             2.409           669.688
       284   08 Jun 2027 11:20:17.062   08 Jun 2027 11:20:19.136             2.074          1037.000
       285   08 Jun 2027 11:21:05.608   08 Jun 2027 11:21:11.509             5.901          2081.094
       286   09 Jun 2027 03:27:31.415   09 Jun 2027 03:28:24.726            53.311         26655.500
       287   09 Jun 2027 03:28:26.689   09 Jun 2027 03:28:45.327            18.638          9319.000
       288   09 Jun 2027 03:39:47.163   09 Jun 2027 03:40:14.807            27.644         13822.000
       289   09 Jun 2027 05:01:27.610   09 Jun 2027 05:02:47.522            79.912         39956.000
       290   09 Jun 2027 05:03:35.755   09 Jun 2027 05:04:39.780            64.025         32012.500
       291   09 Jun 2027 05:05:38.211   09 Jun 2027 05:05:49.109            10.898          5449.000
       292   09 Jun 2027 05:05:57.726   09 Jun 2027 05:06:06.661             8.935          4467.500
       293   09 Jun 2027 05:06:11.496   09 Jun 2027 05:06:25.032            13.536          6768.000
       294   09 Jun 2027 06:36:21.126   09 Jun 2027 06:37:00.702            39.576         19542.250
       295   09 Jun 2027 06:38:13.760   09 Jun 2027 06:38:21.162             7.402          2172.094
       296   09 Jun 2027 06:38:44.054   09 Jun 2027 06:38:48.051             3.997           442.344
       297   09 Jun 2027 06:39:36.199   09 Jun 2027 06:39:41.041             4.842          1223.437
       298   09 Jun 2027 06:42:01.120   09 Jun 2027 06:42:09.598             8.478          4112.437
       299   09 Jun 2027 06:43:03.534   09 Jun 2027 06:43:06.858             3.324          1387.438
       300   09 Jun 2027 06:43:38.202   09 Jun 2027 06:43:40.404             2.202           979.500
       301   09 Jun 2027 06:44:02.560   09 Jun 2027 06:44:04.201             1.641           598.031
       302   09 Jun 2027 06:44:46.346   09 Jun 2027 06:44:51.063             4.717          1011.937
       303   09 Jun 2027 08:14:16.701   09 Jun 2027 08:14:33.864            17.163          7764.063
       304   09 Jun 2027 08:15:04.010   09 Jun 2027 08:15:06.066             2.056           927.781
       305   09 Jun 2027 08:15:46.049   09 Jun 2027 08:15:49.685             3.636           935.750
       306   09 Jun 2027 08:16:27.576   09 Jun 2027 08:16:30.806             3.230           656.500
       307   09 Jun 2027 08:16:47.336   09 Jun 2027 08:16:47.891             0.555           214.906
       308   09 Jun 2027 08:17:44.924   09 Jun 2027 08:17:48.281             3.357          1163.969
       309   09 Jun 2027 08:18:19.835   09 Jun 2027 08:18:21.939             2.104           689.438
       310   09 Jun 2027 08:18:31.769   09 Jun 2027 08:18:33.637             1.868           263.750
       311   09 Jun 2027 08:18:44.466   09 Jun 2027 08:18:44.660             0.194            58.750
       312   09 Jun 2027 08:19:33.398   09 Jun 2027 08:19:37.483             4.085          1216.094
       313   09 Jun 2027 08:20:45.769   09 Jun 2027 08:20:50.195             4.426          2102.094
       314   09 Jun 2027 08:21:18.527   09 Jun 2027 08:21:26.693             8.166           399.250
       315   09 Jun 2027 09:51:04.029   09 Jun 2027 09:51:10.289             6.260          3130.000
       316   09 Jun 2027 09:51:36.858   09 Jun 2027 09:51:51.729            14.871          7100.344
       317   09 Jun 2027 09:52:09.661   09 Jun 2027 09:52:11.614             1.953           395.000
       318   09 Jun 2027 09:53:10.714   09 Jun 2027 09:53:15.841             5.127          1846.875
       319   09 Jun 2027 09:53:45.866   09 Jun 2027 09:53:49.439             3.573           657.125
       320   09 Jun 2027 09:54:32.697   09 Jun 2027 09:54:35.387             2.690          1341.688
       321   09 Jun 2027 09:55:14.660   09 Jun 2027 09:55:17.744             3.084          1224.313
       322   09 Jun 2027 09:55:32.729   09 Jun 2027 09:55:33.778             1.049           357.312
       323   09 Jun 2027 09:55:44.984   09 Jun 2027 09:55:45.974             0.990            24.625
       324   09 Jun 2027 09:55:54.816   09 Jun 2027 09:55:57.822             3.006           276.312
       325   09 Jun 2027 09:57:05.743   09 Jun 2027 09:57:11.371             5.628          1923.375
       326   09 Jun 2027 09:57:19.103   09 Jun 2027 09:57:19.893             0.790           182.844
       327   09 Jun 2027 09:57:30.441   09 Jun 2027 09:57:33.233             2.792           293.719
       328   09 Jun 2027 11:28:54.442   09 Jun 2027 11:29:07.654            13.212          5666.594
       329   09 Jun 2027 11:29:11.484   09 Jun 2027 11:29:13.594             2.110           119.687
       330   09 Jun 2027 11:29:40.523   09 Jun 2027 11:29:43.015             2.492           726.500
       331   09 Jun 2027 11:30:24.379   09 Jun 2027 11:30:28.237             3.858          1202.250
       332   09 Jun 2027 11:30:49.339   09 Jun 2027 11:30:49.339             0.000             0.000
       333   09 Jun 2027 11:31:13.916   09 Jun 2027 11:31:18.502             4.586           858.563
       334   09 Jun 2027 11:31:50.970   09 Jun 2027 11:31:52.217             1.247           623.500
       335   09 Jun 2027 11:32:09.484   09 Jun 2027 11:32:11.271             1.787           625.437
       336   09 Jun 2027 11:32:11.592   09 Jun 2027 11:32:14.693             3.101            10.031
       337   09 Jun 2027 11:32:30.681   09 Jun 2027 11:32:32.244             1.563           499.625
       338   09 Jun 2027 11:32:54.022   09 Jun 2027 11:32:57.837             3.815           453.688
       339   10 Jun 2027 03:39:27.064   10 Jun 2027 03:40:46.123            79.059         39529.500
       340   10 Jun 2027 05:15:26.682   10 Jun 2027 05:18:14.415           167.733         83866.500
       341   10 Jun 2027 05:18:47.886   10 Jun 2027 05:18:58.153            10.267          5133.500
       342   10 Jun 2027 06:49:14.529   10 Jun 2027 06:50:14.418            59.889         29944.500
       343   10 Jun 2027 06:50:33.081   10 Jun 2027 06:50:37.118             4.037          1819.031
       344   10 Jun 2027 06:51:19.704   10 Jun 2027 06:51:21.880             2.176           188.406
       345   10 Jun 2027 06:51:40.575   10 Jun 2027 06:51:42.132             1.557           573.219
       346   10 Jun 2027 06:52:31.945   10 Jun 2027 06:52:36.244             4.299          1410.844
       347   10 Jun 2027 06:53:26.299   10 Jun 2027 06:53:30.358             4.059          1564.219
       348   10 Jun 2027 06:54:11.677   10 Jun 2027 06:54:15.261             3.584           942.312
       349   10 Jun 2027 06:55:00.420   10 Jun 2027 06:55:00.420             0.000             0.000
       350   10 Jun 2027 06:56:00.318   10 Jun 2027 06:56:03.902             3.584          1792.000
       351   10 Jun 2027 06:56:18.144   10 Jun 2027 06:56:27.655             9.511          1724.375
       352   10 Jun 2027 06:56:54.095   10 Jun 2027 06:56:55.963             1.868           748.688
       353   10 Jun 2027 06:57:18.269   10 Jun 2027 06:57:20.211             1.942           697.063
       354   10 Jun 2027 06:57:34.944   10 Jun 2027 06:57:34.944             0.000             0.000
       355   10 Jun 2027 08:26:28.243   10 Jun 2027 08:26:45.221            16.978          8247.719
       356   10 Jun 2027 08:28:02.725   10 Jun 2027 08:28:04.852             2.127          1063.500
       357   10 Jun 2027 08:28:30.422   10 Jun 2027 08:28:32.129             1.707           837.906
       358   10 Jun 2027 08:29:23.616   10 Jun 2027 08:29:29.972             6.356          1362.719
       359   10 Jun 2027 08:30:16.240   10 Jun 2027 08:30:20.477             4.237          1337.094
       360   10 Jun 2027 08:30:33.445   10 Jun 2027 08:30:36.274             2.829           405.062
       361   10 Jun 2027 08:30:50.983   10 Jun 2027 08:30:58.434             7.451           421.344
       362   10 Jun 2027 08:31:11.574   10 Jun 2027 08:31:13.273             1.699           239.750
       363   10 Jun 2027 08:32:30.537   10 Jun 2027 08:32:37.197             6.660          2043.125
       364   10 Jun 2027 08:33:21.845   10 Jun 2027 08:33:25.070             3.225          1378.594
       365   10 Jun 2027 10:03:40.840   10 Jun 2027 10:03:57.528            16.688          8146.906
       366   10 Jun 2027 10:05:16.753   10 Jun 2027 10:05:22.248             5.495          2191.656
       367   10 Jun 2027 10:06:47.838   10 Jun 2027 10:06:55.111             7.273          2240.750
       368   10 Jun 2027 10:07:17.514   10 Jun 2027 10:07:20.327             2.813           196.125
       369   10 Jun 2027 10:07:31.153   10 Jun 2027 10:07:32.075             0.922           338.312
       370   10 Jun 2027 10:07:55.326   10 Jun 2027 10:07:56.864             1.538           726.594
       371   10 Jun 2027 10:08:19.375   10 Jun 2027 10:08:27.202             7.827           682.531
       372   10 Jun 2027 10:08:34.459   10 Jun 2027 10:08:38.369             3.910           212.188
       373   10 Jun 2027 10:08:46.032   10 Jun 2027 10:08:46.844             0.812           239.469
       374   10 Jun 2027 10:09:10.439   10 Jun 2027 10:09:17.420             6.981           622.094
       375   10 Jun 2027 11:40:23.510   10 Jun 2027 11:40:38.571            15.061          6470.656
       376   10 Jun 2027 11:40:58.985   10 Jun 2027 11:41:01.255             2.270           548.656
       377   10 Jun 2027 11:41:10.652   10 Jun 2027 11:41:12.718             2.066           180.875
       378   10 Jun 2027 11:41:59.845   10 Jun 2027 11:42:02.793             2.948          1472.719
       379   10 Jun 2027 11:43:01.303   10 Jun 2027 11:43:06.988             5.685          1828.437
       380   10 Jun 2027 11:43:32.303   10 Jun 2027 11:43:33.816             1.513           710.000
       381   10 Jun 2027 11:43:56.730   10 Jun 2027 11:43:59.745             3.015           522.219
       382   10 Jun 2027 11:44:32.459   10 Jun 2027 11:44:36.907             4.448           889.156
       383   10 Jun 2027 11:44:47.547   10 Jun 2027 11:44:48.541             0.994           330.281
       384   11 Jun 2027 03:51:18.893   11 Jun 2027 03:52:45.582            86.689         43344.500
       385   11 Jun 2027 03:53:14.847   11 Jun 2027 03:53:25.378            10.531          5265.500
       386   11 Jun 2027 05:27:40.463   11 Jun 2027 05:30:49.590           189.127         94563.500
       387   11 Jun 2027 07:01:45.735   11 Jun 2027 07:02:22.885            37.150         18526.250
       388   11 Jun 2027 07:03:26.381   11 Jun 2027 07:03:31.181             4.800          1568.719
       389   11 Jun 2027 07:03:48.087   11 Jun 2027 07:03:50.203             2.116           360.969
       390   11 Jun 2027 07:04:20.365   11 Jun 2027 07:04:24.987             4.622           942.563
       391   11 Jun 2027 07:04:50.655   11 Jun 2027 07:04:52.285             1.630           764.188
       392   11 Jun 2027 07:06:44.599   11 Jun 2027 07:06:51.946             7.347          3384.688
       393   11 Jun 2027 07:07:14.529   11 Jun 2027 07:07:16.581             2.052           570.656
       394   11 Jun 2027 07:07:47.904   11 Jun 2027 07:07:50.866             2.962           812.812
       395   11 Jun 2027 07:08:21.420   11 Jun 2027 07:08:24.756             3.336           517.469
       396   11 Jun 2027 07:08:57.865   11 Jun 2027 07:09:06.597             8.732           988.125
       397   11 Jun 2027 07:09:13.148   11 Jun 2027 07:09:13.885             0.737           204.719
       398   11 Jun 2027 07:09:30.043   11 Jun 2027 07:09:31.189             1.146           504.937
       399   11 Jun 2027 08:38:49.958   11 Jun 2027 08:39:09.341            19.383          8664.500
       400   11 Jun 2027 08:40:09.089   11 Jun 2027 08:40:12.954             3.865           997.594
       401   11 Jun 2027 08:41:39.825   11 Jun 2027 08:41:44.433             4.608          2143.750
       402   11 Jun 2027 08:42:29.957   11 Jun 2027 08:42:33.251             3.294          1182.469
       403   11 Jun 2027 08:43:07.500   11 Jun 2027 08:43:14.256             6.756          1070.281
       404   11 Jun 2027 08:43:44.531   11 Jun 2027 08:43:49.316             4.785           940.406
       405   11 Jun 2027 08:44:45.624   11 Jun 2027 08:44:54.783             9.159          1336.156
       406   11 Jun 2027 10:15:47.613   11 Jun 2027 10:16:04.402            16.789          7781.500
       407   11 Jun 2027 10:17:32.016   11 Jun 2027 10:17:37.924             5.908          1814.531
       408   11 Jun 2027 10:18:23.133   11 Jun 2027 10:18:29.184             6.051           971.625
       409   11 Jun 2027 10:18:46.972   11 Jun 2027 10:18:48.130             1.158           555.875
       410   11 Jun 2027 10:19:15.234   11 Jun 2027 10:19:16.568             1.334           448.437
       411   11 Jun 2027 10:19:38.943   11 Jun 2027 10:19:42.572             3.629           350.062
       412   11 Jun 2027 10:19:46.643   11 Jun 2027 10:19:48.980             2.337           127.219
       413   11 Jun 2027 11:52:33.649   11 Jun 2027 11:52:58.735            25.086          9488.875
       414   11 Jun 2027 11:53:07.273   11 Jun 2027 11:53:07.273             0.000             0.000
       415   11 Jun 2027 11:53:43.345   11 Jun 2027 11:53:52.243             8.898          1255.719
       416   11 Jun 2027 11:54:38.398   11 Jun 2027 11:54:38.799             0.401           200.500
       417   11 Jun 2027 11:55:30.481   11 Jun 2027 11:55:35.838             5.357          2678.500
       418   11 Jun 2027 11:56:04.710   11 Jun 2027 11:56:07.814             3.104           983.438
       419   11 Jun 2027 11:56:44.083   11 Jun 2027 11:56:44.083             0.000             0.000
       420   12 Jun 2027 04:03:22.041   12 Jun 2027 04:04:37.395            75.354         37677.000
       421   12 Jun 2027 05:39:47.206   12 Jun 2027 05:42:38.633           171.427         85713.500
       422   12 Jun 2027 05:43:11.150   12 Jun 2027 05:43:19.845             8.695          4347.500
       423   12 Jun 2027 07:14:55.117   12 Jun 2027 07:15:53.797            58.680         29287.625
       424   12 Jun 2027 07:16:54.764   12 Jun 2027 07:16:58.566             3.802          1366.187
       425   12 Jun 2027 07:17:56.669   12 Jun 2027 07:18:00.687             4.018          1815.719
       426   12 Jun 2027 07:18:50.381   12 Jun 2027 07:18:53.234             2.853          1232.313
       427   12 Jun 2027 07:20:05.391   12 Jun 2027 07:20:11.079             5.688          2216.531
       428   12 Jun 2027 07:21:32.206   12 Jun 2027 07:21:37.025             4.819          2129.781
       429   12 Jun 2027 08:51:16.124   12 Jun 2027 08:51:34.557            18.433          7531.188
       430   12 Jun 2027 08:53:03.557   12 Jun 2027 08:53:08.067             4.510          1131.281
       431   12 Jun 2027 08:53:21.260   12 Jun 2027 08:53:23.101             1.841            34.375
       432   12 Jun 2027 08:53:54.819   12 Jun 2027 08:53:59.856             5.037           950.219
       433   12 Jun 2027 08:54:28.810   12 Jun 2027 08:54:31.097             2.287           815.031
       434   12 Jun 2027 08:54:53.481   12 Jun 2027 08:54:57.409             3.928           636.875
       435   12 Jun 2027 08:54:59.716   12 Jun 2027 08:55:01.347             1.631            72.094
       436   12 Jun 2027 08:55:04.071   12 Jun 2027 08:55:07.553             3.482            85.125
       437   12 Jun 2027 08:56:14.820   12 Jun 2027 08:56:15.888             1.068           534.000
       438   12 Jun 2027 08:56:44.353   12 Jun 2027 08:56:49.789             5.436          2285.344
       439   12 Jun 2027 08:56:53.609   12 Jun 2027 08:56:54.841             1.232           119.375
       440   12 Jun 2027 08:57:25.786   12 Jun 2027 08:57:29.290             3.504           967.031
       441   12 Jun 2027 10:28:49.347   12 Jun 2027 10:29:05.373            16.026          6600.125
       442   12 Jun 2027 10:29:23.393   12 Jun 2027 10:29:23.393             0.000             0.000
       443   12 Jun 2027 10:29:44.881   12 Jun 2027 10:29:49.890             5.009          1138.813
       444   12 Jun 2027 10:30:24.393   12 Jun 2027 10:30:32.531             8.138           557.687
       445   12 Jun 2027 10:30:39.766   12 Jun 2027 10:30:40.082             0.316           158.000
       446   12 Jun 2027 10:31:46.039   12 Jun 2027 10:31:51.113             5.074          2129.250
       447   12 Jun 2027 10:32:47.155   12 Jun 2027 10:32:49.659             2.504          1252.000
       448   13 Jun 2027 04:15:19.750   13 Jun 2027 04:17:21.344           121.594         60797.000
       449   13 Jun 2027 04:18:11.748   13 Jun 2027 04:18:11.748             0.000             0.000
       450   13 Jun 2027 05:51:56.829   13 Jun 2027 05:53:38.584           101.755         50877.500
       451   13 Jun 2027 05:53:39.917   13 Jun 2027 05:54:53.086            73.169         36584.500
       452   13 Jun 2027 07:27:06.822   13 Jun 2027 07:27:27.813            20.991         10495.500
       453   13 Jun 2027 07:28:20.452   13 Jun 2027 07:28:23.027             2.575          1287.500
       454   13 Jun 2027 07:28:32.913   13 Jun 2027 07:28:37.505             4.592          1668.844
       455   13 Jun 2027 07:29:22.597   13 Jun 2027 07:29:24.182             1.585           553.750
       456   13 Jun 2027 07:30:51.195   13 Jun 2027 07:30:55.072             3.877          1938.500
       457   13 Jun 2027 07:32:05.414   13 Jun 2027 07:32:15.822            10.408          2645.187
       458   13 Jun 2027 07:32:22.643   13 Jun 2027 07:32:25.454             2.811           213.156
       459   13 Jun 2027 07:32:35.723   13 Jun 2027 07:32:42.586             6.863           320.906
       460   13 Jun 2027 09:03:24.087   13 Jun 2027 09:03:41.132            17.045          8226.000
       461   13 Jun 2027 09:04:44.253   13 Jun 2027 09:04:48.389             4.136          1222.281
       462   13 Jun 2027 09:05:45.833   13 Jun 2027 09:05:49.148             3.315          1013.812
       463   13 Jun 2027 09:05:56.726   13 Jun 2027 09:05:57.427             0.701            84.156
       464   13 Jun 2027 09:06:18.496   13 Jun 2027 09:06:19.629             1.133           401.594
       465   13 Jun 2027 09:06:29.332   13 Jun 2027 09:06:30.528             1.196           300.594
       466   13 Jun 2027 09:06:49.165   13 Jun 2027 09:06:49.165             0.000             0.000
       467   13 Jun 2027 09:07:02.283   13 Jun 2027 09:07:04.620             2.337           935.313
       468   13 Jun 2027 09:07:33.620   13 Jun 2027 09:07:41.248             7.628           906.094
       469   13 Jun 2027 09:07:50.351   13 Jun 2027 09:07:52.726             2.375            70.812
       470   13 Jun 2027 09:09:00.275   13 Jun 2027 09:09:05.784             5.509          2009.344
       471   13 Jun 2027 10:40:55.695   13 Jun 2027 10:41:09.107            13.412          6706.000
       472   13 Jun 2027 10:41:58.135   13 Jun 2027 10:42:01.349             3.214          1607.000
       473   13 Jun 2027 10:42:15.547   13 Jun 2027 10:42:19.303             3.756           778.938
       474   13 Jun 2027 10:43:00.705   13 Jun 2027 10:43:03.109             2.404           871.406
       475   13 Jun 2027 10:43:14.645   13 Jun 2027 10:43:16.449             1.804           321.094
       476   13 Jun 2027 10:44:22.366   13 Jun 2027 10:44:28.515             6.149          1800.844
       477   13 Jun 2027 10:45:00.856   13 Jun 2027 10:45:07.578             6.722           964.219
