uniorb/output/strategy_2/Camera/Camera_KinoSat_111109.txt

KinoSat_111109
-------------------------
    Access    *     Start Time (UTCG)     *     Stop Time (UTCG)  *   Duration (s) *   Data (Mbytes)
         1   01 Jun 2027 03:00:00.000   01 Jun 2027 03:00:02.111             2.111          1055.500
         2   01 Jun 2027 03:01:08.841   01 Jun 2027 03:01:09.280             0.439           219.500
         3   01 Jun 2027 03:01:21.726   01 Jun 2027 03:01:51.331            29.605         14802.500
         4   01 Jun 2027 04:20:39.042   01 Jun 2027 04:22:16.414            97.372         48686.000
         5   01 Jun 2027 04:22:51.850   01 Jun 2027 04:23:08.229            16.379          8189.500
         6   01 Jun 2027 05:57:03.374   01 Jun 2027 05:59:57.335           173.961         86980.500
         7   01 Jun 2027 07:31:09.125   01 Jun 2027 07:33:20.169           131.044         65522.000
         8   01 Jun 2027 07:33:45.466   01 Jun 2027 07:34:21.679            36.213         18106.500
         9   01 Jun 2027 07:36:23.696   01 Jun 2027 07:36:50.932            27.236         13618.000
        10   01 Jun 2027 07:37:48.861   01 Jun 2027 07:37:49.373             0.512           256.000
        11   01 Jun 2027 07:38:33.912   01 Jun 2027 07:38:35.326             1.414           707.000
        12   01 Jun 2027 09:08:09.282   01 Jun 2027 09:10:51.149           161.867         80933.500
        13   01 Jun 2027 09:14:09.030   01 Jun 2027 09:14:40.390            31.360         15680.000
        14   01 Jun 2027 10:45:10.738   01 Jun 2027 10:46:54.866           104.128         52064.000
        15   01 Jun 2027 10:48:10.620   01 Jun 2027 10:48:43.268            32.648         16324.000
        16   01 Jun 2027 10:48:47.110   01 Jun 2027 10:48:49.807             2.697          1348.500
        17   02 Jun 2027 03:09:02.127   02 Jun 2027 03:09:06.926             4.799          2399.500
        18   02 Jun 2027 03:10:10.605   02 Jun 2027 03:12:16.511           125.906         62953.000
        19   02 Jun 2027 03:13:14.552   02 Jun 2027 03:13:33.362            18.810          9405.000
        20   02 Jun 2027 04:32:44.298   02 Jun 2027 04:33:19.445            35.147         17573.500
        21   02 Jun 2027 04:34:07.808   02 Jun 2027 04:34:17.776             9.968          4984.000
        22   02 Jun 2027 06:09:13.324   02 Jun 2027 06:11:23.906           130.582         65291.000
        23   02 Jun 2027 06:12:08.412   02 Jun 2027 06:12:46.303            37.891         18945.500
        24   02 Jun 2027 07:44:20.718   02 Jun 2027 07:46:30.649           129.931         64965.500
        25   02 Jun 2027 07:49:33.982   02 Jun 2027 07:50:02.020            28.038         14019.000
        26   02 Jun 2027 07:50:31.776   02 Jun 2027 07:50:45.107            13.331          6665.500
        27   02 Jun 2027 07:50:55.622   02 Jun 2027 07:51:05.267             9.645          4822.500
        28   02 Jun 2027 09:20:42.086   02 Jun 2027 09:21:51.957            69.871         33503.874
        29   02 Jun 2027 09:22:50.823   02 Jun 2027 09:22:53.321             2.498          1041.625
        30   02 Jun 2027 09:23:12.680   02 Jun 2027 09:23:14.898             2.218           439.500
        31   02 Jun 2027 09:23:43.490   02 Jun 2027 09:23:46.148             2.658           743.406
        32   02 Jun 2027 09:25:22.764   02 Jun 2027 09:25:31.129             8.365          2804.781
        33   02 Jun 2027 09:25:59.104   02 Jun 2027 09:26:00.733             1.629           779.375
        34   02 Jun 2027 09:26:13.114   02 Jun 2027 09:26:14.526             1.412           386.906
        35   02 Jun 2027 09:26:56.377   02 Jun 2027 09:27:00.009             3.632          1227.312
        36   02 Jun 2027 10:58:08.461   02 Jun 2027 10:58:24.102            15.641          7315.812
        37   02 Jun 2027 10:58:46.423   02 Jun 2027 10:58:47.855             1.432           480.469
        38   02 Jun 2027 10:59:34.788   02 Jun 2027 10:59:39.492             4.704          1466.656
        39   02 Jun 2027 11:00:02.067   02 Jun 2027 11:00:07.375             5.308           399.969
        40   02 Jun 2027 11:00:36.976   02 Jun 2027 11:00:39.375             2.399           925.031
        41   02 Jun 2027 11:00:48.495   02 Jun 2027 11:00:50.587             2.092            58.344
        42   02 Jun 2027 11:01:20.645   02 Jun 2027 11:01:23.581             2.936           913.938
        43   02 Jun 2027 11:02:10.427   02 Jun 2027 11:02:19.267             8.840          1341.281
        44   03 Jun 2027 03:21:19.637   03 Jun 2027 03:21:57.226            37.589         18794.500
        45   03 Jun 2027 03:22:09.661   03 Jun 2027 03:24:24.250           134.589         67294.500
        46   03 Jun 2027 04:44:47.572   03 Jun 2027 04:45:23.515            35.943         17971.500
        47   03 Jun 2027 04:45:29.738   03 Jun 2027 04:45:36.513             6.775          3387.500
        48   03 Jun 2027 04:45:45.125   03 Jun 2027 04:45:49.483             4.358          2179.000
        49   03 Jun 2027 04:46:08.238   03 Jun 2027 04:46:08.238             0.000             0.000
        50   03 Jun 2027 06:21:16.503   03 Jun 2027 06:22:22.569            66.066         33033.000
        51   03 Jun 2027 06:23:24.076   03 Jun 2027 06:23:38.990            14.914          6565.312
        52   03 Jun 2027 06:23:40.691   03 Jun 2027 06:23:40.691             0.000             0.000
        53   03 Jun 2027 06:23:51.558   03 Jun 2027 06:23:57.076             5.518           392.750
        54   03 Jun 2027 07:56:27.683   03 Jun 2027 07:56:39.863            12.180          5156.813
        55   03 Jun 2027 07:57:49.763   03 Jun 2027 07:57:55.342             5.579          2077.781
        56   03 Jun 2027 07:59:01.199   03 Jun 2027 07:59:04.822             3.623          1358.656
        57   03 Jun 2027 08:00:01.235   03 Jun 2027 08:00:06.271             5.036          1762.906
        58   03 Jun 2027 08:00:25.284   03 Jun 2027 08:00:28.714             3.430           591.250
        59   03 Jun 2027 08:00:45.096   03 Jun 2027 08:00:46.154             1.058           345.875
        60   03 Jun 2027 08:01:00.361   03 Jun 2027 08:01:01.053             0.692           262.375
        61   03 Jun 2027 08:01:45.874   03 Jun 2027 08:01:48.661             2.787          1259.312
        62   03 Jun 2027 08:01:52.903   03 Jun 2027 08:01:54.696             1.793           132.563
        63   03 Jun 2027 08:02:25.991   03 Jun 2027 08:02:27.574             1.583           791.500
        64   03 Jun 2027 08:02:38.507   03 Jun 2027 08:02:40.191             1.684           471.250
        65   03 Jun 2027 08:02:47.917   03 Jun 2027 08:02:53.112             5.195           241.438
        66   03 Jun 2027 09:32:24.323   03 Jun 2027 09:32:45.839            21.516          8146.250
        67   03 Jun 2027 09:33:59.369   03 Jun 2027 09:34:06.992             7.623          1094.938
        68   03 Jun 2027 09:35:02.356   03 Jun 2027 09:35:04.437             2.081           909.031
        69   03 Jun 2027 09:35:12.106   03 Jun 2027 09:35:14.357             2.251           209.094
        70   03 Jun 2027 09:35:39.065   03 Jun 2027 09:35:40.781             1.716           550.500
        71   03 Jun 2027 09:36:43.575   03 Jun 2027 09:36:53.545             9.970          1962.313
        72   03 Jun 2027 09:37:09.484   03 Jun 2027 09:37:16.708             7.224           457.406
        73   03 Jun 2027 09:37:31.265   03 Jun 2027 09:37:32.293             1.028           416.375
        74   03 Jun 2027 11:10:15.391   03 Jun 2027 11:10:28.788            13.397          6388.406
        75   03 Jun 2027 11:11:05.997   03 Jun 2027 11:11:10.684             4.687           982.438
        76   03 Jun 2027 11:11:38.550   03 Jun 2027 11:11:42.462             3.912           845.375
        77   03 Jun 2027 11:12:49.237   03 Jun 2027 11:12:52.898             3.661          1830.500
        78   03 Jun 2027 11:13:08.480   03 Jun 2027 11:13:11.234             2.754           743.156
        79   03 Jun 2027 11:13:39.508   03 Jun 2027 11:13:43.063             3.555           506.719
        80   03 Jun 2027 11:14:37.328   03 Jun 2027 11:14:40.791             3.463          1695.781
        81   04 Jun 2027 03:22:24.574   04 Jun 2027 03:22:46.593            22.019         11009.500
        82   04 Jun 2027 03:33:16.959   04 Jun 2027 03:36:15.592           178.633         89316.500
        83   04 Jun 2027 03:36:44.199   04 Jun 2027 03:36:44.199             0.000             0.000
        84   04 Jun 2027 04:57:14.279   04 Jun 2027 04:58:08.242            53.963         26981.500
        85   04 Jun 2027 04:58:36.858   04 Jun 2027 04:59:01.195            24.337         12168.500
        86   04 Jun 2027 04:59:17.654   04 Jun 2027 04:59:34.694            17.040          7729.406
        87   04 Jun 2027 04:59:48.293   04 Jun 2027 04:59:49.759             1.466           274.938
        88   04 Jun 2027 06:33:00.808   04 Jun 2027 06:33:18.110            17.302          8439.844
        89   04 Jun 2027 06:35:38.992   04 Jun 2027 06:35:47.840             8.848          4289.594
        90   04 Jun 2027 06:36:05.296   04 Jun 2027 06:36:06.047             0.751           328.063
        91   04 Jun 2027 06:36:59.857   04 Jun 2027 06:36:59.857             0.000             0.000
        92   04 Jun 2027 08:07:43.745   04 Jun 2027 08:07:53.133             9.388          4112.813
        93   04 Jun 2027 08:08:40.789   04 Jun 2027 08:08:57.103            16.314           967.313
        94   04 Jun 2027 08:09:13.413   04 Jun 2027 08:09:14.500             1.087           428.594
        95   04 Jun 2027 08:10:17.330   04 Jun 2027 08:10:20.795             3.465          1030.969
        96   04 Jun 2027 08:11:05.123   04 Jun 2027 08:11:08.166             3.043          1385.250
        97   04 Jun 2027 08:11:59.069   04 Jun 2027 08:12:02.702             3.633          1574.688
        98   04 Jun 2027 08:12:30.997   04 Jun 2027 08:12:33.394             2.397           884.219
        99   04 Jun 2027 08:13:20.121   04 Jun 2027 08:13:23.694             3.573          1272.500
       100   04 Jun 2027 08:14:07.754   04 Jun 2027 08:14:13.433             5.679          1302.000
       101   04 Jun 2027 09:44:29.433   04 Jun 2027 09:44:52.411            22.978         10139.500
       102   04 Jun 2027 09:45:15.688   04 Jun 2027 09:45:17.291             1.603           644.125
       103   04 Jun 2027 09:45:30.448   04 Jun 2027 09:45:31.457             1.009           411.156
       104   04 Jun 2027 09:46:40.556   04 Jun 2027 09:46:43.436             2.880           598.875
       105   04 Jun 2027 09:47:16.886   04 Jun 2027 09:47:18.596             1.710           383.687
       106   04 Jun 2027 09:48:52.525   04 Jun 2027 09:48:58.111             5.586          2793.000
       107   04 Jun 2027 09:49:01.502   04 Jun 2027 09:49:03.517             2.015           131.031
       108   04 Jun 2027 09:50:05.002   04 Jun 2027 09:50:17.966            12.964          1921.406
       109   04 Jun 2027 09:50:41.864   04 Jun 2027 09:50:51.663             9.799           359.469
       110   04 Jun 2027 11:22:45.597   04 Jun 2027 11:23:04.561            18.964          9094.781
       111   04 Jun 2027 11:23:17.755   04 Jun 2027 11:23:19.268             1.513           370.688
       112   04 Jun 2027 11:23:57.116   04 Jun 2027 11:24:00.161             3.045          1182.219
       113   04 Jun 2027 11:24:23.383   04 Jun 2027 11:24:23.607             0.224           112.000
       114   04 Jun 2027 11:24:26.539   04 Jun 2027 11:24:28.473             1.934           637.906
       115   04 Jun 2027 11:24:52.540   04 Jun 2027 11:24:54.273             1.733           689.625
       116   04 Jun 2027 11:24:56.733   04 Jun 2027 11:24:57.618             0.885            76.875
       117   04 Jun 2027 11:26:01.382   04 Jun 2027 11:26:06.536             5.154          1944.344
       118   04 Jun 2027 11:26:32.926   04 Jun 2027 11:26:34.252             1.326           546.469
       119   05 Jun 2027 03:33:39.938   05 Jun 2027 03:33:50.810            10.872          5436.000
       120   05 Jun 2027 03:33:51.379   05 Jun 2027 03:34:31.167            39.788         19894.000
       121   05 Jun 2027 03:34:48.449   05 Jun 2027 03:34:51.676             3.227          1613.500
       122   05 Jun 2027 03:45:15.220   05 Jun 2027 03:46:43.328            88.108         44054.000
       123   05 Jun 2027 05:07:52.013   05 Jun 2027 05:08:50.616            58.603         29301.500
       124   05 Jun 2027 05:09:29.793   05 Jun 2027 05:10:35.850            66.057         33028.500
       125   05 Jun 2027 05:11:56.107   05 Jun 2027 05:12:03.769             7.662          3831.000
       126   05 Jun 2027 06:43:01.389   05 Jun 2027 06:43:46.997            45.608         22110.813
       127   05 Jun 2027 06:44:13.525   05 Jun 2027 06:44:13.525             0.000             0.000
       128   05 Jun 2027 06:44:50.519   05 Jun 2027 06:44:53.856             3.337          1331.344
       129   05 Jun 2027 06:45:11.743   05 Jun 2027 06:45:16.404             4.661           241.062
       130   05 Jun 2027 06:46:05.134   05 Jun 2027 06:46:08.427             3.293          1021.937
       131   05 Jun 2027 06:47:36.259   05 Jun 2027 06:47:40.894             4.635          2317.500
       132   05 Jun 2027 06:47:57.996   05 Jun 2027 06:47:58.444             0.448           224.000
       133   05 Jun 2027 06:48:24.006   05 Jun 2027 06:48:27.089             3.083          1264.031
       134   05 Jun 2027 06:48:43.170   05 Jun 2027 06:48:45.272             2.102           287.031
       135   05 Jun 2027 08:19:48.833   05 Jun 2027 08:20:01.540            12.707          5688.000
       136   05 Jun 2027 08:20:38.644   05 Jun 2027 08:20:41.536             2.892          1159.500
       137   05 Jun 2027 08:21:53.150   05 Jun 2027 08:22:01.303             8.153          2237.938
       138   05 Jun 2027 08:23:05.164   05 Jun 2027 08:23:05.164             0.000             0.000
       139   05 Jun 2027 08:24:01.388   05 Jun 2027 08:24:05.991             4.603          2092.750
       140   05 Jun 2027 08:24:47.855   05 Jun 2027 08:24:49.843             1.988           871.656
       141   05 Jun 2027 08:25:11.106   05 Jun 2027 08:25:13.458             2.352           622.313
       142   05 Jun 2027 08:25:13.646   05 Jun 2027 08:25:16.293             2.647             5.875
       143   05 Jun 2027 08:25:24.275   05 Jun 2027 08:25:25.421             1.146           249.438
       144   05 Jun 2027 08:25:55.102   05 Jun 2027 08:25:56.690             1.588           735.281
       145   05 Jun 2027 08:26:16.022   05 Jun 2027 08:26:17.384             1.362           604.125
       146   05 Jun 2027 08:26:37.882   05 Jun 2027 08:26:47.575             9.693           506.844
       147   05 Jun 2027 08:27:14.519   05 Jun 2027 08:27:15.034             0.515           257.500
       148   05 Jun 2027 09:56:49.881   05 Jun 2027 09:57:06.690            16.809          8021.531
       149   05 Jun 2027 09:58:14.608   05 Jun 2027 09:58:24.488             9.880          1215.094
       150   05 Jun 2027 09:59:22.314   05 Jun 2027 09:59:22.898             0.584            35.094
       151   05 Jun 2027 09:59:38.355   05 Jun 2027 09:59:41.154             2.799            34.563
       152   05 Jun 2027 10:00:05.887   05 Jun 2027 10:00:13.023             7.136           621.594
       153   05 Jun 2027 10:00:47.956   05 Jun 2027 10:00:49.747             1.791           895.500
       154   05 Jun 2027 10:01:08.759   05 Jun 2027 10:01:11.466             2.707           769.500
       155   05 Jun 2027 10:01:28.720   05 Jun 2027 10:01:34.128             5.408           514.344
       156   05 Jun 2027 10:01:57.062   05 Jun 2027 10:02:00.666             3.604           605.969
       157   05 Jun 2027 10:02:17.757   05 Jun 2027 10:02:20.899             3.142           101.625
       158   05 Jun 2027 10:02:43.727   05 Jun 2027 10:02:45.961             2.234           609.406
       159   05 Jun 2027 11:34:43.358   05 Jun 2027 11:34:57.182            13.824          6558.500
       160   05 Jun 2027 11:35:02.053   05 Jun 2027 11:35:07.133             5.080           152.219
       161   05 Jun 2027 11:36:02.961   05 Jun 2027 11:36:09.761             6.800          1684.125
       162   05 Jun 2027 11:36:22.865   05 Jun 2027 11:36:25.307             2.442           276.531
       163   05 Jun 2027 11:37:53.606   05 Jun 2027 11:38:02.071             8.465          2696.406
       164   05 Jun 2027 11:38:09.739   05 Jun 2027 11:38:10.882             1.143           239.625
       165   05 Jun 2027 11:38:19.447   05 Jun 2027 11:38:20.899             1.452           155.437
       166   05 Jun 2027 11:38:33.626   05 Jun 2027 11:38:36.226             2.600           397.719
       167   06 Jun 2027 03:45:00.566   06 Jun 2027 03:45:20.995            20.429         10214.500
       168   06 Jun 2027 03:45:51.647   06 Jun 2027 03:46:19.130            27.483         13741.500
       169   06 Jun 2027 03:57:14.308   06 Jun 2027 03:58:12.239            57.931         28965.500
       170   06 Jun 2027 05:19:27.912   06 Jun 2027 05:20:36.059            68.147         34073.500
       171   06 Jun 2027 05:21:24.279   06 Jun 2027 05:22:42.919            78.640         39320.000
       172   06 Jun 2027 05:23:44.787   06 Jun 2027 05:23:53.361             8.574          4287.000
       173   06 Jun 2027 06:54:21.441   06 Jun 2027 06:55:10.866            49.425         24691.874
       174   06 Jun 2027 06:55:52.397   06 Jun 2027 06:55:52.397             0.000             0.000
       175   06 Jun 2027 06:55:55.887   06 Jun 2027 06:55:57.907             2.020           997.625
       176   06 Jun 2027 06:56:22.879   06 Jun 2027 06:56:26.523             3.644           524.500
       177   06 Jun 2027 06:57:14.877   06 Jun 2027 06:57:17.218             2.341          1165.469
       178   06 Jun 2027 06:57:41.195   06 Jun 2027 06:57:46.439             5.244           103.656
       179   06 Jun 2027 06:58:00.532   06 Jun 2027 06:58:03.334             2.802           293.656
       180   06 Jun 2027 06:59:41.190   06 Jun 2027 06:59:49.098             7.908          2912.813
       181   06 Jun 2027 07:00:29.458   06 Jun 2027 07:00:35.589             6.131          1109.188
       182   06 Jun 2027 07:01:11.078   06 Jun 2027 07:01:13.124             2.046           940.625
       183   06 Jun 2027 07:01:50.722   06 Jun 2027 07:01:53.256             2.534           993.969
       184   06 Jun 2027 08:31:56.122   06 Jun 2027 08:32:14.638            18.516          6295.313
       185   06 Jun 2027 08:32:44.795   06 Jun 2027 08:32:50.456             5.661           942.406
       186   06 Jun 2027 08:32:53.961   06 Jun 2027 08:32:58.376             4.415           109.531
       187   06 Jun 2027 08:34:18.733   06 Jun 2027 08:34:21.226             2.493          1246.344
       188   06 Jun 2027 08:35:50.320   06 Jun 2027 08:36:00.994            10.674          2583.312
       189   06 Jun 2027 08:36:34.038   06 Jun 2027 08:36:37.047             3.009          1032.625
       190   06 Jun 2027 08:36:42.826   06 Jun 2027 08:36:44.696             1.870            10.344
       191   06 Jun 2027 08:37:57.806   06 Jun 2027 08:38:04.011             6.205          2284.687
       192   06 Jun 2027 08:38:32.180   06 Jun 2027 08:38:35.853             3.673           463.313
       193   06 Jun 2027 08:38:41.189   06 Jun 2027 08:38:47.905             6.716           157.781
       194   06 Jun 2027 10:08:39.260   06 Jun 2027 10:08:58.980            19.720          8571.875
       195   06 Jun 2027 10:10:38.518   06 Jun 2027 10:10:43.204             4.686          2130.344
       196   06 Jun 2027 10:11:33.504   06 Jun 2027 10:11:33.536             0.032            16.000
       197   06 Jun 2027 10:11:56.693   06 Jun 2027 10:12:03.256             6.563          1727.250
       198   06 Jun 2027 10:12:28.128   06 Jun 2027 10:12:35.029             6.901           688.625
       199   06 Jun 2027 10:12:53.727   06 Jun 2027 10:12:55.470             1.743           139.469
       200   06 Jun 2027 10:12:58.727   06 Jun 2027 10:12:59.492             0.765           101.781
       201   06 Jun 2027 10:13:38.505   06 Jun 2027 10:13:41.489             2.984          1219.125
       202   06 Jun 2027 10:13:58.898   06 Jun 2027 10:14:08.526             9.628           297.125
       203   06 Jun 2027 10:14:31.374   06 Jun 2027 10:14:33.748             2.374           110.438
       204   06 Jun 2027 10:14:42.069   06 Jun 2027 10:14:42.636             0.567           260.031
       205   06 Jun 2027 10:15:07.437   06 Jun 2027 10:15:09.050             1.613           775.031
       206   06 Jun 2027 11:46:42.983   06 Jun 2027 11:47:04.901            21.918          6521.000
       207   06 Jun 2027 11:47:11.606   06 Jun 2027 11:47:12.050             0.444             3.406
       208   06 Jun 2027 11:48:13.529   06 Jun 2027 11:48:19.688             6.159          1574.156
       209   06 Jun 2027 11:48:30.168   06 Jun 2027 11:48:32.587             2.419           239.313
       210   06 Jun 2027 11:49:43.333   06 Jun 2027 11:49:47.894             4.561          2182.000
       211   06 Jun 2027 11:50:05.546   06 Jun 2027 11:50:07.103             1.557           467.906
       212   06 Jun 2027 11:50:44.557   06 Jun 2027 11:50:47.733             3.176          1170.437
       213   07 Jun 2027 03:57:06.185   07 Jun 2027 03:58:20.377            74.192         37096.000
       214   07 Jun 2027 04:09:30.038   07 Jun 2027 04:09:46.654            16.616          8308.000
       215   07 Jun 2027 05:30:56.926   07 Jun 2027 05:33:44.287           167.361         83680.500
       216   07 Jun 2027 05:35:37.841   07 Jun 2027 05:35:47.217             9.376          4688.000
       217   07 Jun 2027 05:35:56.280   07 Jun 2027 05:36:00.767             4.487          2243.500
       218   07 Jun 2027 07:05:51.354   07 Jun 2027 07:06:48.073            56.719         27302.688
       219   07 Jun 2027 07:07:07.300   07 Jun 2027 07:07:08.657             1.357           600.844
       220   07 Jun 2027 07:08:49.759   07 Jun 2027 07:08:59.522             9.763          1653.188
       221   07 Jun 2027 07:10:17.719   07 Jun 2027 07:10:22.237             4.518          1672.531
       222   07 Jun 2027 07:11:02.685   07 Jun 2027 07:11:02.685             0.000             0.000
       223   07 Jun 2027 07:11:30.789   07 Jun 2027 07:11:36.297             5.508          1969.469
       224   07 Jun 2027 07:12:04.157   07 Jun 2027 07:12:05.662             1.505           725.219
       225   07 Jun 2027 07:12:32.126   07 Jun 2027 07:12:33.942             1.816           722.156
       226   07 Jun 2027 07:13:09.945   07 Jun 2027 07:13:13.391             3.446          1049.125
       227   07 Jun 2027 07:13:46.114   07 Jun 2027 07:13:47.794             1.680           840.000
       228   07 Jun 2027 07:13:54.094   07 Jun 2027 07:13:56.306             2.212           213.375
       229   07 Jun 2027 07:14:48.069   07 Jun 2027 07:14:57.121             9.052          1617.594
       230   07 Jun 2027 08:43:51.497   07 Jun 2027 08:44:07.194            15.697          7434.281
       231   07 Jun 2027 08:44:50.641   07 Jun 2027 08:45:00.607             9.966          1062.000
       232   07 Jun 2027 08:45:01.061   07 Jun 2027 08:45:02.256             1.195            14.188
       233   07 Jun 2027 08:45:17.117   07 Jun 2027 08:45:18.230             1.113           330.969
       234   07 Jun 2027 08:45:56.114   07 Jun 2027 08:45:59.800             3.686           523.031
       235   07 Jun 2027 08:46:44.252   07 Jun 2027 08:46:47.148             2.896          1303.563
       236   07 Jun 2027 08:47:02.926   07 Jun 2027 08:47:04.053             1.127           493.062
       237   07 Jun 2027 08:47:23.335   07 Jun 2027 08:47:25.638             2.303           217.500
       238   07 Jun 2027 08:47:40.776   07 Jun 2027 08:47:45.093             4.317           473.063
       239   07 Jun 2027 08:48:07.087   07 Jun 2027 08:48:08.160             1.073           399.844
       240   07 Jun 2027 08:48:14.206   07 Jun 2027 08:48:15.017             0.811           106.844
       241   07 Jun 2027 08:48:57.022   07 Jun 2027 08:49:05.108             8.086          1171.406
       242   07 Jun 2027 08:49:17.418   07 Jun 2027 08:49:24.388             6.970           384.688
       243   07 Jun 2027 08:49:34.299   07 Jun 2027 08:49:34.859             0.560           271.000
       244   07 Jun 2027 08:50:06.669   07 Jun 2027 08:50:13.263             6.594           986.531
       245   07 Jun 2027 08:50:37.331   07 Jun 2027 08:50:39.462             2.131           284.250
       246   07 Jun 2027 08:50:50.097   07 Jun 2027 08:50:52.842             2.745           332.344
       247   07 Jun 2027 10:20:46.542   07 Jun 2027 10:21:06.557            20.015          7987.094
       248   07 Jun 2027 10:21:45.121   07 Jun 2027 10:21:49.344             4.223           153.781
       249   07 Jun 2027 10:22:58.702   07 Jun 2027 10:23:07.878             9.176          2156.125
       250   07 Jun 2027 10:23:21.390   07 Jun 2027 10:23:25.483             4.093           414.219
       251   07 Jun 2027 10:23:50.241   07 Jun 2027 10:23:55.642             5.401           734.469
       252   07 Jun 2027 10:24:36.853   07 Jun 2027 10:24:39.923             3.070          1287.844
       253   07 Jun 2027 10:24:58.461   07 Jun 2027 10:25:01.156             2.695           579.312
       254   07 Jun 2027 10:25:39.549   07 Jun 2027 10:25:43.308             3.759          1199.781
       255   07 Jun 2027 10:26:52.278   07 Jun 2027 10:26:59.608             7.330          2125.906
       256   07 Jun 2027 11:58:20.499   07 Jun 2027 11:58:37.518            17.019          8044.500
       257   07 Jun 2027 11:58:46.741   07 Jun 2027 11:58:47.674             0.933           288.219
       258   07 Jun 2027 11:59:13.393   07 Jun 2027 11:59:21.589             8.196           803.719
       259   08 Jun 2027 04:09:02.679   08 Jun 2027 04:10:21.488            78.809         39404.500
       260   08 Jun 2027 04:10:52.566   08 Jun 2027 04:10:58.656             6.090          3045.000
       261   08 Jun 2027 04:11:00.150   08 Jun 2027 04:11:01.576             1.426           713.000
       262   08 Jun 2027 04:11:05.514   08 Jun 2027 04:11:13.509             7.995          3997.500
       263   08 Jun 2027 05:45:14.870   08 Jun 2027 05:47:59.349           164.479         82239.500
       264   08 Jun 2027 07:18:47.610   08 Jun 2027 07:19:43.403            55.793         27407.875
       265   08 Jun 2027 07:20:15.776   08 Jun 2027 07:20:15.776             0.000             0.000
       266   08 Jun 2027 07:20:48.378   08 Jun 2027 07:20:51.953             3.575          1593.094
       267   08 Jun 2027 07:21:17.855   08 Jun 2027 07:21:18.865             1.010           418.594
       268   08 Jun 2027 07:22:47.177   08 Jun 2027 07:22:57.453            10.276          2759.750
       269   08 Jun 2027 07:23:21.949   08 Jun 2027 07:23:21.949             0.000             0.000
       270   08 Jun 2027 07:24:28.118   08 Jun 2027 07:24:33.582             5.464          2578.594
       271   08 Jun 2027 07:24:57.912   08 Jun 2027 07:24:58.844             0.932           449.594
       272   08 Jun 2027 07:25:16.987   08 Jun 2027 07:25:17.692             0.705           155.250
       273   08 Jun 2027 07:26:00.844   08 Jun 2027 07:26:03.805             2.961           667.531
       274   08 Jun 2027 07:26:38.704   08 Jun 2027 07:26:38.704             0.000             0.000
       275   08 Jun 2027 07:27:12.408   08 Jun 2027 07:27:18.621             6.213          1851.719
       276   08 Jun 2027 08:56:13.592   08 Jun 2027 08:56:26.524            12.932          6225.719
       277   08 Jun 2027 08:56:47.401   08 Jun 2027 08:56:49.693             2.292           588.031
       278   08 Jun 2027 08:57:40.949   08 Jun 2027 08:57:42.952             2.003           742.594
       279   08 Jun 2027 08:58:05.396   08 Jun 2027 08:58:07.221             1.825           534.125
       280   08 Jun 2027 08:58:44.072   08 Jun 2027 08:58:47.372             3.300          1151.594
       281   08 Jun 2027 08:59:25.346   08 Jun 2027 08:59:28.113             2.767            56.250
       282   08 Jun 2027 08:59:29.688   08 Jun 2027 08:59:30.038             0.350            49.219
       283   08 Jun 2027 08:59:38.258   08 Jun 2027 08:59:39.322             1.064           177.469
       284   08 Jun 2027 09:00:30.882   08 Jun 2027 09:00:30.968             0.086            43.000
       285   08 Jun 2027 09:00:37.307   08 Jun 2027 09:00:43.045             5.738          1002.750
       286   08 Jun 2027 09:01:05.420   08 Jun 2027 09:01:05.928             0.508           254.000
       287   08 Jun 2027 09:01:16.996   08 Jun 2027 09:01:20.141             3.145           788.438
       288   08 Jun 2027 09:01:48.843   08 Jun 2027 09:01:51.616             2.773           896.937
       289   08 Jun 2027 09:02:19.364   08 Jun 2027 09:02:21.619             2.255           867.125
       290   08 Jun 2027 09:02:35.790   08 Jun 2027 09:02:37.078             1.288           442.844
       291   08 Jun 2027 09:02:40.879   08 Jun 2027 09:02:43.919             3.040            67.687
       292   08 Jun 2027 10:33:15.823   08 Jun 2027 10:33:34.502            18.679          7471.812
       293   08 Jun 2027 10:34:15.240   08 Jun 2027 10:34:19.421             4.181           886.406
       294   08 Jun 2027 10:35:04.544   08 Jun 2027 10:35:07.094             2.550           656.250
       295   08 Jun 2027 10:35:30.576   08 Jun 2027 10:35:30.576             0.000             0.000
       296   08 Jun 2027 10:35:40.551   08 Jun 2027 10:35:43.864             3.313           964.906
       297   08 Jun 2027 10:36:46.589   08 Jun 2027 10:36:50.212             3.623          1770.094
       298   08 Jun 2027 10:37:02.823   08 Jun 2027 10:37:05.389             2.566           362.563
       299   08 Jun 2027 10:37:13.689   08 Jun 2027 10:37:14.002             0.313           124.125
       300   08 Jun 2027 10:37:31.219   08 Jun 2027 10:37:34.272             3.053           538.031
       301   08 Jun 2027 10:37:51.598   08 Jun 2027 10:37:53.218             1.620           429.531
       302   08 Jun 2027 10:38:38.259   08 Jun 2027 10:38:43.278             5.019          1351.062
       303   09 Jun 2027 03:00:00.000   09 Jun 2027 03:00:05.630             5.630          2815.000
       304   09 Jun 2027 03:00:17.823   09 Jun 2027 03:00:53.212            35.389         17694.500
       305   09 Jun 2027 03:00:54.526   09 Jun 2027 03:01:01.654             7.128          3564.000
       306   09 Jun 2027 04:20:53.879   09 Jun 2027 04:22:33.082            99.203         49601.500
       307   09 Jun 2027 04:22:38.174   09 Jun 2027 04:22:42.649             4.475          2237.500
       308   09 Jun 2027 04:23:01.569   09 Jun 2027 04:23:31.764            30.195         15097.500
       309   09 Jun 2027 05:57:21.104   09 Jun 2027 05:58:53.226            92.122         46061.000
       310   09 Jun 2027 05:59:35.785   09 Jun 2027 06:00:17.770            41.985         20992.500
       311   09 Jun 2027 06:00:53.423   09 Jun 2027 06:00:53.538             0.115            57.500
       312   09 Jun 2027 07:29:30.923   09 Jun 2027 07:29:38.569             7.646          3823.000
       313   09 Jun 2027 07:31:26.404   09 Jun 2027 07:31:33.681             7.277          2801.656
       314   09 Jun 2027 07:32:57.031   09 Jun 2027 07:33:01.023             3.992          1191.563
       315   09 Jun 2027 07:34:01.204   09 Jun 2027 07:34:04.852             3.648          1617.469
       316   09 Jun 2027 07:34:38.369   09 Jun 2027 07:34:38.369             0.000             0.000
       317   09 Jun 2027 07:35:38.442   09 Jun 2027 07:35:46.076             7.634          2870.531
       318   09 Jun 2027 07:36:09.820   09 Jun 2027 07:36:14.967             5.147           292.969
       319   09 Jun 2027 07:37:41.361   09 Jun 2027 07:37:46.579             5.218          2260.969
       320   09 Jun 2027 07:38:00.762   09 Jun 2027 07:38:02.112             1.350           340.125
       321   09 Jun 2027 07:38:27.091   09 Jun 2027 07:38:29.674             2.583           780.594
       322   09 Jun 2027 07:39:07.681   09 Jun 2027 07:39:10.613             2.932          1080.500
       323   09 Jun 2027 07:39:16.636   09 Jun 2027 07:39:17.932             1.296            72.875
       324   09 Jun 2027 09:08:24.596   09 Jun 2027 09:08:37.239            12.643          5704.687
       325   09 Jun 2027 09:09:40.544   09 Jun 2027 09:09:43.118             2.574           442.844
       326   09 Jun 2027 09:10:09.932   09 Jun 2027 09:10:13.527             3.595           837.938
       327   09 Jun 2027 09:11:23.184   09 Jun 2027 09:11:23.233             0.049             9.719
       328   09 Jun 2027 09:11:59.449   09 Jun 2027 09:12:03.640             4.191          1048.250
       329   09 Jun 2027 09:12:25.633   09 Jun 2027 09:12:30.898             5.265           591.719
       330   09 Jun 2027 09:13:04.885   09 Jun 2027 09:13:06.959             2.074          1037.000
       331   09 Jun 2027 09:13:22.850   09 Jun 2027 09:13:22.850             0.000             0.000
       332   09 Jun 2027 09:13:38.872   09 Jun 2027 09:13:43.127             4.255          1017.344
       333   09 Jun 2027 09:14:40.260   09 Jun 2027 09:14:44.028             3.768          1756.531
       334   09 Jun 2027 09:14:59.942   09 Jun 2027 09:15:00.931             0.989           143.937
       335   09 Jun 2027 10:45:30.855   09 Jun 2027 10:45:47.154            16.299          8117.750
       336   09 Jun 2027 10:46:21.861   09 Jun 2027 10:46:23.505             1.644           717.625
       337   09 Jun 2027 10:47:10.317   09 Jun 2027 10:47:23.445            13.128          1444.469
       338   09 Jun 2027 10:47:44.142   09 Jun 2027 10:47:47.526             3.384           328.688
       339   09 Jun 2027 10:48:43.918   09 Jun 2027 10:48:47.846             3.928          1516.875
       340   09 Jun 2027 10:49:04.468   09 Jun 2027 10:49:08.589             4.121           398.188
       341   09 Jun 2027 10:49:54.642   09 Jun 2027 10:49:58.542             3.900          1036.969
       342   09 Jun 2027 10:50:16.711   09 Jun 2027 10:50:18.403             1.692           567.781
       343   10 Jun 2027 03:10:03.520   10 Jun 2027 03:12:18.341           134.821         67410.500
       344   10 Jun 2027 03:13:29.551   10 Jun 2027 03:13:38.495             8.944          4472.000
       345   10 Jun 2027 03:13:49.240   10 Jun 2027 03:14:00.682            11.442          5721.000
       346   10 Jun 2027 04:33:00.153   10 Jun 2027 04:33:39.962            39.809         19904.500
       347   10 Jun 2027 04:33:59.168   10 Jun 2027 04:33:59.168             0.000             0.000
       348   10 Jun 2027 04:34:24.862   10 Jun 2027 04:34:34.451             9.589          4794.500
       349   10 Jun 2027 06:09:28.737   10 Jun 2027 06:11:19.886           111.149         54267.219
       350   10 Jun 2027 06:12:36.075   10 Jun 2027 06:12:42.926             6.851          2226.125
       351   10 Jun 2027 07:44:36.677   10 Jun 2027 07:44:48.977            12.300          5744.094
       352   10 Jun 2027 07:45:11.241   10 Jun 2027 07:45:14.779             3.538           248.750
       353   10 Jun 2027 07:46:04.147   10 Jun 2027 07:46:05.689             1.542           642.031
       354   10 Jun 2027 07:47:35.905   10 Jun 2027 07:47:41.443             5.538          2747.000
       355   10 Jun 2027 07:48:12.388   10 Jun 2027 07:48:14.873             2.485           840.063
       356   10 Jun 2027 07:48:39.727   10 Jun 2027 07:48:47.312             7.585           691.781
       357   10 Jun 2027 07:49:57.819   10 Jun 2027 07:49:58.678             0.859           429.500
       358   10 Jun 2027 07:50:20.430   10 Jun 2027 07:50:22.724             2.294           794.031
       359   10 Jun 2027 07:50:47.053   10 Jun 2027 07:50:47.053             0.000             0.000
       360   10 Jun 2027 07:51:05.572   10 Jun 2027 07:51:10.819             5.247          1282.062
       361   10 Jun 2027 09:20:58.367   10 Jun 2027 09:21:15.527            17.160          7691.531
       362   10 Jun 2027 09:21:39.085   10 Jun 2027 09:21:39.848             0.763           147.813
       363   10 Jun 2027 09:22:47.809   10 Jun 2027 09:22:51.738             3.929          1732.500
       364   10 Jun 2027 09:23:28.200   10 Jun 2027 09:23:30.812             2.612           169.156
       365   10 Jun 2027 09:23:57.982   10 Jun 2027 09:24:00.612             2.630           703.031
       366   10 Jun 2027 09:24:26.337   10 Jun 2027 09:24:28.109             1.772           518.344
       367   10 Jun 2027 09:24:59.774   10 Jun 2027 09:25:04.623             4.849           604.406
       368   10 Jun 2027 09:25:31.429   10 Jun 2027 09:25:33.628             2.199           727.125
       369   10 Jun 2027 09:26:41.939   10 Jun 2027 09:26:50.135             8.196          1938.375
       370   10 Jun 2027 09:27:03.245   10 Jun 2027 09:27:08.337             5.092           409.687
       371   10 Jun 2027 10:58:23.505   10 Jun 2027 10:58:39.637            16.132          6485.656
       372   10 Jun 2027 10:58:49.492   10 Jun 2027 10:58:53.646             4.154            50.781
       373   10 Jun 2027 10:59:52.274   10 Jun 2027 10:59:56.705             4.431          1533.000
       374   10 Jun 2027 11:00:24.597   10 Jun 2027 11:00:26.355             1.758           867.219
       375   10 Jun 2027 11:00:51.812   10 Jun 2027 11:00:51.812             0.000             0.000
       376   10 Jun 2027 11:01:06.059   10 Jun 2027 11:01:07.612             1.553           758.281
       377   10 Jun 2027 11:01:37.277   10 Jun 2027 11:01:40.823             3.546           619.344
       378   10 Jun 2027 11:02:07.696   10 Jun 2027 11:02:11.265             3.569           753.500
       379   10 Jun 2027 11:02:47.901   10 Jun 2027 11:02:51.376             3.475           519.625
       380   11 Jun 2027 03:21:34.893   11 Jun 2027 03:22:12.716            37.823         18911.500
       381   11 Jun 2027 03:22:25.132   11 Jun 2027 03:24:15.478           110.346         55173.000
       382   11 Jun 2027 03:24:38.853   11 Jun 2027 03:24:58.042            19.189          9594.500
       383   11 Jun 2027 04:45:02.820   11 Jun 2027 04:46:01.915            59.095         29547.500
       384   11 Jun 2027 06:21:31.520   11 Jun 2027 06:22:37.134            65.614         32807.000
       385   11 Jun 2027 06:23:38.689   11 Jun 2027 06:23:54.739            16.050          5783.000
       386   11 Jun 2027 06:24:08.993   11 Jun 2027 06:24:08.993             0.000             0.000
       387   11 Jun 2027 06:24:35.643   11 Jun 2027 06:24:37.871             2.228          1114.000
       388   11 Jun 2027 07:56:43.661   11 Jun 2027 07:56:54.847            11.186          4978.406
       389   11 Jun 2027 07:56:59.417   11 Jun 2027 07:57:01.498             2.081            43.219
       390   11 Jun 2027 07:58:09.033   11 Jun 2027 07:58:10.054             1.021            13.687
       391   11 Jun 2027 07:59:17.231   11 Jun 2027 07:59:20.022             2.791          1392.219
       392   11 Jun 2027 08:00:14.526   11 Jun 2027 08:00:18.821             4.295          1703.250
       393   11 Jun 2027 08:00:42.428   11 Jun 2027 08:00:47.409             4.981           668.594
       394   11 Jun 2027 08:01:00.025   11 Jun 2027 08:01:01.900             1.875           394.250
       395   11 Jun 2027 08:02:00.627   11 Jun 2027 08:02:03.455             2.828          1264.531
       396   11 Jun 2027 08:02:09.489   11 Jun 2027 08:02:10.723             1.234           188.563
       397   11 Jun 2027 08:02:40.956   11 Jun 2027 08:02:42.225             1.269           634.500
       398   11 Jun 2027 08:02:53.588   11 Jun 2027 08:02:53.588             0.000             0.000
       399   11 Jun 2027 08:03:17.467   11 Jun 2027 08:03:20.156             2.689          1344.500
       400   11 Jun 2027 09:32:38.889   11 Jun 2027 09:33:02.914            24.025          8551.969
       401   11 Jun 2027 09:33:08.169   11 Jun 2027 09:33:12.815             4.646           103.688
       402   11 Jun 2027 09:34:13.432   11 Jun 2027 09:34:24.815            11.383          1003.500
       403   11 Jun 2027 09:34:48.333   11 Jun 2027 09:34:48.719             0.386            98.500
       404   11 Jun 2027 09:35:19.479   11 Jun 2027 09:35:23.277             3.798           631.031
       405   11 Jun 2027 09:36:07.242   11 Jun 2027 09:36:13.810             6.568          1243.031
       406   11 Jun 2027 09:37:16.816   11 Jun 2027 09:37:24.739             7.923          1792.125
       407   11 Jun 2027 09:38:03.678   11 Jun 2027 09:38:07.409             3.731           904.156
       408   11 Jun 2027 09:38:50.208   11 Jun 2027 09:38:51.055             0.847           423.500
       409   11 Jun 2027 11:10:31.555   11 Jun 2027 11:10:45.901            14.346          6878.594
       410   11 Jun 2027 11:11:22.029   11 Jun 2027 11:11:25.393             3.364          1014.500
       411   11 Jun 2027 11:11:54.050   11 Jun 2027 11:11:56.013             1.963           895.531
       412   11 Jun 2027 11:13:04.946   11 Jun 2027 11:13:09.443             4.497          2077.969
       413   11 Jun 2027 11:13:12.455   11 Jun 2027 11:13:13.248             0.793            71.844
       414   11 Jun 2027 11:13:40.470   11 Jun 2027 11:13:42.021             1.551           478.969
       415   11 Jun 2027 11:14:43.777   11 Jun 2027 11:14:48.908             5.131          1929.875
       416   12 Jun 2027 03:22:38.485   12 Jun 2027 03:23:02.744            24.259         12129.500
       417   12 Jun 2027 03:33:32.438   12 Jun 2027 03:36:32.009           179.571         89785.500
       418   12 Jun 2027 03:36:59.688   12 Jun 2027 03:37:04.550             4.862          2431.000
       419   12 Jun 2027 04:57:29.491   12 Jun 2027 04:58:08.427            38.936         19468.000
       420   12 Jun 2027 04:58:22.514   12 Jun 2027 04:58:37.553            15.039          7519.500
       421   12 Jun 2027 05:00:18.434   12 Jun 2027 05:00:19.914             1.480           740.000
       422   12 Jun 2027 06:33:15.286   12 Jun 2027 06:33:57.836            42.550         19729.125
       423   12 Jun 2027 06:34:03.224   12 Jun 2027 06:34:03.224             0.000             0.000
       424   12 Jun 2027 06:34:12.144   12 Jun 2027 06:34:16.493             4.349           447.125
       425   12 Jun 2027 06:34:28.033   12 Jun 2027 06:34:28.693             0.660            97.469
       426   12 Jun 2027 06:34:47.539   12 Jun 2027 06:34:50.937             3.398           588.938
       427   12 Jun 2027 06:35:29.359   12 Jun 2027 06:35:29.359             0.000             0.000
       428   12 Jun 2027 06:35:55.869   12 Jun 2027 06:35:56.238             0.369           184.500
       429   12 Jun 2027 06:36:11.633   12 Jun 2027 06:36:15.894             4.261          1463.625
       430   12 Jun 2027 08:07:58.485   12 Jun 2027 08:08:07.939             9.454          4178.375
       431   12 Jun 2027 08:09:39.592   12 Jun 2027 08:09:47.611             8.019          1939.000
       432   12 Jun 2027 08:09:54.799   12 Jun 2027 08:09:55.185             0.386           179.281
       433   12 Jun 2027 08:10:37.715   12 Jun 2027 08:10:43.684             5.969           877.812
       434   12 Jun 2027 08:11:15.610   12 Jun 2027 08:11:17.250             1.640           309.937
       435   12 Jun 2027 08:12:16.854   12 Jun 2027 08:12:26.949            10.095          1715.750
       436   12 Jun 2027 08:12:37.148   12 Jun 2027 08:12:38.800             1.652           318.719
       437   12 Jun 2027 08:12:56.391   12 Jun 2027 08:12:57.100             0.709           323.938
       438   12 Jun 2027 08:13:16.663   12 Jun 2027 08:13:18.791             2.128           336.438
       439   12 Jun 2027 08:14:02.107   12 Jun 2027 08:14:06.488             4.381          1118.313
       440   12 Jun 2027 08:14:23.378   12 Jun 2027 08:14:23.378             0.000             0.000
       441   12 Jun 2027 08:14:38.632   12 Jun 2027 08:14:42.085             3.453          1004.500
       442   12 Jun 2027 09:44:45.109   12 Jun 2027 09:45:05.211            20.102          8656.625
       443   12 Jun 2027 09:45:43.648   12 Jun 2027 09:45:47.380             3.732          1093.313
       444   12 Jun 2027 09:46:55.639   12 Jun 2027 09:46:58.624             2.985           574.469
       445   12 Jun 2027 09:47:31.173   12 Jun 2027 09:47:33.038             1.865           353.438
       446   12 Jun 2027 09:48:26.802   12 Jun 2027 09:48:31.158             4.356          1523.250
       447   12 Jun 2027 09:48:34.110   12 Jun 2027 09:48:36.471             2.361            92.250
       448   12 Jun 2027 09:49:01.341   12 Jun 2027 09:49:03.897             2.556           726.406
       449   12 Jun 2027 09:49:41.739   12 Jun 2027 09:49:48.347             6.608          1182.563
       450   12 Jun 2027 09:50:21.338   12 Jun 2027 09:50:26.057             4.719           925.875
       451   12 Jun 2027 09:50:58.455   12 Jun 2027 09:51:06.522             8.067           401.531
       452   12 Jun 2027 11:23:00.619   12 Jun 2027 11:23:13.437            12.818          6409.000
       453   12 Jun 2027 11:23:21.037   12 Jun 2027 11:23:22.694             1.657           828.500
       454   12 Jun 2027 11:23:54.540   12 Jun 2027 11:23:58.972             4.432          1452.250
       455   12 Jun 2027 11:24:17.023   12 Jun 2027 11:24:27.163            10.140           545.531
       456   12 Jun 2027 11:24:50.997   12 Jun 2027 11:24:52.599             1.602           382.625
       457   12 Jun 2027 11:25:04.941   12 Jun 2027 11:25:07.300             2.359           278.938
       458   12 Jun 2027 11:25:32.850   12 Jun 2027 11:25:36.025             3.175           747.562
       459   12 Jun 2027 11:25:54.931   12 Jun 2027 11:26:01.891             6.960           503.500
       460   12 Jun 2027 11:26:30.167   12 Jun 2027 11:26:31.760             1.593           399.156
       461   12 Jun 2027 11:26:37.512   12 Jun 2027 11:26:41.117             3.605           179.750
       462   12 Jun 2027 11:26:50.937   12 Jun 2027 11:26:51.425             0.488           174.656
       463   13 Jun 2027 03:33:53.656   13 Jun 2027 03:34:46.372            52.716         26358.000
       464   13 Jun 2027 03:35:03.056   13 Jun 2027 03:35:03.056             0.000             0.000
       465   13 Jun 2027 03:35:16.966   13 Jun 2027 03:35:17.716             0.750           375.000
       466   13 Jun 2027 03:45:30.807   13 Jun 2027 03:46:44.230            73.423         36711.500
       467   13 Jun 2027 05:08:06.346   13 Jun 2027 05:09:05.724            59.378         29689.000
       468   13 Jun 2027 05:09:45.460   13 Jun 2027 05:11:34.633           109.173         54168.094
       469   13 Jun 2027 05:12:43.545   13 Jun 2027 05:12:43.545             0.000             0.000
       470   13 Jun 2027 06:43:10.916   13 Jun 2027 06:43:47.723            36.807         17612.906
       471   13 Jun 2027 06:44:10.583   13 Jun 2027 06:44:14.381             3.798           620.219
       472   13 Jun 2027 06:44:59.047   13 Jun 2027 06:45:01.330             2.283          1038.531
       473   13 Jun 2027 06:46:33.747   13 Jun 2027 06:46:42.174             8.427          2223.094
       474   13 Jun 2027 06:47:20.177   13 Jun 2027 06:47:20.177             0.000             0.000
       475   13 Jun 2027 06:47:53.283   13 Jun 2027 06:47:58.462             5.179          2222.156
       476   13 Jun 2027 06:48:49.659   13 Jun 2027 06:48:53.605             3.946          1070.094
       477   13 Jun 2027 06:49:22.597   13 Jun 2027 06:49:25.886             3.289           734.906
       478   13 Jun 2027 08:20:04.972   13 Jun 2027 08:20:13.945             8.973          4237.437
       479   13 Jun 2027 08:20:45.449   13 Jun 2027 08:20:51.585             6.136           589.375
       480   13 Jun 2027 08:22:35.253   13 Jun 2027 08:22:37.232             1.979           590.094
       481   13 Jun 2027 08:23:31.128   13 Jun 2027 08:23:34.197             3.069          1513.437
       482   13 Jun 2027 08:24:35.089   13 Jun 2027 08:24:36.541             1.452           718.969
       483   13 Jun 2027 08:25:01.073   13 Jun 2027 08:25:02.512             1.439           421.438
       484   13 Jun 2027 08:25:08.072   13 Jun 2027 08:25:09.649             1.577           173.750
       485   13 Jun 2027 08:25:47.722   13 Jun 2027 08:25:47.722             0.000             0.000
       486   13 Jun 2027 08:26:13.042   13 Jun 2027 08:26:18.465             5.423          1981.031
       487   13 Jun 2027 08:27:02.668   13 Jun 2027 08:27:07.413             4.745          1381.344
       488   13 Jun 2027 09:57:05.497   13 Jun 2027 09:57:21.291            15.794          7509.563
       489   13 Jun 2027 09:58:31.155   13 Jun 2027 09:58:34.597             3.442            37.531
       490   13 Jun 2027 09:59:39.019   13 Jun 2027 09:59:40.098             1.079            32.375
       491   13 Jun 2027 10:00:21.685   13 Jun 2027 10:00:28.355             6.670          1296.438
       492   13 Jun 2027 10:00:53.540   13 Jun 2027 10:00:54.587             1.047           214.187
       493   13 Jun 2027 10:01:05.676   13 Jun 2027 10:01:06.991             1.315           346.531
       494   13 Jun 2027 10:01:33.955   13 Jun 2027 10:01:36.002             2.047           816.250
       495   13 Jun 2027 10:01:49.520   13 Jun 2027 10:01:50.536             1.016           422.438
       496   13 Jun 2027 10:02:13.344   13 Jun 2027 10:02:15.352             2.008           656.844
       497   13 Jun 2027 10:02:34.253   13 Jun 2027 10:02:36.299             2.046           196.062
       498   13 Jun 2027 10:03:02.326   13 Jun 2027 10:03:06.133             3.807           647.375
       499   13 Jun 2027 11:34:59.182   13 Jun 2027 11:35:13.282            14.100          6696.469
       500   13 Jun 2027 11:35:16.943   13 Jun 2027 11:35:21.514             4.571           114.406
       501   13 Jun 2027 11:36:17.707   13 Jun 2027 11:36:24.547             6.840          1679.719
       502   13 Jun 2027 11:36:46.872   13 Jun 2027 11:36:48.169             1.297           330.375
       503   13 Jun 2027 11:37:02.246   13 Jun 2027 11:37:02.246             0.000             0.000
       504   13 Jun 2027 11:37:26.297   13 Jun 2027 11:37:32.077             5.780          1191.500
       505   13 Jun 2027 11:38:09.669   13 Jun 2027 11:38:13.938             4.269           996.750
       506   13 Jun 2027 11:38:29.037   13 Jun 2027 11:38:30.412             1.375           471.844
