uniorb/output/strategy_2/Camera/Camera_KinoSat_111310.txt

KinoSat_111310
-------------------------
    Access    *     Start Time (UTCG)     *     Stop Time (UTCG)  *   Duration (s) *   Data (Mbytes)
         1   01 Jun 2027 04:15:59.030   01 Jun 2027 04:16:35.769            36.739         18369.500
         2   01 Jun 2027 04:17:04.504   01 Jun 2027 04:19:31.175           146.671         73335.500
         3   01 Jun 2027 05:40:04.982   01 Jun 2027 05:41:32.224            87.242         43621.000
         4   01 Jun 2027 07:15:50.375   01 Jun 2027 07:18:38.645           168.270         84135.000
         5   01 Jun 2027 07:19:01.476   01 Jun 2027 07:19:01.476             0.000             0.000
         6   01 Jun 2027 08:50:48.343   01 Jun 2027 08:53:14.107           145.764         72882.000
         7   01 Jun 2027 08:53:36.469   01 Jun 2027 08:53:54.050            17.581          8790.500
         8   01 Jun 2027 08:56:20.886   01 Jun 2027 08:56:20.886             0.000             0.000
         9   01 Jun 2027 08:57:09.574   01 Jun 2027 08:57:16.243             6.669          3334.500
        10   01 Jun 2027 10:26:59.991   01 Jun 2027 10:28:24.366            84.375         42187.500
        11   01 Jun 2027 10:29:39.266   01 Jun 2027 10:30:00.374            21.108         10554.000
        12   01 Jun 2027 10:30:05.679   01 Jun 2027 10:30:45.605            39.926         19963.000
        13   01 Jun 2027 10:32:40.611   01 Jun 2027 10:33:18.724            38.113         19056.500
        14   02 Jun 2027 04:16:52.904   02 Jun 2027 04:17:29.669            36.765         18382.500
        15   02 Jun 2027 04:27:54.801   02 Jun 2027 04:30:23.228           148.427         74213.500
        16   02 Jun 2027 05:50:54.835   02 Jun 2027 05:52:11.057            76.222         38111.000
        17   02 Jun 2027 05:52:25.669   02 Jun 2027 05:52:34.651             8.982          4491.000
        18   02 Jun 2027 07:26:26.540   02 Jun 2027 07:26:31.949             5.409          2704.500
        19   02 Jun 2027 07:27:35.730   02 Jun 2027 07:30:17.069           161.339         80669.500
        20   02 Jun 2027 07:30:27.327   02 Jun 2027 07:30:32.378             5.051          2525.500
        21   02 Jun 2027 07:31:55.145   02 Jun 2027 07:31:56.022             0.877           438.500
        22   02 Jun 2027 09:02:21.882   02 Jun 2027 09:02:55.461            33.579         16789.500
        23   02 Jun 2027 09:03:17.800   02 Jun 2027 09:05:03.940           106.140         53070.000
        24   02 Jun 2027 09:05:20.766   02 Jun 2027 09:05:21.747             0.981           490.500
        25   02 Jun 2027 09:06:21.195   02 Jun 2027 09:06:27.583             6.388          2164.000
        26   02 Jun 2027 09:06:57.972   02 Jun 2027 09:07:00.641             2.669           949.656
        27   02 Jun 2027 09:07:32.126   02 Jun 2027 09:07:35.485             3.359           798.594
        28   02 Jun 2027 09:07:59.338   02 Jun 2027 09:08:01.038             1.700           260.031
        29   02 Jun 2027 09:08:48.160   02 Jun 2027 09:08:54.338             6.178          1420.406
        30   02 Jun 2027 09:09:51.715   02 Jun 2027 09:09:54.634             2.919          1459.500
        31   02 Jun 2027 10:39:14.726   02 Jun 2027 10:39:36.271            21.545          9074.969
        32   02 Jun 2027 10:39:43.119   02 Jun 2027 10:39:43.146             0.027            13.500
        33   02 Jun 2027 10:39:49.224   02 Jun 2027 10:39:53.782             4.558           236.656
        34   02 Jun 2027 10:40:30.087   02 Jun 2027 10:40:36.496             6.409           896.969
        35   02 Jun 2027 10:40:42.575   02 Jun 2027 10:40:43.923             1.348           181.844
        36   02 Jun 2027 10:41:51.113   02 Jun 2027 10:41:56.302             5.189          1437.594
        37   02 Jun 2027 10:43:17.556   02 Jun 2027 10:43:23.034             5.478          2226.125
        38   02 Jun 2027 10:43:40.592   02 Jun 2027 10:43:40.592             0.000             0.000
        39   02 Jun 2027 10:44:07.945   02 Jun 2027 10:44:11.290             3.345          1250.156
        40   02 Jun 2027 10:45:27.049   02 Jun 2027 10:45:30.375             3.326          1663.000
        41   03 Jun 2027 03:03:15.030   03 Jun 2027 03:04:48.165            93.135         46567.500
        42   03 Jun 2027 03:05:37.213   03 Jun 2027 03:06:08.702            31.489         15744.500
        43   03 Jun 2027 03:06:09.892   03 Jun 2027 03:06:18.171             8.279          4139.500
        44   03 Jun 2027 03:08:44.203   03 Jun 2027 03:08:50.256             6.053          3026.500
        45   03 Jun 2027 03:08:59.746   03 Jun 2027 03:09:15.257            15.511          7755.500
        46   03 Jun 2027 03:10:04.922   03 Jun 2027 03:10:30.574            25.652         12826.000
        47   03 Jun 2027 04:28:14.626   03 Jun 2027 04:29:15.529            60.903         30451.500
        48   03 Jun 2027 04:39:56.034   03 Jun 2027 04:40:55.457            59.423         29711.500
        49   03 Jun 2027 04:41:09.246   03 Jun 2027 04:41:16.744             7.498          3749.000
        50   03 Jun 2027 06:02:10.718   03 Jun 2027 06:03:04.412            53.694         26847.000
        51   03 Jun 2027 06:04:40.345   03 Jun 2027 06:04:51.163            10.818          4397.500
        52   03 Jun 2027 06:07:05.800   03 Jun 2027 06:07:15.262             9.462          3918.344
        53   03 Jun 2027 07:37:20.616   03 Jun 2027 07:37:32.482            11.866          4495.250
        54   03 Jun 2027 07:37:53.510   03 Jun 2027 07:37:55.500             1.990           379.531
        55   03 Jun 2027 07:38:35.967   03 Jun 2027 07:38:41.862             5.895           690.031
        56   03 Jun 2027 07:40:13.076   03 Jun 2027 07:40:22.713             9.637          2850.437
        57   03 Jun 2027 07:41:03.523   03 Jun 2027 07:41:03.523             0.000             0.000
        58   03 Jun 2027 07:41:37.737   03 Jun 2027 07:41:47.380             9.643          2272.656
        59   03 Jun 2027 07:42:35.674   03 Jun 2027 07:42:37.462             1.788           331.844
        60   03 Jun 2027 07:43:26.567   03 Jun 2027 07:43:28.621             2.054           978.500
        61   03 Jun 2027 07:45:16.893   03 Jun 2027 07:45:17.741             0.848           424.000
        62   03 Jun 2027 09:14:29.181   03 Jun 2027 09:14:38.537             9.356          4579.187
        63   03 Jun 2027 09:17:46.222   03 Jun 2027 09:18:00.913            14.691          5739.875
        64   03 Jun 2027 09:18:03.377   03 Jun 2027 09:18:06.305             2.928            67.219
        65   03 Jun 2027 09:19:21.005   03 Jun 2027 09:19:27.816             6.811          2136.406
        66   03 Jun 2027 09:20:07.879   03 Jun 2027 09:20:10.825             2.946           514.625
        67   03 Jun 2027 09:20:13.903   03 Jun 2027 09:20:14.481             0.578            50.969
        68   03 Jun 2027 09:20:58.469   03 Jun 2027 09:21:01.582             3.113          1262.938
        69   03 Jun 2027 09:21:07.598   03 Jun 2027 09:21:10.025             2.427            21.031
        70   03 Jun 2027 09:21:41.963   03 Jun 2027 09:21:45.700             3.737           964.156
        71   03 Jun 2027 10:51:26.787   03 Jun 2027 10:51:41.628            14.841          7245.375
        72   03 Jun 2027 10:52:23.637   03 Jun 2027 10:52:27.476             3.839          1257.500
        73   03 Jun 2027 10:53:08.541   03 Jun 2027 10:53:10.323             1.782           710.313
        74   03 Jun 2027 10:53:43.214   03 Jun 2027 10:53:45.517             2.303           839.250
        75   03 Jun 2027 10:54:06.000   03 Jun 2027 10:54:08.115             2.115           181.437
        76   03 Jun 2027 10:54:56.752   03 Jun 2027 10:55:05.340             8.588          1185.094
        77   03 Jun 2027 10:55:10.091   03 Jun 2027 10:55:12.722             2.631           148.469
        78   03 Jun 2027 10:55:45.030   03 Jun 2027 10:55:51.439             6.409           939.000
        79   03 Jun 2027 10:56:12.233   03 Jun 2027 10:56:13.345             1.112           512.062
        80   03 Jun 2027 10:56:42.822   03 Jun 2027 10:56:45.637             2.815           887.156
        81   03 Jun 2027 10:57:05.070   03 Jun 2027 10:57:05.614             0.544           272.000
        82   04 Jun 2027 03:15:33.298   04 Jun 2027 03:18:27.757           174.459         87229.500
        83   04 Jun 2027 03:19:03.869   04 Jun 2027 03:19:07.347             3.478          1739.000
        84   04 Jun 2027 03:20:50.229   04 Jun 2027 03:21:05.285            15.056          7528.000
        85   04 Jun 2027 03:22:18.338   04 Jun 2027 03:22:32.645            14.307          7153.500
        86   04 Jun 2027 04:39:40.429   04 Jun 2027 04:40:04.044            23.615         11807.500
        87   04 Jun 2027 04:51:53.064   04 Jun 2027 04:52:32.733            39.669         19834.500
        88   04 Jun 2027 06:13:55.719   04 Jun 2027 06:14:56.334            60.615         28893.688
        89   04 Jun 2027 06:15:11.725   04 Jun 2027 06:15:12.109             0.384           184.719
        90   04 Jun 2027 06:17:10.956   04 Jun 2027 06:17:21.749            10.793          3713.969
        91   04 Jun 2027 06:18:27.033   04 Jun 2027 06:18:30.659             3.626          1813.000
        92   04 Jun 2027 06:19:01.712   04 Jun 2027 06:19:01.712             0.000             0.000
        93   04 Jun 2027 07:48:48.234   04 Jun 2027 07:49:04.598            16.364          5730.625
        94   04 Jun 2027 07:49:35.977   04 Jun 2027 07:49:42.479             6.502           980.594
        95   04 Jun 2027 07:50:27.808   04 Jun 2027 07:50:28.560             0.752           376.000
        96   04 Jun 2027 07:51:07.864   04 Jun 2027 07:51:12.576             4.712          2265.875
        97   04 Jun 2027 07:53:03.949   04 Jun 2027 07:53:14.549            10.600          3331.781
        98   04 Jun 2027 07:54:25.252   04 Jun 2027 07:54:31.177             5.925          2209.469
        99   04 Jun 2027 07:55:28.252   04 Jun 2027 07:55:35.888             7.636          1542.625
       100   04 Jun 2027 07:56:34.392   04 Jun 2027 07:56:36.633             2.241          1120.500
       101   04 Jun 2027 07:57:25.196   04 Jun 2027 07:57:30.267             5.071          1969.969
       102   04 Jun 2027 09:26:30.792   04 Jun 2027 09:26:43.476            12.684          5644.562
       103   04 Jun 2027 09:27:23.246   04 Jun 2027 09:27:28.954             5.708          1198.344
       104   04 Jun 2027 09:27:45.477   04 Jun 2027 09:27:50.806             5.329           516.344
       105   04 Jun 2027 09:28:15.174   04 Jun 2027 09:28:16.134             0.960            45.094
       106   04 Jun 2027 09:29:57.476   04 Jun 2027 09:30:03.540             6.064          3028.594
       107   04 Jun 2027 09:30:30.503   04 Jun 2027 09:30:35.134             4.631           745.313
       108   04 Jun 2027 09:30:40.467   04 Jun 2027 09:30:43.047             2.580           141.250
       109   04 Jun 2027 09:31:13.321   04 Jun 2027 09:31:15.457             2.136           872.437
       110   04 Jun 2027 09:31:53.028   04 Jun 2027 09:31:54.761             1.733           866.500
       111   04 Jun 2027 09:32:11.933   04 Jun 2027 09:32:14.129             2.196           844.219
       112   04 Jun 2027 09:32:36.793   04 Jun 2027 09:32:41.523             4.730           673.656
       113   04 Jun 2027 09:33:08.350   04 Jun 2027 09:33:08.350             0.000             0.000
       114   04 Jun 2027 09:33:40.410   04 Jun 2027 09:33:45.502             5.092          1840.219
       115   04 Jun 2027 09:33:51.520   04 Jun 2027 09:33:54.996             3.476           188.063
       116   04 Jun 2027 11:03:18.962   04 Jun 2027 11:03:32.136            13.174          6587.000
       117   04 Jun 2027 11:03:40.570   04 Jun 2027 11:03:42.796             2.226           350.594
       118   04 Jun 2027 11:05:43.260   04 Jun 2027 11:05:44.846             1.586           778.375
       119   04 Jun 2027 11:06:17.598   04 Jun 2027 11:06:20.470             2.872           982.969
       120   04 Jun 2027 11:07:27.793   04 Jun 2027 11:07:31.363             3.570          1785.000
       121   04 Jun 2027 11:07:43.700   04 Jun 2027 11:07:47.077             3.377           704.375
       122   04 Jun 2027 11:08:03.438   04 Jun 2027 11:08:06.506             3.068           465.062
       123   04 Jun 2027 11:09:26.552   04 Jun 2027 11:09:36.878            10.326          2383.781
       124   05 Jun 2027 03:27:38.153   05 Jun 2027 03:31:30.230           232.077        116038.500
       125   05 Jun 2027 03:31:41.128   05 Jun 2027 03:31:48.647             7.519          3759.500
       126   05 Jun 2027 04:51:44.884   05 Jun 2027 04:51:57.222            12.338          6169.000
       127   05 Jun 2027 04:52:28.763   05 Jun 2027 04:52:38.532             9.769          4884.500
       128   05 Jun 2027 06:25:31.348   05 Jun 2027 06:26:24.928            53.580         26642.750
       129   05 Jun 2027 06:26:45.079   05 Jun 2027 06:26:53.921             8.842           330.844
       130   05 Jun 2027 06:27:13.113   05 Jun 2027 06:27:14.211             1.098           190.062
       131   05 Jun 2027 06:28:12.068   05 Jun 2027 06:28:16.386             4.318          1780.937
       132   05 Jun 2027 06:28:30.644   05 Jun 2027 06:28:30.644             0.000             0.000
       133   05 Jun 2027 06:29:14.804   05 Jun 2027 06:29:21.718             6.914          1825.563
       134   05 Jun 2027 06:29:46.372   05 Jun 2027 06:29:50.149             3.777           486.313
       135   05 Jun 2027 06:30:32.958   05 Jun 2027 06:30:33.764             0.806           403.000
       136   05 Jun 2027 06:30:40.903   05 Jun 2027 06:30:45.173             4.270          1089.063
       137   05 Jun 2027 06:31:08.359   05 Jun 2027 06:31:08.359             0.000             0.000
       138   05 Jun 2027 08:01:31.739   05 Jun 2027 08:01:44.627            12.888          6132.344
       139   05 Jun 2027 08:02:28.386   05 Jun 2027 08:02:29.655             1.269           178.812
       140   05 Jun 2027 08:02:54.272   05 Jun 2027 08:02:55.939             1.667           359.844
       141   05 Jun 2027 08:04:04.239   05 Jun 2027 08:04:07.747             3.508          1309.062
       142   05 Jun 2027 08:05:17.167   05 Jun 2027 08:05:22.678             5.511           856.500
       143   05 Jun 2027 08:05:43.603   05 Jun 2027 08:05:44.873             1.270           422.531
       144   05 Jun 2027 08:07:29.147   05 Jun 2027 08:07:34.785             5.638          2008.500
       145   05 Jun 2027 08:08:04.197   05 Jun 2027 08:08:04.197             0.000             0.000
       146   05 Jun 2027 08:08:06.631   05 Jun 2027 08:08:10.234             3.603           983.031
       147   05 Jun 2027 08:08:43.212   05 Jun 2027 08:08:43.335             0.123            61.500
       148   05 Jun 2027 08:09:00.534   05 Jun 2027 08:09:01.590             1.056           475.969
       149   05 Jun 2027 09:38:34.258   05 Jun 2027 09:38:46.980            12.722          6256.438
       150   05 Jun 2027 09:39:29.868   05 Jun 2027 09:39:29.868             0.000             0.000
       151   05 Jun 2027 09:40:36.890   05 Jun 2027 09:40:42.263             5.373          2571.375
       152   05 Jun 2027 09:40:51.249   05 Jun 2027 09:40:56.284             5.035           280.812
       153   05 Jun 2027 09:41:49.489   05 Jun 2027 09:41:57.678             8.189          1576.000
       154   05 Jun 2027 09:43:20.274   05 Jun 2027 09:43:24.628             4.354          2177.000
       155   05 Jun 2027 09:44:02.650   05 Jun 2027 09:44:06.775             4.125          1226.313
       156   05 Jun 2027 09:44:13.829   05 Jun 2027 09:44:16.757             2.928           220.438
       157   05 Jun 2027 09:44:44.392   05 Jun 2027 09:44:51.870             7.478           863.594
       158   05 Jun 2027 09:45:31.264   05 Jun 2027 09:45:35.016             3.752           983.500
       159   05 Jun 2027 11:15:29.025   05 Jun 2027 11:15:46.033            17.008          8504.000
       160   05 Jun 2027 11:16:01.931   05 Jun 2027 11:16:03.887             1.956           735.187
       161   05 Jun 2027 11:16:31.368   05 Jun 2027 11:16:34.775             3.407           808.594
       162   05 Jun 2027 11:18:01.969   05 Jun 2027 11:18:06.678             4.709          1916.750
       163   05 Jun 2027 11:19:27.751   05 Jun 2027 11:19:35.356             7.605          2326.281
       164   05 Jun 2027 11:19:53.870   05 Jun 2027 11:19:54.238             0.368           184.000
       165   05 Jun 2027 11:20:51.012   05 Jun 2027 11:20:55.619             4.607          2008.813
       166   05 Jun 2027 11:20:58.473   05 Jun 2027 11:21:01.145             2.672            89.188
       167   05 Jun 2027 11:21:11.417   05 Jun 2027 11:21:13.314             1.897           218.625
       168   05 Jun 2027 11:21:20.560   05 Jun 2027 11:21:24.924             4.364           202.969
       169   05 Jun 2027 11:21:41.811   05 Jun 2027 11:21:46.134             4.323           527.719
       170   06 Jun 2027 03:40:14.933   06 Jun 2027 03:43:39.312           204.379        102189.500
       171   06 Jun 2027 05:03:39.711   06 Jun 2027 05:04:40.677            60.966         30483.000
       172   06 Jun 2027 05:05:15.475   06 Jun 2027 05:05:18.310             2.835          1417.500
       173   06 Jun 2027 06:39:58.879   06 Jun 2027 06:40:32.881            34.002         16906.375
       174   06 Jun 2027 06:40:37.911   06 Jun 2027 06:40:40.092             2.181            91.219
       175   06 Jun 2027 06:41:07.382   06 Jun 2027 06:41:09.260             1.878           619.125
       176   06 Jun 2027 06:41:55.118   06 Jun 2027 06:41:58.455             3.337          1270.188
       177   06 Jun 2027 06:42:19.825   06 Jun 2027 06:42:21.197             1.372           474.750
       178   06 Jun 2027 06:42:34.344   06 Jun 2027 06:42:34.344             0.000             0.000
       179   06 Jun 2027 06:42:36.998   06 Jun 2027 06:42:40.321             3.323           360.156
       180   06 Jun 2027 08:13:28.400   06 Jun 2027 08:13:39.414            11.014          4290.563
       181   06 Jun 2027 08:15:25.043   06 Jun 2027 08:15:27.873             2.830          1268.156
       182   06 Jun 2027 08:15:50.838   06 Jun 2027 08:15:51.745             0.907           448.500
       183   06 Jun 2027 08:16:51.777   06 Jun 2027 08:17:03.354            11.577          1844.437
       184   06 Jun 2027 08:18:02.287   06 Jun 2027 08:18:07.129             4.842          1841.656
       185   06 Jun 2027 08:18:39.916   06 Jun 2027 08:18:43.728             3.812           859.125
       186   06 Jun 2027 08:19:23.530   06 Jun 2027 08:19:27.517             3.987          1204.750
       187   06 Jun 2027 08:20:03.095   06 Jun 2027 08:20:06.479             3.384          1016.594
       188   06 Jun 2027 08:20:43.705   06 Jun 2027 08:20:44.423             0.718           359.000
       189   06 Jun 2027 08:20:56.342   06 Jun 2027 08:21:00.976             4.634           833.438
       190   06 Jun 2027 08:21:36.712   06 Jun 2027 08:21:39.633             2.921           702.469
       191   06 Jun 2027 09:51:00.418   06 Jun 2027 09:51:17.137            16.719          6983.094
       192   06 Jun 2027 09:52:36.289   06 Jun 2027 09:52:36.789             0.500           102.375
       193   06 Jun 2027 09:54:40.166   06 Jun 2027 09:54:45.688             5.522          2619.500
       194   06 Jun 2027 09:55:22.182   06 Jun 2027 09:55:27.253             5.071           241.156
       195   06 Jun 2027 09:55:54.394   06 Jun 2027 09:55:57.225             2.831           783.531
       196   06 Jun 2027 09:56:45.165   06 Jun 2027 09:56:49.191             4.026          1498.125
       197   06 Jun 2027 09:57:15.047   06 Jun 2027 09:57:16.842             1.795           713.844
       198   06 Jun 2027 09:57:40.349   06 Jun 2027 09:57:44.020             3.671           734.594
       199   06 Jun 2027 11:27:56.664   06 Jun 2027 11:28:09.803            13.139          6508.625
       200   06 Jun 2027 11:29:40.192   06 Jun 2027 11:29:43.520             3.328          1664.000
       201   06 Jun 2027 11:29:45.707   06 Jun 2027 11:29:51.171             5.464           635.219
       202   06 Jun 2027 11:29:57.891   06 Jun 2027 11:30:03.539             5.648           138.906
       203   06 Jun 2027 11:30:23.705   06 Jun 2027 11:30:31.534             7.829           550.719
       204   06 Jun 2027 11:31:21.747   06 Jun 2027 11:31:24.755             3.008          1442.500
       205   06 Jun 2027 11:31:29.778   06 Jun 2027 11:31:30.680             0.902           156.969
       206   06 Jun 2027 11:32:00.763   06 Jun 2027 11:32:05.899             5.136           658.438
       207   06 Jun 2027 11:32:40.151   06 Jun 2027 11:32:44.650             4.499          1047.562
       208   06 Jun 2027 11:33:37.250   06 Jun 2027 11:33:43.337             6.087          1027.469
       209   07 Jun 2027 03:51:53.350   07 Jun 2027 03:54:44.328           170.978         85489.000
       210   07 Jun 2027 03:54:59.184   07 Jun 2027 03:55:34.324            35.140         17570.000
       211   07 Jun 2027 05:15:31.298   07 Jun 2027 05:16:34.414            63.116         31558.000
       212   07 Jun 2027 06:52:00.440   07 Jun 2027 06:52:51.789            51.349         25568.219
       213   07 Jun 2027 06:54:06.112   07 Jun 2027 06:54:14.155             8.043          2113.156
       214   07 Jun 2027 06:54:36.380   07 Jun 2027 06:54:38.870             2.490           694.531
       215   07 Jun 2027 06:55:03.779   07 Jun 2027 06:55:06.207             2.428           733.219
       216   07 Jun 2027 08:26:08.160   07 Jun 2027 08:26:20.045            11.885          4385.469
       217   07 Jun 2027 08:26:49.284   07 Jun 2027 08:26:50.687             1.403           154.500
       218   07 Jun 2027 08:27:03.706   07 Jun 2027 08:27:06.572             2.866            45.563
       219   07 Jun 2027 08:27:47.027   07 Jun 2027 08:27:52.341             5.314           454.750
       220   07 Jun 2027 08:28:00.787   07 Jun 2027 08:28:02.436             1.649           244.125
       221   07 Jun 2027 08:28:50.804   07 Jun 2027 08:28:53.491             2.687          1179.781
       222   07 Jun 2027 08:30:21.947   07 Jun 2027 08:30:27.440             5.493          2746.500
       223   07 Jun 2027 08:30:40.750   07 Jun 2027 08:30:41.476             0.726           363.000
       224   07 Jun 2027 08:31:53.569   07 Jun 2027 08:31:58.419             4.850          2323.594
       225   07 Jun 2027 08:32:10.490   07 Jun 2027 08:32:16.950             6.460           103.375
       226   07 Jun 2027 08:32:47.085   07 Jun 2027 08:32:49.085             2.000           710.687
       227   07 Jun 2027 08:33:16.035   07 Jun 2027 08:33:20.355             4.320           671.906
       228   07 Jun 2027 08:33:40.149   07 Jun 2027 08:33:41.412             1.263           611.375
       229   07 Jun 2027 10:03:06.642   07 Jun 2027 10:03:21.299            14.657          6248.000
       230   07 Jun 2027 10:03:44.890   07 Jun 2027 10:03:48.307             3.417           512.625
       231   07 Jun 2027 10:04:21.500   07 Jun 2027 10:04:27.538             6.038           911.750
       232   07 Jun 2027 10:04:39.990   07 Jun 2027 10:04:42.582             2.592           389.125
       233   07 Jun 2027 10:05:52.030   07 Jun 2027 10:05:53.534             1.504           752.000
       234   07 Jun 2027 10:05:58.717   07 Jun 2027 10:06:01.502             2.785           235.000
       235   07 Jun 2027 10:06:09.518   07 Jun 2027 10:06:12.007             2.489           250.500
       236   07 Jun 2027 10:06:47.111   07 Jun 2027 10:06:50.726             3.615           902.531
       237   07 Jun 2027 10:07:38.295   07 Jun 2027 10:07:38.295             0.000             0.000
       238   07 Jun 2027 10:07:42.215   07 Jun 2027 10:07:45.002             2.787           484.031
       239   07 Jun 2027 10:07:59.823   07 Jun 2027 10:08:04.443             4.620           463.156
       240   07 Jun 2027 10:08:14.466   07 Jun 2027 10:08:15.546             1.080           230.406
       241   07 Jun 2027 10:08:45.684   07 Jun 2027 10:08:49.050             3.366           941.812
       242   07 Jun 2027 10:08:58.198   07 Jun 2027 10:09:02.847             4.649           285.875
       243   07 Jun 2027 10:09:20.555   07 Jun 2027 10:09:22.705             2.150           553.375
       244   07 Jun 2027 11:40:45.714   07 Jun 2027 11:40:59.771            14.057          6403.594
       245   07 Jun 2027 11:41:32.511   07 Jun 2027 11:41:37.421             4.910           585.719
       246   07 Jun 2027 11:41:58.090   07 Jun 2027 11:41:59.945             1.855           594.750
       247   07 Jun 2027 11:42:52.481   07 Jun 2027 11:42:57.024             4.543          1092.094
       248   07 Jun 2027 11:43:13.740   07 Jun 2027 11:43:18.142             4.402           522.375
       249   07 Jun 2027 11:43:36.062   07 Jun 2027 11:43:39.341             3.279           468.125
       250   07 Jun 2027 11:44:09.292   07 Jun 2027 11:44:10.632             1.340           670.000
       251   08 Jun 2027 04:04:20.978   08 Jun 2027 04:04:44.222            23.244         11622.000
       252   08 Jun 2027 04:05:06.595   08 Jun 2027 04:08:17.359           190.764         95382.000
       253   08 Jun 2027 05:27:40.208   08 Jun 2027 05:28:36.941            56.733         28366.500
       254   08 Jun 2027 05:30:34.777   08 Jun 2027 05:30:41.017             6.240          3120.000
       255   08 Jun 2027 07:04:10.691   08 Jun 2027 07:04:53.148            42.457         19496.750
       256   08 Jun 2027 07:05:21.959   08 Jun 2027 07:05:22.288             0.329           136.469
       257   08 Jun 2027 07:05:44.530   08 Jun 2027 07:05:46.675             2.145           147.031
       258   08 Jun 2027 07:06:06.590   08 Jun 2027 07:06:06.590             0.000             0.000
       259   08 Jun 2027 07:06:13.283   08 Jun 2027 07:06:15.209             1.926           481.625
       260   08 Jun 2027 07:07:13.995   08 Jun 2027 07:07:18.182             4.187          1704.344
       261   08 Jun 2027 07:07:45.852   08 Jun 2027 07:07:46.323             0.471           111.812
       262   08 Jun 2027 08:39:20.798   08 Jun 2027 08:39:31.833            11.035          5274.844
       263   08 Jun 2027 08:39:52.023   08 Jun 2027 08:39:53.750             1.727           461.312
       264   08 Jun 2027 08:40:37.734   08 Jun 2027 08:40:42.505             4.771           741.125
       265   08 Jun 2027 08:40:54.844   08 Jun 2027 08:40:57.863             3.019           385.594
       266   08 Jun 2027 08:41:56.239   08 Jun 2027 08:42:03.616             7.377          1735.250
       267   08 Jun 2027 08:42:44.656   08 Jun 2027 08:42:49.300             4.644           798.656
       268   08 Jun 2027 08:43:22.922   08 Jun 2027 08:43:27.281             4.359          1015.781
       269   08 Jun 2027 08:43:40.527   08 Jun 2027 08:43:43.208             2.681           402.687
       270   08 Jun 2027 08:44:02.908   08 Jun 2027 08:44:04.400             1.492           365.719
       271   08 Jun 2027 08:44:10.507   08 Jun 2027 08:44:14.273             3.766           190.844
       272   08 Jun 2027 08:44:46.927   08 Jun 2027 08:44:47.817             0.890           381.937
       273   08 Jun 2027 08:45:18.217   08 Jun 2027 08:45:20.625             2.408           932.781
       274   08 Jun 2027 08:45:54.897   08 Jun 2027 08:45:57.751             2.854          1041.625
       275   08 Jun 2027 10:15:42.874   08 Jun 2027 10:15:54.208            11.334          5412.687
       276   08 Jun 2027 10:17:02.270   08 Jun 2027 10:17:05.559             3.289          1644.500
       277   08 Jun 2027 10:17:39.781   08 Jun 2027 10:17:42.507             2.726          1363.000
       278   08 Jun 2027 10:17:47.891   08 Jun 2027 10:17:50.564             2.673           215.781
       279   08 Jun 2027 10:18:20.530   08 Jun 2027 10:18:24.970             4.440           936.437
       280   08 Jun 2027 10:18:50.577   08 Jun 2027 10:18:52.858             2.281           757.844
       281   08 Jun 2027 10:19:14.081   08 Jun 2027 10:19:15.301             1.220           609.594
       282   08 Jun 2027 10:19:58.167   08 Jun 2027 10:20:08.395            10.228           747.063
       283   08 Jun 2027 10:20:40.294   08 Jun 2027 10:20:45.477             5.183           996.844
       284   08 Jun 2027 10:21:24.148   08 Jun 2027 10:21:28.763             4.615          1063.844
       285   08 Jun 2027 10:21:40.535   08 Jun 2027 10:21:41.778             1.243           367.875
       286   08 Jun 2027 11:53:00.375   08 Jun 2027 11:53:13.561            13.186          6221.812
       287   08 Jun 2027 11:53:22.126   08 Jun 2027 11:53:22.300             0.174            84.625
       288   08 Jun 2027 11:56:17.128   08 Jun 2027 11:56:30.640            13.512          5340.187
       289   08 Jun 2027 11:57:19.798   08 Jun 2027 11:57:24.301             4.503          1518.156
       290   08 Jun 2027 11:57:34.425   08 Jun 2027 11:57:35.557             1.132            84.188
       291   09 Jun 2027 04:16:14.622   09 Jun 2027 04:16:51.869            37.247         18623.500
       292   09 Jun 2027 04:17:21.548   09 Jun 2027 04:19:03.227           101.679         50839.500
       293   09 Jun 2027 04:19:38.002   09 Jun 2027 04:19:48.360            10.358          5179.000
       294   09 Jun 2027 05:40:20.174   09 Jun 2027 05:42:33.502           133.328         66664.000
       295   09 Jun 2027 07:16:05.802   09 Jun 2027 07:16:43.860            38.058         17543.531
       296   09 Jun 2027 07:18:35.250   09 Jun 2027 07:18:39.604             4.354          2177.000
       297   09 Jun 2027 07:18:54.626   09 Jun 2027 07:18:56.347             1.721           678.563
       298   09 Jun 2027 08:51:03.068   09 Jun 2027 08:51:10.533             7.465          3732.500
       299   09 Jun 2027 08:52:05.219   09 Jun 2027 08:52:13.071             7.852          1716.906
       300   09 Jun 2027 08:52:36.236   09 Jun 2027 08:52:45.759             9.523           287.281
       301   09 Jun 2027 08:53:04.460   09 Jun 2027 08:53:05.040             0.580           270.906
       302   09 Jun 2027 08:54:07.827   09 Jun 2027 08:54:11.223             3.396          1121.906
       303   09 Jun 2027 08:54:52.814   09 Jun 2027 08:54:58.568             5.754          1180.094
       304   09 Jun 2027 08:56:37.703   09 Jun 2027 08:56:44.728             7.025          2248.813
       305   09 Jun 2027 08:57:00.564   09 Jun 2027 08:57:03.183             2.619           305.969
       306   09 Jun 2027 08:57:14.480   09 Jun 2027 08:57:16.945             2.465           198.562
       307   09 Jun 2027 08:57:53.568   09 Jun 2027 08:57:56.843             3.275          1144.469
       308   09 Jun 2027 10:27:15.591   09 Jun 2027 10:27:29.750            14.159          6886.031
       309   09 Jun 2027 10:27:58.893   09 Jun 2027 10:27:59.718             0.825           199.719
       310   09 Jun 2027 10:29:17.532   09 Jun 2027 10:29:22.518             4.986          2280.375
       311   09 Jun 2027 10:29:35.296   09 Jun 2027 10:29:36.313             1.017           284.594
       312   09 Jun 2027 10:30:11.996   09 Jun 2027 10:30:16.222             4.226           666.406
       313   09 Jun 2027 10:31:02.089   09 Jun 2027 10:31:05.485             3.396          1416.844
       314   09 Jun 2027 10:31:23.857   09 Jun 2027 10:31:25.352             1.495           548.500
       315   09 Jun 2027 10:31:35.195   09 Jun 2027 10:31:37.269             2.074           221.000
       316   09 Jun 2027 10:31:50.570   09 Jun 2027 10:31:53.036             2.466           159.531
       317   09 Jun 2027 10:32:06.211   09 Jun 2027 10:32:11.630             5.419           262.781
       318   09 Jun 2027 10:32:37.779   09 Jun 2027 10:32:38.628             0.849           413.687
       319   09 Jun 2027 10:32:52.045   09 Jun 2027 10:32:56.589             4.544           375.125
       320   09 Jun 2027 10:33:36.107   09 Jun 2027 10:33:40.620             4.513          1234.938
       321   10 Jun 2027 04:17:06.893   10 Jun 2027 04:17:46.792            39.899         19949.500
       322   10 Jun 2027 04:28:10.633   10 Jun 2027 04:29:54.054           103.421         51710.500
       323   10 Jun 2027 04:30:05.096   10 Jun 2027 04:31:10.048            64.952         32476.000
       324   10 Jun 2027 05:51:09.498   10 Jun 2027 05:51:58.015            48.517         24258.500
       325   10 Jun 2027 05:53:49.772   10 Jun 2027 05:53:49.772             0.000             0.000
       326   10 Jun 2027 05:54:31.880   10 Jun 2027 05:54:40.618             8.738          4369.000
       327   10 Jun 2027 05:54:45.304   10 Jun 2027 05:55:03.417            18.113          9056.500
       328   10 Jun 2027 07:26:41.852   10 Jun 2027 07:26:49.101             7.249          3624.500
       329   10 Jun 2027 07:27:51.699   10 Jun 2027 07:28:29.573            37.874         15475.719
       330   10 Jun 2027 07:29:01.623   10 Jun 2027 07:29:06.211             4.588           968.219
       331   10 Jun 2027 07:30:18.460   10 Jun 2027 07:30:22.406             3.946          1828.250
       332   10 Jun 2027 07:31:24.270   10 Jun 2027 07:31:29.106             4.836          1933.250
       333   10 Jun 2027 07:31:43.585   10 Jun 2027 07:31:48.098             4.513           452.469
       334   10 Jun 2027 09:02:36.805   10 Jun 2027 09:02:48.865            12.060          4766.719
       335   10 Jun 2027 09:03:10.230   10 Jun 2027 09:03:10.230             0.000             0.000
       336   10 Jun 2027 09:04:56.261   10 Jun 2027 09:05:04.399             8.138          3692.062
       337   10 Jun 2027 09:05:36.726   10 Jun 2027 09:05:40.039             3.313           571.188
       338   10 Jun 2027 09:06:11.023   10 Jun 2027 09:06:11.023             0.000             0.000
       339   10 Jun 2027 09:06:32.585   10 Jun 2027 09:06:34.742             2.157           721.469
       340   10 Jun 2027 09:07:31.131   10 Jun 2027 09:07:35.094             3.963          1130.594
       341   10 Jun 2027 09:08:05.695   10 Jun 2027 09:08:06.921             1.226           495.219
       342   10 Jun 2027 09:08:27.518   10 Jun 2027 09:08:27.701             0.183            91.500
       343   10 Jun 2027 09:08:32.141   10 Jun 2027 09:08:36.647             4.506           456.563
       344   10 Jun 2027 09:09:21.951   10 Jun 2027 09:09:25.336             3.385          1415.750
       345   10 Jun 2027 10:39:37.376   10 Jun 2027 10:39:52.299            14.923          6634.844
       346   10 Jun 2027 10:40:31.385   10 Jun 2027 10:40:35.382             3.997          1039.719
       347   10 Jun 2027 10:42:22.605   10 Jun 2027 10:42:29.018             6.413          3206.500
       348   10 Jun 2027 10:42:55.602   10 Jun 2027 10:42:59.044             3.442           949.719
       349   10 Jun 2027 10:43:01.183   10 Jun 2027 10:43:03.527             2.344            66.844
       350   10 Jun 2027 10:43:41.567   10 Jun 2027 10:43:43.332             1.765           870.312
       351   10 Jun 2027 10:43:49.810   10 Jun 2027 10:43:50.450             0.640            81.094
       352   10 Jun 2027 10:44:32.610   10 Jun 2027 10:44:33.200             0.590           295.000
       353   10 Jun 2027 10:45:22.006   10 Jun 2027 10:45:29.931             7.925          2436.250
       354   10 Jun 2027 10:45:44.770   10 Jun 2027 10:45:45.634             0.864           129.938
       355   11 Jun 2027 03:03:31.832   11 Jun 2027 03:05:18.564           106.732         53366.000
       356   11 Jun 2027 03:06:42.172   11 Jun 2027 03:06:43.862             1.690           845.000
       357   11 Jun 2027 03:07:25.659   11 Jun 2027 03:07:34.653             8.994          4497.000
       358   11 Jun 2027 03:08:08.677   11 Jun 2027 03:08:17.404             8.727          4363.500
       359   11 Jun 2027 03:09:29.784   11 Jun 2027 03:10:12.052            42.268         21134.000
       360   11 Jun 2027 04:28:30.065   11 Jun 2027 04:29:06.107            36.042         18021.000
       361   11 Jun 2027 04:40:12.273   11 Jun 2027 04:41:32.296            80.023         40011.500
       362   11 Jun 2027 06:02:25.675   11 Jun 2027 06:03:21.072            55.397         27698.500
       363   11 Jun 2027 06:03:28.592   11 Jun 2027 06:03:28.592             0.000             0.000
       364   11 Jun 2027 06:04:55.997   11 Jun 2027 06:05:03.039             7.042          3442.719
       365   11 Jun 2027 06:06:43.385   11 Jun 2027 06:06:43.385             0.000             0.000
       366   11 Jun 2027 06:06:45.740   11 Jun 2027 06:06:51.361             5.621          2804.406
       367   11 Jun 2027 06:07:27.622   11 Jun 2027 06:07:31.423             3.801           745.094
       368   11 Jun 2027 07:37:33.411   11 Jun 2027 07:37:43.555            10.144          4145.000
       369   11 Jun 2027 07:38:47.708   11 Jun 2027 07:38:47.708             0.000             0.000
       370   11 Jun 2027 07:39:06.932   11 Jun 2027 07:39:13.212             6.280          2077.937
       371   11 Jun 2027 07:39:54.030   11 Jun 2027 07:39:58.374             4.344           937.094
       372   11 Jun 2027 07:41:20.715   11 Jun 2027 07:41:25.773             5.058          2372.969
       373   11 Jun 2027 07:42:41.348   11 Jun 2027 07:42:46.852             5.504          2191.375
       374   11 Jun 2027 07:43:14.736   11 Jun 2027 07:43:19.446             4.710           705.688
       375   11 Jun 2027 07:43:49.424   11 Jun 2027 07:43:53.108             3.684           936.813
       376   11 Jun 2027 07:44:05.558   11 Jun 2027 07:44:07.708             2.150           127.437
       377   11 Jun 2027 07:45:30.978   11 Jun 2027 07:45:34.586             3.608          1804.000
       378   11 Jun 2027 09:14:45.601   11 Jun 2027 09:14:55.870            10.269          3433.719
       379   11 Jun 2027 09:16:56.171   11 Jun 2027 09:17:04.929             8.758          3608.906
       380   11 Jun 2027 09:17:38.894   11 Jun 2027 09:17:42.521             3.627           880.531
       381   11 Jun 2027 09:18:41.002   11 Jun 2027 09:18:45.421             4.419          1827.531
       382   11 Jun 2027 09:19:39.210   11 Jun 2027 09:19:42.671             3.461          1325.688
       383   11 Jun 2027 09:19:52.635   11 Jun 2027 09:19:54.970             2.335            56.156
       384   11 Jun 2027 09:20:34.753   11 Jun 2027 09:20:34.753             0.000             0.000
       385   11 Jun 2027 09:21:13.578   11 Jun 2027 09:21:19.348             5.770          2447.031
       386   11 Jun 2027 09:21:56.580   11 Jun 2027 09:22:00.773             4.193           937.000
       387   11 Jun 2027 10:51:43.000   11 Jun 2027 10:51:56.807            13.807          6097.250
       388   11 Jun 2027 10:52:41.158   11 Jun 2027 10:52:45.706             4.548          1323.281
       389   11 Jun 2027 10:53:13.675   11 Jun 2027 10:53:14.054             0.379           189.500
       390   11 Jun 2027 10:53:17.621   11 Jun 2027 10:53:19.243             1.622           300.219
       391   11 Jun 2027 10:53:51.640   11 Jun 2027 10:53:54.434             2.794           872.875
       392   11 Jun 2027 10:53:59.637   11 Jun 2027 10:54:00.350             0.713           156.031
       393   11 Jun 2027 10:54:00.654   11 Jun 2027 10:54:03.012             2.358             9.500
       394   11 Jun 2027 10:54:33.621   11 Jun 2027 10:54:34.548             0.927           463.500
       395   11 Jun 2027 10:55:15.654   11 Jun 2027 10:55:20.294             4.640          1365.969
       396   11 Jun 2027 10:55:31.826   11 Jun 2027 10:55:31.991             0.165            82.500
       397   11 Jun 2027 10:55:37.785   11 Jun 2027 10:55:39.757             1.972           458.938
       398   11 Jun 2027 10:55:49.664   11 Jun 2027 10:55:49.664             0.000             0.000
       399   11 Jun 2027 10:56:31.633   11 Jun 2027 10:56:37.771             6.138          1551.750
       400   11 Jun 2027 10:57:20.840   11 Jun 2027 10:57:21.463             0.623           311.500
       401   11 Jun 2027 10:57:25.758   11 Jun 2027 10:57:29.689             3.931          1168.625
       402   12 Jun 2027 03:15:50.502   12 Jun 2027 03:18:47.191           176.689         88344.500
       403   12 Jun 2027 03:18:58.892   12 Jun 2027 03:19:10.870            11.978          5989.000
       404   12 Jun 2027 03:20:42.448   12 Jun 2027 03:20:44.156             1.708           854.000
       405   12 Jun 2027 03:21:01.000   12 Jun 2027 03:21:05.828             4.828          2414.000
       406   12 Jun 2027 03:21:47.643   12 Jun 2027 03:21:47.643             0.000             0.000
       407   12 Jun 2027 03:22:34.875   12 Jun 2027 03:22:47.268            12.393          6196.500
       408   12 Jun 2027 04:39:57.233   12 Jun 2027 04:41:07.538            70.305         35152.500
       409   12 Jun 2027 04:52:09.112   12 Jun 2027 04:52:20.246            11.134          5567.000
       410   12 Jun 2027 04:52:28.554   12 Jun 2027 04:52:48.138            19.584          9792.000
       411   12 Jun 2027 06:14:10.875   12 Jun 2027 06:14:40.848            29.973         14970.531
       412   12 Jun 2027 06:15:29.768   12 Jun 2027 06:15:31.459             1.691           845.500
       413   12 Jun 2027 06:16:34.256   12 Jun 2027 06:16:39.501             5.245          2067.094
       414   12 Jun 2027 06:16:57.456   12 Jun 2027 06:16:58.528             1.072           403.781
       415   12 Jun 2027 06:17:21.944   12 Jun 2027 06:17:21.944             0.000             0.000
       416   12 Jun 2027 06:17:42.918   12 Jun 2027 06:17:47.258             4.340          1387.188
       417   12 Jun 2027 06:18:07.187   12 Jun 2027 06:18:14.907             7.720           316.906
       418   12 Jun 2027 06:19:33.077   12 Jun 2027 06:19:40.475             7.398          1597.219
       419   12 Jun 2027 07:49:03.023   12 Jun 2027 07:49:14.412            11.389          5561.219
       420   12 Jun 2027 07:49:52.825   12 Jun 2027 07:49:57.384             4.559          1193.938
       421   12 Jun 2027 07:50:44.464   12 Jun 2027 07:50:46.845             2.381          1190.500
       422   12 Jun 2027 07:51:04.751   12 Jun 2027 07:51:06.908             2.157           839.719
       423   12 Jun 2027 07:51:43.294   12 Jun 2027 07:51:43.294             0.000             0.000
       424   12 Jun 2027 07:52:25.703   12 Jun 2027 07:52:30.434             4.731          2249.813
       425   12 Jun 2027 07:52:55.512   12 Jun 2027 07:52:57.183             1.671           752.969
       426   12 Jun 2027 07:53:31.522   12 Jun 2027 07:53:34.819             3.297           834.062
       427   12 Jun 2027 07:54:05.410   12 Jun 2027 07:54:10.365             4.955           154.656
       428   12 Jun 2027 07:54:38.661   12 Jun 2027 07:54:40.307             1.646           497.281
       429   12 Jun 2027 07:54:56.869   12 Jun 2027 07:55:03.530             6.661           479.781
       430   12 Jun 2027 07:55:30.145   12 Jun 2027 07:55:31.814             1.669           284.344
       431   12 Jun 2027 07:56:28.829   12 Jun 2027 07:56:31.390             2.561          1280.500
       432   12 Jun 2027 07:57:18.755   12 Jun 2027 07:57:22.507             3.752          1597.844
       433   12 Jun 2027 09:26:47.586   12 Jun 2027 09:27:03.017            15.431          5662.656
       434   12 Jun 2027 09:28:55.425   12 Jun 2027 09:29:02.770             7.345          3512.750
       435   12 Jun 2027 09:29:38.515   12 Jun 2027 09:29:44.483             5.968          1110.375
       436   12 Jun 2027 09:29:53.640   12 Jun 2027 09:29:56.831             3.191           183.844
       437   12 Jun 2027 09:30:29.864   12 Jun 2027 09:30:35.723             5.859           775.375
       438   12 Jun 2027 09:31:00.474   12 Jun 2027 09:31:03.996             3.522           678.875
       439   12 Jun 2027 09:31:09.014   12 Jun 2027 09:31:17.526             8.512           120.531
       440   12 Jun 2027 09:31:29.475   12 Jun 2027 09:31:32.178             2.703            79.375
       441   12 Jun 2027 09:31:50.114   12 Jun 2027 09:31:57.611             7.497           513.281
       442   12 Jun 2027 09:32:19.553   12 Jun 2027 09:32:22.045             2.492           685.688
       443   12 Jun 2027 09:32:29.327   12 Jun 2027 09:32:29.458             0.131            44.469
       444   12 Jun 2027 09:32:51.494   12 Jun 2027 09:32:57.086             5.592           613.750
       445   12 Jun 2027 09:33:55.499   12 Jun 2027 09:34:01.024             5.525          1825.406
       446   12 Jun 2027 09:34:07.148   12 Jun 2027 09:34:08.424             1.276           191.375
       447   12 Jun 2027 11:03:35.452   12 Jun 2027 11:03:47.761            12.309          6154.500
       448   12 Jun 2027 11:03:57.683   12 Jun 2027 11:04:03.634             5.951          1121.937
       449   12 Jun 2027 11:04:37.867   12 Jun 2027 11:04:39.848             1.981           630.000
       450   12 Jun 2027 11:04:45.353   12 Jun 2027 11:04:45.827             0.474           172.031
       451   12 Jun 2027 11:04:58.780   12 Jun 2027 11:05:12.715            13.935           171.250
       452   12 Jun 2027 11:06:20.763   12 Jun 2027 11:06:23.707             2.944          1472.000
       453   12 Jun 2027 11:06:35.131   12 Jun 2027 11:06:39.937             4.806           914.531
       454   12 Jun 2027 11:07:27.527   12 Jun 2027 11:07:30.211             2.684          1332.187
       455   12 Jun 2027 11:07:39.382   12 Jun 2027 11:07:40.450             1.068           174.469
       456   12 Jun 2027 11:07:47.186   12 Jun 2027 11:07:47.679             0.493           141.875
       457   12 Jun 2027 11:08:33.794   12 Jun 2027 11:08:44.276            10.482          1441.094
       458   12 Jun 2027 11:09:23.644   12 Jun 2027 11:09:29.365             5.721           940.719
       459   12 Jun 2027 11:09:53.485   12 Jun 2027 11:09:55.746             2.261           739.500
       460   12 Jun 2027 11:10:11.021   12 Jun 2027 11:10:11.926             0.905           145.406
       461   13 Jun 2027 03:27:54.929   13 Jun 2027 03:30:54.344           179.415         89707.500
       462   13 Jun 2027 03:31:08.904   13 Jun 2027 03:31:22.476            13.572          6786.000
       463   13 Jun 2027 03:33:09.083   13 Jun 2027 03:33:09.083             0.000             0.000
       464   13 Jun 2027 03:33:39.548   13 Jun 2027 03:33:55.962            16.414          8207.000
       465   13 Jun 2027 04:52:00.708   13 Jun 2027 04:52:43.470            42.762         21381.000
       466   13 Jun 2027 04:52:44.812   13 Jun 2027 04:52:55.906            11.094          5547.000
       467   13 Jun 2027 04:53:46.807   13 Jun 2027 04:53:51.872             5.065          2532.500
       468   13 Jun 2027 06:27:57.906   13 Jun 2027 06:28:37.192            39.286         19643.000
       469   13 Jun 2027 06:29:30.036   13 Jun 2027 06:29:37.740             7.704          1807.032
       470   13 Jun 2027 06:30:03.772   13 Jun 2027 06:30:04.956             1.184           582.062
       471   13 Jun 2027 06:30:14.036   13 Jun 2027 06:30:14.979             0.943           220.125
       472   13 Jun 2027 06:31:15.908   13 Jun 2027 06:31:26.210            10.302          1825.250
       473   13 Jun 2027 08:01:47.649   13 Jun 2027 08:01:59.392            11.743          4797.031
       474   13 Jun 2027 08:03:00.996   13 Jun 2027 08:03:01.510             0.514            10.906
       475   13 Jun 2027 08:03:56.462   13 Jun 2027 08:04:00.125             3.663          1417.969
       476   13 Jun 2027 08:04:25.138   13 Jun 2027 08:04:28.074             2.936           699.656
       477   13 Jun 2027 08:05:34.311   13 Jun 2027 08:05:39.756             5.445           850.781
       478   13 Jun 2027 08:06:28.850   13 Jun 2027 08:06:30.269             1.419           690.656
       479   13 Jun 2027 08:06:59.969   13 Jun 2027 08:07:02.646             2.677           589.687
       480   13 Jun 2027 08:07:27.771   13 Jun 2027 08:07:31.521             3.750           785.156
       481   13 Jun 2027 08:08:18.494   13 Jun 2027 08:08:21.203             2.709          1191.750
       482   13 Jun 2027 08:08:23.425   13 Jun 2027 08:08:24.813             1.388            69.437
       483   13 Jun 2027 08:08:59.917   13 Jun 2027 08:09:02.851             2.934           470.594
       484   13 Jun 2027 08:09:37.156   13 Jun 2027 08:09:40.535             3.379           897.625
       485   13 Jun 2027 09:38:50.767   13 Jun 2027 09:39:05.069            14.302          6481.562
       486   13 Jun 2027 09:40:03.732   13 Jun 2027 09:40:09.639             5.907           943.063
       487   13 Jun 2027 09:41:11.430   13 Jun 2027 09:41:14.097             2.667          1332.312
       488   13 Jun 2027 09:42:04.277   13 Jun 2027 09:42:09.864             5.587          1544.375
       489   13 Jun 2027 09:43:35.518   13 Jun 2027 09:43:39.427             3.909          1954.500
       490   13 Jun 2027 09:44:09.052   13 Jun 2027 09:44:14.718             5.666          1124.906
       491   13 Jun 2027 09:44:18.387   13 Jun 2027 09:44:22.801             4.414           114.656
       492   13 Jun 2027 09:44:47.720   13 Jun 2027 09:44:51.200             3.480           673.781
       493   13 Jun 2027 09:45:14.387   13 Jun 2027 09:45:15.944             1.557           221.281
       494   13 Jun 2027 09:45:18.172   13 Jun 2027 09:45:21.443             3.271            69.625
       495   13 Jun 2027 09:45:55.978   13 Jun 2027 09:46:04.057             8.079          1072.938
       496   13 Jun 2027 11:15:45.244   13 Jun 2027 11:16:07.645            22.401          6070.469
       497   13 Jun 2027 11:16:18.758   13 Jun 2027 11:16:19.694             0.936           347.281
       498   13 Jun 2027 11:17:56.175   13 Jun 2027 11:18:01.119             4.944          2137.812
       499   13 Jun 2027 11:18:31.456   13 Jun 2027 11:18:33.318             1.862           931.000
       500   13 Jun 2027 11:19:37.253   13 Jun 2027 11:19:43.538             6.285          2014.156
       501   13 Jun 2027 11:20:08.993   13 Jun 2027 11:20:10.471             1.478           739.000
       502   13 Jun 2027 11:20:36.164   13 Jun 2027 11:20:41.872             5.708           859.375
       503   13 Jun 2027 11:21:24.997   13 Jun 2027 11:21:28.785             3.788           960.344
       504   13 Jun 2027 11:21:35.666   13 Jun 2027 11:21:40.278             4.612           214.812
       505   13 Jun 2027 11:21:59.017   13 Jun 2027 11:22:00.705             1.688           585.594
