uniorb/output/strategy_2/Camera/Camera_KinoSat_110502.txt

KinoSat_110502
-------------------------
    Access    *     Start Time (UTCG)     *     Stop Time (UTCG)  *   Duration (s) *   Data (Mbytes)
         1   01 Jun 2027 04:14:47.485   01 Jun 2027 04:14:53.444             5.959          2979.500
         2   01 Jun 2027 04:15:45.680   01 Jun 2027 04:15:47.258             1.578           789.000
         3   01 Jun 2027 04:16:12.013   01 Jun 2027 04:16:19.874             7.861          3930.500
         4   01 Jun 2027 04:16:59.097   01 Jun 2027 04:17:26.964            27.867         13933.500
         5   01 Jun 2027 04:18:53.987   01 Jun 2027 04:18:53.989             0.002             1.000
         6   01 Jun 2027 04:19:26.672   01 Jun 2027 04:19:35.892             9.220          4610.000
         7   01 Jun 2027 04:21:20.732   01 Jun 2027 04:21:35.416            14.684          7342.000
         8   01 Jun 2027 04:22:37.746   01 Jun 2027 04:22:37.954             0.208           104.000
         9   01 Jun 2027 04:23:07.882   01 Jun 2027 04:23:08.229             0.347           173.500
        10   01 Jun 2027 04:23:19.896   01 Jun 2027 04:23:21.128             1.232           616.000
        11   01 Jun 2027 05:52:14.673   01 Jun 2027 05:52:22.153             7.480          3740.000
        12   01 Jun 2027 05:53:16.637   01 Jun 2027 05:53:16.679             0.042            21.000
        13   01 Jun 2027 05:54:16.232   01 Jun 2027 05:54:19.754             3.522          1761.000
        14   01 Jun 2027 05:54:24.318   01 Jun 2027 05:54:34.444            10.126          5063.000
        15   01 Jun 2027 05:55:46.350   01 Jun 2027 05:55:46.571             0.221           110.500
        16   01 Jun 2027 05:55:53.110   01 Jun 2027 05:55:54.552             1.442           721.000
        17   01 Jun 2027 05:55:57.273   01 Jun 2027 05:56:00.148             2.875          1437.500
        18   01 Jun 2027 05:56:19.525   01 Jun 2027 05:56:24.379             4.854          2427.000
        19   01 Jun 2027 05:56:49.776   01 Jun 2027 05:57:00.319            10.543          5271.500
        20   01 Jun 2027 05:57:23.424   01 Jun 2027 05:57:23.424             0.000             0.000
        21   01 Jun 2027 05:57:46.758   01 Jun 2027 05:57:54.489             7.731          3865.500
        22   01 Jun 2027 05:58:22.918   01 Jun 2027 05:58:32.519             9.601          4800.500
        23   01 Jun 2027 07:29:14.704   01 Jun 2027 07:29:20.120             5.416          2708.000
        24   01 Jun 2027 07:29:35.198   01 Jun 2027 07:29:48.284            13.086          6543.000
        25   01 Jun 2027 07:31:02.566   01 Jun 2027 07:31:03.934             1.368           684.000
        26   01 Jun 2027 07:31:35.363   01 Jun 2027 07:31:38.252             2.889          1444.500
        27   01 Jun 2027 07:31:56.516   01 Jun 2027 07:32:00.126             3.610          1805.000
        28   01 Jun 2027 07:32:11.264   01 Jun 2027 07:32:11.264             0.000             0.000
        29   01 Jun 2027 07:32:33.763   01 Jun 2027 07:32:36.467             2.704          1352.000
        30   01 Jun 2027 07:32:51.021   01 Jun 2027 07:32:54.724             3.703          1851.500
        31   01 Jun 2027 07:33:09.772   01 Jun 2027 07:33:19.887            10.115          5057.500
        32   01 Jun 2027 07:34:26.488   01 Jun 2027 07:34:27.848             1.360           680.000
        33   01 Jun 2027 07:34:40.405   01 Jun 2027 07:34:41.235             0.830           415.000
        34   01 Jun 2027 07:34:49.424   01 Jun 2027 07:34:54.309             4.885          2442.500
        35   01 Jun 2027 09:06:08.690   01 Jun 2027 09:06:10.837             2.147          1073.500
        36   01 Jun 2027 09:06:54.684   01 Jun 2027 09:07:04.745            10.061          5030.500
        37   01 Jun 2027 09:07:55.255   01 Jun 2027 09:07:58.289             3.034          1517.000
        38   01 Jun 2027 09:08:22.620   01 Jun 2027 09:08:26.778             4.158          2079.000
        39   01 Jun 2027 09:08:48.215   01 Jun 2027 09:08:48.887             0.672           336.000
        40   01 Jun 2027 09:09:27.393   01 Jun 2027 09:09:29.304             1.911           955.500
        41   01 Jun 2027 09:10:05.038   01 Jun 2027 09:10:09.623             4.585          2292.500
        42   01 Jun 2027 09:10:42.997   01 Jun 2027 09:10:45.290             2.293          1146.500
        43   01 Jun 2027 10:43:17.957   01 Jun 2027 10:43:25.464             7.507          3753.500
        44   01 Jun 2027 10:44:17.025   01 Jun 2027 10:44:25.119             8.094          4047.000
        45   01 Jun 2027 10:45:10.108   01 Jun 2027 10:45:11.363             1.255           627.500
        46   01 Jun 2027 10:45:35.932   01 Jun 2027 10:45:47.143            11.211          5605.500
        47   02 Jun 2027 04:25:30.331   02 Jun 2027 04:25:38.790             8.459          4229.500
        48   02 Jun 2027 04:27:26.329   02 Jun 2027 04:27:32.142             5.813          2906.500
        49   02 Jun 2027 04:28:04.334   02 Jun 2027 04:28:14.092             9.758          4879.000
        50   02 Jun 2027 04:29:00.083   02 Jun 2027 04:29:27.196            27.113         13556.500
        51   02 Jun 2027 04:30:24.889   02 Jun 2027 04:30:36.848            11.959          5979.500
        52   02 Jun 2027 04:32:19.721   02 Jun 2027 04:32:21.768             2.047          1023.500
        53   02 Jun 2027 04:32:23.096   02 Jun 2027 04:32:27.504             4.408          2204.000
        54   02 Jun 2027 04:33:19.445   02 Jun 2027 04:33:25.097             5.652          2826.000
        55   02 Jun 2027 04:33:48.777   02 Jun 2027 04:33:53.495             4.718          2359.000
        56   02 Jun 2027 04:34:28.606   02 Jun 2027 04:34:33.962             5.356          2678.000
        57   02 Jun 2027 06:04:24.255   02 Jun 2027 06:04:38.299            14.044          7022.000
        58   02 Jun 2027 06:05:52.557   02 Jun 2027 06:06:02.255             9.698          4849.000
        59   02 Jun 2027 06:06:57.116   02 Jun 2027 06:07:03.317             6.201          3100.500
        60   02 Jun 2027 06:07:43.907   02 Jun 2027 06:07:50.108             6.201          3100.500
        61   02 Jun 2027 06:08:28.656   02 Jun 2027 06:08:29.453             0.797           398.500
        62   02 Jun 2027 06:09:00.798   02 Jun 2027 06:09:10.475             9.677          4838.500
        63   02 Jun 2027 06:09:38.285   02 Jun 2027 06:09:38.504             0.219           109.500
        64   02 Jun 2027 06:10:03.703   02 Jun 2027 06:10:26.260            22.557         11278.500
        65   02 Jun 2027 07:41:40.995   02 Jun 2027 07:42:01.132            20.137         10068.500
        66   02 Jun 2027 07:43:51.333   02 Jun 2027 07:43:59.570             8.237          4118.500
        67   02 Jun 2027 07:44:41.939   02 Jun 2027 07:44:43.675             1.736           868.000
        68   02 Jun 2027 07:45:26.694   02 Jun 2027 07:45:38.555            11.861          5930.500
        69   02 Jun 2027 07:46:23.535   02 Jun 2027 07:46:25.260             1.725           862.500
        70   02 Jun 2027 09:18:09.652   02 Jun 2027 09:18:12.320             2.668          1334.000
        71   02 Jun 2027 09:18:28.164   02 Jun 2027 09:18:38.518            10.354          5177.000
        72   02 Jun 2027 09:20:04.780   02 Jun 2027 09:20:10.467             5.687          2843.500
        73   02 Jun 2027 09:20:48.541   02 Jun 2027 09:20:51.231             2.690          1345.000
        74   02 Jun 2027 09:21:22.359   02 Jun 2027 09:21:24.153             1.794           897.000
        75   02 Jun 2027 09:21:47.865   02 Jun 2027 09:21:48.886             1.021           510.500
        76   02 Jun 2027 09:22:40.892   02 Jun 2027 09:22:50.823             9.931          4965.500
        77   02 Jun 2027 10:56:26.110   02 Jun 2027 10:56:32.782             6.672          3336.000
        78   02 Jun 2027 10:57:08.392   02 Jun 2027 10:57:10.075             1.683           841.500
        79   03 Jun 2027 03:05:28.590   03 Jun 2027 03:05:34.466             5.876          2938.000
        80   03 Jun 2027 03:06:18.456   03 Jun 2027 03:06:20.386             1.930           965.000
        81   03 Jun 2027 03:06:52.040   03 Jun 2027 03:06:55.701             3.661          1830.500
        82   03 Jun 2027 03:07:30.638   03 Jun 2027 03:07:34.279             3.641          1820.500
        83   03 Jun 2027 03:08:09.562   03 Jun 2027 03:08:19.404             9.842          4921.000
        84   03 Jun 2027 03:08:58.448   03 Jun 2027 03:08:58.448             0.000             0.000
        85   03 Jun 2027 04:40:39.161   03 Jun 2027 04:40:46.627             7.466          3733.000
        86   03 Jun 2027 04:41:42.532   03 Jun 2027 04:41:53.896            11.364          5682.000
        87   03 Jun 2027 04:42:44.390   03 Jun 2027 04:42:46.047             1.657           828.500
        88   03 Jun 2027 04:43:03.636   03 Jun 2027 04:43:17.732            14.096          7048.000
        89   03 Jun 2027 04:44:17.097   03 Jun 2027 04:44:20.710             3.613          1806.500
        90   03 Jun 2027 04:45:23.515   03 Jun 2027 04:45:29.738             6.223          3111.500
        91   03 Jun 2027 04:46:11.897   03 Jun 2027 04:46:14.641             2.744          1372.000
        92   03 Jun 2027 04:46:32.508   03 Jun 2027 04:46:39.401             6.893          3446.500
        93   03 Jun 2027 04:47:07.143   03 Jun 2027 04:47:10.837             3.694          1847.000
        94   03 Jun 2027 06:16:58.306   03 Jun 2027 06:17:26.797            28.491         14245.500
        95   03 Jun 2027 06:19:43.621   03 Jun 2027 06:19:53.077             9.456          4728.000
        96   03 Jun 2027 06:20:42.745   03 Jun 2027 06:20:46.520             3.775          1887.500
        97   03 Jun 2027 06:21:29.794   03 Jun 2027 06:21:31.003             1.209           604.500
        98   03 Jun 2027 06:21:55.291   03 Jun 2027 06:22:08.406            13.115          6557.500
        99   03 Jun 2027 06:23:06.431   03 Jun 2027 06:23:10.754             4.323          2161.500
       100   03 Jun 2027 07:54:22.020   03 Jun 2027 07:54:22.939             0.919           459.500
       101   03 Jun 2027 07:54:59.404   03 Jun 2027 07:55:09.120             9.716          4858.000
       102   03 Jun 2027 07:55:53.332   03 Jun 2027 07:56:02.925             9.593          4796.500
       103   03 Jun 2027 07:57:11.345   03 Jun 2027 07:57:16.623             5.278          2639.000
       104   03 Jun 2027 07:57:38.745   03 Jun 2027 07:57:39.893             1.148           574.000
       105   03 Jun 2027 07:58:31.994   03 Jun 2027 07:58:33.963             1.969           984.500
       106   03 Jun 2027 09:30:34.406   03 Jun 2027 09:30:37.203             2.797          1398.500
       107   03 Jun 2027 09:31:11.547   03 Jun 2027 09:31:15.903             4.356          2178.000
       108   03 Jun 2027 09:31:58.429   03 Jun 2027 09:31:59.029             0.600           300.000
       109   03 Jun 2027 09:32:48.555   03 Jun 2027 09:32:53.133             4.578          2289.000
       110   03 Jun 2027 09:33:18.436   03 Jun 2027 09:33:23.548             5.112          2556.000
       111   03 Jun 2027 09:34:27.974   03 Jun 2027 09:34:30.725             2.751          1375.500
       112   04 Jun 2027 03:17:29.622   04 Jun 2027 03:17:34.495             4.873          2436.500
       113   04 Jun 2027 03:18:19.770   04 Jun 2027 03:18:21.360             1.590           795.000
       114   04 Jun 2027 03:18:32.188   04 Jun 2027 03:18:33.275             1.087           543.500
       115   04 Jun 2027 03:18:47.903   04 Jun 2027 03:18:50.400             2.497          1248.500
       116   04 Jun 2027 03:19:29.498   04 Jun 2027 03:19:43.382            13.884          6942.000
       117   04 Jun 2027 03:20:37.637   04 Jun 2027 03:20:37.637             0.000             0.000
       118   04 Jun 2027 03:20:53.726   04 Jun 2027 03:20:58.531             4.805          2402.500
       119   04 Jun 2027 04:52:42.390   04 Jun 2027 04:53:09.606            27.216         13608.000
       120   04 Jun 2027 04:55:00.643   04 Jun 2027 04:55:07.812             7.169          3584.500
       121   04 Jun 2027 04:55:48.558   04 Jun 2027 04:55:54.543             5.985          2992.500
       122   04 Jun 2027 04:56:06.569   04 Jun 2027 04:56:21.310            14.741          7370.500
       123   04 Jun 2027 04:56:51.905   04 Jun 2027 04:56:51.905             0.000             0.000
       124   04 Jun 2027 04:57:45.920   04 Jun 2027 04:57:48.030             2.110          1055.000
       125   04 Jun 2027 04:58:05.172   04 Jun 2027 04:58:08.366             3.194          1597.000
       126   04 Jun 2027 04:58:32.796   04 Jun 2027 04:58:33.463             0.667           333.500
       127   04 Jun 2027 04:59:01.195   04 Jun 2027 04:59:05.021             3.826          1913.000
       128   04 Jun 2027 04:59:20.464   04 Jun 2027 04:59:21.697             1.233           616.500
       129   04 Jun 2027 06:28:37.476   04 Jun 2027 06:29:08.236            30.760         15380.000
       130   04 Jun 2027 06:31:32.556   04 Jun 2027 06:31:37.800             5.244          2622.000
       131   04 Jun 2027 06:32:08.975   04 Jun 2027 06:32:10.150             1.175           587.500
       132   04 Jun 2027 06:32:23.971   04 Jun 2027 06:32:40.127            16.156          8078.000
       133   04 Jun 2027 06:34:12.868   04 Jun 2027 06:34:14.288             1.420           710.000
       134   04 Jun 2027 08:06:35.136   04 Jun 2027 08:06:38.954             3.818          1909.000
       135   04 Jun 2027 08:07:04.505   04 Jun 2027 08:07:04.637             0.132            66.000
       136   04 Jun 2027 08:08:02.740   04 Jun 2027 08:08:04.213             1.473           736.500
       137   04 Jun 2027 08:08:24.473   04 Jun 2027 08:08:30.467             5.994          2997.000
       138   04 Jun 2027 08:09:32.711   04 Jun 2027 08:09:33.767             1.056           528.000
       139   04 Jun 2027 08:09:39.799   04 Jun 2027 08:09:40.308             0.509           254.500
       140   04 Jun 2027 08:09:47.380   04 Jun 2027 08:09:57.029             9.649          4824.500
       141   04 Jun 2027 08:10:55.810   04 Jun 2027 08:11:00.675             4.865          2432.500
       142   04 Jun 2027 09:42:27.960   04 Jun 2027 09:42:32.296             4.336          2168.000
       143   04 Jun 2027 09:42:49.707   04 Jun 2027 09:42:55.024             5.317          2658.500
       144   04 Jun 2027 09:43:44.254   04 Jun 2027 09:43:47.614             3.360          1680.000
       145   04 Jun 2027 09:44:48.901   04 Jun 2027 09:44:49.191             0.290           145.000
       146   04 Jun 2027 09:45:00.323   04 Jun 2027 09:45:13.817            13.494          6747.000
       147   04 Jun 2027 09:46:13.934   04 Jun 2027 09:46:18.367             4.433          2216.500
       148   04 Jun 2027 09:46:37.052   04 Jun 2027 09:46:39.124             2.072          1036.000
       149   04 Jun 2027 09:47:00.130   04 Jun 2027 09:47:01.659             1.529           764.500
       150   04 Jun 2027 09:47:09.616   04 Jun 2027 09:47:15.866             6.250          3125.000
       151   05 Jun 2027 03:29:13.101   05 Jun 2027 03:29:18.912             5.811          2905.500
       152   05 Jun 2027 03:29:52.613   05 Jun 2027 03:29:55.345             2.732          1366.000
       153   05 Jun 2027 03:30:08.210   05 Jun 2027 03:30:14.266             6.056          3028.000
       154   05 Jun 2027 03:30:45.007   05 Jun 2027 03:30:49.352             4.345          2172.500
       155   05 Jun 2027 03:31:27.650   05 Jun 2027 03:31:27.958             0.308           154.000
       156   05 Jun 2027 03:31:28.715   05 Jun 2027 03:31:45.333            16.618          8309.000
       157   05 Jun 2027 03:33:04.200   05 Jun 2027 03:33:04.848             0.648           324.000
       158   05 Jun 2027 05:03:56.990   05 Jun 2027 05:03:58.781             1.791           895.500
       159   05 Jun 2027 05:04:09.144   05 Jun 2027 05:04:12.312             3.168          1584.000
       160   05 Jun 2027 05:04:49.633   05 Jun 2027 05:04:50.527             0.894           447.000
       161   05 Jun 2027 05:05:54.968   05 Jun 2027 05:05:58.901             3.933          1966.500
       162   05 Jun 2027 05:06:37.665   05 Jun 2027 05:06:39.847             2.182          1091.000
       163   05 Jun 2027 05:06:56.483   05 Jun 2027 05:07:23.050            26.567         13283.500
       164   05 Jun 2027 05:09:31.860   05 Jun 2027 05:09:39.477             7.617          3808.500
       165   05 Jun 2027 05:10:24.358   05 Jun 2027 05:10:25.327             0.969           484.500
       166   05 Jun 2027 05:11:14.151   05 Jun 2027 05:11:25.807            11.656          5828.000
       167   05 Jun 2027 06:40:45.100   05 Jun 2027 06:41:20.881            35.781         17890.500
       168   05 Jun 2027 06:43:44.069   05 Jun 2027 06:43:51.294             7.225          3612.500
       169   05 Jun 2027 06:44:21.897   05 Jun 2027 06:44:26.966             5.069          2534.500
       170   05 Jun 2027 06:44:47.567   05 Jun 2027 06:44:50.519             2.952          1476.000
       171   05 Jun 2027 06:45:04.798   05 Jun 2027 06:45:09.743             4.945          2472.500
       172   05 Jun 2027 06:45:53.238   05 Jun 2027 06:45:54.144             0.906           453.000
       173   05 Jun 2027 06:46:58.734   05 Jun 2027 06:47:02.085             3.351          1675.500
       174   05 Jun 2027 08:19:00.074   05 Jun 2027 08:19:12.973            12.899          6449.500
       175   05 Jun 2027 08:20:06.613   05 Jun 2027 08:20:06.693             0.080            40.000
       176   05 Jun 2027 08:20:14.626   05 Jun 2027 08:20:30.809            16.183          8091.500
       177   05 Jun 2027 08:21:36.020   05 Jun 2027 08:21:43.296             7.276          3638.000
       178   05 Jun 2027 08:22:39.734   05 Jun 2027 08:22:42.917             3.183          1591.500
       179   05 Jun 2027 09:52:17.113   05 Jun 2027 09:52:27.418            10.305          5152.500
       180   05 Jun 2027 09:53:32.705   05 Jun 2027 09:53:34.663             1.958           979.000
       181   05 Jun 2027 09:53:59.570   05 Jun 2027 09:54:10.126            10.556          5278.000
       182   05 Jun 2027 09:55:18.991   05 Jun 2027 09:55:29.513            10.522          5261.000
       183   05 Jun 2027 09:56:55.252   05 Jun 2027 09:56:57.037             1.785           892.500
       184   05 Jun 2027 09:57:14.184   05 Jun 2027 09:57:23.081             8.897          4448.500
       185   05 Jun 2027 09:58:24.488   05 Jun 2027 09:58:29.911             5.423          2711.500
       186   05 Jun 2027 09:58:55.646   05 Jun 2027 09:58:56.800             1.154           577.000
       187   05 Jun 2027 09:59:26.703   05 Jun 2027 09:59:37.155            10.452          5226.000
       188   06 Jun 2027 03:39:07.252   06 Jun 2027 03:39:09.990             2.738          1369.000
       189   06 Jun 2027 03:40:57.373   06 Jun 2027 03:40:59.024             1.651           825.500
       190   06 Jun 2027 03:41:18.949   06 Jun 2027 03:41:22.469             3.520          1760.000
       191   06 Jun 2027 03:41:37.913   06 Jun 2027 03:41:41.926             4.013          2006.500
       192   06 Jun 2027 03:42:30.784   06 Jun 2027 03:42:48.836            18.052          9026.000
       193   06 Jun 2027 03:44:14.868   06 Jun 2027 03:44:22.515             7.647          3823.500
       194   06 Jun 2027 03:44:55.142   06 Jun 2027 03:44:58.981             3.839          1919.500
       195   06 Jun 2027 03:45:20.995   06 Jun 2027 03:45:28.077             7.082          3541.000
       196   06 Jun 2027 05:16:05.167   06 Jun 2027 05:16:05.498             0.331           165.500
       197   06 Jun 2027 05:16:12.117   06 Jun 2027 05:16:13.324             1.207           603.500
       198   06 Jun 2027 05:17:00.417   06 Jun 2027 05:17:17.946            17.529          8764.500
       199   06 Jun 2027 05:18:07.252   06 Jun 2027 05:18:11.656             4.404          2202.000
       200   06 Jun 2027 05:18:50.877   06 Jun 2027 05:18:55.485             4.608          2304.000
       201   06 Jun 2027 05:19:14.307   06 Jun 2027 05:19:23.441             9.134          4567.000
       202   06 Jun 2027 05:19:59.607   06 Jun 2027 05:20:02.966             3.359          1679.500
       203   06 Jun 2027 05:20:21.060   06 Jun 2027 05:20:33.712            12.652          6326.000
       204   06 Jun 2027 05:22:03.283   06 Jun 2027 05:22:14.739            11.456          5728.000
       205   06 Jun 2027 05:22:35.856   06 Jun 2027 05:22:38.352             2.496          1248.000
       206   06 Jun 2027 05:23:16.475   06 Jun 2027 05:23:21.344             4.869          2434.500
       207   06 Jun 2027 06:53:03.378   06 Jun 2027 06:53:17.790            14.412          7206.000
       208   06 Jun 2027 06:53:56.016   06 Jun 2027 06:54:03.402             7.386          3693.000
       209   06 Jun 2027 06:54:51.237   06 Jun 2027 06:55:03.830            12.593          6296.500
       210   06 Jun 2027 06:56:06.095   06 Jun 2027 06:56:11.533             5.438          2719.000
       211   06 Jun 2027 06:56:48.968   06 Jun 2027 06:57:06.200            17.232          8616.000
       212   06 Jun 2027 06:58:16.031   06 Jun 2027 06:58:48.260            32.229         16114.500
       213   06 Jun 2027 08:30:58.169   06 Jun 2027 08:31:03.059             4.890          2445.000
       214   06 Jun 2027 08:31:33.831   06 Jun 2027 08:31:36.751             2.920          1460.000
       215   06 Jun 2027 08:32:05.490   06 Jun 2027 08:32:06.011             0.521           260.500
       216   06 Jun 2027 08:32:08.319   06 Jun 2027 08:32:22.266            13.947          6973.500
       217   06 Jun 2027 08:33:38.850   06 Jun 2027 08:33:47.777             8.927          4463.500
       218   06 Jun 2027 08:34:31.282   06 Jun 2027 08:34:32.681             1.399           699.500
       219   06 Jun 2027 08:34:37.256   06 Jun 2027 08:34:43.269             6.013          3006.500
       220   06 Jun 2027 10:04:17.181   06 Jun 2027 10:04:25.715             8.534          4267.000
       221   06 Jun 2027 10:05:09.082   06 Jun 2027 10:05:10.455             1.373           686.500
       222   06 Jun 2027 10:05:16.894   06 Jun 2027 10:05:22.720             5.826          2913.000
       223   06 Jun 2027 10:05:51.500   06 Jun 2027 10:06:14.443            22.943         11471.500
       224   06 Jun 2027 10:07:47.651   06 Jun 2027 10:07:49.623             1.972           986.000
       225   06 Jun 2027 10:08:09.538   06 Jun 2027 10:08:19.459             9.921          4960.500
       226   06 Jun 2027 10:09:19.217   06 Jun 2027 10:09:23.103             3.886          1943.000
       227   06 Jun 2027 10:09:45.821   06 Jun 2027 10:10:04.727            18.906          9453.000
       228   06 Jun 2027 10:11:30.303   06 Jun 2027 10:11:33.504             3.201          1600.500
       229   06 Jun 2027 10:11:56.047   06 Jun 2027 10:11:56.693             0.646           323.000
       230   07 Jun 2027 03:50:32.220   07 Jun 2027 03:50:33.034             0.814           407.000
       231   07 Jun 2027 03:50:42.858   07 Jun 2027 03:51:06.019            23.161         11580.500
       232   07 Jun 2027 03:52:56.372   07 Jun 2027 03:53:02.108             5.736          2868.000
       233   07 Jun 2027 03:54:26.172   07 Jun 2027 03:54:26.202             0.030            15.000
       234   07 Jun 2027 03:54:48.767   07 Jun 2027 03:54:52.465             3.698          1849.000
       235   07 Jun 2027 03:55:11.106   07 Jun 2027 03:55:14.374             3.268          1634.000
       236   07 Jun 2027 03:55:24.392   07 Jun 2027 03:55:27.788             3.396          1698.000
       237   07 Jun 2027 03:56:02.751   07 Jun 2027 03:56:04.844             2.093          1046.500
       238   07 Jun 2027 03:56:23.888   07 Jun 2027 03:56:29.771             5.883          2941.500
       239   07 Jun 2027 03:57:15.239   07 Jun 2027 03:57:26.243            11.004          5502.000
       240   07 Jun 2027 03:58:55.991   07 Jun 2027 03:59:01.865             5.874          2937.000
       241   07 Jun 2027 05:28:08.483   07 Jun 2027 05:28:08.528             0.045            22.500
       242   07 Jun 2027 05:28:12.986   07 Jun 2027 05:28:14.817             1.831           915.500
       243   07 Jun 2027 05:28:23.702   07 Jun 2027 05:28:33.001             9.299          4649.500
       244   07 Jun 2027 05:29:38.672   07 Jun 2027 05:29:44.367             5.695          2847.500
       245   07 Jun 2027 05:30:08.933   07 Jun 2027 05:30:10.200             1.267           633.500
       246   07 Jun 2027 05:30:26.208   07 Jun 2027 05:30:30.823             4.615          2307.500
       247   07 Jun 2027 05:30:58.635   07 Jun 2027 05:31:14.374            15.739          7869.500
       248   07 Jun 2027 05:32:20.036   07 Jun 2027 05:32:25.913             5.877          2938.500
       249   07 Jun 2027 05:33:41.961   07 Jun 2027 05:33:42.634             0.673           336.500
       250   07 Jun 2027 05:34:12.455   07 Jun 2027 05:34:19.954             7.499          3749.500
       251   07 Jun 2027 05:34:50.423   07 Jun 2027 05:35:12.444            22.021         11010.500
       252   07 Jun 2027 07:04:52.851   07 Jun 2027 07:05:02.177             9.326          4663.000
       253   07 Jun 2027 07:05:47.471   07 Jun 2027 07:05:49.866             2.395          1197.500
       254   07 Jun 2027 07:06:23.466   07 Jun 2027 07:06:26.527             3.061          1530.500
       255   07 Jun 2027 07:06:49.193   07 Jun 2027 07:07:03.315            14.122          7061.000
       256   07 Jun 2027 07:08:09.982   07 Jun 2027 07:08:12.558             2.576          1288.000
       257   07 Jun 2027 07:08:42.904   07 Jun 2027 07:08:52.104             9.200          4600.000
       258   07 Jun 2027 07:09:30.083   07 Jun 2027 07:09:37.209             7.126          3563.000
       259   07 Jun 2027 07:10:43.987   07 Jun 2027 07:10:44.595             0.608           304.000
       260   07 Jun 2027 07:11:07.916   07 Jun 2027 07:11:11.952             4.036          2018.000
       261   07 Jun 2027 07:11:31.537   07 Jun 2027 07:11:34.133             2.596          1298.000
       262   07 Jun 2027 08:42:57.541   07 Jun 2027 08:42:59.677             2.136          1068.000
       263   07 Jun 2027 08:43:21.469   07 Jun 2027 08:43:29.992             8.523          4261.500
       264   07 Jun 2027 08:45:00.607   07 Jun 2027 08:45:01.061             0.454           227.000
       265   07 Jun 2027 08:45:07.028   07 Jun 2027 08:45:18.230            11.202          5601.000
       266   07 Jun 2027 08:45:28.254   07 Jun 2027 08:45:37.374             9.120          4560.000
       267   07 Jun 2027 10:16:43.194   07 Jun 2027 10:16:59.564            16.370          8185.000
       268   07 Jun 2027 10:18:12.847   07 Jun 2027 10:18:15.813             2.966          1483.000
       269   07 Jun 2027 10:19:00.832   07 Jun 2027 10:19:07.966             7.134          3567.000
       270   07 Jun 2027 10:19:36.698   07 Jun 2027 10:19:37.346             0.648           324.000
       271   07 Jun 2027 10:20:03.625   07 Jun 2027 10:20:05.066             1.441           720.500
       272   07 Jun 2027 10:20:20.618   07 Jun 2027 10:20:21.748             1.130           565.000
       273   07 Jun 2027 10:20:39.327   07 Jun 2027 10:21:00.416            21.089         10544.500
       274   07 Jun 2027 10:22:35.715   07 Jun 2027 10:22:40.470             4.755          2377.500
       275   07 Jun 2027 10:23:01.043   07 Jun 2027 10:23:08.135             7.092          3546.000
       276   08 Jun 2027 04:02:02.731   08 Jun 2027 04:02:05.159             2.428          1214.000
       277   08 Jun 2027 04:02:28.979   08 Jun 2027 04:02:29.359             0.380           190.000
       278   08 Jun 2027 04:02:43.166   08 Jun 2027 04:02:50.082             6.916          3458.000
       279   08 Jun 2027 04:03:06.367   08 Jun 2027 04:03:07.273             0.906           453.000
       280   08 Jun 2027 04:04:04.672   08 Jun 2027 04:04:19.216            14.544          7272.000
       281   08 Jun 2027 04:05:37.118   08 Jun 2027 04:05:43.885             6.767          3383.500
       282   08 Jun 2027 04:06:15.469   08 Jun 2027 04:06:18.770             3.301          1650.500
       283   08 Jun 2027 04:07:00.167   08 Jun 2027 04:07:12.168            12.001          6000.500
       284   08 Jun 2027 04:08:12.398   08 Jun 2027 04:08:13.107             0.709           354.500
       285   08 Jun 2027 04:08:20.794   08 Jun 2027 04:08:25.372             4.578          2289.000
       286   08 Jun 2027 04:08:44.820   08 Jun 2027 04:08:48.281             3.461          1730.500
       287   08 Jun 2027 04:09:40.661   08 Jun 2027 04:09:54.491            13.830          6915.000
       288   08 Jun 2027 04:10:58.656   08 Jun 2027 04:11:00.150             1.494           747.000
       289   08 Jun 2027 04:11:26.705   08 Jun 2027 04:11:29.584             2.879          1439.500
       290   08 Jun 2027 05:40:07.577   08 Jun 2027 05:40:12.116             4.539          2269.500
       291   08 Jun 2027 05:40:35.078   08 Jun 2027 05:40:36.698             1.620           810.000
       292   08 Jun 2027 05:41:13.052   08 Jun 2027 05:41:19.346             6.294          3147.000
       293   08 Jun 2027 05:41:55.187   08 Jun 2027 05:42:02.015             6.828          3414.000
       294   08 Jun 2027 05:42:33.500   08 Jun 2027 05:42:37.599             4.099          2049.500
       295   08 Jun 2027 05:42:58.402   08 Jun 2027 05:43:03.796             5.394          2697.000
       296   08 Jun 2027 05:43:35.611   08 Jun 2027 05:43:36.661             1.050           525.000
       297   08 Jun 2027 05:43:49.723   08 Jun 2027 05:43:50.203             0.480           240.000
       298   08 Jun 2027 05:44:21.167   08 Jun 2027 05:44:25.723             4.556          2278.000
       299   08 Jun 2027 05:45:28.452   08 Jun 2027 05:45:28.941             0.489           244.500
       300   08 Jun 2027 05:46:07.834   08 Jun 2027 05:46:10.256             2.422          1211.000
       301   08 Jun 2027 05:46:33.205   08 Jun 2027 05:46:34.763             1.558           779.000
       302   08 Jun 2027 05:47:15.446   08 Jun 2027 05:47:20.087             4.641          2320.500
       303   08 Jun 2027 07:17:00.860   08 Jun 2027 07:17:02.490             1.630           815.000
       304   08 Jun 2027 07:17:18.110   08 Jun 2027 07:17:30.683            12.573          6286.500
       305   08 Jun 2027 07:18:23.569   08 Jun 2027 07:18:28.958             5.389          2694.500
       306   08 Jun 2027 07:18:44.525   08 Jun 2027 07:18:54.784            10.259          5129.500
       307   08 Jun 2027 07:19:46.663   08 Jun 2027 07:19:51.722             5.059          2529.500
       308   08 Jun 2027 07:20:13.773   08 Jun 2027 07:20:18.452             4.679          2339.500
       309   08 Jun 2027 07:21:01.554   08 Jun 2027 07:21:04.361             2.807          1403.500
       310   08 Jun 2027 07:21:24.758   08 Jun 2027 07:21:25.620             0.862           431.000
       311   08 Jun 2027 07:21:40.892   08 Jun 2027 07:21:45.825             4.933          2466.500
       312   08 Jun 2027 07:22:24.098   08 Jun 2027 07:22:25.773             1.675           837.500
       313   08 Jun 2027 07:22:32.844   08 Jun 2027 07:22:36.042             3.198          1599.000
       314   08 Jun 2027 07:22:59.714   08 Jun 2027 07:23:01.936             2.222          1111.000
       315   08 Jun 2027 07:23:17.491   08 Jun 2027 07:23:19.460             1.969           984.500
       316   08 Jun 2027 08:54:10.633   08 Jun 2027 08:54:12.545             1.912           956.000
       317   08 Jun 2027 08:54:26.411   08 Jun 2027 08:54:26.912             0.501           250.500
       318   08 Jun 2027 08:54:53.870   08 Jun 2027 08:54:54.034             0.164            82.000
       319   08 Jun 2027 08:54:56.212   08 Jun 2027 08:55:05.253             9.041          4520.500
       320   08 Jun 2027 08:56:07.184   08 Jun 2027 08:56:08.524             1.340           670.000
       321   08 Jun 2027 08:56:37.042   08 Jun 2027 08:56:41.590             4.548          2274.000
       322   08 Jun 2027 08:57:10.895   08 Jun 2027 08:57:23.284            12.389          6194.500
       323   08 Jun 2027 08:58:57.445   08 Jun 2027 08:59:04.871             7.426          3713.000
       324   08 Jun 2027 10:28:57.813   08 Jun 2027 10:29:00.987             3.174          1587.000
       325   08 Jun 2027 10:29:46.973   08 Jun 2027 10:30:09.744            22.771         11385.500
       326   08 Jun 2027 10:31:54.207   08 Jun 2027 10:32:03.136             8.929          4464.500
       327   08 Jun 2027 10:33:08.836   08 Jun 2027 10:33:20.957            12.121          6060.500
       328   08 Jun 2027 10:34:10.698   08 Jun 2027 10:34:12.004             1.306           653.000
       329   09 Jun 2027 04:15:02.069   09 Jun 2027 04:15:08.171             6.102          3051.000
       330   09 Jun 2027 04:16:00.530   09 Jun 2027 04:16:02.174             1.644           822.000
       331   09 Jun 2027 04:16:27.067   09 Jun 2027 04:16:34.692             7.625          3812.500
       332   09 Jun 2027 04:17:13.929   09 Jun 2027 04:17:42.599            28.670         14335.000
       333   09 Jun 2027 04:19:10.399   09 Jun 2027 04:19:16.366             5.967          2983.500
       334   09 Jun 2027 04:20:35.818   09 Jun 2027 04:20:37.018             1.200           600.000
       335   09 Jun 2027 04:22:13.079   09 Jun 2027 04:22:22.402             9.323          4661.500
       336   09 Jun 2027 04:22:35.155   09 Jun 2027 04:22:36.147             0.992           496.000
       337   09 Jun 2027 04:23:22.990   09 Jun 2027 04:23:24.683             1.693           846.500
       338   09 Jun 2027 05:52:29.854   09 Jun 2027 05:52:36.325             6.471          3235.500
       339   09 Jun 2027 05:53:31.285   09 Jun 2027 05:53:32.154             0.869           434.500
       340   09 Jun 2027 05:54:30.861   09 Jun 2027 05:54:34.492             3.631          1815.500
       341   09 Jun 2027 05:54:39.349   09 Jun 2027 05:54:49.866            10.517          5258.500
       342   09 Jun 2027 05:56:02.455   09 Jun 2027 05:56:09.224             6.769          3384.500
       343   09 Jun 2027 05:56:39.426   09 Jun 2027 05:56:43.117             3.691          1845.500
       344   09 Jun 2027 05:57:26.496   09 Jun 2027 05:57:35.180             8.684          4342.000
       345   09 Jun 2027 05:57:56.048   09 Jun 2027 05:58:01.277             5.229          2614.500
       346   09 Jun 2027 05:58:26.803   09 Jun 2027 05:58:26.803             0.000             0.000
       347   09 Jun 2027 05:58:58.574   09 Jun 2027 05:59:08.229             9.655          4827.500
       348   09 Jun 2027 07:29:29.238   09 Jun 2027 07:29:34.719             5.481          2740.500
       349   09 Jun 2027 07:29:49.988   09 Jun 2027 07:30:03.175            13.187          6593.500
       350   09 Jun 2027 07:31:18.187   09 Jun 2027 07:31:19.843             1.656           828.000
       351   09 Jun 2027 07:32:15.472   09 Jun 2027 07:32:18.101             2.629          1314.500
       352   09 Jun 2027 07:32:49.197   09 Jun 2027 07:32:53.006             3.809          1904.500
       353   09 Jun 2027 07:33:10.097   09 Jun 2027 07:33:12.661             2.564          1282.000
       354   09 Jun 2027 07:33:24.447   09 Jun 2027 07:33:34.829            10.382          5191.000
       355   09 Jun 2027 07:34:41.949   09 Jun 2027 07:34:42.670             0.721           360.500
       356   09 Jun 2027 07:34:54.919   09 Jun 2027 07:34:55.369             0.450           225.000
       357   09 Jun 2027 07:35:04.374   09 Jun 2027 07:35:14.111             9.737          4868.500
       358   09 Jun 2027 07:35:17.944   09 Jun 2027 07:35:20.849             2.905          1452.500
       359   09 Jun 2027 09:06:23.225   09 Jun 2027 09:06:25.726             2.501          1250.500
       360   09 Jun 2027 09:07:10.292   09 Jun 2027 09:07:19.299             9.007          4503.500
       361   09 Jun 2027 09:08:09.987   09 Jun 2027 09:08:13.311             3.324          1662.000
       362   09 Jun 2027 09:08:37.239   09 Jun 2027 09:08:37.956             0.717           358.500
       363   09 Jun 2027 09:09:33.727   09 Jun 2027 09:09:35.243             1.516           758.000
       364   09 Jun 2027 09:09:55.957   09 Jun 2027 09:10:09.932            13.975          6987.500
       365   09 Jun 2027 10:43:32.684   09 Jun 2027 10:43:41.943             9.259          4629.500
       366   09 Jun 2027 10:44:31.663   09 Jun 2027 10:44:33.074             1.411           705.500
       367   09 Jun 2027 10:45:02.849   09 Jun 2027 10:45:04.680             1.831           915.500
       368   09 Jun 2027 10:45:24.842   09 Jun 2027 10:45:25.973             1.131           565.500
       369   09 Jun 2027 10:45:51.670   09 Jun 2027 10:46:00.534             8.864          4432.000
       370   10 Jun 2027 04:25:44.419   10 Jun 2027 04:25:53.382             8.963          4481.500
       371   10 Jun 2027 04:27:40.979   10 Jun 2027 04:27:47.119             6.140          3070.000
       372   10 Jun 2027 04:28:19.218   10 Jun 2027 04:28:29.143             9.925          4962.500
       373   10 Jun 2027 04:29:14.965   10 Jun 2027 04:29:55.278            40.313         20156.500
       374   10 Jun 2027 04:33:13.876   10 Jun 2027 04:33:27.318            13.442          6721.000
       375   10 Jun 2027 04:34:27.212   10 Jun 2027 04:34:28.839             1.627           813.500
       376   10 Jun 2027 04:34:31.903   10 Jun 2027 04:34:39.356             7.453          3726.500
       377   10 Jun 2027 04:35:24.140   10 Jun 2027 04:35:26.915             2.775          1387.500
       378   10 Jun 2027 06:04:39.076   10 Jun 2027 06:04:53.318            14.242          7121.000
       379   10 Jun 2027 06:05:03.529   10 Jun 2027 06:05:13.013             9.484          4742.000
       380   10 Jun 2027 06:06:35.136   10 Jun 2027 06:06:40.952             5.816          2908.000
       381   10 Jun 2027 06:07:21.073   10 Jun 2027 06:07:22.946             1.873           936.500
       382   10 Jun 2027 06:07:51.693   10 Jun 2027 06:07:57.383             5.690          2845.000
       383   10 Jun 2027 06:08:21.053   10 Jun 2027 06:08:26.413             5.360          2680.000
       384   10 Jun 2027 06:08:56.491   10 Jun 2027 06:09:05.505             9.014          4507.000
       385   10 Jun 2027 06:09:45.697   10 Jun 2027 06:09:53.030             7.333          3666.500
       386   10 Jun 2027 06:10:47.930   10 Jun 2027 06:10:48.292             0.362           181.000
       387   10 Jun 2027 06:11:06.193   10 Jun 2027 06:11:12.789             6.596          3298.000
       388   10 Jun 2027 07:41:57.110   10 Jun 2027 07:42:06.824             9.714          4857.000
       389   10 Jun 2027 07:42:58.537   10 Jun 2027 07:43:05.121             6.584          3292.000
       390   10 Jun 2027 07:43:50.687   10 Jun 2027 07:43:53.782             3.095          1547.500
       391   10 Jun 2027 07:44:16.633   10 Jun 2027 07:44:17.041             0.408           204.000
       392   10 Jun 2027 07:45:40.824   10 Jun 2027 07:45:42.176             1.352           676.000
       393   10 Jun 2027 07:46:22.410   10 Jun 2027 07:46:26.394             3.984          1992.000
       394   10 Jun 2027 09:18:24.328   10 Jun 2027 09:18:28.353             4.025          2012.500
       395   10 Jun 2027 09:19:08.908   10 Jun 2027 09:19:14.819             5.911          2955.500
       396   10 Jun 2027 09:20:12.816   10 Jun 2027 09:20:14.793             1.977           988.500
       397   10 Jun 2027 09:20:37.713   10 Jun 2027 09:20:55.104            17.391          8695.500
       398   10 Jun 2027 09:21:38.552   10 Jun 2027 09:21:39.848             1.296           648.000
       399   10 Jun 2027 09:22:55.438   10 Jun 2027 09:23:05.786            10.348          5174.000
       400   10 Jun 2027 10:56:40.856   10 Jun 2027 10:56:47.369             6.513          3256.500
       401   10 Jun 2027 10:57:15.768   10 Jun 2027 10:57:17.188             1.420           710.000
       402   11 Jun 2027 03:05:43.337   11 Jun 2027 03:05:49.451             6.114          3057.000
       403   11 Jun 2027 03:06:34.522   11 Jun 2027 03:06:35.872             1.350           675.000
       404   11 Jun 2027 03:07:08.815   11 Jun 2027 03:07:10.875             2.060          1030.000
       405   11 Jun 2027 03:07:45.265   11 Jun 2027 03:07:49.844             4.579          2289.500
       406   11 Jun 2027 03:08:24.471   11 Jun 2027 03:08:34.591            10.120          5060.000
       407   11 Jun 2027 03:09:16.490   11 Jun 2027 03:09:21.945             5.455          2727.500
       408   11 Jun 2027 04:40:54.047   11 Jun 2027 04:41:01.303             7.256          3628.000
       409   11 Jun 2027 04:42:00.696   11 Jun 2027 04:42:09.430             8.734          4367.000
       410   11 Jun 2027 04:42:59.961   11 Jun 2027 04:43:01.076             1.115           557.500
       411   11 Jun 2027 04:43:18.242   11 Jun 2027 04:43:29.974            11.732          5866.000
       412   11 Jun 2027 04:44:17.214   11 Jun 2027 04:44:27.075             9.861          4930.500
       413   11 Jun 2027 04:45:02.653   11 Jun 2027 04:45:22.646            19.993          9996.500
       414   11 Jun 2027 04:46:54.238   11 Jun 2027 04:46:56.255             2.017          1008.500
       415   11 Jun 2027 04:47:23.806   11 Jun 2027 04:47:25.691             1.885           942.500
       416   11 Jun 2027 06:17:13.031   11 Jun 2027 06:17:41.918            28.887         14443.500
       417   11 Jun 2027 06:19:58.360   11 Jun 2027 06:19:59.104             0.744           372.000
       418   11 Jun 2027 06:20:17.348   11 Jun 2027 06:20:31.405            14.057          7028.500
       419   11 Jun 2027 06:21:42.168   11 Jun 2027 06:21:45.540             3.372          1686.000
       420   11 Jun 2027 06:22:10.878   11 Jun 2027 06:22:22.923            12.045          6022.500
       421   11 Jun 2027 06:23:22.072   11 Jun 2027 06:23:25.616             3.544          1772.000
       422   11 Jun 2027 07:54:36.490   11 Jun 2027 07:54:37.422             0.932           466.000
       423   11 Jun 2027 07:54:53.797   11 Jun 2027 07:55:00.418             6.621          3310.500
       424   11 Jun 2027 07:55:50.965   11 Jun 2027 07:55:51.044             0.079            39.500
       425   11 Jun 2027 07:56:06.918   11 Jun 2027 07:56:08.537             1.619           809.500
       426   11 Jun 2027 07:56:18.223   11 Jun 2027 07:56:18.371             0.148            74.000
       427   11 Jun 2027 07:56:23.756   11 Jun 2027 07:56:27.612             3.856          1928.000
       428   11 Jun 2027 07:57:01.498   11 Jun 2027 07:57:04.749             3.251          1625.500
       429   11 Jun 2027 07:57:11.196   11 Jun 2027 07:57:16.291             5.095          2547.500
       430   11 Jun 2027 07:57:21.738   11 Jun 2027 07:57:27.670             5.932          2966.000
       431   11 Jun 2027 07:58:32.201   11 Jun 2027 07:58:47.496            15.295          7647.500
       432   11 Jun 2027 09:30:48.107   11 Jun 2027 09:30:52.184             4.077          2038.500
       433   11 Jun 2027 09:31:27.046   11 Jun 2027 09:31:27.147             0.101            50.500
       434   11 Jun 2027 09:31:30.989   11 Jun 2027 09:31:41.704            10.715          5357.500
       435   11 Jun 2027 09:32:45.672   11 Jun 2027 09:33:02.914            17.242          8621.000
       436   11 Jun 2027 09:34:45.181   11 Jun 2027 09:34:45.745             0.564           282.000
       437   12 Jun 2027 03:17:43.906   12 Jun 2027 03:17:49.111             5.205          2602.500
       438   12 Jun 2027 03:18:27.544   12 Jun 2027 03:18:27.901             0.357           178.500
       439   12 Jun 2027 03:19:33.367   12 Jun 2027 03:19:33.404             0.037            18.500
       440   12 Jun 2027 03:19:40.106   12 Jun 2027 03:19:44.114             4.008          2004.000
       441   12 Jun 2027 03:20:36.266   12 Jun 2027 03:20:37.899             1.633           816.500
       442   12 Jun 2027 03:20:50.208   12 Jun 2027 03:20:52.279             2.071          1035.500
       443   12 Jun 2027 03:21:09.094   12 Jun 2027 03:21:13.309             4.215          2107.500
       444   12 Jun 2027 04:52:56.755   12 Jun 2027 04:53:24.573            27.818         13909.000
       445   12 Jun 2027 04:55:22.717   12 Jun 2027 04:55:26.439             3.722          1861.000
       446   12 Jun 2027 04:55:48.445   12 Jun 2027 04:55:53.514             5.069          2534.500
       447   12 Jun 2027 04:56:00.974   12 Jun 2027 04:56:03.058             2.084          1042.000
       448   12 Jun 2027 04:57:12.872   12 Jun 2027 04:57:13.130             0.258           129.000
       449   12 Jun 2027 04:57:24.382   12 Jun 2027 04:57:30.458             6.076          3038.000
       450   12 Jun 2027 04:58:00.957   12 Jun 2027 04:58:03.205             2.248          1124.000
       451   12 Jun 2027 04:58:27.172   12 Jun 2027 04:58:47.729            20.557         10278.500
       452   12 Jun 2027 06:28:51.974   12 Jun 2027 06:28:53.515             1.541           770.500
       453   12 Jun 2027 06:29:23.376   12 Jun 2027 06:29:38.700            15.324          7662.000
       454   12 Jun 2027 06:30:40.136   12 Jun 2027 06:30:41.447             1.311           655.500
       455   12 Jun 2027 06:31:16.542   12 Jun 2027 06:31:16.758             0.216           108.000
       456   12 Jun 2027 06:31:25.066   12 Jun 2027 06:31:47.331            22.265         11132.500
       457   12 Jun 2027 06:33:16.810   12 Jun 2027 06:33:26.386             9.576          4788.000
       458   12 Jun 2027 06:33:27.620   12 Jun 2027 06:33:28.113             0.493           246.500
       459   12 Jun 2027 06:33:30.320   12 Jun 2027 06:33:30.953             0.633           316.500
       460   12 Jun 2027 06:34:24.914   12 Jun 2027 06:34:28.033             3.119          1559.500
       461   12 Jun 2027 08:06:50.916   12 Jun 2027 08:06:53.656             2.740          1370.000
       462   12 Jun 2027 08:07:21.096   12 Jun 2027 08:07:42.306            21.210         10605.000
       463   12 Jun 2027 08:09:28.826   12 Jun 2027 08:09:29.553             0.727           363.500
       464   12 Jun 2027 08:09:55.185   12 Jun 2027 08:09:55.972             0.787           393.500
       465   12 Jun 2027 08:10:11.660   12 Jun 2027 08:10:11.689             0.029            14.500
       466   12 Jun 2027 08:10:15.827   12 Jun 2027 08:10:23.372             7.545          3772.500
       467   12 Jun 2027 08:11:11.671   12 Jun 2027 08:11:15.255             3.584          1792.000
       468   12 Jun 2027 09:42:42.589   12 Jun 2027 09:42:47.924             5.335          2667.500
       469   12 Jun 2027 09:43:16.684   12 Jun 2027 09:43:22.431             5.747          2873.500
       470   12 Jun 2027 09:44:03.251   12 Jun 2027 09:44:04.282             1.031           515.500
       471   12 Jun 2027 09:44:36.934   12 Jun 2027 09:44:39.371             2.437          1218.500
       472   12 Jun 2027 09:45:01.345   12 Jun 2027 09:45:05.211             3.866          1933.000
       473   12 Jun 2027 09:45:31.569   12 Jun 2027 09:45:31.579             0.010             5.000
       474   12 Jun 2027 09:45:38.103   12 Jun 2027 09:45:43.648             5.545          2772.500
       475   12 Jun 2027 09:46:33.536   12 Jun 2027 09:46:41.367             7.831          3915.500
       476   12 Jun 2027 09:47:14.423   12 Jun 2027 09:47:16.445             2.022          1011.000
       477   12 Jun 2027 09:47:35.658   12 Jun 2027 09:47:47.981            12.323          6161.500
       478   13 Jun 2027 03:29:27.723   13 Jun 2027 03:29:33.444             5.721          2860.500
       479   13 Jun 2027 03:30:08.166   13 Jun 2027 03:30:10.645             2.479          1239.500
       480   13 Jun 2027 03:30:38.717   13 Jun 2027 03:30:40.931             2.214          1107.000
       481   13 Jun 2027 03:31:06.201   13 Jun 2027 03:31:12.680             6.479          3239.500
       482   13 Jun 2027 03:31:42.254   13 Jun 2027 03:31:46.837             4.583          2291.500
       483   13 Jun 2027 03:32:23.784   13 Jun 2027 03:32:32.539             8.755          4377.500
       484   13 Jun 2027 03:32:40.307   13 Jun 2027 03:32:43.978             3.671          1835.500
       485   13 Jun 2027 05:04:11.616   13 Jun 2027 05:04:13.319             1.703           851.500
       486   13 Jun 2027 05:04:23.917   13 Jun 2027 05:04:30.017             6.100          3050.000
       487   13 Jun 2027 05:05:03.855   13 Jun 2027 05:05:25.372            21.517         10758.500
       488   13 Jun 2027 05:06:29.318   13 Jun 2027 05:06:36.774             7.456          3728.000
       489   13 Jun 2027 05:07:59.172   13 Jun 2027 05:08:00.909             1.737           868.500
       490   13 Jun 2027 05:08:58.696   13 Jun 2027 05:08:59.023             0.327           163.500
       491   13 Jun 2027 05:09:39.249   13 Jun 2027 05:09:46.390             7.141          3570.500
       492   13 Jun 2027 05:10:07.448   13 Jun 2027 05:10:07.843             0.395           197.500
       493   13 Jun 2027 05:10:16.945   13 Jun 2027 05:10:19.163             2.218          1109.000
       494   13 Jun 2027 06:41:00.323   13 Jun 2027 06:41:36.031            35.708         17854.000
       495   13 Jun 2027 06:44:25.584   13 Jun 2027 06:44:25.716             0.132            66.000
       496   13 Jun 2027 06:44:36.578   13 Jun 2027 06:44:41.668             5.090          2545.000
       497   13 Jun 2027 06:45:01.330   13 Jun 2027 06:45:04.929             3.599          1799.500
       498   13 Jun 2027 06:45:20.292   13 Jun 2027 06:45:24.384             4.092          2046.000
       499   13 Jun 2027 06:46:08.591   13 Jun 2027 06:46:10.041             1.450           725.000
       500   13 Jun 2027 06:47:14.164   13 Jun 2027 06:47:16.673             2.509          1254.500
       501   13 Jun 2027 08:19:13.740   13 Jun 2027 08:19:29.955            16.215          8107.500
       502   13 Jun 2027 08:21:13.264   13 Jun 2027 08:21:14.462             1.198           599.000
       503   13 Jun 2027 08:22:07.355   13 Jun 2027 08:22:16.701             9.346          4673.000
       504   13 Jun 2027 08:22:59.299   13 Jun 2027 08:23:09.170             9.871          4935.500
       505   13 Jun 2027 09:52:31.486   13 Jun 2027 09:52:34.657             3.171          1585.500
       506   13 Jun 2027 09:52:50.326   13 Jun 2027 09:53:09.745            19.419          9709.500
       507   13 Jun 2027 09:54:36.913   13 Jun 2027 09:54:42.785             5.872          2936.000
       508   13 Jun 2027 09:55:22.219   13 Jun 2027 09:55:25.509             3.290          1645.000
       509   13 Jun 2027 09:55:53.206   13 Jun 2027 09:55:57.721             4.515          2257.500
       510   13 Jun 2027 09:56:28.983   13 Jun 2027 09:56:40.498            11.515          5757.500
       511   13 Jun 2027 09:57:37.801   13 Jun 2027 09:57:40.965             3.164          1582.000
       512   13 Jun 2027 09:57:54.754   13 Jun 2027 09:58:15.717            20.963         10481.500
       513   13 Jun 2027 09:59:52.808   13 Jun 2027 09:59:54.598             1.790           895.000
       514   13 Jun 2027 10:00:10.505   13 Jun 2027 10:00:15.442             4.937          2468.500
