uniorb/output/strategy_2/Camera/Camera_KinoSat_110503.txt

KinoSat_110503
-------------------------
    Access    *     Start Time (UTCG)     *     Stop Time (UTCG)  *   Duration (s) *   Data (Mbytes)
         1   01 Jun 2027 04:04:09.944   01 Jun 2027 04:04:15.603             5.659          2829.500
         2   01 Jun 2027 04:04:47.740   01 Jun 2027 04:04:49.316             1.576           788.000
         3   01 Jun 2027 04:05:18.224   01 Jun 2027 04:06:14.357            56.133         28066.500
         4   01 Jun 2027 04:10:02.973   01 Jun 2027 04:10:10.353             7.380          3690.000
         5   01 Jun 2027 04:10:37.904   01 Jun 2027 04:10:42.595             4.691          2345.500
         6   01 Jun 2027 04:11:30.003   01 Jun 2027 04:11:37.005             7.002          3501.000
         7   01 Jun 2027 04:12:03.810   01 Jun 2027 04:12:03.810             0.000             0.000
         8   01 Jun 2027 04:12:09.803   01 Jun 2027 04:12:19.489             9.686          4843.000
         9   01 Jun 2027 04:13:05.682   01 Jun 2027 04:13:07.901             2.219          1109.500
        10   01 Jun 2027 04:13:31.568   01 Jun 2027 04:13:34.203             2.635          1317.500
        11   01 Jun 2027 05:42:20.050   01 Jun 2027 05:42:36.234            16.184          8092.000
        12   01 Jun 2027 05:43:19.332   01 Jun 2027 05:43:20.757             1.425           712.500
        13   01 Jun 2027 05:44:15.401   01 Jun 2027 05:44:16.270             0.869           434.500
        14   01 Jun 2027 05:44:21.292   01 Jun 2027 05:44:42.113            20.821         10410.500
        15   01 Jun 2027 05:46:09.922   01 Jun 2027 05:46:16.545             6.623          3311.500
        16   01 Jun 2027 05:46:47.817   01 Jun 2027 05:47:03.203            15.386          7693.000
        17   01 Jun 2027 05:48:11.564   01 Jun 2027 05:48:19.342             7.778          3889.000
        18   01 Jun 2027 05:49:10.108   01 Jun 2027 05:49:11.975             1.867           933.500
        19   01 Jun 2027 05:49:28.339   01 Jun 2027 05:49:41.265            12.926          6463.000
        20   01 Jun 2027 07:19:14.797   01 Jun 2027 07:19:22.045             7.248          3624.000
        21   01 Jun 2027 07:20:22.385   01 Jun 2027 07:20:27.338             4.953          2476.500
        22   01 Jun 2027 07:20:51.839   01 Jun 2027 07:21:05.978            14.139          7069.500
        23   01 Jun 2027 07:22:13.040   01 Jun 2027 07:22:13.162             0.122            61.000
        24   01 Jun 2027 07:22:49.137   01 Jun 2027 07:23:04.434            15.297          7648.500
        25   01 Jun 2027 07:23:54.480   01 Jun 2027 07:23:57.015             2.535          1267.500
        26   01 Jun 2027 07:24:29.809   01 Jun 2027 07:24:39.211             9.402          4701.000
        27   01 Jun 2027 07:25:29.498   01 Jun 2027 07:25:32.641             3.143          1571.500
        28   01 Jun 2027 08:56:21.210   01 Jun 2027 08:56:24.667             3.457          1728.500
        29   01 Jun 2027 08:56:30.151   01 Jun 2027 08:56:30.188             0.037            18.500
        30   01 Jun 2027 08:56:51.793   01 Jun 2027 08:56:53.882             2.089          1044.500
        31   01 Jun 2027 08:57:16.243   01 Jun 2027 08:57:20.276             4.033          2016.500
        32   01 Jun 2027 08:58:07.235   01 Jun 2027 08:58:19.551            12.316          6158.000
        33   01 Jun 2027 08:59:41.532   01 Jun 2027 08:59:53.702            12.170          6085.000
        34   01 Jun 2027 10:31:20.050   01 Jun 2027 10:31:22.600             2.550          1275.000
        35   01 Jun 2027 10:31:46.272   01 Jun 2027 10:31:51.106             4.834          2417.000
        36   01 Jun 2027 10:33:03.450   01 Jun 2027 10:33:08.506             5.056          2528.000
        37   01 Jun 2027 10:33:39.505   01 Jun 2027 10:34:00.918            21.413         10706.500
        38   01 Jun 2027 10:35:34.905   01 Jun 2027 10:35:38.415             3.510          1755.000
        39   01 Jun 2027 10:36:21.974   01 Jun 2027 10:36:23.311             1.337           668.500
        40   02 Jun 2027 04:17:13.873   02 Jun 2027 04:17:19.052             5.179          2589.500
        41   02 Jun 2027 04:17:47.212   02 Jun 2027 04:18:05.064            17.852          8926.000
        42   02 Jun 2027 04:19:24.581   02 Jun 2027 04:19:43.544            18.963          9481.500
        43   02 Jun 2027 04:21:13.210   02 Jun 2027 04:21:17.702             4.492          2246.000
        44   02 Jun 2027 04:21:36.781   02 Jun 2027 04:21:37.523             0.742           371.000
        45   02 Jun 2027 04:22:15.195   02 Jun 2027 04:22:19.414             4.219          2109.500
        46   02 Jun 2027 04:23:45.539   02 Jun 2027 04:23:55.130             9.591          4795.500
        47   02 Jun 2027 04:24:41.171   02 Jun 2027 04:24:52.335            11.164          5582.000
        48   02 Jun 2027 04:25:38.857   02 Jun 2027 04:25:46.378             7.521          3760.500
        49   02 Jun 2027 05:54:46.186   02 Jun 2027 05:54:55.391             9.205          4602.500
        50   02 Jun 2027 05:55:20.318   02 Jun 2027 05:55:39.300            18.982          9491.000
        51   02 Jun 2027 05:57:12.782   02 Jun 2027 05:57:19.736             6.954          3477.000
        52   02 Jun 2027 05:58:01.291   02 Jun 2027 05:58:03.040             1.749           874.500
        53   02 Jun 2027 05:58:13.378   02 Jun 2027 05:58:16.969             3.591          1795.500
        54   02 Jun 2027 05:58:34.128   02 Jun 2027 05:58:52.566            18.438          9219.000
        55   02 Jun 2027 05:59:45.108   02 Jun 2027 05:59:49.339             4.231          2115.500
        56   02 Jun 2027 06:00:35.293   02 Jun 2027 06:00:40.655             5.362          2681.000
        57   02 Jun 2027 06:01:03.450   02 Jun 2027 06:01:06.371             2.921          1460.500
        58   02 Jun 2027 07:31:41.906   02 Jun 2027 07:31:43.921             2.015          1007.500
        59   02 Jun 2027 07:32:03.450   02 Jun 2027 07:32:12.784             9.334          4667.000
        60   02 Jun 2027 07:33:07.847   02 Jun 2027 07:33:09.134             1.287           643.500
        61   02 Jun 2027 07:33:27.347   02 Jun 2027 07:33:27.642             0.295           147.500
        62   02 Jun 2027 07:33:58.955   02 Jun 2027 07:34:01.321             2.366          1183.000
        63   02 Jun 2027 07:34:17.156   02 Jun 2027 07:34:19.936             2.780          1390.000
        64   02 Jun 2027 07:34:31.937   02 Jun 2027 07:34:35.162             3.225          1612.500
        65   02 Jun 2027 07:34:56.801   02 Jun 2027 07:35:00.379             3.578          1789.000
        66   02 Jun 2027 07:35:02.133   02 Jun 2027 07:35:07.681             5.548          2774.000
        67   02 Jun 2027 07:35:46.378   02 Jun 2027 07:35:46.834             0.456           228.000
        68   02 Jun 2027 07:36:17.595   02 Jun 2027 07:36:20.241             2.646          1323.000
        69   02 Jun 2027 07:37:10.277   02 Jun 2027 07:37:14.675             4.398          2199.000
        70   02 Jun 2027 09:08:32.997   02 Jun 2027 09:08:36.941             3.944          1972.000
        71   02 Jun 2027 09:09:21.194   02 Jun 2027 09:09:28.058             6.864          3432.000
        72   02 Jun 2027 09:09:51.715   02 Jun 2027 09:09:51.715             0.000             0.000
        73   02 Jun 2027 09:10:21.028   02 Jun 2027 09:10:24.096             3.068          1534.000
        74   02 Jun 2027 09:10:48.151   02 Jun 2027 09:11:00.253            12.102          6051.000
        75   02 Jun 2027 09:11:54.963   02 Jun 2027 09:11:57.966             3.003          1501.500
        76   02 Jun 2027 09:12:21.793   02 Jun 2027 09:12:23.190             1.397           698.500
        77   02 Jun 2027 09:12:29.845   02 Jun 2027 09:12:33.474             3.629          1814.500
        78   02 Jun 2027 10:46:05.992   02 Jun 2027 10:46:11.342             5.350          2675.000
        79   02 Jun 2027 10:46:42.814   02 Jun 2027 10:46:52.841            10.027          5013.500
        80   02 Jun 2027 10:47:36.317   02 Jun 2027 10:48:08.182            31.865         15932.500
        81   03 Jun 2027 04:29:53.433   03 Jun 2027 04:30:04.516            11.083          5541.500
        82   03 Jun 2027 04:30:20.761   03 Jun 2027 04:30:24.672             3.911          1955.500
        83   03 Jun 2027 04:31:26.067   03 Jun 2027 04:31:52.942            26.875         13437.500
        84   03 Jun 2027 04:32:25.825   03 Jun 2027 04:32:36.010            10.185          5092.500
        85   03 Jun 2027 04:35:12.195   03 Jun 2027 04:35:15.001             2.806          1403.000
        86   03 Jun 2027 04:35:52.639   03 Jun 2027 04:35:56.643             4.004          2002.000
        87   03 Jun 2027 04:36:54.226   03 Jun 2027 04:36:58.539             4.313          2156.500
        88   03 Jun 2027 04:37:03.194   03 Jun 2027 04:37:08.562             5.368          2684.000
        89   03 Jun 2027 06:06:51.969   03 Jun 2027 06:07:06.165            14.196          7098.000
        90   03 Jun 2027 06:08:07.186   03 Jun 2027 06:08:38.188            31.002         15501.000
        91   03 Jun 2027 06:10:53.739   03 Jun 2027 06:10:54.536             0.797           398.500
        92   03 Jun 2027 06:11:26.409   03 Jun 2027 06:11:35.258             8.849          4424.500
        93   03 Jun 2027 06:12:01.392   03 Jun 2027 06:12:01.477             0.085            42.500
        94   03 Jun 2027 06:12:29.197   03 Jun 2027 06:12:48.802            19.605          9802.500
        95   03 Jun 2027 07:44:30.027   03 Jun 2027 07:44:34.318             4.291          2145.500
        96   03 Jun 2027 07:44:40.314   03 Jun 2027 07:44:42.921             2.607          1303.500
        97   03 Jun 2027 07:45:38.804   03 Jun 2027 07:45:46.774             7.970          3985.000
        98   03 Jun 2027 07:46:27.889   03 Jun 2027 07:46:28.882             0.993           496.500
        99   03 Jun 2027 07:46:44.127   03 Jun 2027 07:46:52.055             7.928          3964.000
       100   03 Jun 2027 07:47:36.896   03 Jun 2027 07:47:37.233             0.337           168.500
       101   03 Jun 2027 07:47:51.986   03 Jun 2027 07:47:52.552             0.566           283.000
       102   03 Jun 2027 07:48:32.032   03 Jun 2027 07:48:45.783            13.751          6875.500
       103   03 Jun 2027 07:48:55.638   03 Jun 2027 07:48:57.931             2.293          1146.500
       104   03 Jun 2027 09:20:36.363   03 Jun 2027 09:20:38.855             2.492          1246.000
       105   03 Jun 2027 09:20:51.069   03 Jun 2027 09:20:51.619             0.550           275.000
       106   03 Jun 2027 09:21:17.808   03 Jun 2027 09:21:25.641             7.833          3916.500
       107   03 Jun 2027 09:22:20.503   03 Jun 2027 09:22:21.854             1.351           675.500
       108   03 Jun 2027 09:22:28.817   03 Jun 2027 09:22:33.895             5.078          2539.000
       109   03 Jun 2027 09:22:42.852   03 Jun 2027 09:22:48.676             5.824          2912.000
       110   03 Jun 2027 09:23:32.851   03 Jun 2027 09:23:41.268             8.417          4208.500
       111   03 Jun 2027 09:24:15.632   03 Jun 2027 09:24:34.473            18.841          9420.500
       112   03 Jun 2027 10:59:19.593   03 Jun 2027 10:59:23.074             3.481          1740.500
       113   04 Jun 2027 03:07:56.024   04 Jun 2027 03:07:59.713             3.689          1844.500
       114   04 Jun 2027 03:08:18.803   04 Jun 2027 03:08:18.827             0.024            12.000
       115   04 Jun 2027 03:08:23.025   04 Jun 2027 03:08:32.032             9.007          4503.500
       116   04 Jun 2027 03:09:38.688   04 Jun 2027 03:09:44.037             5.349          2674.500
       117   04 Jun 2027 03:10:07.772   04 Jun 2027 03:10:08.311             0.539           269.500
       118   04 Jun 2027 03:10:30.737   04 Jun 2027 03:10:32.730             1.993           996.500
       119   04 Jun 2027 03:10:44.077   04 Jun 2027 03:10:45.152             1.075           537.500
       120   04 Jun 2027 03:11:08.875   04 Jun 2027 03:11:18.958            10.083          5041.500
       121   04 Jun 2027 04:43:06.123   04 Jun 2027 04:43:07.991             1.868           934.000
       122   04 Jun 2027 04:43:52.724   04 Jun 2027 04:43:56.471             3.747          1873.500
       123   04 Jun 2027 04:44:19.975   04 Jun 2027 04:44:23.889             3.914          1957.000
       124   04 Jun 2027 04:44:50.224   04 Jun 2027 04:44:55.926             5.702          2851.000
       125   04 Jun 2027 04:46:11.629   04 Jun 2027 04:46:11.792             0.163            81.500
       126   04 Jun 2027 04:46:25.425   04 Jun 2027 04:46:37.126            11.701          5850.500
       127   04 Jun 2027 04:47:10.075   04 Jun 2027 04:47:31.787            21.712         10856.000
       128   04 Jun 2027 04:48:29.202   04 Jun 2027 04:48:32.071             2.869          1434.500
       129   04 Jun 2027 04:49:33.293   04 Jun 2027 04:49:36.650             3.357          1678.500
       130   04 Jun 2027 04:49:40.042   04 Jun 2027 04:49:42.897             2.855          1427.500
       131   04 Jun 2027 06:19:28.111   04 Jun 2027 06:19:38.720            10.609          5304.500
       132   04 Jun 2027 06:19:51.617   04 Jun 2027 06:20:26.966            35.349         17674.500
       133   04 Jun 2027 06:23:49.305   04 Jun 2027 06:23:49.924             0.619           309.500
       134   04 Jun 2027 06:24:17.835   04 Jun 2027 06:24:19.051             1.216           608.000
       135   04 Jun 2027 06:24:45.259   04 Jun 2027 06:24:46.762             1.503           751.500
       136   04 Jun 2027 06:25:38.481   04 Jun 2027 06:25:41.863             3.382          1691.000
       137   04 Jun 2027 07:56:46.339   04 Jun 2027 07:56:57.670            11.331          5665.500
       138   04 Jun 2027 07:57:55.369   04 Jun 2027 07:57:57.642             2.273          1136.500
       139   04 Jun 2027 07:58:15.781   04 Jun 2027 07:58:15.892             0.111            55.500
       140   04 Jun 2027 07:58:29.034   04 Jun 2027 07:58:29.219             0.185            92.500
       141   04 Jun 2027 07:58:31.309   04 Jun 2027 07:58:33.934             2.625          1312.500
       142   04 Jun 2027 07:59:07.005   04 Jun 2027 07:59:17.275            10.270          5135.000
       143   04 Jun 2027 08:00:03.827   04 Jun 2027 08:00:04.429             0.602           301.000
       144   04 Jun 2027 08:01:08.652   04 Jun 2027 08:01:18.586             9.934          4967.000
       145   04 Jun 2027 09:32:58.081   04 Jun 2027 09:33:08.350            10.269          5134.500
       146   04 Jun 2027 09:34:24.235   04 Jun 2027 09:34:26.839             2.604          1302.000
       147   04 Jun 2027 09:34:49.440   04 Jun 2027 09:34:53.122             3.682          1841.000
       148   04 Jun 2027 09:35:28.820   04 Jun 2027 09:35:28.841             0.021            10.500
       149   04 Jun 2027 09:35:35.110   04 Jun 2027 09:35:40.610             5.500          2750.000
       150   04 Jun 2027 09:36:55.583   04 Jun 2027 09:36:55.606             0.023            11.500
       151   04 Jun 2027 09:37:28.376   04 Jun 2027 09:37:30.321             1.945           972.500
       152   05 Jun 2027 03:19:51.118   05 Jun 2027 03:19:57.230             6.112          3056.000
       153   05 Jun 2027 03:20:06.435   05 Jun 2027 03:20:06.435             0.000             0.000
       154   05 Jun 2027 03:20:44.092   05 Jun 2027 03:20:47.617             3.525          1762.500
       155   05 Jun 2027 03:21:15.828   05 Jun 2027 03:21:21.335             5.507          2753.500
       156   05 Jun 2027 03:21:54.654   05 Jun 2027 03:21:56.823             2.169          1084.500
       157   05 Jun 2027 03:22:21.177   05 Jun 2027 03:22:31.147             9.970          4985.000
       158   05 Jun 2027 03:22:48.990   05 Jun 2027 03:22:48.990             0.000             0.000
       159   05 Jun 2027 03:22:58.997   05 Jun 2027 03:23:02.790             3.793          1896.500
       160   05 Jun 2027 04:54:48.761   05 Jun 2027 04:54:55.847             7.086          3543.000
       161   05 Jun 2027 04:55:36.631   05 Jun 2027 04:55:37.124             0.493           246.500
       162   05 Jun 2027 04:55:46.135   05 Jun 2027 04:56:05.917            19.782          9891.000
       163   05 Jun 2027 04:58:14.628   05 Jun 2027 04:58:14.767             0.139            69.500
       164   05 Jun 2027 04:58:25.897   05 Jun 2027 04:58:30.543             4.646          2323.000
       165   05 Jun 2027 04:58:37.823   05 Jun 2027 04:58:45.959             8.136          4068.000
       166   05 Jun 2027 04:59:32.685   05 Jun 2027 04:59:38.158             5.473          2736.500
       167   05 Jun 2027 05:00:06.421   05 Jun 2027 05:00:12.363             5.942          2971.000
       168   05 Jun 2027 05:00:37.605   05 Jun 2027 05:00:51.861            14.256          7128.000
       169   05 Jun 2027 06:31:00.991   05 Jun 2027 06:31:03.963             2.972          1486.000
       170   05 Jun 2027 06:31:37.555   05 Jun 2027 06:31:48.497            10.942          5471.000
       171   05 Jun 2027 06:32:49.452   05 Jun 2027 06:32:51.252             1.800           900.000
       172   05 Jun 2027 06:33:03.648   05 Jun 2027 06:33:13.846            10.198          5099.000
       173   05 Jun 2027 06:33:15.885   05 Jun 2027 06:33:24.647             8.762          4381.000
       174   05 Jun 2027 06:35:05.337   05 Jun 2027 06:35:21.704            16.367          8183.500
       175   05 Jun 2027 06:36:32.970   05 Jun 2027 06:36:36.854             3.884          1942.000
       176   05 Jun 2027 06:36:41.590   05 Jun 2027 06:36:46.721             5.131          2565.500
       177   05 Jun 2027 08:09:01.590   05 Jun 2027 08:09:06.137             4.547          2273.500
       178   05 Jun 2027 08:09:56.662   05 Jun 2027 08:10:03.002             6.340          3170.000
       179   05 Jun 2027 08:10:29.829   05 Jun 2027 08:10:30.712             0.883           441.500
       180   05 Jun 2027 08:10:47.946   05 Jun 2027 08:10:49.642             1.696           848.000
       181   05 Jun 2027 08:11:46.189   05 Jun 2027 08:11:54.728             8.539          4269.500
       182   05 Jun 2027 08:12:17.793   05 Jun 2027 08:12:21.574             3.781          1890.500
       183   05 Jun 2027 08:12:50.997   05 Jun 2027 08:12:57.973             6.976          3488.000
       184   05 Jun 2027 09:44:42.249   05 Jun 2027 09:44:51.870             9.621          4810.500
       185   05 Jun 2027 09:45:31.264   05 Jun 2027 09:45:33.094             1.830           915.000
       186   05 Jun 2027 09:45:50.823   05 Jun 2027 09:46:03.587            12.764          6382.000
       187   05 Jun 2027 09:47:14.634   05 Jun 2027 09:47:16.807             2.173          1086.500
       188   05 Jun 2027 09:47:48.770   05 Jun 2027 09:47:53.110             4.340          2170.000
       189   05 Jun 2027 09:48:23.187   05 Jun 2027 09:48:41.225            18.038          9019.000
       190   05 Jun 2027 09:49:36.779   05 Jun 2027 09:49:40.450             3.671          1835.500
       191   06 Jun 2027 03:30:27.132   06 Jun 2027 03:30:27.882             0.750           375.000
       192   06 Jun 2027 03:31:36.775   06 Jun 2027 03:31:40.569             3.794          1897.000
       193   06 Jun 2027 03:31:56.852   06 Jun 2027 03:31:59.257             2.405          1202.500
       194   06 Jun 2027 03:32:18.728   06 Jun 2027 03:32:20.503             1.775           887.500
       195   06 Jun 2027 03:32:49.077   06 Jun 2027 03:32:56.234             7.157          3578.500
       196   06 Jun 2027 03:33:46.618   06 Jun 2027 03:33:52.641             6.023          3011.500
       197   06 Jun 2027 03:34:47.116   06 Jun 2027 03:34:49.768             2.652          1326.000
       198   06 Jun 2027 03:35:13.666   06 Jun 2027 03:35:23.821            10.155          5077.500
       199   06 Jun 2027 05:06:22.604   06 Jun 2027 05:06:22.960             0.356           178.000
       200   06 Jun 2027 05:06:33.767   06 Jun 2027 05:06:37.942             4.175          2087.500
       201   06 Jun 2027 05:07:08.091   06 Jun 2027 05:07:32.617            24.526         12263.000
       202   06 Jun 2027 05:09:23.152   06 Jun 2027 05:09:48.949            25.797         12898.500
       203   06 Jun 2027 05:11:30.386   06 Jun 2027 05:11:41.989            11.603          5801.500
       204   06 Jun 2027 05:12:41.602   06 Jun 2027 05:12:49.957             8.355          4177.500
       205   06 Jun 2027 05:13:39.818   06 Jun 2027 05:13:40.140             0.322           161.000
       206   06 Jun 2027 05:13:41.765   06 Jun 2027 05:13:51.428             9.663          4831.500
       207   06 Jun 2027 06:43:22.141   06 Jun 2027 06:43:45.923            23.782         11891.000
       208   06 Jun 2027 06:45:21.729   06 Jun 2027 06:45:29.019             7.290          3645.000
       209   06 Jun 2027 06:46:27.925   06 Jun 2027 06:46:36.368             8.443          4221.500
       210   06 Jun 2027 06:47:18.636   06 Jun 2027 06:47:22.132             3.496          1748.000
       211   06 Jun 2027 06:47:27.325   06 Jun 2027 06:47:32.339             5.014          2507.000
       212   06 Jun 2027 06:48:15.698   06 Jun 2027 06:48:17.997             2.299          1149.500
       213   06 Jun 2027 06:48:27.267   06 Jun 2027 06:48:29.257             1.990           995.000
       214   06 Jun 2027 06:49:02.203   06 Jun 2027 06:49:25.605            23.402         11701.000
       215   06 Jun 2027 08:21:23.185   06 Jun 2027 08:21:36.646            13.461          6730.500
       216   06 Jun 2027 08:22:31.081   06 Jun 2027 08:22:32.435             1.354           677.000
       217   06 Jun 2027 08:22:38.238   06 Jun 2027 08:22:38.259             0.021            10.500
       218   06 Jun 2027 08:22:56.257   06 Jun 2027 08:23:03.726             7.469          3734.500
       219   06 Jun 2027 08:24:17.364   06 Jun 2027 08:24:26.390             9.026          4513.000
       220   06 Jun 2027 08:25:06.534   06 Jun 2027 08:25:08.507             1.973           986.500
       221   06 Jun 2027 09:54:38.222   06 Jun 2027 09:54:51.155            12.933          6466.500
       222   06 Jun 2027 09:55:59.284   06 Jun 2027 09:56:23.459            24.175         12087.500
       223   06 Jun 2027 09:58:27.591   06 Jun 2027 09:58:28.687             1.096           548.000
       224   06 Jun 2027 09:58:51.574   06 Jun 2027 09:58:55.316             3.742          1871.000
       225   06 Jun 2027 09:59:12.183   06 Jun 2027 09:59:15.343             3.160          1580.000
       226   06 Jun 2027 09:59:39.633   06 Jun 2027 09:59:48.533             8.900          4450.000
       227   06 Jun 2027 10:00:49.236   06 Jun 2027 10:00:55.193             5.957          2978.500
       228   06 Jun 2027 10:01:00.068   06 Jun 2027 10:01:02.561             2.493          1246.500
       229   06 Jun 2027 10:01:54.067   06 Jun 2027 10:02:02.922             8.855          4427.500
       230   07 Jun 2027 03:41:19.665   07 Jun 2027 03:41:30.276            10.611          5305.500
       231   07 Jun 2027 03:42:26.494   07 Jun 2027 03:42:32.604             6.110          3055.000
       232   07 Jun 2027 03:42:45.857   07 Jun 2027 03:42:51.413             5.556          2778.000
       233   07 Jun 2027 03:43:44.272   07 Jun 2027 03:43:47.111             2.839          1419.500
       234   07 Jun 2027 03:43:54.996   07 Jun 2027 03:43:57.899             2.903          1451.500
       235   07 Jun 2027 03:44:38.252   07 Jun 2027 03:44:46.371             8.119          4059.500
       236   07 Jun 2027 03:46:26.709   07 Jun 2027 03:46:27.628             0.919           459.500
       237   07 Jun 2027 03:46:53.608   07 Jun 2027 03:46:58.113             4.505          2252.500
       238   07 Jun 2027 03:47:03.021   07 Jun 2027 03:47:05.380             2.359          1179.500
       239   07 Jun 2027 03:47:46.458   07 Jun 2027 03:47:53.895             7.437          3718.500
       240   07 Jun 2027 03:49:14.895   07 Jun 2027 03:49:17.798             2.903          1451.500
       241   07 Jun 2027 05:18:30.349   07 Jun 2027 05:18:31.753             1.404           702.000
       242   07 Jun 2027 05:18:37.999   07 Jun 2027 05:18:45.464             7.465          3732.500
       243   07 Jun 2027 05:19:38.486   07 Jun 2027 05:19:41.400             2.914          1457.000
       244   07 Jun 2027 05:20:01.603   07 Jun 2027 05:20:17.496            15.893          7946.500
       245   07 Jun 2027 05:21:26.824   07 Jun 2027 05:21:41.630            14.806          7403.000
       246   07 Jun 2027 05:23:12.922   07 Jun 2027 05:23:16.378             3.456          1728.000
       247   07 Jun 2027 05:24:20.434   07 Jun 2027 05:24:21.591             1.157           578.500
       248   07 Jun 2027 05:24:34.048   07 Jun 2027 05:24:53.647            19.599          9799.500
       249   07 Jun 2027 06:55:27.630   07 Jun 2027 06:55:41.839            14.209          7104.500
       250   07 Jun 2027 06:57:29.266   07 Jun 2027 06:57:47.413            18.147          9073.500
       251   07 Jun 2027 06:58:57.273   07 Jun 2027 06:59:05.687             8.414          4207.000
       252   07 Jun 2027 06:59:36.126   07 Jun 2027 06:59:37.410             1.284           642.000
       253   07 Jun 2027 06:59:52.293   07 Jun 2027 07:00:02.839            10.546          5273.000
       254   07 Jun 2027 07:01:16.336   07 Jun 2027 07:01:21.390             5.054          2527.000
       255   07 Jun 2027 08:33:20.654   07 Jun 2027 08:33:21.575             0.921           460.500
       256   07 Jun 2027 08:33:26.845   07 Jun 2027 08:33:35.000             8.155          4077.500
       257   07 Jun 2027 08:35:47.992   07 Jun 2027 08:35:50.394             2.402          1201.000
       258   07 Jun 2027 08:36:01.602   07 Jun 2027 08:36:04.840             3.238          1619.000
       259   07 Jun 2027 08:36:36.805   07 Jun 2027 08:36:41.843             5.038          2519.000
       260   07 Jun 2027 10:06:48.155   07 Jun 2027 10:06:50.726             2.571          1285.500
       261   07 Jun 2027 10:07:13.944   07 Jun 2027 10:07:23.494             9.550          4775.000
       262   07 Jun 2027 10:08:04.443   07 Jun 2027 10:08:15.546            11.103          5551.500
       263   07 Jun 2027 10:09:28.570   07 Jun 2027 10:09:34.169             5.599          2799.500
       264   07 Jun 2027 10:10:15.944   07 Jun 2027 10:10:19.542             3.598          1799.000
       265   07 Jun 2027 10:11:00.730   07 Jun 2027 10:11:01.569             0.839           419.500
       266   07 Jun 2027 10:11:43.598   07 Jun 2027 10:11:48.622             5.024          2512.000
       267   07 Jun 2027 10:12:12.647   07 Jun 2027 10:12:25.672            13.025          6512.500
       268   07 Jun 2027 10:13:19.928   07 Jun 2027 10:13:26.572             6.644          3322.000
       269   07 Jun 2027 10:13:58.300   07 Jun 2027 10:13:59.471             1.171           585.500
       270   07 Jun 2027 10:14:18.432   07 Jun 2027 10:14:20.529             2.097          1048.500
       271   08 Jun 2027 03:52:48.768   08 Jun 2027 03:52:57.801             9.033          4516.500
       272   08 Jun 2027 03:54:28.468   08 Jun 2027 03:54:29.913             1.445           722.500
       273   08 Jun 2027 03:55:04.852   08 Jun 2027 03:55:08.906             4.054          2027.000
       274   08 Jun 2027 03:55:25.341   08 Jun 2027 03:55:29.816             4.475          2237.500
       275   08 Jun 2027 03:56:08.989   08 Jun 2027 03:56:24.418            15.429          7714.500
       276   08 Jun 2027 03:57:47.724   08 Jun 2027 03:57:50.507             2.783          1391.500
       277   08 Jun 2027 03:58:08.079   08 Jun 2027 03:58:16.351             8.272          4136.000
       278   08 Jun 2027 03:58:55.650   08 Jun 2027 03:58:58.003             2.353          1176.500
       279   08 Jun 2027 03:59:44.363   08 Jun 2027 03:59:47.881             3.518          1759.000
       280   08 Jun 2027 04:00:17.006   08 Jun 2027 04:00:18.739             1.733           866.500
       281   08 Jun 2027 04:01:03.228   08 Jun 2027 04:01:04.397             1.169           584.500
       282   08 Jun 2027 04:01:14.465   08 Jun 2027 04:01:15.229             0.764           382.000
       283   08 Jun 2027 04:01:20.895   08 Jun 2027 04:01:22.793             1.898           949.000
       284   08 Jun 2027 04:01:30.546   08 Jun 2027 04:01:35.116             4.570          2285.000
       285   08 Jun 2027 04:01:38.072   08 Jun 2027 04:01:41.730             3.658          1829.000
       286   08 Jun 2027 05:30:31.550   08 Jun 2027 05:30:34.777             3.227          1613.500
       287   08 Jun 2027 05:31:06.199   08 Jun 2027 05:31:18.303            12.104          6052.000
       288   08 Jun 2027 05:32:16.284   08 Jun 2027 05:32:17.844             1.560           780.000
       289   08 Jun 2027 05:32:56.457   08 Jun 2027 05:32:56.835             0.378           189.000
       290   08 Jun 2027 05:33:01.627   08 Jun 2027 05:33:04.909             3.282          1641.000
       291   08 Jun 2027 05:33:19.729   08 Jun 2027 05:33:25.205             5.476          2738.000
       292   08 Jun 2027 05:33:34.200   08 Jun 2027 05:33:49.218            15.018          7509.000
       293   08 Jun 2027 05:34:11.233   08 Jun 2027 05:34:17.427             6.194          3097.000
       294   08 Jun 2027 05:35:57.475   08 Jun 2027 05:36:02.193             4.718          2359.000
       295   08 Jun 2027 05:37:10.547   08 Jun 2027 05:37:19.799             9.252          4626.000
       296   08 Jun 2027 07:07:19.739   08 Jun 2027 07:07:29.388             9.649          4824.500
       297   08 Jun 2027 07:08:20.029   08 Jun 2027 07:08:29.006             8.977          4488.500
       298   08 Jun 2027 07:09:28.552   08 Jun 2027 07:09:39.725            11.173          5586.500
       299   08 Jun 2027 07:10:49.955   08 Jun 2027 07:11:00.786            10.831          5415.500
       300   08 Jun 2027 07:11:50.426   08 Jun 2027 07:11:51.888             1.462           731.000
       301   08 Jun 2027 07:12:00.183   08 Jun 2027 07:12:05.019             4.836          2418.000
       302   08 Jun 2027 07:13:07.798   08 Jun 2027 07:13:13.763             5.965          2982.500
       303   08 Jun 2027 07:13:22.306   08 Jun 2027 07:13:27.597             5.291          2645.500
       304   08 Jun 2027 07:13:37.965   08 Jun 2027 07:13:40.816             2.851          1425.500
       305   08 Jun 2027 08:45:21.599   08 Jun 2027 08:45:26.403             4.804          2402.000
       306   08 Jun 2027 08:45:47.635   08 Jun 2027 08:45:54.897             7.262          3631.000
       307   08 Jun 2027 08:47:26.880   08 Jun 2027 08:47:32.384             5.504          2752.000
       308   08 Jun 2027 08:48:08.095   08 Jun 2027 08:48:09.424             1.329           664.500
       309   08 Jun 2027 08:48:21.864   08 Jun 2027 08:48:23.388             1.524           762.000
       310   08 Jun 2027 08:48:41.072   08 Jun 2027 08:48:47.716             6.644          3322.000
       311   08 Jun 2027 10:19:14.084   08 Jun 2027 10:19:25.358            11.274          5637.000
       312   08 Jun 2027 10:20:49.136   08 Jun 2027 10:20:53.744             4.608          2304.000
       313   08 Jun 2027 10:21:13.247   08 Jun 2027 10:21:25.848            12.601          6300.500
       314   08 Jun 2027 10:22:29.076   08 Jun 2027 10:22:29.865             0.789           394.500
       315   08 Jun 2027 10:22:44.113   08 Jun 2027 10:22:51.616             7.503          3751.500
       316   08 Jun 2027 10:23:38.200   08 Jun 2027 10:23:41.141             2.941          1470.500
       317   08 Jun 2027 10:23:53.024   08 Jun 2027 10:23:54.196             1.172           586.000
       318   08 Jun 2027 10:24:02.798   08 Jun 2027 10:24:20.440            17.642          8821.000
       319   08 Jun 2027 10:25:37.959   08 Jun 2027 10:25:42.061             4.102          2051.000
       320   09 Jun 2027 04:05:32.248   09 Jun 2027 04:05:32.956             0.708           354.000
       321   09 Jun 2027 04:06:30.809   09 Jun 2027 04:06:41.137            10.328          5164.000
       322   09 Jun 2027 04:07:28.716   09 Jun 2027 04:07:33.618             4.902          2451.000
       323   09 Jun 2027 04:08:09.131   09 Jun 2027 04:08:27.270            18.139          9069.500
       324   09 Jun 2027 04:09:47.574   09 Jun 2027 04:09:50.731             3.157          1578.500
       325   09 Jun 2027 04:10:12.828   09 Jun 2027 04:10:13.874             1.046           523.000
       326   09 Jun 2027 04:10:19.120   09 Jun 2027 04:10:25.316             6.196          3098.000
       327   09 Jun 2027 04:10:54.621   09 Jun 2027 04:10:57.466             2.845          1422.500
       328   09 Jun 2027 04:11:44.640   09 Jun 2027 04:11:51.796             7.156          3578.000
       329   09 Jun 2027 04:12:20.566   09 Jun 2027 04:12:25.086             4.520          2260.000
       330   09 Jun 2027 04:13:01.458   09 Jun 2027 04:13:15.201            13.743          6871.500
       331   09 Jun 2027 04:13:21.022   09 Jun 2027 04:13:21.247             0.225           112.500
       332   09 Jun 2027 05:42:34.841   09 Jun 2027 05:42:35.283             0.442           221.000
       333   09 Jun 2027 05:42:52.155   09 Jun 2027 05:42:58.395             6.240          3120.000
       334   09 Jun 2027 05:43:21.466   09 Jun 2027 05:43:27.147             5.681          2840.500
       335   09 Jun 2027 05:44:06.663   09 Jun 2027 05:44:19.630            12.967          6483.500
       336   09 Jun 2027 05:44:45.917   09 Jun 2027 05:44:47.043             1.126           563.000
       337   09 Jun 2027 05:45:55.996   09 Jun 2027 05:46:01.799             5.803          2901.500
       338   09 Jun 2027 05:46:26.035   09 Jun 2027 05:46:33.076             7.041          3520.500
       339   09 Jun 2027 05:46:54.891   09 Jun 2027 05:46:55.185             0.294           147.000
       340   09 Jun 2027 05:47:42.591   09 Jun 2027 05:47:53.304            10.713          5356.500
       341   09 Jun 2027 05:48:37.121   09 Jun 2027 05:48:49.201            12.080          6040.000
       342   09 Jun 2027 05:49:22.840   09 Jun 2027 05:49:28.273             5.433          2716.500
       343   09 Jun 2027 07:19:29.613   09 Jun 2027 07:19:36.497             6.884          3442.000
       344   09 Jun 2027 07:20:38.397   09 Jun 2027 07:20:43.533             5.136          2568.000
       345   09 Jun 2027 07:21:09.251   09 Jun 2027 07:21:20.617            11.366          5683.000
       346   09 Jun 2027 07:22:12.378   09 Jun 2027 07:22:17.726             5.348          2674.000
       347   09 Jun 2027 07:22:39.536   09 Jun 2027 07:22:43.823             4.287          2143.500
       348   09 Jun 2027 07:22:59.823   09 Jun 2027 07:22:59.823             0.000             0.000
       349   09 Jun 2027 07:23:24.654   09 Jun 2027 07:23:28.546             3.892          1946.000
       350   09 Jun 2027 07:23:47.005   09 Jun 2027 07:23:47.797             0.792           396.000
       351   09 Jun 2027 07:23:51.077   09 Jun 2027 07:23:56.149             5.072          2536.000
       352   09 Jun 2027 07:24:44.315   09 Jun 2027 07:24:54.250             9.935          4967.500
       353   09 Jun 2027 07:25:44.022   09 Jun 2027 07:25:50.944             6.922          3461.000
       354   09 Jun 2027 08:56:35.800   09 Jun 2027 08:56:39.627             3.827          1913.500
       355   09 Jun 2027 08:56:44.728   09 Jun 2027 08:56:44.875             0.147            73.500
       356   09 Jun 2027 08:57:08.946   09 Jun 2027 08:57:14.480             5.534          2767.000
       357   09 Jun 2027 08:58:43.002   09 Jun 2027 08:58:51.712             8.710          4355.000
       358   09 Jun 2027 08:59:44.077   09 Jun 2027 08:59:48.715             4.638          2319.000
       359   09 Jun 2027 09:00:16.383   09 Jun 2027 09:00:20.111             3.728          1864.000
       360   09 Jun 2027 09:00:39.286   09 Jun 2027 09:00:46.977             7.691          3845.500
       361   09 Jun 2027 10:31:35.264   09 Jun 2027 10:31:37.269             2.005          1002.500
       362   09 Jun 2027 10:32:02.004   09 Jun 2027 10:32:06.038             4.034          2017.000
       363   09 Jun 2027 10:33:17.787   09 Jun 2027 10:33:23.672             5.885          2942.500
       364   09 Jun 2027 10:33:54.697   09 Jun 2027 10:34:17.374            22.677         11338.500
       365   09 Jun 2027 10:35:49.641   09 Jun 2027 10:35:53.035             3.394          1697.000
       366   09 Jun 2027 10:36:36.650   09 Jun 2027 10:36:37.752             1.102           551.000
       367   10 Jun 2027 04:17:28.723   10 Jun 2027 04:17:33.777             5.054          2527.000
       368   10 Jun 2027 04:18:02.832   10 Jun 2027 04:18:19.890            17.058          8529.000
       369   10 Jun 2027 04:19:39.424   10 Jun 2027 04:19:57.421            17.997          8998.500
       370   10 Jun 2027 04:21:32.676   10 Jun 2027 04:21:35.526             2.850          1425.000
       371   10 Jun 2027 04:21:41.463   10 Jun 2027 04:21:41.676             0.213           106.500
       372   10 Jun 2027 04:21:48.274   10 Jun 2027 04:21:51.701             3.427          1713.500
       373   10 Jun 2027 04:22:29.836   10 Jun 2027 04:22:34.012             4.176          2088.000
       374   10 Jun 2027 04:24:00.458   10 Jun 2027 04:24:09.190             8.732          4366.000
       375   10 Jun 2027 04:24:49.252   10 Jun 2027 04:24:50.576             1.324           662.000
       376   10 Jun 2027 04:25:24.554   10 Jun 2027 04:25:25.112             0.558           279.000
       377   10 Jun 2027 04:25:42.612   10 Jun 2027 04:25:46.181             3.569          1784.500
       378   10 Jun 2027 05:55:00.736   10 Jun 2027 05:55:10.646             9.910          4955.000
       379   10 Jun 2027 05:56:20.194   10 Jun 2027 05:56:56.112            35.918         17959.000
       380   10 Jun 2027 05:59:23.639   10 Jun 2027 05:59:33.692            10.053          5026.500
       381   10 Jun 2027 06:00:05.987   10 Jun 2027 06:00:05.987             0.000             0.000
       382   10 Jun 2027 06:00:25.020   10 Jun 2027 06:00:28.106             3.086          1543.000
       383   10 Jun 2027 06:00:56.983   10 Jun 2027 06:00:58.274             1.291           645.500
       384   10 Jun 2027 06:01:18.778   10 Jun 2027 06:01:19.238             0.460           230.000
       385   10 Jun 2027 06:01:21.039   10 Jun 2027 06:01:21.268             0.229           114.500
       386   10 Jun 2027 07:31:57.052   10 Jun 2027 07:31:58.508             1.456           728.000
       387   10 Jun 2027 07:32:18.230   10 Jun 2027 07:32:27.680             9.450          4725.000
       388   10 Jun 2027 07:33:22.486   10 Jun 2027 07:33:23.180             0.694           347.000
       389   10 Jun 2027 07:33:42.130   10 Jun 2027 07:33:43.265             1.135           567.500
       390   10 Jun 2027 07:34:13.691   10 Jun 2027 07:34:17.170             3.479          1739.500
       391   10 Jun 2027 07:34:36.803   10 Jun 2027 07:34:40.925             4.122          2061.000
       392   10 Jun 2027 07:35:12.230   10 Jun 2027 07:35:16.854             4.624          2312.000
       393   10 Jun 2027 07:35:35.663   10 Jun 2027 07:35:36.428             0.765           382.500
       394   10 Jun 2027 07:35:40.864   10 Jun 2027 07:35:49.802             8.938          4469.000
       395   10 Jun 2027 07:36:52.969   10 Jun 2027 07:37:06.601            13.632          6816.000
       396   10 Jun 2027 07:37:22.116   10 Jun 2027 07:37:25.687             3.571          1785.500
       397   10 Jun 2027 09:08:47.682   10 Jun 2027 09:08:51.835             4.153          2076.500
       398   10 Jun 2027 09:09:36.797   10 Jun 2027 09:09:42.617             5.820          2910.000
       399   10 Jun 2027 09:10:06.769   10 Jun 2027 09:10:12.519             5.750          2875.000
       400   10 Jun 2027 09:11:26.952   10 Jun 2027 09:11:42.293            15.341          7670.500
       401   10 Jun 2027 09:12:50.905   10 Jun 2027 09:13:11.703            20.798         10399.000
       402   10 Jun 2027 10:46:23.857   10 Jun 2027 10:46:26.169             2.312          1156.000
       403   10 Jun 2027 10:46:57.451   10 Jun 2027 10:47:11.544            14.093          7046.500
       404   10 Jun 2027 10:48:22.406   10 Jun 2027 10:48:24.735             2.329          1164.500
       405   11 Jun 2027 04:30:08.266   11 Jun 2027 04:30:09.853             1.587           793.500
       406   11 Jun 2027 04:30:36.211   11 Jun 2027 04:30:39.573             3.362          1681.000
       407   11 Jun 2027 04:30:55.037   11 Jun 2027 04:31:00.361             5.324          2662.000
       408   11 Jun 2027 04:31:30.193   11 Jun 2027 04:31:40.954            10.761          5380.500
       409   11 Jun 2027 04:32:24.840   11 Jun 2027 04:32:32.842             8.002          4001.000
       410   11 Jun 2027 04:33:25.880   11 Jun 2027 04:33:26.426             0.546           273.000
       411   11 Jun 2027 04:33:32.412   11 Jun 2027 04:33:32.625             0.213           106.500
       412   11 Jun 2027 04:33:39.924   11 Jun 2027 04:33:41.144             1.220           610.000
       413   11 Jun 2027 04:34:04.140   11 Jun 2027 04:34:04.146             0.006             3.000
       414   11 Jun 2027 04:34:28.446   11 Jun 2027 04:34:41.592            13.146          6573.000
       415   11 Jun 2027 04:36:07.512   11 Jun 2027 04:36:23.292            15.780          7890.000
       416   11 Jun 2027 04:37:54.280   11 Jun 2027 04:37:54.694             0.414           207.000
       417   11 Jun 2027 06:07:06.754   11 Jun 2027 06:07:21.195            14.441          7220.500
       418   11 Jun 2027 06:08:20.250   11 Jun 2027 06:08:53.907            33.657         16828.500
       419   11 Jun 2027 06:11:09.435   11 Jun 2027 06:11:09.927             0.492           246.000
       420   11 Jun 2027 06:11:22.161   11 Jun 2027 06:11:24.353             2.192          1096.000
       421   11 Jun 2027 06:11:53.373   11 Jun 2027 06:11:57.294             3.921          1960.500
       422   11 Jun 2027 06:12:10.501   11 Jun 2027 06:12:11.949             1.448           724.000
       423   11 Jun 2027 06:12:43.279   11 Jun 2027 06:13:03.247            19.968          9984.000
       424   11 Jun 2027 07:44:45.980   11 Jun 2027 07:44:57.566            11.586          5793.000
       425   11 Jun 2027 07:45:50.804   11 Jun 2027 07:45:50.919             0.115            57.500
       426   11 Jun 2027 07:46:19.580   11 Jun 2027 07:46:19.677             0.097            48.500
       427   11 Jun 2027 07:46:22.998   11 Jun 2027 07:46:23.781             0.783           391.500
       428   11 Jun 2027 07:47:13.207   11 Jun 2027 07:47:22.657             9.450          4725.000
       429   11 Jun 2027 07:48:07.355   11 Jun 2027 07:48:10.930             3.575          1787.500
       430   11 Jun 2027 07:48:46.674   11 Jun 2027 07:49:00.688            14.014          7007.000
       431   11 Jun 2027 07:49:10.085   11 Jun 2027 07:49:12.368             2.283          1141.500
       432   11 Jun 2027 09:20:50.719   11 Jun 2027 09:20:51.400             0.681           340.500
       433   11 Jun 2027 09:21:07.152   11 Jun 2027 09:21:21.544            14.392          7196.000
       434   11 Jun 2027 09:23:00.216   11 Jun 2027 09:23:03.302             3.086          1543.000
       435   11 Jun 2027 09:23:49.320   11 Jun 2027 09:23:59.135             9.815          4907.500
       436   11 Jun 2027 09:25:19.485   11 Jun 2027 09:25:27.581             8.096          4048.000
       437   11 Jun 2027 10:59:34.456   11 Jun 2027 10:59:37.250             2.794          1397.000
       438   12 Jun 2027 03:08:10.754   12 Jun 2027 03:08:14.524             3.770          1885.000
       439   12 Jun 2027 03:08:27.269   12 Jun 2027 03:08:28.870             1.601           800.500
       440   12 Jun 2027 03:08:39.695   12 Jun 2027 03:08:46.597             6.902          3451.000
       441   12 Jun 2027 03:09:14.391   12 Jun 2027 03:09:21.473             7.082          3541.000
       442   12 Jun 2027 03:10:16.476   12 Jun 2027 03:10:22.808             6.332          3166.000
       443   12 Jun 2027 03:10:48.655   12 Jun 2027 03:10:58.798            10.143          5071.500
       444   12 Jun 2027 03:11:42.501   12 Jun 2027 03:11:42.684             0.183            91.500
       445   12 Jun 2027 04:43:20.786   12 Jun 2027 04:43:25.059             4.273          2136.500
       446   12 Jun 2027 04:44:27.659   12 Jun 2027 04:44:35.506             7.847          3923.500
       447   12 Jun 2027 04:45:20.652   12 Jun 2027 04:45:25.343             4.691          2345.500
       448   12 Jun 2027 04:46:11.454   12 Jun 2027 04:46:15.813             4.359          2179.500
       449   12 Jun 2027 04:46:42.945   12 Jun 2027 04:46:51.799             8.854          4427.000
       450   12 Jun 2027 04:46:55.549   12 Jun 2027 04:46:56.632             1.083           541.500
       451   12 Jun 2027 04:47:25.987   12 Jun 2027 04:47:47.093            21.106         10553.000
       452   12 Jun 2027 04:49:51.507   12 Jun 2027 04:49:57.597             6.090          3045.000
       453   12 Jun 2027 06:19:42.810   12 Jun 2027 06:19:54.191            11.381          5690.500
       454   12 Jun 2027 06:20:06.744   12 Jun 2027 06:20:41.453            34.709         17354.500
       455   12 Jun 2027 06:24:03.866   12 Jun 2027 06:24:04.975             1.109           554.500
       456   12 Jun 2027 06:24:34.179   12 Jun 2027 06:24:34.629             0.450           225.000
       457   12 Jun 2027 06:25:01.612   12 Jun 2027 06:25:03.730             2.118          1059.000
       458   12 Jun 2027 06:25:27.999   12 Jun 2027 06:25:36.540             8.541          4270.500
       459   12 Jun 2027 07:57:00.465   12 Jun 2027 07:57:00.679             0.214           107.000
       460   12 Jun 2027 07:57:18.345   12 Jun 2027 07:57:26.255             7.910          3955.000
       461   12 Jun 2027 07:58:14.556   12 Jun 2027 07:58:16.773             2.217          1108.500
       462   12 Jun 2027 07:58:30.979   12 Jun 2027 07:58:32.075             1.096           548.000
       463   12 Jun 2027 07:58:43.934   12 Jun 2027 07:58:44.054             0.120            60.000
       464   12 Jun 2027 07:58:46.726   12 Jun 2027 07:58:48.275             1.549           774.500
       465   12 Jun 2027 07:59:22.822   12 Jun 2027 07:59:32.037             9.215          4607.500
       466   12 Jun 2027 07:59:57.665   12 Jun 2027 08:00:06.177             8.512          4256.000
       467   12 Jun 2027 08:00:54.035   12 Jun 2027 08:00:54.929             0.894           447.000
       468   12 Jun 2027 08:01:15.206   12 Jun 2027 08:01:16.442             1.236           618.000
       469   12 Jun 2027 08:01:23.909   12 Jun 2027 08:01:24.084             0.175            87.500
       470   12 Jun 2027 09:33:12.832   12 Jun 2027 09:33:19.525             6.693          3346.500
       471   12 Jun 2027 09:35:12.738   12 Jun 2027 09:35:29.739            17.001          8500.500
       472   12 Jun 2027 09:37:10.670   12 Jun 2027 09:37:12.795             2.125          1062.500
       473   12 Jun 2027 09:37:43.644   12 Jun 2027 09:37:44.924             1.280           640.000
       474   13 Jun 2027 03:20:05.600   13 Jun 2027 03:20:11.830             6.230          3115.000
       475   13 Jun 2027 03:20:29.674   13 Jun 2027 03:20:29.674             0.000             0.000
       476   13 Jun 2027 03:20:31.518   13 Jun 2027 03:20:38.033             6.515          3257.500
       477   13 Jun 2027 03:21:32.646   13 Jun 2027 03:21:36.568             3.922          1961.000
       478   13 Jun 2027 03:22:09.267   13 Jun 2027 03:22:25.472            16.205          8102.500
       479   13 Jun 2027 03:23:13.647   13 Jun 2027 03:23:17.521             3.874          1937.000
       480   13 Jun 2027 03:23:30.051   13 Jun 2027 03:23:38.172             8.121          4060.500
       481   13 Jun 2027 04:55:03.039   13 Jun 2027 04:55:10.632             7.593          3796.500
       482   13 Jun 2027 04:55:51.471   13 Jun 2027 04:55:51.607             0.136            68.000
       483   13 Jun 2027 04:56:01.094   13 Jun 2027 04:56:05.006             3.912          1956.000
       484   13 Jun 2027 04:56:33.741   13 Jun 2027 04:56:38.042             4.301          2150.500
       485   13 Jun 2027 04:57:20.525   13 Jun 2027 04:57:25.031             4.506          2253.000
       486   13 Jun 2027 04:57:38.111   13 Jun 2027 04:57:39.954             1.843           921.500
       487   13 Jun 2027 04:58:30.902   13 Jun 2027 04:58:43.482            12.580          6290.000
       488   13 Jun 2027 04:59:53.347   13 Jun 2027 05:00:04.015            10.668          5334.000
       489   13 Jun 2027 05:01:05.969   13 Jun 2027 05:01:08.768             2.799          1399.500
       490   13 Jun 2027 05:01:12.329   13 Jun 2027 05:01:12.562             0.233           116.500
       491   13 Jun 2027 05:01:53.204   13 Jun 2027 05:01:54.751             1.547           773.500
       492   13 Jun 2027 06:31:15.505   13 Jun 2027 06:31:18.581             3.076          1538.000
       493   13 Jun 2027 06:31:52.709   13 Jun 2027 06:32:03.637            10.928          5464.000
       494   13 Jun 2027 06:32:19.164   13 Jun 2027 06:32:23.386             4.222          2111.000
       495   13 Jun 2027 06:32:47.057   13 Jun 2027 06:33:03.319            16.262          8131.000
       496   13 Jun 2027 06:34:35.742   13 Jun 2027 06:34:37.586             1.844           922.000
       497   13 Jun 2027 06:35:01.601   13 Jun 2027 06:35:03.531             1.930           965.000
       498   13 Jun 2027 06:35:44.028   13 Jun 2027 06:35:53.297             9.269          4634.500
       499   13 Jun 2027 06:36:23.040   13 Jun 2027 06:36:25.098             2.058          1029.000
       500   13 Jun 2027 06:36:52.742   13 Jun 2027 06:36:53.452             0.710           355.000
       501   13 Jun 2027 08:09:16.664   13 Jun 2027 08:09:28.096            11.432          5716.000
       502   13 Jun 2027 08:10:18.485   13 Jun 2027 08:10:20.430             1.945           972.500
       503   13 Jun 2027 08:10:33.890   13 Jun 2027 08:10:40.409             6.519          3259.500
       504   13 Jun 2027 08:11:10.703   13 Jun 2027 08:11:19.505             8.802          4401.000
       505   13 Jun 2027 08:12:36.236   13 Jun 2027 08:12:47.406            11.170          5585.000
       506   13 Jun 2027 09:44:56.549   13 Jun 2027 09:45:07.306            10.757          5378.500
       507   13 Jun 2027 09:45:50.916   13 Jun 2027 09:45:51.410             0.494           247.000
       508   13 Jun 2027 09:45:58.042   13 Jun 2027 09:46:04.981             6.939          3469.500
       509   13 Jun 2027 09:47:00.909   13 Jun 2027 09:47:05.047             4.138          2069.000
       510   13 Jun 2027 09:47:24.457   13 Jun 2027 09:47:30.950             6.493          3246.500
       511   13 Jun 2027 09:48:19.647   13 Jun 2027 09:48:37.889            18.242          9121.000
       512   13 Jun 2027 09:50:04.659   13 Jun 2027 09:50:11.273             6.614          3307.000
