uniorb/output/strategy_2/Camera/Camera_KinoSat_111502.txt

KinoSat_111502
-------------------------
    Access    *     Start Time (UTCG)     *     Stop Time (UTCG)  *   Duration (s) *   Data (Mbytes)
         1   01 Jun 2027 03:48:22.715   01 Jun 2027 03:50:50.891           148.176         74088.000
         2   01 Jun 2027 03:51:38.001   01 Jun 2027 03:52:37.137            59.136         29568.000
         3   01 Jun 2027 03:52:53.900   01 Jun 2027 03:52:57.480             3.580          1790.000
         4   01 Jun 2027 03:53:25.628   01 Jun 2027 03:53:42.087            16.459          8229.500
         5   01 Jun 2027 03:53:45.065   01 Jun 2027 03:54:18.031            32.966         16483.000
         6   01 Jun 2027 03:54:21.124   01 Jun 2027 03:54:22.736             1.612           806.000
         7   01 Jun 2027 03:55:12.502   01 Jun 2027 03:55:47.197            34.695         17347.500
         8   01 Jun 2027 05:13:35.046   01 Jun 2027 05:13:43.477             8.431          4215.500
         9   01 Jun 2027 05:25:06.474   01 Jun 2027 05:26:34.335            87.861         43930.500
        10   01 Jun 2027 06:47:45.216   01 Jun 2027 06:48:43.713            58.497         29248.500
        11   01 Jun 2027 06:49:20.841   01 Jun 2027 06:50:02.918            42.077         21038.500
        12   01 Jun 2027 06:51:38.676   01 Jun 2027 06:51:38.676             0.000             0.000
        13   01 Jun 2027 08:22:53.278   01 Jun 2027 08:24:05.481            72.203         36101.500
        14   01 Jun 2027 08:24:36.152   01 Jun 2027 08:26:06.026            89.874         44937.000
        15   01 Jun 2027 08:27:32.339   01 Jun 2027 08:27:32.339             0.000             0.000
        16   01 Jun 2027 08:28:44.441   01 Jun 2027 08:28:51.498             7.057          3528.500
        17   01 Jun 2027 09:59:37.540   01 Jun 2027 10:01:41.989           124.449         62224.500
        18   01 Jun 2027 10:06:16.694   01 Jun 2027 10:07:05.423            48.729         24364.500
        19   01 Jun 2027 11:36:40.315   01 Jun 2027 11:38:09.975            89.660         44830.000
        20   01 Jun 2027 11:40:16.911   01 Jun 2027 11:40:40.534            23.623         11811.500
        21   01 Jun 2027 11:42:32.166   01 Jun 2027 11:42:36.073             3.907          1953.500
        22   02 Jun 2027 04:00:38.470   02 Jun 2027 04:02:05.981            87.511         43755.500
        23   02 Jun 2027 04:02:13.874   02 Jun 2027 04:02:57.929            44.055         22027.500
        24   02 Jun 2027 04:03:35.448   02 Jun 2027 04:03:50.069            14.621          7310.500
        25   02 Jun 2027 04:04:39.937   02 Jun 2027 04:06:26.134           106.197         53098.500
        26   02 Jun 2027 05:24:52.419   02 Jun 2027 05:25:33.856            41.437         20718.500
        27   02 Jun 2027 05:37:05.628   02 Jun 2027 05:37:38.109            32.481         16240.500
        28   02 Jun 2027 06:59:20.910   02 Jun 2027 07:00:27.282            66.372         33186.000
        29   02 Jun 2027 07:01:16.409   02 Jun 2027 07:02:45.751            89.342         44671.000
        30   02 Jun 2027 07:02:55.532   02 Jun 2027 07:03:18.405            22.873         11436.500
        31   02 Jun 2027 08:34:13.516   02 Jun 2027 08:35:39.787            86.271         43135.500
        32   02 Jun 2027 08:40:18.037   02 Jun 2027 08:40:37.733            19.696          9848.000
        33   02 Jun 2027 10:11:48.015   02 Jun 2027 10:12:06.012            17.997          6792.845
        34   02 Jun 2027 10:12:40.502   02 Jun 2027 10:12:42.172             1.670           773.281
        35   02 Jun 2027 10:12:45.739   02 Jun 2027 10:12:46.066             0.327           111.469
        36   02 Jun 2027 10:12:50.766   02 Jun 2027 10:12:51.089             0.323           100.406
        37   02 Jun 2027 10:13:06.471   02 Jun 2027 10:13:07.719             1.248           480.688
        38   02 Jun 2027 10:13:29.087   02 Jun 2027 10:13:31.176             2.089           276.812
        39   02 Jun 2027 10:14:53.003   02 Jun 2027 10:14:59.343             6.340          2226.437
        40   02 Jun 2027 10:17:57.692   02 Jun 2027 10:18:06.792             9.100          4490.156
        41   02 Jun 2027 10:18:27.486   02 Jun 2027 10:18:32.043             4.557           310.063
        42   02 Jun 2027 10:18:47.992   02 Jun 2027 10:18:50.503             2.511           498.406
        43   02 Jun 2027 11:48:30.790   02 Jun 2027 11:48:48.543            17.753          8876.500
        44   02 Jun 2027 11:50:07.234   02 Jun 2027 11:50:17.791            10.557          3181.344
        45   02 Jun 2027 11:51:15.430   02 Jun 2027 11:51:18.114             2.684          1342.000
        46   02 Jun 2027 11:52:36.221   02 Jun 2027 11:52:40.879             4.658          2329.000
        47   02 Jun 2027 11:54:49.316   02 Jun 2027 11:55:02.279            12.963          4276.000
        48   03 Jun 2027 04:12:43.394   03 Jun 2027 04:14:09.302            85.908         42954.000
        49   03 Jun 2027 04:14:11.862   03 Jun 2027 04:14:35.268            23.406         11703.000
        50   03 Jun 2027 04:15:02.709   03 Jun 2027 04:15:39.611            36.902         18451.000
        51   03 Jun 2027 04:15:47.301   03 Jun 2027 04:16:15.813            28.512         14256.000
        52   03 Jun 2027 04:16:41.920   03 Jun 2027 04:17:04.095            22.175         11087.500
        53   03 Jun 2027 04:17:57.270   03 Jun 2027 04:18:25.966            28.696         14348.000
        54   03 Jun 2027 04:18:51.438   03 Jun 2027 04:19:06.989            15.551          7775.500
        55   03 Jun 2027 05:36:58.393   03 Jun 2027 05:38:02.138            63.745         31872.500
        56   03 Jun 2027 05:49:26.836   03 Jun 2027 05:49:32.894             6.058          3029.000
        57   03 Jun 2027 07:10:49.399   03 Jun 2027 07:11:33.115            43.716         21645.407
        58   03 Jun 2027 07:11:55.454   03 Jun 2027 07:11:57.639             2.185           698.094
        59   03 Jun 2027 07:12:51.980   03 Jun 2027 07:12:56.010             4.030           587.094
        60   03 Jun 2027 07:13:10.642   03 Jun 2027 07:13:10.642             0.000             0.000
        61   03 Jun 2027 07:13:38.154   03 Jun 2027 07:13:39.617             1.463           731.500
        62   03 Jun 2027 07:14:14.751   03 Jun 2027 07:14:18.236             3.485          1478.531
        63   03 Jun 2027 07:14:51.552   03 Jun 2027 07:14:54.185             2.633           340.063
        64   03 Jun 2027 07:15:46.969   03 Jun 2027 07:15:51.285             4.316          1160.906
        65   03 Jun 2027 07:15:59.451   03 Jun 2027 07:16:01.644             2.193           102.281
        66   03 Jun 2027 08:45:43.637   03 Jun 2027 08:45:51.491             7.854          3814.969
        67   03 Jun 2027 08:47:52.857   03 Jun 2027 08:48:03.351            10.494          3731.812
        68   03 Jun 2027 08:48:48.116   03 Jun 2027 08:48:57.783             9.667          1169.094
        69   03 Jun 2027 08:49:27.221   03 Jun 2027 08:49:27.221             0.000             0.000
        70   03 Jun 2027 08:49:51.352   03 Jun 2027 08:49:57.845             6.493          1054.469
        71   03 Jun 2027 08:51:28.239   03 Jun 2027 08:51:34.237             5.998          2535.781
        72   03 Jun 2027 08:52:29.452   03 Jun 2027 08:52:34.999             5.547          1603.531
        73   03 Jun 2027 08:53:10.357   03 Jun 2027 08:53:10.357             0.000             0.000
        74   03 Jun 2027 08:53:52.489   03 Jun 2027 08:53:53.938             1.449           724.500
        75   03 Jun 2027 08:54:14.267   03 Jun 2027 08:54:17.876             3.609          1422.750
        76   03 Jun 2027 08:54:48.739   03 Jun 2027 08:54:50.418             1.679           818.906
        77   03 Jun 2027 08:55:11.018   03 Jun 2027 08:55:12.390             1.372           559.313
        78   03 Jun 2027 10:23:42.812   03 Jun 2027 10:23:58.308            15.496          5539.469
        79   03 Jun 2027 10:26:40.886   03 Jun 2027 10:26:40.886             0.000             0.000
        80   03 Jun 2027 10:27:59.689   03 Jun 2027 10:28:15.599            15.910          7446.094
        81   03 Jun 2027 10:28:17.018   03 Jun 2027 10:28:19.078             2.060            44.344
        82   03 Jun 2027 10:28:31.124   03 Jun 2027 10:28:32.296             1.172           298.375
        83   03 Jun 2027 10:28:42.598   03 Jun 2027 10:28:44.621             2.023           297.469
        84   03 Jun 2027 10:29:04.595   03 Jun 2027 10:29:06.073             1.478           624.187
        85   03 Jun 2027 10:29:21.160   03 Jun 2027 10:29:21.478             0.318           159.000
        86   03 Jun 2027 10:29:28.961   03 Jun 2027 10:29:30.291             1.330           442.969
        87   03 Jun 2027 10:29:33.458   03 Jun 2027 10:29:37.122             3.664            98.969
        88   03 Jun 2027 10:29:46.746   03 Jun 2027 10:29:46.746             0.000             0.000
        89   03 Jun 2027 10:29:56.979   03 Jun 2027 10:29:59.168             2.189           530.656
        90   03 Jun 2027 10:30:35.891   03 Jun 2027 10:30:36.422             0.531           265.500
        91   03 Jun 2027 10:30:51.042   03 Jun 2027 10:30:54.934             3.892          1225.937
        92   04 Jun 2027 04:25:06.002   04 Jun 2027 04:28:39.348           213.346        106673.000
        93   04 Jun 2027 04:29:17.557   04 Jun 2027 04:29:52.996            35.439         17719.500
        94   04 Jun 2027 05:48:54.422   04 Jun 2027 05:49:36.747            42.325         21162.500
        95   04 Jun 2027 07:25:06.921   04 Jun 2027 07:26:05.548            58.627         27028.625
        96   04 Jun 2027 07:26:59.490   04 Jun 2027 07:27:03.468             3.978          1343.500
        97   04 Jun 2027 07:27:17.995   04 Jun 2027 07:27:17.995             0.000             0.000
        98   04 Jun 2027 07:27:41.450   04 Jun 2027 07:27:43.979             2.529           880.469
        99   04 Jun 2027 07:28:12.436   04 Jun 2027 07:28:12.436             0.000             0.000
       100   04 Jun 2027 08:58:38.674   04 Jun 2027 08:58:47.691             9.017          3631.125
       101   04 Jun 2027 08:59:24.977   04 Jun 2027 08:59:25.352             0.375           100.406
       102   04 Jun 2027 09:00:31.146   04 Jun 2027 09:00:35.059             3.913          1095.125
       103   04 Jun 2027 09:01:05.902   04 Jun 2027 09:01:06.926             1.024            79.500
       104   04 Jun 2027 09:01:25.337   04 Jun 2027 09:01:28.187             2.850           450.656
       105   04 Jun 2027 09:02:31.092   04 Jun 2027 09:02:36.486             5.394          1586.594
       106   04 Jun 2027 09:03:20.624   04 Jun 2027 09:03:23.151             2.527           164.219
       107   04 Jun 2027 09:04:23.431   04 Jun 2027 09:04:26.465             3.034          1438.094
       108   04 Jun 2027 09:05:32.394   04 Jun 2027 09:05:32.507             0.113            56.500
       109   04 Jun 2027 09:05:44.933   04 Jun 2027 09:05:46.555             1.622           811.000
       110   04 Jun 2027 09:06:19.999   04 Jun 2027 09:06:25.162             5.163          2355.594
       111   04 Jun 2027 09:06:31.507   04 Jun 2027 09:06:32.367             0.860            14.156
       112   04 Jun 2027 09:07:13.221   04 Jun 2027 09:07:13.987             0.766           383.000
       113   04 Jun 2027 10:36:04.681   04 Jun 2027 10:36:18.787            14.106          6662.688
       114   04 Jun 2027 10:36:29.673   04 Jun 2027 10:36:30.549             0.876           340.188
       115   04 Jun 2027 10:36:57.770   04 Jun 2027 10:37:00.509             2.739           850.656
       116   04 Jun 2027 10:37:01.018   04 Jun 2027 10:37:01.897             0.879            15.906
       117   04 Jun 2027 10:37:23.068   04 Jun 2027 10:37:26.483             3.415           574.313
       118   04 Jun 2027 10:37:40.306   04 Jun 2027 10:37:41.951             1.645           431.969
       119   04 Jun 2027 10:38:30.637   04 Jun 2027 10:38:35.684             5.047          1373.812
       120   04 Jun 2027 10:39:25.170   04 Jun 2027 10:39:27.613             2.443          1090.656
       121   04 Jun 2027 10:39:43.196   04 Jun 2027 10:39:53.069             9.873           214.125
       122   04 Jun 2027 10:39:56.889   04 Jun 2027 10:40:02.616             5.727           119.375
       123   04 Jun 2027 10:40:22.466   04 Jun 2027 10:40:23.996             1.530           109.500
       124   04 Jun 2027 10:40:35.028   04 Jun 2027 10:40:35.595             0.567           170.625
       125   04 Jun 2027 10:41:10.486   04 Jun 2027 10:41:13.310             2.824          1090.344
       126   04 Jun 2027 10:41:52.630   04 Jun 2027 10:41:58.557             5.927          1228.750
       127   04 Jun 2027 10:42:00.519   04 Jun 2027 10:42:11.822            11.303            61.312
       128   04 Jun 2027 10:42:35.362   04 Jun 2027 10:42:36.875             1.513           650.313
       129   05 Jun 2027 03:00:41.915   05 Jun 2027 03:01:31.147            49.232         24616.000
       130   05 Jun 2027 03:01:56.221   05 Jun 2027 03:02:00.010             3.789          1894.500
       131   05 Jun 2027 03:03:22.700   05 Jun 2027 03:03:59.223            36.523         18261.500
       132   05 Jun 2027 03:04:37.693   05 Jun 2027 03:05:16.008            38.315         19157.500
       133   05 Jun 2027 04:37:06.355   05 Jun 2027 04:38:46.213            99.858         49929.000
       134   05 Jun 2027 04:39:24.658   05 Jun 2027 04:40:34.230            69.572         34786.000
       135   05 Jun 2027 04:41:00.202   05 Jun 2027 04:41:00.202             0.000             0.000
       136   05 Jun 2027 04:41:06.648   05 Jun 2027 04:41:06.648             0.000             0.000
       137   05 Jun 2027 04:41:11.077   05 Jun 2027 04:41:19.608             8.531          4265.500
       138   05 Jun 2027 04:41:32.439   05 Jun 2027 04:41:49.297            16.858          7527.875
       139   05 Jun 2027 06:00:46.167   05 Jun 2027 06:01:06.885            20.718          9615.000
       140   05 Jun 2027 06:02:21.730   05 Jun 2027 06:02:21.730             0.000             0.000
       141   05 Jun 2027 06:03:03.249   05 Jun 2027 06:03:10.979             7.730          2980.875
       142   05 Jun 2027 07:37:10.094   05 Jun 2027 07:37:28.529            18.435          7084.437
       143   05 Jun 2027 07:38:05.121   05 Jun 2027 07:38:08.058             2.937           862.156
       144   05 Jun 2027 07:38:37.585   05 Jun 2027 07:38:39.094             1.509           735.812
       145   05 Jun 2027 07:39:26.566   05 Jun 2027 07:39:31.610             5.044          1157.938
       146   05 Jun 2027 09:11:16.208   05 Jun 2027 09:11:25.067             8.859          3936.438
       147   05 Jun 2027 09:13:06.185   05 Jun 2027 09:13:14.067             7.882          2184.469
       148   05 Jun 2027 09:13:55.601   05 Jun 2027 09:14:06.170            10.569          1055.875
       149   05 Jun 2027 09:14:34.970   05 Jun 2027 09:14:38.823             3.853           572.156
       150   05 Jun 2027 09:16:25.649   05 Jun 2027 09:16:25.649             0.000             0.000
       151   05 Jun 2027 09:17:39.052   05 Jun 2027 09:17:45.960             6.908          3454.000
       152   05 Jun 2027 09:17:59.450   05 Jun 2027 09:18:04.767             5.317          2568.656
       153   05 Jun 2027 09:18:54.596   05 Jun 2027 09:18:58.166             3.570          1555.406
       154   05 Jun 2027 09:19:07.294   05 Jun 2027 09:19:08.978             1.684           264.750
       155   05 Jun 2027 10:48:16.497   05 Jun 2027 10:48:32.288            15.791          6328.969
       156   05 Jun 2027 10:49:00.530   05 Jun 2027 10:49:05.506             4.976           879.031
       157   05 Jun 2027 10:50:32.570   05 Jun 2027 10:50:37.537             4.967          2472.719
       158   05 Jun 2027 10:51:20.731   05 Jun 2027 10:51:28.589             7.858           877.750
       159   05 Jun 2027 10:51:58.363   05 Jun 2027 10:52:08.869            10.506           874.000
       160   05 Jun 2027 10:52:44.983   05 Jun 2027 10:52:53.223             8.240           750.094
       161   05 Jun 2027 10:53:09.550   05 Jun 2027 10:53:13.637             4.087           478.156
       162   05 Jun 2027 10:53:26.650   05 Jun 2027 10:53:27.370             0.720           360.000
       163   05 Jun 2027 10:53:36.182   05 Jun 2027 10:53:38.795             2.613           322.031
       164   05 Jun 2027 10:54:17.739   05 Jun 2027 10:54:19.814             2.075           776.063
       165   05 Jun 2027 10:54:24.607   05 Jun 2027 10:54:25.754             1.147           149.781
       166   05 Jun 2027 10:54:42.106   05 Jun 2027 10:54:44.364             2.258           511.000
       167   06 Jun 2027 03:11:13.593   06 Jun 2027 03:12:15.358            61.765         30882.500
       168   06 Jun 2027 03:12:21.833   06 Jun 2027 03:13:59.312            97.479         48739.500
       169   06 Jun 2027 03:15:15.848   06 Jun 2027 03:15:15.848             0.000             0.000
       170   06 Jun 2027 03:16:04.706   06 Jun 2027 03:16:25.725            21.019         10509.500
       171   06 Jun 2027 03:17:03.365   06 Jun 2027 03:17:28.739            25.374         12687.000
       172   06 Jun 2027 04:50:19.533   06 Jun 2027 04:52:15.687           116.154         57062.937
       173   06 Jun 2027 04:52:52.344   06 Jun 2027 04:52:55.134             2.790           483.219
       174   06 Jun 2027 04:53:19.062   06 Jun 2027 04:53:24.392             5.330           747.750
       175   06 Jun 2027 06:12:51.442   06 Jun 2027 06:12:54.903             3.461          1730.500
       176   06 Jun 2027 06:13:15.407   06 Jun 2027 06:13:29.747            14.340          4469.437
       177   06 Jun 2027 06:14:45.608   06 Jun 2027 06:14:45.608             0.000             0.000
       178   06 Jun 2027 06:15:08.213   06 Jun 2027 06:15:14.358             6.145          2617.750
       179   06 Jun 2027 07:49:20.671   06 Jun 2027 07:49:30.568             9.897          2871.094
       180   06 Jun 2027 07:49:55.013   06 Jun 2027 07:49:56.370             1.357           402.875
       181   06 Jun 2027 07:50:19.950   06 Jun 2027 07:50:25.258             5.308           199.688
       182   06 Jun 2027 07:52:02.263   06 Jun 2027 07:52:10.687             8.424          2951.312
       183   06 Jun 2027 07:52:28.589   06 Jun 2027 07:52:34.224             5.635           272.969
       184   06 Jun 2027 09:24:28.030   06 Jun 2027 09:24:36.586             8.556          3761.875
       185   06 Jun 2027 09:24:46.586   06 Jun 2027 09:24:50.683             4.097           312.500
       186   06 Jun 2027 09:25:35.178   06 Jun 2027 09:25:41.504             6.326          1182.187
       187   06 Jun 2027 09:25:57.254   06 Jun 2027 09:26:00.361             3.107           422.875
       188   06 Jun 2027 09:28:18.406   06 Jun 2027 09:28:18.406             0.000             0.000
       189   06 Jun 2027 09:28:22.023   06 Jun 2027 09:28:28.403             6.380          3046.219
       190   06 Jun 2027 09:29:22.590   06 Jun 2027 09:29:25.470             2.880          1182.500
       191   06 Jun 2027 09:29:46.514   06 Jun 2027 09:29:46.514             0.000             0.000
       192   06 Jun 2027 09:30:30.756   06 Jun 2027 09:30:34.764             4.008          1715.906
       193   06 Jun 2027 09:30:56.692   06 Jun 2027 09:30:58.236             1.544           444.437
       194   06 Jun 2027 09:31:03.646   06 Jun 2027 09:31:03.996             0.350             5.281
       195   06 Jun 2027 09:31:05.807   06 Jun 2027 09:31:06.129             0.322            56.594
       196   06 Jun 2027 11:00:49.380   06 Jun 2027 11:01:00.115            10.735          5292.344
       197   06 Jun 2027 11:02:29.656   06 Jun 2027 11:02:34.423             4.767          1669.594
       198   06 Jun 2027 11:02:39.050   06 Jun 2027 11:02:40.479             1.429           144.594
       199   06 Jun 2027 11:02:56.237   06 Jun 2027 11:02:57.444             1.207           492.438
       200   06 Jun 2027 11:03:03.802   06 Jun 2027 11:03:05.173             1.371           128.625
       201   06 Jun 2027 11:04:18.218   06 Jun 2027 11:04:21.648             3.430          1585.313
       202   06 Jun 2027 11:04:23.799   06 Jun 2027 11:04:23.799             0.000             0.000
       203   06 Jun 2027 11:05:16.206   06 Jun 2027 11:05:19.995             3.789          1704.937
       204   06 Jun 2027 11:05:37.261   06 Jun 2027 11:05:40.345             3.084           404.094
       205   06 Jun 2027 11:06:23.951   06 Jun 2027 11:06:25.440             1.489           744.500
       206   06 Jun 2027 11:06:53.985   06 Jun 2027 11:06:57.222             3.237          1510.219
       207   07 Jun 2027 03:23:14.232   07 Jun 2027 03:23:56.709            42.477         21238.500
       208   07 Jun 2027 03:24:19.428   07 Jun 2027 03:26:37.134           137.706         68853.000
       209   07 Jun 2027 03:26:46.567   07 Jun 2027 03:27:14.298            27.731         13865.500
       210   07 Jun 2027 03:28:44.333   07 Jun 2027 03:29:11.812            27.479         13739.500
       211   07 Jun 2027 05:01:26.518   07 Jun 2027 05:02:04.677            38.159         19079.500
       212   07 Jun 2027 05:02:17.421   07 Jun 2027 05:02:40.186            22.765         11382.500
       213   07 Jun 2027 05:03:14.251   07 Jun 2027 05:03:32.280            18.029          8085.124
       214   07 Jun 2027 05:04:14.251   07 Jun 2027 05:04:16.507             2.256          1011.406
       215   07 Jun 2027 05:04:26.345   07 Jun 2027 05:04:29.288             2.943           285.875
       216   07 Jun 2027 05:04:33.385   07 Jun 2027 05:04:34.509             1.124           128.031
       217   07 Jun 2027 05:04:47.859   07 Jun 2027 05:04:49.897             2.038           143.500
       218   07 Jun 2027 05:04:53.322   07 Jun 2027 05:04:55.800             2.478           107.031
       219   07 Jun 2027 06:24:55.106   07 Jun 2027 06:25:06.958            11.852          5463.062
       220   07 Jun 2027 06:25:40.532   07 Jun 2027 06:25:40.532             0.000             0.000
       221   07 Jun 2027 06:27:35.654   07 Jun 2027 06:27:45.188             9.534          4477.625
       222   07 Jun 2027 06:27:56.321   07 Jun 2027 06:27:56.321             0.000             0.000
       223   07 Jun 2027 08:01:24.083   07 Jun 2027 08:01:31.707             7.624          2966.906
       224   07 Jun 2027 08:02:21.460   07 Jun 2027 08:02:25.463             4.003          1541.312
       225   07 Jun 2027 08:02:41.549   07 Jun 2027 08:02:43.466             1.917           318.563
       226   07 Jun 2027 08:02:55.478   07 Jun 2027 08:02:56.303             0.825           213.594
       227   07 Jun 2027 08:03:12.668   07 Jun 2027 08:03:12.755             0.087            43.500
       228   07 Jun 2027 08:04:10.122   07 Jun 2027 08:04:14.944             4.822          1908.375
       229   07 Jun 2027 09:36:35.158   07 Jun 2027 09:36:44.053             8.895          3617.469
       230   07 Jun 2027 09:37:58.522   07 Jun 2027 09:38:03.432             4.910          2285.094
       231   07 Jun 2027 09:38:57.002   07 Jun 2027 09:39:01.629             4.627          1487.125
       232   07 Jun 2027 09:40:12.526   07 Jun 2027 09:40:19.482             6.956          1947.156
       233   07 Jun 2027 09:42:56.151   07 Jun 2027 09:43:07.110            10.959          4894.531
       234   07 Jun 2027 11:12:31.669   07 Jun 2027 11:12:46.788            15.119          7162.500
       235   07 Jun 2027 11:13:02.749   07 Jun 2027 11:13:04.761             2.012            63.969
       236   07 Jun 2027 11:13:52.767   07 Jun 2027 11:13:55.907             3.140          1023.344
       237   07 Jun 2027 11:14:32.886   07 Jun 2027 11:14:36.164             3.278             4.031
       238   07 Jun 2027 11:15:07.882   07 Jun 2027 11:15:14.323             6.441           826.437
       239   07 Jun 2027 11:16:57.069   07 Jun 2027 11:17:06.337             9.268          2806.219
       240   07 Jun 2027 11:17:41.321   07 Jun 2027 11:17:49.347             8.026          1075.062
       241   07 Jun 2027 11:18:09.667   07 Jun 2027 11:18:15.488             5.821           625.188
       242   07 Jun 2027 11:18:32.622   07 Jun 2027 11:18:35.203             2.581           535.437
       243   07 Jun 2027 11:18:48.846   07 Jun 2027 11:18:51.697             2.851           387.156
       244   08 Jun 2027 03:36:18.996   08 Jun 2027 03:40:04.185           225.189        112594.500
       245   08 Jun 2027 03:40:36.682   08 Jun 2027 03:40:36.682             0.000             0.000
       246   08 Jun 2027 03:41:19.791   08 Jun 2027 03:41:23.524             3.733          1866.500
       247   08 Jun 2027 03:42:39.306   08 Jun 2027 03:42:55.736            16.430          8215.000
       248   08 Jun 2027 03:43:24.562   08 Jun 2027 03:44:07.253            42.691         21345.500
       249   08 Jun 2027 05:02:33.128   08 Jun 2027 05:02:53.473            20.345         10172.500
       250   08 Jun 2027 05:13:24.210   08 Jun 2027 05:14:05.411            41.201         17676.875
       251   08 Jun 2027 05:14:42.602   08 Jun 2027 05:14:45.516             2.914          1039.906
       252   08 Jun 2027 05:16:21.623   08 Jun 2027 05:16:28.725             7.102          3003.344
       253   08 Jun 2027 05:16:32.372   08 Jun 2027 05:16:32.372             0.000             0.000
       254   08 Jun 2027 05:16:51.748   08 Jun 2027 05:16:53.421             1.673           657.844
       255   08 Jun 2027 06:37:21.966   08 Jun 2027 06:37:38.132            16.166          8083.000
       256   08 Jun 2027 06:37:50.381   08 Jun 2027 06:37:52.069             1.688           418.375
       257   08 Jun 2027 06:39:35.648   08 Jun 2027 06:39:44.656             9.008          3236.844
       258   08 Jun 2027 08:13:08.481   08 Jun 2027 08:13:17.171             8.690          3370.500
       259   08 Jun 2027 08:14:01.192   08 Jun 2027 08:14:06.188             4.996           624.969
       260   08 Jun 2027 08:15:22.583   08 Jun 2027 08:15:22.583             0.000             0.000
       261   08 Jun 2027 08:15:54.432   08 Jun 2027 08:16:00.220             5.788          2864.875
       262   08 Jun 2027 08:16:07.132   08 Jun 2027 08:16:10.138             3.006           216.000
       263   08 Jun 2027 09:47:51.206   08 Jun 2027 09:47:59.931             8.725          3740.406
       264   08 Jun 2027 09:48:59.900   08 Jun 2027 09:49:03.642             3.742          1114.000
       265   08 Jun 2027 09:51:14.827   08 Jun 2027 09:51:22.628             7.801          3128.406
       266   08 Jun 2027 09:53:45.861   08 Jun 2027 09:53:53.428             7.567          3783.500
       267   08 Jun 2027 09:54:34.167   08 Jun 2027 09:54:38.291             4.124          1891.875
       268   08 Jun 2027 09:54:56.755   08 Jun 2027 09:55:01.743             4.988           565.469
       269   08 Jun 2027 09:55:09.031   08 Jun 2027 09:55:09.365             0.334           125.906
       270   08 Jun 2027 11:24:37.123   08 Jun 2027 11:24:53.239            16.116          7246.063
       271   08 Jun 2027 11:25:07.972   08 Jun 2027 11:25:13.323             5.351           339.625
       272   08 Jun 2027 11:25:36.241   08 Jun 2027 11:25:37.880             1.639           362.156
       273   08 Jun 2027 11:26:37.739   08 Jun 2027 11:26:42.180             4.441          1591.437
       274   08 Jun 2027 11:27:01.910   08 Jun 2027 11:27:10.323             8.413           616.563
       275   08 Jun 2027 11:27:29.957   08 Jun 2027 11:27:35.247             5.290           607.969
       276   08 Jun 2027 11:28:23.201   08 Jun 2027 11:28:25.666             2.465          1232.500
       277   08 Jun 2027 11:28:43.140   08 Jun 2027 11:28:47.819             4.679           792.469
       278   08 Jun 2027 11:29:27.507   08 Jun 2027 11:29:31.615             4.108           928.375
       279   08 Jun 2027 11:29:47.271   08 Jun 2027 11:29:50.402             3.131           489.250
       280   08 Jun 2027 11:30:47.405   08 Jun 2027 11:30:52.181             4.776          1781.344
       281   09 Jun 2027 03:48:39.741   09 Jun 2027 03:51:09.098           149.357         74678.500
       282   09 Jun 2027 03:51:52.499   09 Jun 2027 03:52:29.783            37.284         18642.000
       283   09 Jun 2027 03:52:54.725   09 Jun 2027 03:53:31.962            37.237         18618.500
       284   09 Jun 2027 03:54:02.960   09 Jun 2027 03:54:33.874            30.914         15457.000
       285   09 Jun 2027 05:13:48.480   09 Jun 2027 05:14:06.183            17.703          8851.500
       286   09 Jun 2027 05:25:23.737   09 Jun 2027 05:26:25.105            61.368         30635.500
       287   09 Jun 2027 06:47:59.709   09 Jun 2027 06:48:06.708             6.999          3403.187
       288   09 Jun 2027 06:49:37.513   09 Jun 2027 06:49:42.770             5.257          2237.281
       289   09 Jun 2027 06:51:35.055   09 Jun 2027 06:51:48.256            13.201          3204.531
       290   09 Jun 2027 06:52:22.192   09 Jun 2027 06:52:22.192             0.000             0.000
       291   09 Jun 2027 06:52:35.904   09 Jun 2027 06:52:42.206             6.302          1254.437
       292   09 Jun 2027 08:23:09.046   09 Jun 2027 08:23:20.541            11.495          4385.031
       293   09 Jun 2027 08:24:04.774   09 Jun 2027 08:24:09.178             4.404          1300.562
       294   09 Jun 2027 08:25:39.651   09 Jun 2027 08:25:43.884             4.233          2116.500
       295   09 Jun 2027 08:26:09.112   09 Jun 2027 08:26:13.782             4.670          1472.438
       296   09 Jun 2027 08:27:45.530   09 Jun 2027 08:27:54.666             9.136          2554.625
       297   09 Jun 2027 08:28:01.900   09 Jun 2027 08:28:03.412             1.512           226.063
       298   09 Jun 2027 08:29:02.837   09 Jun 2027 08:29:03.360             0.523           261.500
       299   09 Jun 2027 09:59:56.795   09 Jun 2027 10:00:04.864             8.069          4034.500
       300   09 Jun 2027 10:03:14.003   09 Jun 2027 10:03:29.251            15.248          6421.344
       301   09 Jun 2027 10:03:40.785   09 Jun 2027 10:03:44.312             3.527           360.437
       302   09 Jun 2027 10:04:21.570   09 Jun 2027 10:04:25.275             3.705           513.000
       303   09 Jun 2027 10:04:55.702   09 Jun 2027 10:04:58.302             2.600           882.594
       304   09 Jun 2027 10:05:22.246   09 Jun 2027 10:05:23.480             1.234           605.000
       305   09 Jun 2027 10:05:45.012   09 Jun 2027 10:05:45.489             0.477           238.500
       306   09 Jun 2027 10:06:04.582   09 Jun 2027 10:06:07.577             2.995          1002.406
       307   09 Jun 2027 10:06:22.530   09 Jun 2027 10:06:22.530             0.000             0.000
       308   09 Jun 2027 10:07:02.609   09 Jun 2027 10:07:06.402             3.793          1683.781
       309   09 Jun 2027 11:36:57.794   09 Jun 2027 11:37:11.423            13.629          6814.500
       310   09 Jun 2027 11:39:35.900   09 Jun 2027 11:39:50.565            14.665          4827.719
       311   09 Jun 2027 11:40:15.996   09 Jun 2027 11:40:17.793             1.797           794.719
       312   09 Jun 2027 11:41:02.349   09 Jun 2027 11:41:05.119             2.770          1290.219
       313   09 Jun 2027 11:41:38.587   09 Jun 2027 11:41:39.938             1.351           675.500
       314   09 Jun 2027 11:42:10.203   09 Jun 2027 11:42:18.024             7.821          1316.156
       315   09 Jun 2027 11:42:24.392   09 Jun 2027 11:42:25.094             0.702           199.000
       316   09 Jun 2027 11:42:32.839   09 Jun 2027 11:42:33.910             1.071            85.938
       317   09 Jun 2027 11:42:37.638   09 Jun 2027 11:42:40.879             3.241            37.969
       318   09 Jun 2027 11:42:57.271   09 Jun 2027 11:42:58.304             1.033           402.594
       319   10 Jun 2027 04:00:55.587   10 Jun 2027 04:03:38.880           163.293         81646.500
       320   10 Jun 2027 04:04:45.645   10 Jun 2027 04:04:48.285             2.640          1320.000
       321   10 Jun 2027 04:04:56.644   10 Jun 2027 04:05:12.152            15.508          7754.000
       322   10 Jun 2027 04:05:29.102   10 Jun 2027 04:06:40.173            71.071         35535.500
       323   10 Jun 2027 04:07:43.958   10 Jun 2027 04:07:45.864             1.906           953.000
       324   10 Jun 2027 05:25:08.472   10 Jun 2027 05:25:49.921            41.449         20724.500
       325   10 Jun 2027 05:37:22.358   10 Jun 2027 05:38:18.117            55.759         27879.500
       326   10 Jun 2027 06:59:35.427   10 Jun 2027 06:59:44.900             9.473          4736.500
       327   10 Jun 2027 07:00:29.476   10 Jun 2027 07:00:34.193             4.717          2358.500
       328   10 Jun 2027 07:01:32.215   10 Jun 2027 07:01:37.935             5.720          2690.906
       329   10 Jun 2027 07:03:33.776   10 Jun 2027 07:03:41.072             7.296          3105.969
       330   10 Jun 2027 07:04:04.232   10 Jun 2027 07:04:04.232             0.000             0.000
       331   10 Jun 2027 07:04:31.277   10 Jun 2027 07:04:34.473             3.196          1022.562
       332   10 Jun 2027 08:34:28.812   10 Jun 2027 08:34:38.747             9.935          3937.938
       333   10 Jun 2027 08:35:03.887   10 Jun 2027 08:35:04.830             0.943           166.188
       334   10 Jun 2027 08:35:45.360   10 Jun 2027 08:35:45.360             0.000             0.000
       335   10 Jun 2027 08:36:11.529   10 Jun 2027 08:36:16.387             4.858           915.750
       336   10 Jun 2027 08:38:24.479   10 Jun 2027 08:38:38.938            14.459          3951.344
       337   10 Jun 2027 08:39:55.097   10 Jun 2027 08:39:59.707             4.610          2305.000
       338   10 Jun 2027 08:40:32.027   10 Jun 2027 08:40:32.027             0.000             0.000
       339   10 Jun 2027 08:41:15.341   10 Jun 2027 08:41:20.739             5.398          2413.375
       340   10 Jun 2027 08:42:33.550   10 Jun 2027 08:42:42.763             9.213          1377.687
       341   10 Jun 2027 10:12:03.841   10 Jun 2027 10:12:13.723             9.882          4385.344
       342   10 Jun 2027 10:12:35.731   10 Jun 2027 10:12:38.464             2.733           687.750
       343   10 Jun 2027 10:13:03.385   10 Jun 2027 10:13:06.365             2.980           778.781
       344   10 Jun 2027 10:13:13.962   10 Jun 2027 10:13:16.121             2.159           237.406
       345   10 Jun 2027 10:14:41.909   10 Jun 2027 10:14:48.858             6.949          2539.531
       346   10 Jun 2027 10:15:34.998   10 Jun 2027 10:15:39.070             4.072           857.406
       347   10 Jun 2027 10:16:38.432   10 Jun 2027 10:16:38.432             0.000             0.000
       348   10 Jun 2027 10:17:42.061   10 Jun 2027 10:17:51.851             9.790          3395.375
       349   10 Jun 2027 10:18:56.925   10 Jun 2027 10:19:02.739             5.814          2033.563
       350   10 Jun 2027 10:19:09.758   10 Jun 2027 10:19:10.813             1.055           219.344
       351   10 Jun 2027 10:19:25.967   10 Jun 2027 10:19:26.385             0.418           209.000
       352   10 Jun 2027 11:48:47.070   10 Jun 2027 11:48:59.930            12.860          6321.125
       353   10 Jun 2027 11:50:40.188   10 Jun 2027 11:50:46.650             6.462          1441.906
       354   10 Jun 2027 11:50:49.482   10 Jun 2027 11:50:52.696             3.214            88.500
       355   10 Jun 2027 11:50:57.958   10 Jun 2027 11:51:00.243             2.285           164.437
       356   10 Jun 2027 11:51:33.785   10 Jun 2027 11:51:34.876             1.091           545.500
       357   10 Jun 2027 11:52:52.942   10 Jun 2027 11:52:58.651             5.709          2781.094
       358   10 Jun 2027 11:53:37.325   10 Jun 2027 11:53:38.085             0.760           380.000
       359   10 Jun 2027 11:54:08.150   10 Jun 2027 11:54:15.663             7.513          1768.094
       360   10 Jun 2027 11:55:00.759   10 Jun 2027 11:55:01.206             0.447           223.500
       361   10 Jun 2027 11:55:05.439   10 Jun 2027 11:55:07.573             2.134          1067.000
       362   11 Jun 2027 04:13:01.610   11 Jun 2027 04:16:35.224           213.614        106807.000
       363   11 Jun 2027 04:17:18.658   11 Jun 2027 04:17:18.658             0.000             0.000
       364   11 Jun 2027 04:17:42.420   11 Jun 2027 04:17:42.420             0.000             0.000
       365   11 Jun 2027 04:18:13.449   11 Jun 2027 04:18:41.718            28.269         14134.500
       366   11 Jun 2027 05:37:14.242   11 Jun 2027 05:38:32.838            78.596         39298.000
       367   11 Jun 2027 05:49:44.933   11 Jun 2027 05:49:49.560             4.627          2313.500
       368   11 Jun 2027 07:11:04.597   11 Jun 2027 07:11:20.906            16.309          8133.406
       369   11 Jun 2027 07:12:35.573   11 Jun 2027 07:12:39.713             4.140          1784.437
       370   11 Jun 2027 07:12:57.145   11 Jun 2027 07:12:58.388             1.243           400.281
       371   11 Jun 2027 07:13:26.767   11 Jun 2027 07:13:29.110             2.343           295.250
       372   11 Jun 2027 07:14:04.384   11 Jun 2027 07:14:04.384             0.000             0.000
       373   11 Jun 2027 07:14:32.487   11 Jun 2027 07:14:35.820             3.333          1452.219
       374   11 Jun 2027 07:16:19.456   11 Jun 2027 07:16:27.109             7.653          2624.813
       375   11 Jun 2027 08:45:59.288   11 Jun 2027 08:46:08.104             8.816          3848.969
       376   11 Jun 2027 08:46:51.808   11 Jun 2027 08:46:51.808             0.000             0.000
       377   11 Jun 2027 08:46:54.519   11 Jun 2027 08:47:07.204            12.685          1340.125
       378   11 Jun 2027 08:48:12.633   11 Jun 2027 08:48:14.750             2.117            64.187
       379   11 Jun 2027 08:49:05.932   11 Jun 2027 08:49:12.431             6.499          1173.813
       380   11 Jun 2027 08:49:41.367   11 Jun 2027 08:49:42.372             1.005           241.438
       381   11 Jun 2027 08:50:41.613   11 Jun 2027 08:50:43.997             2.384          1011.188
       382   11 Jun 2027 08:51:11.353   11 Jun 2027 08:51:16.957             5.604            36.750
       383   11 Jun 2027 08:52:46.697   11 Jun 2027 08:52:50.470             3.773          1616.375
       384   11 Jun 2027 08:53:08.616   11 Jun 2027 08:53:09.136             0.520           251.781
       385   11 Jun 2027 08:53:26.873   11 Jun 2027 08:53:27.336             0.463           231.500
       386   11 Jun 2027 08:54:01.071   11 Jun 2027 08:54:09.378             8.307          1352.844
       387   11 Jun 2027 08:54:57.476   11 Jun 2027 08:55:05.244             7.768          1490.812
       388   11 Jun 2027 10:23:59.763   11 Jun 2027 10:24:12.489            12.726          6153.500
       389   11 Jun 2027 10:28:19.418   11 Jun 2027 10:28:34.317            14.899          7402.688
       390   11 Jun 2027 10:28:50.270   11 Jun 2027 10:28:52.629             2.359           259.031
       391   11 Jun 2027 10:29:39.274   11 Jun 2027 10:29:43.214             3.940          1133.875
       392   11 Jun 2027 10:30:21.327   11 Jun 2027 10:30:24.775             3.448          1187.281
       393   11 Jun 2027 10:30:31.009   11 Jun 2027 10:30:32.360             1.351           194.812
       394   11 Jun 2027 10:30:41.687   11 Jun 2027 10:30:44.361             2.674           291.469
       395   11 Jun 2027 10:30:59.524   11 Jun 2027 10:31:00.941             1.417           473.844
       396   12 Jun 2027 04:25:27.152   12 Jun 2027 04:28:58.372           211.220        105610.000
       397   12 Jun 2027 04:29:00.313   12 Jun 2027 04:29:00.313             0.000             0.000
       398   12 Jun 2027 04:29:09.770   12 Jun 2027 04:29:09.770             0.000             0.000
       399   12 Jun 2027 04:29:32.217   12 Jun 2027 04:29:32.217             0.000             0.000
       400   12 Jun 2027 05:49:10.892   12 Jun 2027 05:49:51.552            40.660         20330.000
       401   12 Jun 2027 07:25:22.907   12 Jun 2027 07:26:32.249            69.342         34671.000
       402   12 Jun 2027 07:27:17.677   12 Jun 2027 07:27:26.143             8.466          1464.750
       403   12 Jun 2027 07:28:03.624   12 Jun 2027 07:28:09.125             5.501          1095.312
       404   12 Jun 2027 08:58:56.238   12 Jun 2027 08:59:04.792             8.554          3712.781
       405   12 Jun 2027 08:59:55.466   12 Jun 2027 08:59:58.483             3.017           628.437
       406   12 Jun 2027 09:01:24.645   12 Jun 2027 09:01:28.707             4.062          2031.000
       407   12 Jun 2027 09:02:11.491   12 Jun 2027 09:02:17.623             6.132          1544.531
       408   12 Jun 2027 09:03:35.511   12 Jun 2027 09:03:35.511             0.000             0.000
       409   12 Jun 2027 09:05:32.788   12 Jun 2027 09:05:45.433            12.645          5882.188
       410   12 Jun 2027 09:06:02.618   12 Jun 2027 09:06:05.469             2.851           499.906
       411   12 Jun 2027 09:06:28.982   12 Jun 2027 09:06:30.527             1.545           726.531
       412   12 Jun 2027 09:06:47.762   12 Jun 2027 09:06:48.073             0.311            52.313
       413   12 Jun 2027 09:07:29.568   12 Jun 2027 09:07:30.545             0.977           488.500
       414   12 Jun 2027 10:36:22.069   12 Jun 2027 10:36:41.132            19.063          7611.875
       415   12 Jun 2027 10:37:08.829   12 Jun 2027 10:37:10.153             1.324           339.562
       416   12 Jun 2027 10:38:26.348   12 Jun 2027 10:38:34.357             8.009          1073.156
       417   12 Jun 2027 10:39:42.528   12 Jun 2027 10:39:47.718             5.190          1969.781
       418   12 Jun 2027 10:39:58.448   12 Jun 2027 10:40:08.953            10.505           201.719
       419   12 Jun 2027 10:40:13.462   12 Jun 2027 10:40:18.214             4.752            94.406
       420   12 Jun 2027 10:40:49.339   12 Jun 2027 10:40:51.432             2.093           456.531
       421   12 Jun 2027 10:41:26.956   12 Jun 2027 10:41:30.549             3.593          1110.125
       422   12 Jun 2027 10:41:33.438   12 Jun 2027 10:41:33.626             0.188            90.281
       423   12 Jun 2027 10:41:49.631   12 Jun 2027 10:41:51.943             2.312           116.344
       424   12 Jun 2027 10:42:13.192   12 Jun 2027 10:42:16.197             3.005           599.562
       425   12 Jun 2027 10:42:47.686   12 Jun 2027 10:42:49.665             1.979           984.031
       426   12 Jun 2027 10:42:51.545   12 Jun 2027 10:42:53.266             1.721            47.125
       427   13 Jun 2027 03:00:00.000   13 Jun 2027 03:00:42.788            42.788         21394.000
       428   13 Jun 2027 03:01:37.276   13 Jun 2027 03:01:40.550             3.274          1637.000
       429   13 Jun 2027 03:01:49.982   13 Jun 2027 03:02:35.030            45.048         22524.000
       430   13 Jun 2027 03:03:19.467   13 Jun 2027 03:03:24.838             5.371          2685.500
       431   13 Jun 2027 03:04:49.908   13 Jun 2027 03:05:08.981            19.073          9536.500
       432   13 Jun 2027 03:05:30.671   13 Jun 2027 03:05:33.069             2.398          1199.000
       433   13 Jun 2027 04:37:22.200   13 Jun 2027 04:39:40.619           138.419         69209.500
       434   13 Jun 2027 04:40:04.486   13 Jun 2027 04:40:31.754            27.268         13634.000
       435   13 Jun 2027 04:41:35.637   13 Jun 2027 04:41:47.185            11.548          5774.000
       436   13 Jun 2027 04:42:14.269   13 Jun 2027 04:42:15.117             0.848           424.000
       437   13 Jun 2027 06:01:02.038   13 Jun 2027 06:01:40.116            38.078         17977.062
       438   13 Jun 2027 07:37:29.484   13 Jun 2027 07:37:44.621            15.137          6197.094
       439   13 Jun 2027 07:38:23.452   13 Jun 2027 07:38:25.873             2.421           869.500
       440   13 Jun 2027 07:38:42.082   13 Jun 2027 07:38:42.490             0.408           186.469
       441   13 Jun 2027 07:39:15.527   13 Jun 2027 07:39:17.905             2.378          1032.406
       442   13 Jun 2027 07:39:24.260   13 Jun 2027 07:39:25.459             1.199            52.563
       443   13 Jun 2027 07:40:19.702   13 Jun 2027 07:40:23.364             3.662          1615.031
       444   13 Jun 2027 09:09:40.587   13 Jun 2027 09:09:47.134             6.547          3273.500
       445   13 Jun 2027 09:12:13.422   13 Jun 2027 09:12:21.799             8.377          3616.156
       446   13 Jun 2027 09:13:40.067   13 Jun 2027 09:13:42.991             2.924           813.281
       447   13 Jun 2027 09:14:35.673   13 Jun 2027 09:14:37.150             1.477           694.594
       448   13 Jun 2027 09:15:52.638   13 Jun 2027 09:15:52.638             0.000             0.000
       449   13 Jun 2027 09:16:36.927   13 Jun 2027 09:16:39.713             2.786          1393.000
       450   13 Jun 2027 09:17:51.492   13 Jun 2027 09:18:01.658            10.166          4095.094
       451   13 Jun 2027 09:19:15.671   13 Jun 2027 09:19:21.350             5.679          2312.906
       452   13 Jun 2027 10:48:32.843   13 Jun 2027 10:48:48.463            15.620          7768.437
       453   13 Jun 2027 10:49:16.446   13 Jun 2027 10:49:21.477             5.031           874.469
       454   13 Jun 2027 10:51:24.337   13 Jun 2027 10:51:33.389             9.052          3280.250
       455   13 Jun 2027 10:51:46.312   13 Jun 2027 10:51:47.478             1.166           316.938
       456   13 Jun 2027 10:52:15.132   13 Jun 2027 10:52:25.389            10.257           864.188
       457   13 Jun 2027 10:52:36.748   13 Jun 2027 10:52:37.780             1.032           205.688
       458   13 Jun 2027 10:53:15.007   13 Jun 2027 10:53:20.320             5.313          1112.188
       459   13 Jun 2027 10:53:30.336   13 Jun 2027 10:53:35.538             5.202           190.531
       460   13 Jun 2027 10:53:42.329   13 Jun 2027 10:53:42.505             0.176            88.000
       461   13 Jun 2027 10:54:38.482   13 Jun 2027 10:54:42.849             4.367          1797.656
       462   13 Jun 2027 10:54:58.208   13 Jun 2027 10:54:58.386             0.178            89.000
       463   13 Jun 2027 10:54:59.365   13 Jun 2027 10:55:01.134             1.769           421.563
       464   13 Jun 2027 10:55:08.595   13 Jun 2027 10:55:10.142             1.547            73.063
