uniorb/output/strategy_2/Camera/Camera_KinoSat_110605.txt

KinoSat_110605
-------------------------
    Access    *     Start Time (UTCG)     *     Stop Time (UTCG)  *   Duration (s) *   Data (Mbytes)
         1   01 Jun 2027 03:44:13.088   01 Jun 2027 03:45:02.657            49.569         24784.500
         2   01 Jun 2027 03:45:09.020   01 Jun 2027 03:45:35.443            26.423         13211.500
         3   01 Jun 2027 03:45:56.590   01 Jun 2027 03:46:06.013             9.423          4711.500
         4   01 Jun 2027 03:47:39.106   01 Jun 2027 03:47:39.106             0.000             0.000
         5   01 Jun 2027 03:47:44.407   01 Jun 2027 03:47:45.952             1.545           772.500
         6   01 Jun 2027 05:19:22.190   01 Jun 2027 05:22:20.298           178.108         89054.000
         7   01 Jun 2027 05:23:07.799   01 Jun 2027 05:23:07.799             0.000             0.000
         8   01 Jun 2027 05:23:21.694   01 Jun 2027 05:23:51.255            29.561         14780.500
         9   01 Jun 2027 05:25:58.031   01 Jun 2027 05:25:59.417             1.386           693.000
        10   01 Jun 2027 06:55:45.802   01 Jun 2027 06:57:49.203           123.401         61700.500
        11   01 Jun 2027 06:58:21.032   01 Jun 2027 07:00:10.264           109.232         54616.000
        12   01 Jun 2027 07:01:25.816   01 Jun 2027 07:01:30.317             4.501          2250.500
        13   01 Jun 2027 07:01:50.623   01 Jun 2027 07:01:57.438             6.815          3407.500
        14   01 Jun 2027 08:32:59.653   01 Jun 2027 08:36:07.910           188.257         94128.500
        15   01 Jun 2027 08:36:27.365   01 Jun 2027 08:36:32.280             4.915          2457.500
        16   01 Jun 2027 08:37:28.898   01 Jun 2027 08:37:29.861             0.963           481.500
        17   01 Jun 2027 10:09:18.509   01 Jun 2027 10:11:25.931           127.422         63711.000
        18   01 Jun 2027 10:11:46.725   01 Jun 2027 10:11:54.084             7.359          3679.500
        19   01 Jun 2027 10:12:29.639   01 Jun 2027 10:12:45.884            16.245          8122.500
        20   02 Jun 2027 03:56:06.074   02 Jun 2027 03:56:48.921            42.847         21423.500
        21   02 Jun 2027 03:57:37.546   02 Jun 2027 03:57:57.507            19.961          9980.500
        22   02 Jun 2027 03:59:25.307   02 Jun 2027 03:59:25.307             0.000             0.000
        23   02 Jun 2027 03:59:42.296   02 Jun 2027 03:59:45.181             2.885          1442.500
        24   02 Jun 2027 03:59:53.015   02 Jun 2027 04:00:07.238            14.223          7111.500
        25   02 Jun 2027 05:31:03.674   02 Jun 2027 05:32:59.553           115.879         57939.500
        26   02 Jun 2027 05:33:29.711   02 Jun 2027 05:34:16.205            46.494         23247.000
        27   02 Jun 2027 05:35:42.820   02 Jun 2027 05:36:18.050            35.230         17615.000
        28   02 Jun 2027 05:37:05.473   02 Jun 2027 05:37:05.473             0.000             0.000
        29   02 Jun 2027 05:37:10.825   02 Jun 2027 05:37:32.973            22.148         11074.000
        30   02 Jun 2027 05:38:03.529   02 Jun 2027 05:38:07.023             3.494          1747.000
        31   02 Jun 2027 07:07:17.417   02 Jun 2027 07:09:50.944           153.527         76763.500
        32   02 Jun 2027 07:10:23.839   02 Jun 2027 07:11:00.670            36.831         18415.500
        33   02 Jun 2027 07:12:15.115   02 Jun 2027 07:13:14.101            58.986         29493.000
        34   02 Jun 2027 08:45:37.541   02 Jun 2027 08:47:32.904           115.363         57262.124
        35   02 Jun 2027 08:48:03.933   02 Jun 2027 08:48:04.682             0.749           342.062
        36   02 Jun 2027 08:49:11.285   02 Jun 2027 08:49:22.482            11.197          1982.969
        37   02 Jun 2027 10:20:56.970   02 Jun 2027 10:21:16.349            19.379          9268.281
        38   02 Jun 2027 10:21:25.546   02 Jun 2027 10:21:26.143             0.597           287.406
        39   02 Jun 2027 10:21:40.509   02 Jun 2027 10:21:43.683             3.174           448.938
        40   02 Jun 2027 10:22:03.168   02 Jun 2027 10:22:09.202             6.034           608.906
        41   02 Jun 2027 10:22:23.526   02 Jun 2027 10:22:24.413             0.887           380.562
        42   02 Jun 2027 10:22:57.872   02 Jun 2027 10:23:00.265             2.393          1045.594
        43   02 Jun 2027 10:23:43.718   02 Jun 2027 10:23:47.462             3.744          1162.125
        44   02 Jun 2027 10:24:32.966   02 Jun 2027 10:24:41.178             8.212          1369.906
        45   02 Jun 2027 10:26:00.790   02 Jun 2027 10:26:02.730             1.940           970.000
        46   02 Jun 2027 10:26:05.393   02 Jun 2027 10:26:08.652             3.259          1601.094
        47   02 Jun 2027 10:26:18.948   02 Jun 2027 10:26:23.699             4.751           266.125
        48   03 Jun 2027 04:06:28.232   03 Jun 2027 04:06:53.963            25.731         12865.500
        49   03 Jun 2027 04:07:50.863   03 Jun 2027 04:08:30.598            39.735         19867.500
        50   03 Jun 2027 04:08:41.286   03 Jun 2027 04:08:58.473            17.187          8593.500
        51   03 Jun 2027 04:09:05.568   03 Jun 2027 04:09:05.568             0.000             0.000
        52   03 Jun 2027 04:11:06.657   03 Jun 2027 04:11:06.657             0.000             0.000
        53   03 Jun 2027 04:11:27.644   03 Jun 2027 04:11:31.361             3.717          1858.500
        54   03 Jun 2027 04:12:11.672   03 Jun 2027 04:12:11.672             0.000             0.000
        55   03 Jun 2027 04:12:14.101   03 Jun 2027 04:12:15.822             1.721           860.500
        56   03 Jun 2027 05:42:36.654   03 Jun 2027 05:46:01.580           204.926        102463.000
        57   03 Jun 2027 05:46:09.660   03 Jun 2027 05:46:19.939            10.279          5139.500
        58   03 Jun 2027 05:47:41.905   03 Jun 2027 05:47:53.888            11.983          5991.500
        59   03 Jun 2027 05:48:17.465   03 Jun 2027 05:48:38.284            20.819          9401.375
        60   03 Jun 2027 05:50:08.230   03 Jun 2027 05:50:10.834             2.604          1302.000
        61   03 Jun 2027 07:19:39.027   03 Jun 2027 07:20:59.314            80.287         39615.094
        62   03 Jun 2027 07:21:51.863   03 Jun 2027 07:21:58.883             7.020          1574.656
        63   03 Jun 2027 07:22:29.431   03 Jun 2027 07:22:29.759             0.328            21.469
        64   03 Jun 2027 07:23:17.064   03 Jun 2027 07:23:20.983             3.919          1416.719
        65   03 Jun 2027 07:24:01.720   03 Jun 2027 07:24:01.752             0.032            16.000
        66   03 Jun 2027 07:24:15.972   03 Jun 2027 07:24:20.843             4.871          1320.000
        67   03 Jun 2027 07:24:24.576   03 Jun 2027 07:24:28.928             4.352            71.938
        68   03 Jun 2027 07:24:41.262   03 Jun 2027 07:24:42.641             1.379           385.438
        69   03 Jun 2027 07:25:20.985   03 Jun 2027 07:25:24.658             3.673          1011.062
        70   03 Jun 2027 07:25:35.884   03 Jun 2027 07:25:37.057             1.173           307.375
        71   03 Jun 2027 08:57:38.679   03 Jun 2027 08:57:59.697            21.018         10509.000
        72   03 Jun 2027 08:58:08.179   03 Jun 2027 08:58:10.440             2.261          1006.406
        73   03 Jun 2027 08:58:35.433   03 Jun 2027 08:58:37.657             2.224           701.750
        74   03 Jun 2027 08:59:29.657   03 Jun 2027 08:59:39.238             9.581          1553.969
        75   03 Jun 2027 09:00:14.571   03 Jun 2027 09:00:17.810             3.239           984.000
        76   03 Jun 2027 09:01:21.510   03 Jun 2027 09:01:25.346             3.836          1425.094
        77   03 Jun 2027 10:30:50.291   03 Jun 2027 10:31:10.998            20.707          6645.937
        78   03 Jun 2027 10:32:16.926   03 Jun 2027 10:32:17.545             0.619           143.156
        79   03 Jun 2027 10:32:38.182   03 Jun 2027 10:32:42.989             4.807           644.906
        80   03 Jun 2027 10:33:35.834   03 Jun 2027 10:33:40.179             4.345          1580.875
        81   03 Jun 2027 10:34:12.587   03 Jun 2027 10:34:13.980             1.393           382.563
        82   03 Jun 2027 10:34:18.167   03 Jun 2027 10:34:19.021             0.854           130.844
        83   03 Jun 2027 10:34:27.007   03 Jun 2027 10:34:29.694             2.687           202.437
        84   03 Jun 2027 10:35:07.709   03 Jun 2027 10:35:12.371             4.662          1187.969
        85   03 Jun 2027 10:36:50.948   03 Jun 2027 10:37:00.460             9.512          2915.656
        86   03 Jun 2027 10:37:58.814   03 Jun 2027 10:38:04.551             5.737          1492.625
        87   03 Jun 2027 10:38:44.226   03 Jun 2027 10:38:44.598             0.372           156.500
        88   04 Jun 2027 04:17:32.767   04 Jun 2027 04:19:02.167            89.400         44700.000
        89   04 Jun 2027 04:19:34.774   04 Jun 2027 04:20:07.302            32.528         16264.000
        90   04 Jun 2027 04:20:35.265   04 Jun 2027 04:20:56.045            20.780         10390.000
        91   04 Jun 2027 04:22:43.622   04 Jun 2027 04:23:09.347            25.725         12862.500
        92   04 Jun 2027 04:23:29.799   04 Jun 2027 04:23:41.817            12.018          6009.000
        93   04 Jun 2027 04:23:44.011   04 Jun 2027 04:23:45.159             1.148           574.000
        94   04 Jun 2027 04:23:45.254   04 Jun 2027 04:23:45.839             0.585           292.500
        95   04 Jun 2027 05:54:48.067   04 Jun 2027 05:57:13.275           145.208         72604.000
        96   04 Jun 2027 05:57:43.690   04 Jun 2027 05:57:49.251             5.561          2780.500
        97   04 Jun 2027 05:59:20.912   04 Jun 2027 05:59:27.949             7.037          3518.500
        98   04 Jun 2027 05:59:50.476   04 Jun 2027 05:59:53.000             2.524          1262.000
        99   04 Jun 2027 06:01:11.759   04 Jun 2027 06:01:28.976            17.217          7507.657
       100   04 Jun 2027 07:31:42.351   04 Jun 2027 07:32:39.289            56.938         28396.000
       101   04 Jun 2027 07:33:45.674   04 Jun 2027 07:33:51.874             6.200          1247.719
       102   04 Jun 2027 07:35:08.974   04 Jun 2027 07:35:15.958             6.984          2409.375
       103   04 Jun 2027 07:35:35.559   04 Jun 2027 07:35:42.487             6.928           456.937
       104   04 Jun 2027 07:35:59.554   04 Jun 2027 07:35:59.554             0.000             0.000
       105   04 Jun 2027 07:36:45.733   04 Jun 2027 07:36:50.073             4.340          1651.812
       106   04 Jun 2027 07:36:54.151   04 Jun 2027 07:36:55.846             1.695           127.437
       107   04 Jun 2027 07:37:39.667   04 Jun 2027 07:37:41.636             1.969           841.844
       108   04 Jun 2027 09:09:38.477   04 Jun 2027 09:09:58.913            20.436          9428.156
       109   04 Jun 2027 09:10:09.311   04 Jun 2027 09:10:10.963             1.652           324.937
       110   04 Jun 2027 09:11:18.123   04 Jun 2027 09:11:25.061             6.938          1992.625
       111   04 Jun 2027 09:11:43.559   04 Jun 2027 09:11:48.916             5.357           578.062
       112   04 Jun 2027 09:11:57.778   04 Jun 2027 09:11:59.376             1.598           142.625
       113   04 Jun 2027 09:12:46.749   04 Jun 2027 09:12:49.912             3.163          1480.406
       114   04 Jun 2027 09:13:11.575   04 Jun 2027 09:13:11.575             0.000             0.000
       115   04 Jun 2027 09:13:18.856   04 Jun 2027 09:13:24.095             5.239           804.250
       116   04 Jun 2027 09:13:29.500   04 Jun 2027 09:13:30.351             0.851           119.562
       117   04 Jun 2027 09:13:33.290   04 Jun 2027 09:13:34.171             0.881            91.844
       118   04 Jun 2027 10:43:11.890   04 Jun 2027 10:43:17.371             5.481          2203.062
       119   04 Jun 2027 10:44:35.509   04 Jun 2027 10:44:40.619             5.110          1743.219
       120   04 Jun 2027 10:45:44.259   04 Jun 2027 10:45:51.311             7.052          1695.594
       121   04 Jun 2027 10:46:52.152   04 Jun 2027 10:46:56.155             4.003          1605.062
       122   04 Jun 2027 10:47:09.034   04 Jun 2027 10:47:11.111             2.077           295.562
       123   04 Jun 2027 10:48:03.729   04 Jun 2027 10:48:11.591             7.862          1644.313
       124   04 Jun 2027 10:48:29.678   04 Jun 2027 10:48:33.430             3.752           370.688
       125   04 Jun 2027 10:49:57.834   04 Jun 2027 10:50:02.847             5.013          2198.781
       126   04 Jun 2027 10:50:24.471   04 Jun 2027 10:50:30.349             5.878           165.844
       127   05 Jun 2027 04:29:02.053   05 Jun 2027 04:32:42.021           219.968        109984.000
       128   05 Jun 2027 04:37:18.949   05 Jun 2027 04:37:53.407            34.458         17229.000
       129   05 Jun 2027 06:06:48.479   05 Jun 2027 06:08:24.953            96.474         48082.094
       130   05 Jun 2027 06:09:05.614   05 Jun 2027 06:09:11.053             5.439          1210.500
       131   05 Jun 2027 06:09:30.633   05 Jun 2027 06:09:30.633             0.000             0.000
       132   05 Jun 2027 06:09:52.212   05 Jun 2027 06:09:53.109             0.897           448.500
       133   05 Jun 2027 06:11:19.314   05 Jun 2027 06:11:20.485             1.171           585.500
       134   05 Jun 2027 06:11:34.520   05 Jun 2027 06:11:47.008            12.488          3121.812
       135   05 Jun 2027 06:12:25.774   05 Jun 2027 06:12:28.369             2.595           960.406
       136   05 Jun 2027 06:12:58.316   05 Jun 2027 06:13:02.237             3.921           912.594
       137   05 Jun 2027 06:13:30.241   05 Jun 2027 06:13:32.846             2.605            17.250
       138   05 Jun 2027 07:43:33.733   05 Jun 2027 07:44:15.153            41.420         20710.000
       139   05 Jun 2027 07:44:25.838   05 Jun 2027 07:44:31.130             5.292          1375.031
       140   05 Jun 2027 07:45:46.653   05 Jun 2027 07:45:55.175             8.522          2296.438
       141   05 Jun 2027 07:46:30.480   05 Jun 2027 07:46:32.950             2.470           856.781
       142   05 Jun 2027 07:47:12.073   05 Jun 2027 07:47:16.454             4.381          1222.594
       143   05 Jun 2027 07:47:54.977   05 Jun 2027 07:47:57.199             2.222           846.656
       144   05 Jun 2027 07:48:24.513   05 Jun 2027 07:48:26.907             2.394           790.500
       145   05 Jun 2027 07:48:31.017   05 Jun 2027 07:48:32.299             1.282            72.406
       146   05 Jun 2027 07:49:36.320   05 Jun 2027 07:49:41.840             5.520          1826.437
       147   05 Jun 2027 09:21:39.095   05 Jun 2027 09:22:00.519            21.424         10552.719
       148   05 Jun 2027 09:22:02.373   05 Jun 2027 09:22:03.530             1.157            36.625
       149   05 Jun 2027 09:23:06.524   05 Jun 2027 09:23:13.204             6.680          1863.375
       150   05 Jun 2027 09:23:43.630   05 Jun 2027 09:23:44.236             0.606           303.000
       151   05 Jun 2027 09:24:26.592   05 Jun 2027 09:24:31.063             4.471          1869.000
       152   05 Jun 2027 09:25:07.104   05 Jun 2027 09:25:09.711             2.607          1033.812
       153   05 Jun 2027 09:25:38.610   05 Jun 2027 09:25:38.610             0.000             0.000
       154   05 Jun 2027 10:55:30.137   05 Jun 2027 10:55:33.539             3.402          1695.719
       155   05 Jun 2027 10:56:06.302   05 Jun 2027 10:56:09.116             2.814           773.906
       156   05 Jun 2027 10:56:55.038   05 Jun 2027 10:56:57.831             2.793          1217.094
       157   05 Jun 2027 10:57:43.833   05 Jun 2027 10:57:49.202             5.369          1135.688
       158   05 Jun 2027 10:58:37.041   05 Jun 2027 10:58:45.510             8.469          1416.375
       159   05 Jun 2027 10:59:10.484   05 Jun 2027 10:59:13.688             3.204           741.000
       160   05 Jun 2027 11:00:18.330   05 Jun 2027 11:00:23.574             5.244          1887.969
       161   05 Jun 2027 11:01:07.631   05 Jun 2027 11:01:13.424             5.793          1332.063
       162   05 Jun 2027 11:02:00.673   05 Jun 2027 11:02:03.806             3.133          1081.844
       163   06 Jun 2027 03:05:46.146   06 Jun 2027 03:06:01.682            15.536          7768.000
       164   06 Jun 2027 03:06:24.925   06 Jun 2027 03:06:43.667            18.742          9371.000
       165   06 Jun 2027 03:08:13.030   06 Jun 2027 03:08:36.614            23.584         11792.000
       166   06 Jun 2027 03:09:47.787   06 Jun 2027 03:09:47.787             0.000             0.000
       167   06 Jun 2027 04:41:48.025   06 Jun 2027 04:45:18.456           210.431        105215.500
       168   06 Jun 2027 04:45:39.269   06 Jun 2027 04:45:43.486             4.217          2108.500
       169   06 Jun 2027 04:49:33.033   06 Jun 2027 04:49:39.417             6.384          3192.000
       170   06 Jun 2027 04:49:50.628   06 Jun 2027 04:50:17.643            27.015         13507.500
       171   06 Jun 2027 06:18:52.269   06 Jun 2027 06:20:02.404            70.135         34495.157
       172   06 Jun 2027 06:21:05.967   06 Jun 2027 06:21:09.166             3.199          1599.500
       173   06 Jun 2027 06:21:38.368   06 Jun 2027 06:21:44.133             5.765          1173.000
       174   06 Jun 2027 06:22:03.874   06 Jun 2027 06:22:05.525             1.651           542.375
       175   06 Jun 2027 06:22:42.198   06 Jun 2027 06:22:45.524             3.326           430.781
       176   06 Jun 2027 06:22:54.131   06 Jun 2027 06:22:55.442             1.311           235.344
       177   06 Jun 2027 06:23:01.792   06 Jun 2027 06:23:04.712             2.920            51.938
       178   06 Jun 2027 06:23:39.787   06 Jun 2027 06:23:42.902             3.115          1096.094
       179   06 Jun 2027 06:24:22.772   06 Jun 2027 06:24:22.772             0.000             0.000
       180   06 Jun 2027 06:24:35.652   06 Jun 2027 06:24:39.514             3.862          1561.688
       181   06 Jun 2027 06:24:59.885   06 Jun 2027 06:25:03.628             3.743           345.125
       182   06 Jun 2027 06:26:06.258   06 Jun 2027 06:26:11.212             4.954           482.281
       183   06 Jun 2027 07:55:50.948   06 Jun 2027 07:56:08.767            17.819          8909.500
       184   06 Jun 2027 07:56:20.524   06 Jun 2027 07:56:43.161            22.637         11126.500
       185   06 Jun 2027 07:57:29.529   06 Jun 2027 07:57:30.537             1.008           489.844
       186   06 Jun 2027 07:57:36.834   06 Jun 2027 07:57:39.437             2.603           196.781
       187   06 Jun 2027 07:58:20.648   06 Jun 2027 07:58:28.765             8.117          1287.844
       188   06 Jun 2027 07:59:18.960   06 Jun 2027 07:59:25.180             6.220          1568.594
       189   06 Jun 2027 08:00:14.827   06 Jun 2027 08:00:18.813             3.986          1486.656
       190   06 Jun 2027 08:01:25.972   06 Jun 2027 08:01:32.179             6.207          1970.937
       191   06 Jun 2027 09:32:52.853   06 Jun 2027 09:33:11.657            18.804          8460.594
       192   06 Jun 2027 09:33:24.593   06 Jun 2027 09:33:25.281             0.688           167.094
       193   06 Jun 2027 09:33:25.724   06 Jun 2027 09:33:26.230             0.506            13.844
       194   06 Jun 2027 09:33:56.496   06 Jun 2027 09:33:58.649             2.153           945.812
       195   06 Jun 2027 09:34:18.000   06 Jun 2027 09:34:19.608             1.608           223.938
       196   06 Jun 2027 09:34:49.429   06 Jun 2027 09:34:52.342             2.913           763.812
       197   06 Jun 2027 09:35:18.538   06 Jun 2027 09:35:20.813             2.275           802.187
       198   06 Jun 2027 09:36:10.214   06 Jun 2027 09:36:14.045             3.831           708.000
       199   06 Jun 2027 09:37:08.806   06 Jun 2027 09:37:13.272             4.466          1418.687
       200   06 Jun 2027 11:07:56.386   06 Jun 2027 11:08:05.978             9.592          4732.219
       201   06 Jun 2027 11:09:34.571   06 Jun 2027 11:09:44.197             9.626          1017.375
       202   06 Jun 2027 11:09:58.396   06 Jun 2027 11:10:03.646             5.250           351.781
       203   06 Jun 2027 11:10:13.220   06 Jun 2027 11:10:13.643             0.423           187.375
       204   06 Jun 2027 11:10:53.549   06 Jun 2027 11:11:02.134             8.585          1092.125
       205   06 Jun 2027 11:11:12.031   06 Jun 2027 11:11:13.602             1.571            90.812
       206   06 Jun 2027 11:12:02.309   06 Jun 2027 11:12:04.041             1.732           866.000
       207   07 Jun 2027 03:20:17.717   07 Jun 2027 03:20:37.930            20.213         10106.500
       208   07 Jun 2027 03:21:24.382   07 Jun 2027 03:21:32.914             8.532          4266.000
       209   07 Jun 2027 03:21:45.664   07 Jun 2027 03:22:01.591            15.927          7963.500
       210   07 Jun 2027 03:22:23.315   07 Jun 2027 03:22:34.176            10.861          5430.500
       211   07 Jun 2027 04:54:25.580   07 Jun 2027 04:56:46.807           141.227         70613.500
       212   07 Jun 2027 04:57:01.255   07 Jun 2027 04:57:40.755            39.500         19750.000
       213   07 Jun 2027 04:58:08.267   07 Jun 2027 04:58:33.398            25.131         12565.500
       214   07 Jun 2027 05:00:46.973   07 Jun 2027 05:00:47.298             0.325           162.500
       215   07 Jun 2027 05:01:14.605   07 Jun 2027 05:01:15.405             0.800           400.000
       216   07 Jun 2027 05:01:18.551   07 Jun 2027 05:01:18.947             0.396           198.000
       217   07 Jun 2027 05:01:55.141   07 Jun 2027 05:02:16.897            21.756         10878.000
       218   07 Jun 2027 06:31:18.645   07 Jun 2027 06:32:28.988            70.343         35061.469
       219   07 Jun 2027 06:33:37.675   07 Jun 2027 06:33:40.932             3.257           675.625
       220   07 Jun 2027 06:33:58.149   07 Jun 2027 06:34:04.904             6.755           317.531
       221   07 Jun 2027 06:34:37.084   07 Jun 2027 06:34:40.806             3.722           723.688
       222   07 Jun 2027 06:36:20.744   07 Jun 2027 06:36:27.352             6.608          2668.719
       223   07 Jun 2027 06:37:21.852   07 Jun 2027 06:37:24.833             2.981          1440.344
       224   07 Jun 2027 08:08:13.230   07 Jun 2027 08:08:49.664            36.434         17224.000
       225   07 Jun 2027 08:09:05.084   07 Jun 2027 08:09:07.423             2.339            96.469
       226   07 Jun 2027 08:10:28.569   07 Jun 2027 08:10:30.056             1.487           743.500
       227   07 Jun 2027 08:10:46.044   07 Jun 2027 08:10:59.604            13.560          1325.281
       228   07 Jun 2027 08:11:41.570   07 Jun 2027 08:11:45.258             3.688          1091.500
       229   07 Jun 2027 08:12:30.172   07 Jun 2027 08:12:31.857             1.685           842.500
       230   07 Jun 2027 08:12:41.007   07 Jun 2027 08:12:41.983             0.976           488.000
       231   07 Jun 2027 08:13:19.263   07 Jun 2027 08:13:19.263             0.000             0.000
       232   07 Jun 2027 08:13:22.545   07 Jun 2027 08:13:27.836             5.291          1565.250
       233   07 Jun 2027 09:45:04.163   07 Jun 2027 09:45:23.992            19.829          9782.906
       234   07 Jun 2027 09:45:41.432   07 Jun 2027 09:45:42.785             1.353           377.438
       235   07 Jun 2027 09:46:07.350   07 Jun 2027 09:46:11.231             3.881           738.562
       236   07 Jun 2027 09:46:43.076   07 Jun 2027 09:46:45.314             2.238           880.594
       237   07 Jun 2027 09:47:18.829   07 Jun 2027 09:47:18.829             0.000             0.000
       238   07 Jun 2027 09:48:12.487   07 Jun 2027 09:48:21.834             9.347          2678.906
       239   07 Jun 2027 09:48:34.927   07 Jun 2027 09:48:36.202             1.275           409.156
       240   07 Jun 2027 09:48:56.372   07 Jun 2027 09:48:59.965             3.593           581.250
       241   07 Jun 2027 09:49:13.030   07 Jun 2027 09:49:15.282             2.252             5.031
       242   07 Jun 2027 11:22:40.661   07 Jun 2027 11:22:44.957             4.296          1275.531
       243   07 Jun 2027 11:23:13.646   07 Jun 2027 11:23:15.974             2.328           881.625
       244   07 Jun 2027 11:24:17.654   07 Jun 2027 11:24:25.148             7.494          1816.531
       245   08 Jun 2027 03:32:19.088   08 Jun 2027 03:32:50.431            31.343         15671.500
       246   08 Jun 2027 03:33:14.407   08 Jun 2027 03:33:17.361             2.954          1477.000
       247   08 Jun 2027 03:34:10.246   08 Jun 2027 03:34:26.446            16.200          8100.000
       248   08 Jun 2027 05:06:49.227   08 Jun 2027 05:09:05.815           136.588         68294.000
       249   08 Jun 2027 05:09:25.935   08 Jun 2027 05:10:20.730            54.795         27397.500
       250   08 Jun 2027 05:10:55.711   08 Jun 2027 05:11:03.088             7.377          3688.500
       251   08 Jun 2027 05:11:41.239   08 Jun 2027 05:12:38.773            57.534         27566.219
       252   08 Jun 2027 05:13:21.819   08 Jun 2027 05:13:21.819             0.000             0.000
       253   08 Jun 2027 05:14:09.684   08 Jun 2027 05:14:12.722             3.038          1519.000
       254   08 Jun 2027 06:43:25.464   08 Jun 2027 06:44:21.279            55.815         26479.969
       255   08 Jun 2027 06:44:55.717   08 Jun 2027 06:44:56.707             0.990           104.813
       256   08 Jun 2027 06:45:25.375   08 Jun 2027 06:45:33.739             8.364           521.000
       257   08 Jun 2027 06:47:03.584   08 Jun 2027 06:47:08.696             5.112          1942.187
       258   08 Jun 2027 06:47:15.073   08 Jun 2027 06:47:17.293             2.220            80.719
       259   08 Jun 2027 06:47:47.719   08 Jun 2027 06:47:51.528             3.809           950.812
       260   08 Jun 2027 06:48:59.827   08 Jun 2027 06:49:01.972             2.145          1072.500
       261   08 Jun 2027 06:49:27.811   08 Jun 2027 06:49:33.179             5.368          1752.906
       262   08 Jun 2027 08:21:07.805   08 Jun 2027 08:21:40.502            32.697         13630.875
       263   08 Jun 2027 08:22:27.258   08 Jun 2027 08:22:31.115             3.857          1457.844
       264   08 Jun 2027 08:22:35.850   08 Jun 2027 08:22:36.400             0.550           128.063
       265   08 Jun 2027 08:23:49.043   08 Jun 2027 08:23:52.298             3.255          1627.500
       266   08 Jun 2027 08:25:31.836   08 Jun 2027 08:25:34.673             2.837          1418.500
       267   08 Jun 2027 09:57:06.302   08 Jun 2027 09:57:24.201            17.899          8269.187
       268   08 Jun 2027 09:57:50.128   08 Jun 2027 09:57:54.781             4.653           597.281
       269   08 Jun 2027 09:58:29.612   08 Jun 2027 09:58:33.574             3.962          1005.406
       270   08 Jun 2027 09:58:41.387   08 Jun 2027 09:58:41.653             0.266            61.594
       271   08 Jun 2027 09:59:14.447   08 Jun 2027 09:59:16.914             2.467           932.219
       272   08 Jun 2027 10:00:05.494   08 Jun 2027 10:00:10.099             4.605          1440.687
       273   08 Jun 2027 10:00:27.844   08 Jun 2027 10:00:29.046             1.202           169.188
       274   08 Jun 2027 10:00:44.274   08 Jun 2027 10:00:45.330             1.056           330.156
       275   09 Jun 2027 03:44:27.773   09 Jun 2027 03:44:53.767            25.994         12997.000
       276   09 Jun 2027 03:45:26.444   09 Jun 2027 03:46:11.694            45.250         22625.000
       277   09 Jun 2027 03:47:26.173   09 Jun 2027 03:47:26.173             0.000             0.000
       278   09 Jun 2027 03:47:37.897   09 Jun 2027 03:47:54.303            16.406          8203.000
       279   09 Jun 2027 05:19:36.942   09 Jun 2027 05:21:10.654            93.712         46856.000
       280   09 Jun 2027 05:21:35.947   09 Jun 2027 05:23:06.075            90.128         45064.000
       281   09 Jun 2027 05:23:17.477   09 Jun 2027 05:23:24.258             6.781          3390.500
       282   09 Jun 2027 05:23:36.704   09 Jun 2027 05:23:36.704             0.000             0.000
       283   09 Jun 2027 05:24:54.730   09 Jun 2027 05:24:54.730             0.000             0.000
       284   09 Jun 2027 05:25:48.504   09 Jun 2027 05:26:14.094            25.590         12795.000
       285   09 Jun 2027 06:56:00.768   09 Jun 2027 06:57:04.715            63.947         31111.094
       286   09 Jun 2027 06:57:05.960   09 Jun 2027 06:57:06.078             0.118            38.906
       287   09 Jun 2027 06:58:03.953   09 Jun 2027 06:58:08.169             4.216          1184.906
       288   09 Jun 2027 06:58:52.840   09 Jun 2027 06:58:56.391             3.551           859.688
       289   09 Jun 2027 06:59:15.647   09 Jun 2027 06:59:18.469             2.822           209.469
       290   09 Jun 2027 06:59:59.005   09 Jun 2027 07:00:01.799             2.794          1135.625
       291   09 Jun 2027 07:01:18.281   09 Jun 2027 07:01:24.752             6.471          2105.500
       292   09 Jun 2027 08:33:14.343   09 Jun 2027 08:33:42.487            28.144         13795.687
       293   09 Jun 2027 08:34:51.118   09 Jun 2027 08:34:57.587             6.469          1825.312
       294   09 Jun 2027 08:35:23.333   09 Jun 2027 08:35:26.934             3.601           769.125
       295   09 Jun 2027 08:35:36.936   09 Jun 2027 08:35:36.936             0.000             0.000
       296   09 Jun 2027 08:35:49.751   09 Jun 2027 08:35:52.043             2.292           713.031
       297   09 Jun 2027 10:09:33.319   09 Jun 2027 10:09:56.050            22.731          8674.031
       298   09 Jun 2027 10:10:34.205   09 Jun 2027 10:10:36.098             1.893           745.031
       299   09 Jun 2027 10:10:41.028   09 Jun 2027 10:10:41.882             0.854           134.875
       300   09 Jun 2027 10:10:46.633   09 Jun 2027 10:10:47.343             0.710            66.531
       301   09 Jun 2027 10:11:53.569   09 Jun 2027 10:11:58.372             4.803          1822.750
       302   09 Jun 2027 10:12:28.781   09 Jun 2027 10:12:32.620             3.839           636.656
       303   09 Jun 2027 10:12:32.912   09 Jun 2027 10:12:34.203             1.291             9.125
       304   09 Jun 2027 10:13:03.730   09 Jun 2027 10:13:05.645             1.915           922.719
       305   10 Jun 2027 03:56:20.625   10 Jun 2027 03:56:53.093            32.468         16234.000
       306   10 Jun 2027 03:56:57.912   10 Jun 2027 03:57:22.289            24.377         12188.500
       307   10 Jun 2027 03:57:22.692   10 Jun 2027 03:57:26.217             3.525          1762.500
       308   10 Jun 2027 03:57:41.590   10 Jun 2027 03:57:53.308            11.718          5859.000
       309   10 Jun 2027 03:59:56.608   10 Jun 2027 04:00:09.029            12.421          6210.500
       310   10 Jun 2027 05:31:18.116   10 Jun 2027 05:34:08.465           170.349         85174.500
       311   10 Jun 2027 05:34:30.894   10 Jun 2027 05:35:22.122            51.228         25614.000
       312   10 Jun 2027 05:35:27.260   10 Jun 2027 05:35:27.260             0.000             0.000
       313   10 Jun 2027 05:36:50.913   10 Jun 2027 05:36:50.913             0.000             0.000
       314   10 Jun 2027 05:37:54.164   10 Jun 2027 05:38:17.929            23.765         11439.688
       315   10 Jun 2027 07:07:32.349   10 Jun 2027 07:08:56.506            84.157         42078.500
       316   10 Jun 2027 07:09:52.933   10 Jun 2027 07:09:59.890             6.957          2092.969
       317   10 Jun 2027 07:10:39.796   10 Jun 2027 07:10:44.492             4.696          1066.094
       318   10 Jun 2027 07:10:59.431   10 Jun 2027 07:11:00.008             0.577           192.781
       319   10 Jun 2027 07:11:40.602   10 Jun 2027 07:11:44.016             3.414          1129.781
       320   10 Jun 2027 07:12:05.782   10 Jun 2027 07:12:07.244             1.462           640.594
       321   10 Jun 2027 07:12:27.779   10 Jun 2027 07:12:27.779             0.000             0.000
       322   10 Jun 2027 07:13:27.982   10 Jun 2027 07:13:31.307             3.325          1662.500
       323   10 Jun 2027 08:45:52.080   10 Jun 2027 08:46:15.769            23.689         11640.688
       324   10 Jun 2027 08:46:39.032   10 Jun 2027 08:46:46.828             7.796           726.969
       325   10 Jun 2027 08:47:02.285   10 Jun 2027 08:47:07.507             5.222           483.031
       326   10 Jun 2027 08:47:14.217   10 Jun 2027 08:47:15.279             1.062           209.687
       327   10 Jun 2027 08:47:48.138   10 Jun 2027 08:47:54.699             6.561           455.000
       328   10 Jun 2027 08:48:19.170   10 Jun 2027 08:48:21.972             2.802           353.000
       329   10 Jun 2027 08:49:03.480   10 Jun 2027 08:49:07.099             3.619           749.563
       330   10 Jun 2027 10:21:11.574   10 Jun 2027 10:21:27.731            16.157          7949.344
       331   10 Jun 2027 10:22:39.632   10 Jun 2027 10:22:44.332             4.700          2240.469
       332   10 Jun 2027 10:23:13.336   10 Jun 2027 10:23:19.128             5.792           800.500
       333   10 Jun 2027 10:23:32.830   10 Jun 2027 10:23:37.135             4.305           428.188
       334   10 Jun 2027 10:24:16.879   10 Jun 2027 10:24:19.613             2.734          1242.000
       335   10 Jun 2027 10:24:32.493   10 Jun 2027 10:24:33.928             1.435           343.875
       336   10 Jun 2027 10:24:43.007   10 Jun 2027 10:24:47.881             4.874           283.719
       337   10 Jun 2027 10:24:56.891   10 Jun 2027 10:24:59.689             2.798           281.563
       338   10 Jun 2027 10:26:00.415   10 Jun 2027 10:26:04.483             4.068          1832.906
       339   10 Jun 2027 10:26:15.948   10 Jun 2027 10:26:15.948             0.000             0.000
       340   11 Jun 2027 04:06:40.555   11 Jun 2027 04:07:09.020            28.465         14232.500
       341   11 Jun 2027 04:08:05.210   11 Jun 2027 04:08:57.198            51.988         25994.000
       342   11 Jun 2027 04:09:21.954   11 Jun 2027 04:09:40.969            19.015          9507.500
       343   11 Jun 2027 04:10:17.576   11 Jun 2027 04:10:23.849             6.273          3136.500
       344   11 Jun 2027 04:12:27.521   11 Jun 2027 04:12:30.638             3.117          1558.500
       345   11 Jun 2027 05:42:51.110   11 Jun 2027 05:45:56.862           185.752         92876.000
       346   11 Jun 2027 05:47:11.385   11 Jun 2027 05:47:30.189            18.804          9402.000
       347   11 Jun 2027 05:49:42.318   11 Jun 2027 05:50:10.793            28.475         12560.688
       348   11 Jun 2027 07:19:53.755   11 Jun 2027 07:21:01.470            67.715         33727.219
       349   11 Jun 2027 07:22:06.586   11 Jun 2027 07:22:10.797             4.211          1587.156
       350   11 Jun 2027 07:24:12.532   11 Jun 2027 07:24:16.502             3.970          1985.000
       351   11 Jun 2027 07:24:36.679   11 Jun 2027 07:24:40.318             3.639          1436.625
       352   11 Jun 2027 07:25:39.954   11 Jun 2027 07:25:44.590             4.636          1863.625
       353   11 Jun 2027 08:57:53.308   11 Jun 2027 08:58:16.576            23.268         11634.000
       354   11 Jun 2027 08:58:55.130   11 Jun 2027 08:58:59.253             4.123          2028.031
       355   11 Jun 2027 08:59:32.690   11 Jun 2027 08:59:35.486             2.796           922.250
       356   11 Jun 2027 09:00:29.417   11 Jun 2027 09:00:32.682             3.265           919.812
       357   11 Jun 2027 09:01:34.190   11 Jun 2027 09:01:38.374             4.184          1922.125
       358   11 Jun 2027 10:31:04.420   11 Jun 2027 10:31:27.263            22.843          6898.969
       359   11 Jun 2027 10:32:33.449   11 Jun 2027 10:32:39.584             6.135          1293.406
       360   11 Jun 2027 10:33:24.391   11 Jun 2027 10:33:28.807             4.416           933.813
       361   11 Jun 2027 10:34:29.335   11 Jun 2027 10:34:33.015             3.680          1756.594
       362   11 Jun 2027 10:35:22.368   11 Jun 2027 10:35:26.045             3.677          1542.281
       363   11 Jun 2027 10:36:17.937   11 Jun 2027 10:36:19.962             2.025          1012.500
       364   11 Jun 2027 10:36:49.298   11 Jun 2027 10:36:53.176             3.878          1331.000
       365   11 Jun 2027 10:37:25.722   11 Jun 2027 10:37:27.895             2.173           693.500
       366   11 Jun 2027 10:38:07.248   11 Jun 2027 10:38:08.758             1.510           327.406
       367   11 Jun 2027 10:38:15.531   11 Jun 2027 10:38:17.248             1.717           211.656
       368   11 Jun 2027 10:38:36.064   11 Jun 2027 10:38:37.188             1.124           503.031
       369   11 Jun 2027 10:38:58.930   11 Jun 2027 10:38:59.151             0.221           110.500
       370   12 Jun 2027 04:17:47.182   12 Jun 2027 04:19:16.821            89.639         44819.500
       371   12 Jun 2027 04:19:49.251   12 Jun 2027 04:20:04.318            15.067          7533.500
       372   12 Jun 2027 04:20:51.264   12 Jun 2027 04:21:10.795            19.531          9765.500
       373   12 Jun 2027 04:22:58.404   12 Jun 2027 04:23:31.250            32.846         16423.000
       374   12 Jun 2027 04:24:00.204   12 Jun 2027 04:24:00.825             0.621           310.500
       375   12 Jun 2027 04:24:29.585   12 Jun 2027 04:24:30.711             1.126           563.000
       376   12 Jun 2027 04:25:41.029   12 Jun 2027 04:25:51.681            10.652          5326.000
       377   12 Jun 2027 05:55:03.200   12 Jun 2027 05:56:05.948            62.748         31374.000
       378   12 Jun 2027 05:56:23.693   12 Jun 2027 05:57:19.024            55.331         27665.500
       379   12 Jun 2027 05:57:58.503   12 Jun 2027 05:58:18.204            19.701          9850.500
       380   12 Jun 2027 06:00:38.564   12 Jun 2027 06:01:10.007            31.443         15721.500
       381   12 Jun 2027 06:01:26.143   12 Jun 2027 06:01:40.213            14.070          7034.375
       382   12 Jun 2027 07:31:56.765   12 Jun 2027 07:32:59.828            63.063         30298.687
       383   12 Jun 2027 07:33:22.421   12 Jun 2027 07:33:26.869             4.448           353.781
       384   12 Jun 2027 07:34:54.629   12 Jun 2027 07:34:58.427             3.798          1695.938
       385   12 Jun 2027 07:35:43.590   12 Jun 2027 07:35:45.326             1.736           815.125
       386   12 Jun 2027 07:36:36.226   12 Jun 2027 07:36:42.454             6.228          1450.781
       387   12 Jun 2027 07:37:16.830   12 Jun 2027 07:37:23.683             6.853          1074.250
       388   12 Jun 2027 09:09:52.986   12 Jun 2027 09:10:18.176            25.190         11717.594
       389   12 Jun 2027 09:10:48.471   12 Jun 2027 09:10:49.540             1.069           534.500
       390   12 Jun 2027 09:10:55.775   12 Jun 2027 09:10:57.937             2.162           607.062
       391   12 Jun 2027 09:11:27.790   12 Jun 2027 09:11:32.818             5.028           883.312
       392   12 Jun 2027 09:12:10.030   12 Jun 2027 09:12:12.708             2.678          1162.875
       393   12 Jun 2027 09:12:56.238   12 Jun 2027 09:12:59.535             3.297          1360.312
       394   12 Jun 2027 09:13:28.365   12 Jun 2027 09:13:28.983             0.618           309.000
       395   12 Jun 2027 09:13:30.586   12 Jun 2027 09:13:33.200             2.614           363.719
       396   12 Jun 2027 09:13:40.612   12 Jun 2027 09:13:41.416             0.804           231.625
       397   12 Jun 2027 10:43:27.754   12 Jun 2027 10:43:40.277            12.523          3336.719
       398   12 Jun 2027 10:44:50.441   12 Jun 2027 10:44:56.848             6.407          1751.406
       399   12 Jun 2027 10:45:27.105   12 Jun 2027 10:45:28.287             1.182           305.563
       400   12 Jun 2027 10:46:26.555   12 Jun 2027 10:46:31.020             4.465          1694.688
       401   12 Jun 2027 10:47:02.650   12 Jun 2027 10:47:05.116             2.466           908.094
       402   12 Jun 2027 10:47:25.717   12 Jun 2027 10:47:28.553             2.836           535.156
       403   12 Jun 2027 10:48:21.902   12 Jun 2027 10:48:28.253             6.351          1664.000
       404   12 Jun 2027 10:48:50.863   12 Jun 2027 10:48:53.888             3.025           706.563
       405   12 Jun 2027 10:49:09.216   12 Jun 2027 10:49:14.869             5.653           226.250
       406   12 Jun 2027 10:50:12.464   12 Jun 2027 10:50:16.272             3.808          1726.875
       407   13 Jun 2027 03:00:00.000   13 Jun 2027 03:00:03.829             3.829          1914.500
       408   13 Jun 2027 04:29:16.354   13 Jun 2027 04:32:16.833           180.479         90239.500
       409   13 Jun 2027 04:32:47.016   13 Jun 2027 04:33:03.203            16.187          8093.500
       410   13 Jun 2027 04:34:12.837   13 Jun 2027 04:34:26.481            13.644          6822.000
       411   13 Jun 2027 04:34:55.573   13 Jun 2027 04:34:55.573             0.000             0.000
       412   13 Jun 2027 04:35:20.485   13 Jun 2027 04:35:25.406             4.921          2460.500
       413   13 Jun 2027 04:36:25.548   13 Jun 2027 04:36:28.226             2.678          1339.000
       414   13 Jun 2027 04:37:47.537   13 Jun 2027 04:38:08.423            20.886         10443.000
       415   13 Jun 2027 06:07:03.057   13 Jun 2027 06:09:04.627           121.570         57975.281
       416   13 Jun 2027 06:09:35.230   13 Jun 2027 06:09:37.084             1.854           676.906
       417   13 Jun 2027 06:10:07.133   13 Jun 2027 06:10:08.426             1.293           646.500
       418   13 Jun 2027 06:11:34.301   13 Jun 2027 06:11:35.741             1.440           720.000
       419   13 Jun 2027 06:12:10.824   13 Jun 2027 06:12:15.753             4.929          2464.500
       420   13 Jun 2027 06:12:47.777   13 Jun 2027 06:12:51.399             3.622          1738.813
       421   13 Jun 2027 06:13:12.843   13 Jun 2027 06:13:15.480             2.637           670.125
       422   13 Jun 2027 06:13:53.888   13 Jun 2027 06:13:57.044             3.156           281.125
       423   13 Jun 2027 06:14:15.593   13 Jun 2027 06:14:17.246             1.653           539.375
       424   13 Jun 2027 07:43:48.148   13 Jun 2027 07:44:35.120            46.972         23365.406
       425   13 Jun 2027 07:44:54.706   13 Jun 2027 07:44:59.375             4.669           375.531
       426   13 Jun 2027 07:46:47.565   13 Jun 2027 07:46:52.340             4.775          1694.656
       427   13 Jun 2027 07:46:55.667   13 Jun 2027 07:46:59.180             3.513            75.594
       428   13 Jun 2027 07:48:03.070   13 Jun 2027 07:48:05.054             1.984           992.000
       429   13 Jun 2027 07:49:09.945   13 Jun 2027 07:49:16.178             6.233          2951.250
       430   13 Jun 2027 07:49:38.527   13 Jun 2027 07:49:41.711             3.184           563.344
       431   13 Jun 2027 07:50:16.057   13 Jun 2027 07:50:17.917             1.860           734.031
       432   13 Jun 2027 09:21:53.757   13 Jun 2027 09:22:14.901            21.144          9207.938
       433   13 Jun 2027 09:22:35.864   13 Jun 2027 09:22:37.791             1.927           573.687
       434   13 Jun 2027 09:23:04.711   13 Jun 2027 09:23:07.069             2.358           841.250
       435   13 Jun 2027 09:23:33.196   13 Jun 2027 09:23:33.196             0.000             0.000
       436   13 Jun 2027 09:24:12.652   13 Jun 2027 09:24:18.173             5.521          1803.219
       437   13 Jun 2027 09:24:40.889   13 Jun 2027 09:24:40.895             0.006             3.000
       438   13 Jun 2027 09:24:53.581   13 Jun 2027 09:24:56.226             2.645          1103.312
       439   13 Jun 2027 09:25:48.041   13 Jun 2027 09:25:54.154             6.113          1558.406
       440   13 Jun 2027 10:55:44.927   13 Jun 2027 10:55:48.666             3.739          1573.406
       441   13 Jun 2027 10:56:22.250   13 Jun 2027 10:56:24.420             2.170           814.094
       442   13 Jun 2027 10:57:11.024   13 Jun 2027 10:57:12.561             1.537           768.500
       443   13 Jun 2027 10:57:48.548   13 Jun 2027 10:57:53.867             5.319          1590.719
       444   13 Jun 2027 10:58:24.335   13 Jun 2027 10:58:24.335             0.000             0.000
       445   13 Jun 2027 10:58:33.768   13 Jun 2027 10:58:36.510             2.742          1082.469
       446   13 Jun 2027 10:59:25.145   13 Jun 2027 10:59:27.576             2.431          1172.969
       447   13 Jun 2027 11:00:33.182   13 Jun 2027 11:00:40.666             7.484          1884.969
       448   13 Jun 2027 11:01:12.224   13 Jun 2027 11:01:16.934             4.710           986.187
       449   13 Jun 2027 11:02:03.952   13 Jun 2027 11:02:06.688             2.736           715.406
       450   13 Jun 2027 11:02:18.934   13 Jun 2027 11:02:24.604             5.670           341.219
