uniorb/output/strategy_2/Camera/Camera_KinoSat_111108.txt

KinoSat_111108
-------------------------
    Access    *     Start Time (UTCG)     *     Stop Time (UTCG)  *   Duration (s) *   Data (Mbytes)
         1   01 Jun 2027 03:06:36.658   01 Jun 2027 03:08:17.963           101.305         50652.500
         2   01 Jun 2027 03:08:18.437   01 Jun 2027 03:08:52.449            34.012         17006.000
         3   01 Jun 2027 03:09:27.098   01 Jun 2027 03:09:35.336             8.238          4119.000
         4   01 Jun 2027 03:10:31.949   01 Jun 2027 03:10:31.949             0.000             0.000
         5   01 Jun 2027 04:30:16.339   01 Jun 2027 04:31:16.190            59.851         29925.500
         6   01 Jun 2027 04:31:22.771   01 Jun 2027 04:31:33.704            10.933          5466.500
         7   01 Jun 2027 04:31:38.672   01 Jun 2027 04:31:42.230             3.558          1779.000
         8   01 Jun 2027 06:06:41.926   01 Jun 2027 06:08:07.817            85.891         42945.500
         9   01 Jun 2027 06:08:19.867   01 Jun 2027 06:08:58.300            38.433         19216.500
        10   01 Jun 2027 06:09:41.910   01 Jun 2027 06:10:14.696            32.786         16393.000
        11   01 Jun 2027 07:41:50.108   01 Jun 2027 07:42:58.248            68.140         34070.000
        12   01 Jun 2027 07:43:13.232   01 Jun 2027 07:43:56.831            43.599         21799.500
        13   01 Jun 2027 07:44:09.949   01 Jun 2027 07:44:25.118            15.169          7584.500
        14   01 Jun 2027 07:45:43.548   01 Jun 2027 07:45:57.120            13.572          6786.000
        15   01 Jun 2027 07:47:08.315   01 Jun 2027 07:47:36.026            27.711         13855.500
        16   01 Jun 2027 07:47:36.195   01 Jun 2027 07:47:50.914            14.719          7359.500
        17   01 Jun 2027 07:48:16.008   01 Jun 2027 07:48:21.129             5.121          2560.500
        18   01 Jun 2027 07:48:23.584   01 Jun 2027 07:48:27.445             3.861          1930.500
        19   01 Jun 2027 09:18:10.866   01 Jun 2027 09:20:13.393           122.527         61263.500
        20   01 Jun 2027 09:21:28.986   01 Jun 2027 09:21:34.921             5.935          2967.500
        21   01 Jun 2027 09:22:05.337   01 Jun 2027 09:22:14.249             8.912          4456.000
        22   01 Jun 2027 09:24:31.372   01 Jun 2027 09:24:33.291             1.919           959.500
        23   01 Jun 2027 10:55:44.720   01 Jun 2027 10:57:36.188           111.468         55734.000
        24   01 Jun 2027 10:58:25.621   01 Jun 2027 10:58:45.968            20.347         10173.500
        25   01 Jun 2027 10:59:42.900   01 Jun 2027 10:59:56.127            13.227          6613.500
        26   02 Jun 2027 03:18:55.924   02 Jun 2027 03:19:30.667            34.743         17371.500
        27   02 Jun 2027 03:19:44.512   02 Jun 2027 03:20:41.014            56.502         28251.000
        28   02 Jun 2027 03:21:15.632   02 Jun 2027 03:22:41.948            86.316         43158.000
        29   02 Jun 2027 04:42:15.434   02 Jun 2027 04:43:04.181            48.747         24373.500
        30   02 Jun 2027 04:43:07.369   02 Jun 2027 04:43:25.100            17.731          8865.500
        31   02 Jun 2027 04:43:51.365   02 Jun 2027 04:43:51.365             0.000             0.000
        32   02 Jun 2027 06:18:52.087   02 Jun 2027 06:19:02.863            10.776          5388.000
        33   02 Jun 2027 06:19:02.873   02 Jun 2027 06:19:39.138            36.265         18132.500
        34   02 Jun 2027 06:20:58.654   02 Jun 2027 06:21:46.724            48.070         24035.000
        35   02 Jun 2027 06:22:06.719   02 Jun 2027 06:22:19.005            12.286          6143.000
        36   02 Jun 2027 07:54:02.228   02 Jun 2027 07:56:52.023           169.795         84897.500
        37   02 Jun 2027 07:57:09.208   02 Jun 2027 07:57:09.208             0.000             0.000
        38   02 Jun 2027 07:57:31.216   02 Jun 2027 07:57:46.908            15.692          7846.000
        39   02 Jun 2027 07:57:56.379   02 Jun 2027 07:57:58.181             1.802           901.000
        40   02 Jun 2027 08:00:15.857   02 Jun 2027 08:00:38.098            22.241         11120.500
        41   02 Jun 2027 09:30:19.468   02 Jun 2027 09:30:53.547            34.079         16867.436
        42   02 Jun 2027 09:31:42.068   02 Jun 2027 09:31:46.754             4.686          1398.969
        43   02 Jun 2027 09:32:36.319   02 Jun 2027 09:32:38.186             1.867           789.188
        44   02 Jun 2027 09:33:09.566   02 Jun 2027 09:33:11.399             1.833           880.188
        45   02 Jun 2027 09:33:36.264   02 Jun 2027 09:33:39.765             3.501           704.938
        46   02 Jun 2027 09:34:29.101   02 Jun 2027 09:34:32.339             3.238          1272.594
        47   02 Jun 2027 09:34:51.637   02 Jun 2027 09:34:54.144             2.507           422.531
        48   02 Jun 2027 09:36:02.589   02 Jun 2027 09:36:06.281             3.692          1846.000
        49   02 Jun 2027 09:36:14.119   02 Jun 2027 09:36:16.112             1.993           292.906
        50   02 Jun 2027 11:07:49.580   02 Jun 2027 11:08:04.760            15.180          7127.094
        51   02 Jun 2027 11:08:41.429   02 Jun 2027 11:08:44.640             3.211          1012.875
        52   02 Jun 2027 11:09:04.705   02 Jun 2027 11:09:12.146             7.441           627.031
        53   02 Jun 2027 11:09:35.035   02 Jun 2027 11:09:37.609             2.574           715.281
        54   02 Jun 2027 11:10:46.868   02 Jun 2027 11:10:53.503             6.635          2023.063
        55   02 Jun 2027 11:10:59.132   02 Jun 2027 11:11:00.566             1.434            39.125
        56   02 Jun 2027 11:12:11.663   02 Jun 2027 11:12:21.628             9.965          2188.219
        57   03 Jun 2027 03:20:06.494   03 Jun 2027 03:20:14.065             7.571          3785.500
        58   03 Jun 2027 03:30:52.595   03 Jun 2027 03:31:33.259            40.664         20332.000
        59   03 Jun 2027 03:31:42.926   03 Jun 2027 03:34:18.330           155.404         77702.000
        60   03 Jun 2027 04:54:51.544   03 Jun 2027 04:55:25.487            33.943         16971.500
        61   03 Jun 2027 04:55:27.240   03 Jun 2027 04:55:41.020            13.780          6890.000
        62   03 Jun 2027 04:57:22.124   03 Jun 2027 04:57:22.124             0.000             0.000
        63   03 Jun 2027 06:30:36.270   03 Jun 2027 06:31:32.118            55.848         27706.062
        64   03 Jun 2027 06:32:58.060   03 Jun 2027 06:33:07.186             9.126          2199.906
        65   03 Jun 2027 06:33:56.259   03 Jun 2027 06:34:02.115             5.856          1454.906
        66   03 Jun 2027 08:05:30.921   03 Jun 2027 08:05:43.539            12.618          5792.281
        67   03 Jun 2027 08:06:15.221   03 Jun 2027 08:06:19.893             4.672           990.062
        68   03 Jun 2027 08:07:10.532   03 Jun 2027 08:07:14.392             3.860            93.500
        69   03 Jun 2027 08:07:37.430   03 Jun 2027 08:07:40.725             3.295           620.875
        70   03 Jun 2027 08:08:28.331   03 Jun 2027 08:08:31.054             2.723          1253.687
        71   03 Jun 2027 08:08:47.384   03 Jun 2027 08:08:47.384             0.000             0.000
        72   03 Jun 2027 08:09:33.403   03 Jun 2027 08:09:38.086             4.683          1623.500
        73   03 Jun 2027 08:10:08.070   03 Jun 2027 08:10:11.090             3.020           937.000
        74   03 Jun 2027 08:10:50.742   03 Jun 2027 08:10:55.712             4.970          1239.125
        75   03 Jun 2027 08:11:09.825   03 Jun 2027 08:11:20.602            10.777           256.656
        76   03 Jun 2027 08:11:33.841   03 Jun 2027 08:11:34.264             0.423           211.500
        77   03 Jun 2027 08:12:33.620   03 Jun 2027 08:12:41.143             7.523          2057.094
        78   03 Jun 2027 08:12:46.974   03 Jun 2027 08:12:47.511             0.537            10.844
        79   03 Jun 2027 09:42:02.074   03 Jun 2027 09:42:20.611            18.537          8964.125
        80   03 Jun 2027 09:42:50.553   03 Jun 2027 09:42:52.713             2.160           667.844
        81   03 Jun 2027 09:44:20.666   03 Jun 2027 09:44:22.988             2.322           726.000
        82   03 Jun 2027 09:44:36.998   03 Jun 2027 09:44:37.391             0.393            26.812
        83   03 Jun 2027 09:44:38.877   03 Jun 2027 09:44:40.609             1.732            46.438
        84   03 Jun 2027 09:44:56.667   03 Jun 2027 09:45:01.862             5.195           392.875
        85   03 Jun 2027 09:46:21.583   03 Jun 2027 09:46:28.815             7.232          1546.062
        86   03 Jun 2027 09:46:55.969   03 Jun 2027 09:46:59.933             3.964           837.562
        87   03 Jun 2027 09:47:15.735   03 Jun 2027 09:47:16.665             0.930           410.937
        88   03 Jun 2027 09:47:40.232   03 Jun 2027 09:47:44.971             4.739           601.188
        89   03 Jun 2027 09:48:08.467   03 Jun 2027 09:48:09.693             1.226           389.937
        90   03 Jun 2027 09:48:14.530   03 Jun 2027 09:48:16.205             1.675           151.156
        91   03 Jun 2027 11:20:20.128   03 Jun 2027 11:20:34.800            14.672          5890.500
        92   03 Jun 2027 11:21:58.263   03 Jun 2027 11:22:03.410             5.147          2554.000
        93   03 Jun 2027 11:22:26.652   03 Jun 2027 11:22:28.280             1.628           694.094
        94   03 Jun 2027 11:23:21.757   03 Jun 2027 11:23:32.344            10.587          1671.156
        95   03 Jun 2027 11:23:42.517   03 Jun 2027 11:23:43.971             1.454           317.906
        96   03 Jun 2027 11:23:52.956   03 Jun 2027 11:23:56.328             3.372           280.781
        97   04 Jun 2027 03:31:24.435   04 Jun 2027 03:31:58.731            34.296         17148.000
        98   04 Jun 2027 03:32:24.444   04 Jun 2027 03:32:24.444             0.000             0.000
        99   04 Jun 2027 03:42:49.255   04 Jun 2027 03:44:29.172            99.917         49958.500
       100   04 Jun 2027 05:05:26.155   04 Jun 2027 05:06:27.712            61.557         30778.500
       101   04 Jun 2027 05:06:41.623   04 Jun 2027 05:08:10.219            88.596         44298.000
       102   04 Jun 2027 06:40:51.504   04 Jun 2027 06:41:28.432            36.928         16334.125
       103   04 Jun 2027 06:42:22.115   04 Jun 2027 06:42:26.423             4.308          1045.844
       104   04 Jun 2027 06:42:46.488   04 Jun 2027 06:42:49.457             2.969           179.437
       105   04 Jun 2027 06:43:57.943   04 Jun 2027 06:44:02.908             4.965          1320.406
       106   04 Jun 2027 06:44:14.987   04 Jun 2027 06:44:14.987             0.000             0.000
       107   04 Jun 2027 06:44:31.341   04 Jun 2027 06:44:33.996             2.655           888.531
       108   04 Jun 2027 06:45:02.736   04 Jun 2027 06:45:07.447             4.711           794.687
       109   04 Jun 2027 06:45:31.614   04 Jun 2027 06:45:33.697             2.083           512.781
       110   04 Jun 2027 06:46:56.001   04 Jun 2027 06:46:59.106             3.105          1552.500
       111   04 Jun 2027 06:47:01.294   04 Jun 2027 06:47:04.636             3.342           451.750
       112   04 Jun 2027 08:17:16.434   04 Jun 2027 08:17:28.279            11.845          4735.469
       113   04 Jun 2027 08:17:46.104   04 Jun 2027 08:17:48.332             2.228           215.500
       114   04 Jun 2027 08:18:43.990   04 Jun 2027 08:18:45.634             1.644           589.062
       115   04 Jun 2027 08:19:10.694   04 Jun 2027 08:19:16.247             5.553            34.688
       116   04 Jun 2027 08:20:21.580   04 Jun 2027 08:20:26.184             4.604          1689.500
       117   04 Jun 2027 08:21:35.313   04 Jun 2027 08:21:43.306             7.993          1969.656
       118   04 Jun 2027 08:22:23.300   04 Jun 2027 08:22:24.983             1.683           840.219
       119   04 Jun 2027 08:22:29.004   04 Jun 2027 08:22:29.334             0.330            14.438
       120   04 Jun 2027 08:23:12.882   04 Jun 2027 08:23:16.298             3.416          1103.719
       121   04 Jun 2027 08:23:31.679   04 Jun 2027 08:23:39.075             7.396           480.656
       122   04 Jun 2027 08:23:43.042   04 Jun 2027 08:23:43.659             0.617            62.062
       123   04 Jun 2027 08:24:09.462   04 Jun 2027 08:24:10.555             1.093           527.812
       124   04 Jun 2027 09:54:22.481   04 Jun 2027 09:54:38.129            15.648          7727.625
       125   04 Jun 2027 09:55:50.534   04 Jun 2027 09:55:53.993             3.459          1296.500
       126   04 Jun 2027 09:56:17.831   04 Jun 2027 09:56:19.631             1.800            77.594
       127   04 Jun 2027 09:56:33.131   04 Jun 2027 09:56:34.312             1.181           372.000
       128   04 Jun 2027 09:57:26.565   04 Jun 2027 09:57:30.313             3.748          1439.625
       129   04 Jun 2027 09:57:54.977   04 Jun 2027 09:58:01.685             6.708           770.750
       130   04 Jun 2027 09:58:15.800   04 Jun 2027 09:58:17.272             1.472           344.812
       131   04 Jun 2027 09:58:46.573   04 Jun 2027 09:58:48.552             1.979           915.656
       132   04 Jun 2027 09:59:53.885   04 Jun 2027 09:59:58.274             4.389          2041.656
       133   04 Jun 2027 11:32:17.801   04 Jun 2027 11:32:32.335            14.534          6687.844
       134   04 Jun 2027 11:33:24.284   04 Jun 2027 11:33:33.712             9.428          1623.406
       135   04 Jun 2027 11:33:37.127   04 Jun 2027 11:33:37.759             0.632            95.844
       136   04 Jun 2027 11:34:02.153   04 Jun 2027 11:34:04.367             2.214           708.750
       137   04 Jun 2027 11:34:27.476   04 Jun 2027 11:34:29.070             1.594           653.188
       138   04 Jun 2027 11:34:50.357   04 Jun 2027 11:34:54.310             3.953           665.219
       139   04 Jun 2027 11:35:24.644   04 Jun 2027 11:35:30.506             5.862           924.531
       140   04 Jun 2027 11:35:30.648   04 Jun 2027 11:35:31.074             0.426             4.438
       141   04 Jun 2027 11:35:46.264   04 Jun 2027 11:35:49.800             3.536           208.187
       142   04 Jun 2027 11:36:00.120   04 Jun 2027 11:36:04.650             4.530           322.500
       143   04 Jun 2027 11:36:10.148   04 Jun 2027 11:36:12.257             2.109           138.500
       144   05 Jun 2027 03:43:03.985   05 Jun 2027 03:43:27.520            23.535         11767.500
       145   05 Jun 2027 03:44:11.420   05 Jun 2027 03:44:35.502            24.082         12041.000
       146   05 Jun 2027 03:54:50.233   05 Jun 2027 03:55:50.771            60.538         30269.000
       147   05 Jun 2027 05:17:06.178   05 Jun 2027 05:18:12.406            66.228         33114.000
       148   05 Jun 2027 05:19:00.146   05 Jun 2027 05:19:55.471            55.325         27662.500
       149   05 Jun 2027 05:20:13.712   05 Jun 2027 05:21:03.786            50.074         25037.000
       150   05 Jun 2027 05:21:05.243   05 Jun 2027 05:21:16.629            11.386          5693.000
       151   05 Jun 2027 06:52:00.914   05 Jun 2027 06:52:26.942            26.028         12321.625
       152   05 Jun 2027 06:53:01.232   05 Jun 2027 06:53:03.422             2.190          1045.000
       153   05 Jun 2027 06:53:30.042   05 Jun 2027 06:53:30.042             0.000             0.000
       154   05 Jun 2027 06:53:42.849   05 Jun 2027 06:53:44.628             1.779           648.156
       155   05 Jun 2027 06:54:17.758   05 Jun 2027 06:54:23.896             6.138           471.187
       156   05 Jun 2027 06:55:51.909   05 Jun 2027 06:55:56.945             5.036          2012.687
       157   05 Jun 2027 06:57:15.602   05 Jun 2027 06:57:26.347            10.745          2458.031
       158   05 Jun 2027 06:58:30.222   05 Jun 2027 06:58:34.670             4.448          1733.063
       159   05 Jun 2027 07:00:02.322   05 Jun 2027 07:00:07.613             5.291          2319.094
       160   05 Jun 2027 07:00:23.292   05 Jun 2027 07:00:24.194             0.902           179.625
       161   05 Jun 2027 08:29:32.390   05 Jun 2027 08:29:41.761             9.371          4164.469
       162   05 Jun 2027 08:30:18.193   05 Jun 2027 08:30:25.421             7.228           929.812
       163   05 Jun 2027 08:30:45.692   05 Jun 2027 08:30:47.551             1.859           556.438
       164   05 Jun 2027 08:32:25.352   05 Jun 2027 08:32:29.136             3.784          1818.625
       165   05 Jun 2027 08:33:06.291   05 Jun 2027 08:33:08.945             2.654          1049.031
       166   05 Jun 2027 08:33:47.815   05 Jun 2027 08:33:48.564             0.749           374.500
       167   05 Jun 2027 08:34:22.008   05 Jun 2027 08:34:25.596             3.588          1337.875
       168   05 Jun 2027 08:35:10.852   05 Jun 2027 08:35:17.358             6.506          1161.562
       169   05 Jun 2027 08:35:29.624   05 Jun 2027 08:35:31.487             1.863           328.187
       170   05 Jun 2027 08:35:43.068   05 Jun 2027 08:35:44.746             1.678           361.906
       171   05 Jun 2027 08:36:10.400   05 Jun 2027 08:36:14.105             3.705           640.594
       172   05 Jun 2027 08:36:34.942   05 Jun 2027 08:36:37.725             2.783           585.281
       173   05 Jun 2027 08:36:51.937   05 Jun 2027 08:36:52.035             0.098            49.000
       174   05 Jun 2027 10:06:18.131   05 Jun 2027 10:06:35.821            17.690          8843.469
       175   05 Jun 2027 10:07:13.695   05 Jun 2027 10:07:16.681             2.986          1049.781
       176   05 Jun 2027 10:07:46.735   05 Jun 2027 10:07:48.345             1.610            75.187
       177   05 Jun 2027 10:08:41.731   05 Jun 2027 10:08:43.210             1.479           517.750
       178   05 Jun 2027 10:09:10.379   05 Jun 2027 10:09:12.135             1.756           654.250
       179   05 Jun 2027 10:10:23.535   05 Jun 2027 10:10:27.441             3.906          1582.625
       180   05 Jun 2027 10:11:12.858   05 Jun 2027 10:11:17.025             4.167          1368.906
       181   05 Jun 2027 10:12:28.742   05 Jun 2027 10:12:30.169             1.427           713.500
       182   05 Jun 2027 10:12:34.010   05 Jun 2027 10:12:36.243             2.233          1055.562
       183   05 Jun 2027 11:44:17.468   05 Jun 2027 11:44:33.136            15.668          7723.281
       184   05 Jun 2027 11:44:45.565   05 Jun 2027 11:44:47.638             2.073           178.094
       185   05 Jun 2027 11:45:35.397   05 Jun 2027 11:45:35.997             0.600           300.000
       186   05 Jun 2027 11:45:40.088   05 Jun 2027 11:45:45.449             5.361          1144.594
       187   05 Jun 2027 11:45:57.011   05 Jun 2027 11:45:57.011             0.000             0.000
       188   05 Jun 2027 11:46:05.447   05 Jun 2027 11:46:06.539             1.092           463.031
       189   05 Jun 2027 11:47:19.695   05 Jun 2027 11:47:22.584             2.889          1444.500
       190   05 Jun 2027 11:47:36.620   05 Jun 2027 11:47:38.483             1.863           931.500
       191   06 Jun 2027 03:54:41.987   06 Jun 2027 03:55:54.614            72.627         36313.500
       192   06 Jun 2027 04:06:57.579   06 Jun 2027 04:07:25.187            27.608         13804.000
       193   06 Jun 2027 05:28:37.974   06 Jun 2027 05:29:58.050            80.076         40038.000
       194   06 Jun 2027 05:30:46.294   06 Jun 2027 05:31:59.922            73.628         36814.000
       195   06 Jun 2027 05:32:49.767   06 Jun 2027 05:33:15.404            25.637         12818.500
       196   06 Jun 2027 05:33:29.938   06 Jun 2027 05:33:37.414             7.476          3738.000
       197   06 Jun 2027 07:03:31.513   06 Jun 2027 07:04:10.279            38.766         17300.437
       198   06 Jun 2027 07:04:45.649   06 Jun 2027 07:04:45.649             0.000             0.000
       199   06 Jun 2027 07:05:10.814   06 Jun 2027 07:05:17.932             7.118          1491.219
       200   06 Jun 2027 07:05:47.181   06 Jun 2027 07:05:50.404             3.223           502.750
       201   06 Jun 2027 07:06:13.246   06 Jun 2027 07:06:13.246             0.000             0.000
       202   06 Jun 2027 07:06:56.361   06 Jun 2027 07:07:00.788             4.427          2061.156
       203   06 Jun 2027 07:07:21.994   06 Jun 2027 07:07:24.738             2.744           161.781
       204   06 Jun 2027 07:07:35.771   06 Jun 2027 07:07:36.701             0.930           264.500
       205   06 Jun 2027 07:09:15.478   06 Jun 2027 07:09:27.937            12.459          3086.781
       206   06 Jun 2027 07:10:14.805   06 Jun 2027 07:10:14.893             0.088            44.000
       207   06 Jun 2027 07:10:18.380   06 Jun 2027 07:10:24.644             6.264          1220.875
       208   06 Jun 2027 07:10:46.475   06 Jun 2027 07:10:48.901             2.426           682.219
       209   06 Jun 2027 07:11:12.273   06 Jun 2027 07:11:20.111             7.838           729.000
       210   06 Jun 2027 07:12:11.030   06 Jun 2027 07:12:13.776             2.746          1035.281
       211   06 Jun 2027 08:41:27.244   06 Jun 2027 08:41:41.472            14.228          6843.406
       212   06 Jun 2027 08:43:26.115   06 Jun 2027 08:43:30.210             4.095          1957.062
       213   06 Jun 2027 08:44:20.712   06 Jun 2027 08:44:23.756             3.044          1393.344
       214   06 Jun 2027 08:44:59.147   06 Jun 2027 08:45:03.280             4.133           998.812
       215   06 Jun 2027 08:45:36.995   06 Jun 2027 08:45:39.670             2.675          1050.125
       216   06 Jun 2027 08:46:42.634   06 Jun 2027 08:46:48.071             5.437          1885.750
       217   06 Jun 2027 08:47:28.054   06 Jun 2027 08:47:32.375             4.321          1060.094
       218   06 Jun 2027 08:48:41.405   06 Jun 2027 08:48:49.699             8.294          1930.656
       219   06 Jun 2027 10:18:14.689   06 Jun 2027 10:18:30.355            15.666          6646.906
       220   06 Jun 2027 10:19:10.786   06 Jun 2027 10:19:17.571             6.785          1263.469
       221   06 Jun 2027 10:19:46.086   06 Jun 2027 10:19:48.115             2.029           891.094
       222   06 Jun 2027 10:20:42.320   06 Jun 2027 10:20:43.922             1.602           329.875
       223   06 Jun 2027 10:21:32.897   06 Jun 2027 10:21:33.903             1.006           503.000
       224   06 Jun 2027 10:21:47.644   06 Jun 2027 10:21:51.345             3.701          1011.906
       225   06 Jun 2027 10:22:12.155   06 Jun 2027 10:22:18.310             6.155           650.313
       226   06 Jun 2027 10:22:31.167   06 Jun 2027 10:22:32.321             1.154           378.875
       227   06 Jun 2027 10:22:40.449   06 Jun 2027 10:22:40.795             0.346           173.000
       228   06 Jun 2027 10:24:10.360   06 Jun 2027 10:24:13.404             3.044          1522.000
       229   06 Jun 2027 10:24:18.436   06 Jun 2027 10:24:25.074             6.638          1515.156
       230   06 Jun 2027 10:24:40.424   06 Jun 2027 10:24:40.989             0.565           282.500
       231   06 Jun 2027 10:24:50.886   06 Jun 2027 10:24:54.332             3.446           506.469
       232   06 Jun 2027 11:56:05.082   06 Jun 2027 11:56:18.893            13.811          6534.719
       233   06 Jun 2027 11:57:16.187   06 Jun 2027 11:57:19.924             3.737          1572.562
       234   06 Jun 2027 11:57:56.940   06 Jun 2027 11:58:00.995             4.055           536.313
       235   06 Jun 2027 11:58:31.534   06 Jun 2027 11:58:33.468             1.934           954.344
       236   06 Jun 2027 11:58:45.528   06 Jun 2027 11:58:45.528             0.000             0.000
       237   06 Jun 2027 11:59:11.293   06 Jun 2027 11:59:14.856             3.563          1078.125
       238   07 Jun 2027 04:06:37.700   07 Jun 2027 04:08:06.023            88.323         44161.500
       239   07 Jun 2027 04:08:29.978   07 Jun 2027 04:08:34.643             4.665          2332.500
       240   07 Jun 2027 05:42:37.289   07 Jun 2027 05:45:26.421           169.132         84566.000
       241   07 Jun 2027 05:45:39.776   07 Jun 2027 05:45:39.776             0.000             0.000
       242   07 Jun 2027 07:16:24.996   07 Jun 2027 07:17:20.956            55.960         27839.969
       243   07 Jun 2027 07:17:49.367   07 Jun 2027 07:17:52.624             3.257           551.156
       244   07 Jun 2027 07:19:51.775   07 Jun 2027 07:19:54.113             2.338          1169.000
       245   07 Jun 2027 07:20:43.978   07 Jun 2027 07:20:51.865             7.887          2332.812
       246   07 Jun 2027 07:22:02.180   07 Jun 2027 07:22:06.477             4.297          1992.125
       247   07 Jun 2027 07:22:35.146   07 Jun 2027 07:22:37.025             1.879           511.906
       248   07 Jun 2027 07:23:59.268   07 Jun 2027 07:24:05.095             5.827          2392.313
       249   07 Jun 2027 07:24:56.103   07 Jun 2027 07:24:56.600             0.497           248.500
       250   07 Jun 2027 08:53:39.105   07 Jun 2027 08:53:50.566            11.461          5672.750
       251   07 Jun 2027 08:55:24.248   07 Jun 2027 08:55:24.887             0.639           319.500
       252   07 Jun 2027 08:55:27.285   07 Jun 2027 08:55:34.130             6.845           567.500
       253   07 Jun 2027 08:55:52.022   07 Jun 2027 08:55:54.998             2.976           555.344
       254   07 Jun 2027 08:56:18.422   07 Jun 2027 08:56:19.734             1.312           388.375
       255   07 Jun 2027 08:57:05.492   07 Jun 2027 08:57:08.715             3.223            34.875
       256   07 Jun 2027 08:58:50.425   07 Jun 2027 08:58:55.414             4.989          2205.000
       257   07 Jun 2027 08:59:24.175   07 Jun 2027 08:59:26.236             2.061           898.781
       258   07 Jun 2027 08:59:51.538   07 Jun 2027 08:59:57.227             5.689           790.687
       259   07 Jun 2027 09:00:12.868   07 Jun 2027 09:00:20.296             7.428           248.656
       260   07 Jun 2027 09:00:46.250   07 Jun 2027 09:00:48.319             2.069           757.969
       261   07 Jun 2027 10:30:51.519   07 Jun 2027 10:30:57.669             6.150          3075.000
       262   07 Jun 2027 10:31:05.858   07 Jun 2027 10:31:19.587            13.729          5526.563
       263   07 Jun 2027 10:31:48.673   07 Jun 2027 10:31:52.853             4.180           874.906
       264   07 Jun 2027 10:32:25.041   07 Jun 2027 10:32:26.426             1.385            18.688
       265   07 Jun 2027 10:32:37.731   07 Jun 2027 10:32:38.833             1.102           164.375
       266   07 Jun 2027 10:33:00.385   07 Jun 2027 10:33:02.004             1.619           438.719
       267   07 Jun 2027 10:33:21.182   07 Jun 2027 10:33:25.766             4.584           599.313
       268   07 Jun 2027 10:34:21.659   07 Jun 2027 10:34:25.592             3.933          1746.656
       269   07 Jun 2027 10:34:37.025   07 Jun 2027 10:34:37.025             0.000             0.000
       270   07 Jun 2027 10:35:15.039   07 Jun 2027 10:35:18.359             3.320          1545.219
       271   07 Jun 2027 10:35:39.263   07 Jun 2027 10:35:43.966             4.703           598.406
       272   07 Jun 2027 10:36:02.857   07 Jun 2027 10:36:10.032             7.175           543.406
       273   08 Jun 2027 04:18:29.540   08 Jun 2027 04:20:07.164            97.624         48812.000
       274   08 Jun 2027 04:20:15.351   08 Jun 2027 04:20:15.351             0.000             0.000
       275   08 Jun 2027 05:54:51.191   08 Jun 2027 05:57:51.097           179.906         89953.000
       276   08 Jun 2027 05:58:08.435   08 Jun 2027 05:58:23.176            14.741          7370.500
       277   08 Jun 2027 07:27:10.979   08 Jun 2027 07:27:26.180            15.201          7600.500
       278   08 Jun 2027 07:28:56.350   08 Jun 2027 07:29:00.632             4.282          2023.813
       279   08 Jun 2027 07:29:52.513   08 Jun 2027 07:29:57.516             5.003           644.969
       280   08 Jun 2027 07:30:45.291   08 Jun 2027 07:30:46.280             0.989           300.563
       281   08 Jun 2027 07:31:28.586   08 Jun 2027 07:31:29.380             0.794           397.000
       282   08 Jun 2027 07:32:35.128   08 Jun 2027 07:32:42.599             7.471          2934.875
       283   08 Jun 2027 07:34:03.135   08 Jun 2027 07:34:09.001             5.866          2485.937
       284   08 Jun 2027 07:34:19.706   08 Jun 2027 07:34:23.078             3.372           140.937
       285   08 Jun 2027 07:34:48.464   08 Jun 2027 07:34:49.623             1.159            39.438
       286   08 Jun 2027 07:36:19.632   08 Jun 2027 07:36:21.604             1.972           986.000
       287   08 Jun 2027 07:36:30.252   08 Jun 2027 07:36:34.122             3.870          1456.094
       288   08 Jun 2027 09:06:00.584   08 Jun 2027 09:06:13.626            13.042          6235.719
       289   08 Jun 2027 09:07:53.984   08 Jun 2027 09:07:56.650             2.666          1109.375
       290   08 Jun 2027 09:08:20.119   08 Jun 2027 09:08:21.893             1.774           690.406
       291   08 Jun 2027 09:09:49.773   08 Jun 2027 09:09:52.250             2.477           286.531
       292   08 Jun 2027 09:10:29.924   08 Jun 2027 09:10:31.912             1.988           685.000
       293   08 Jun 2027 09:11:14.932   08 Jun 2027 09:11:19.248             4.316          1051.844
       294   08 Jun 2027 09:12:01.624   08 Jun 2027 09:12:04.957             3.333          1129.750
       295   08 Jun 2027 10:42:58.300   08 Jun 2027 10:43:18.734            20.434          8909.437
       296   08 Jun 2027 10:43:24.683   08 Jun 2027 10:43:32.791             8.108            53.063
       297   08 Jun 2027 10:44:43.135   08 Jun 2027 10:44:45.946             2.811            58.562
       298   08 Jun 2027 10:45:21.008   08 Jun 2027 10:45:24.567             3.559          1095.687
       299   08 Jun 2027 10:46:14.447   08 Jun 2027 10:46:18.870             4.423           838.469
       300   08 Jun 2027 10:46:26.171   08 Jun 2027 10:46:26.171             0.000             0.000
       301   08 Jun 2027 10:46:38.677   08 Jun 2027 10:46:43.353             4.676           618.969
       302   08 Jun 2027 10:46:43.561   08 Jun 2027 10:46:44.027             0.466             6.500
       303   08 Jun 2027 10:47:05.695   08 Jun 2027 10:47:07.265             1.570           307.156
       304   08 Jun 2027 10:47:42.320   08 Jun 2027 10:47:45.974             3.654           910.500
       305   09 Jun 2027 03:07:28.373   09 Jun 2027 03:09:59.828           151.455         75727.500
       306   09 Jun 2027 03:10:51.270   09 Jun 2027 03:11:05.612            14.342          7171.000
       307   09 Jun 2027 03:11:27.300   09 Jun 2027 03:11:30.060             2.760          1380.000
       308   09 Jun 2027 04:30:32.783   09 Jun 2027 04:31:32.968            60.185         30092.500
       309   09 Jun 2027 04:31:38.050   09 Jun 2027 04:31:53.633            15.583          7791.500
       310   09 Jun 2027 04:32:23.976   09 Jun 2027 04:32:23.976             0.000             0.000
       311   09 Jun 2027 06:06:58.101   09 Jun 2027 06:08:08.137            70.036         35018.000
       312   09 Jun 2027 06:08:11.624   09 Jun 2027 06:08:21.904            10.280          4277.719
       313   09 Jun 2027 06:08:33.894   09 Jun 2027 06:08:37.416             3.522           358.281
       314   09 Jun 2027 06:08:46.732   09 Jun 2027 06:08:47.460             0.728           291.125
       315   09 Jun 2027 07:42:05.952   09 Jun 2027 07:42:16.696            10.744          5366.437
       316   09 Jun 2027 07:42:47.945   09 Jun 2027 07:42:49.782             1.837           290.250
       317   09 Jun 2027 07:44:03.110   09 Jun 2027 07:44:06.352             3.242          1525.438
       318   09 Jun 2027 07:44:11.711   09 Jun 2027 07:44:12.964             1.253           167.469
       319   09 Jun 2027 07:44:33.950   09 Jun 2027 07:44:35.398             1.448           552.625
       320   09 Jun 2027 07:45:46.154   09 Jun 2027 07:45:54.279             8.125          1100.531
       321   09 Jun 2027 07:46:13.988   09 Jun 2027 07:46:23.886             9.898           507.969
       322   09 Jun 2027 07:47:19.331   09 Jun 2027 07:47:21.839             2.508          1221.031
       323   09 Jun 2027 07:47:37.565   09 Jun 2027 07:47:38.873             1.308           405.313
       324   09 Jun 2027 07:48:23.449   09 Jun 2027 07:48:25.471             2.022           929.250
       325   09 Jun 2027 07:48:31.817   09 Jun 2027 07:48:32.763             0.946           198.313
       326   09 Jun 2027 07:48:46.603   09 Jun 2027 07:48:47.708             1.105           432.500
       327   09 Jun 2027 09:18:27.025   09 Jun 2027 09:18:46.555            19.530          8356.906
       328   09 Jun 2027 09:19:19.187   09 Jun 2027 09:19:21.442             2.255           938.562
       329   09 Jun 2027 09:20:27.721   09 Jun 2027 09:20:31.434             3.713          1591.312
       330   09 Jun 2027 09:21:44.606   09 Jun 2027 09:21:50.391             5.785          2004.813
       331   09 Jun 2027 09:22:21.350   09 Jun 2027 09:22:23.455             2.105           948.906
       332   09 Jun 2027 09:23:23.822   09 Jun 2027 09:23:25.874             2.052          1026.000
       333   09 Jun 2027 09:24:05.257   09 Jun 2027 09:24:10.392             5.135          1952.125
       334   09 Jun 2027 09:24:30.640   09 Jun 2027 09:24:33.537             2.897           632.750
       335   09 Jun 2027 09:24:42.754   09 Jun 2027 09:24:46.179             3.425           288.031
       336   09 Jun 2027 10:55:59.956   09 Jun 2027 10:56:14.273            14.317          6056.906
       337   09 Jun 2027 10:56:47.433   09 Jun 2027 10:56:51.114             3.681          1036.250
       338   09 Jun 2027 10:57:00.213   09 Jun 2027 10:57:02.033             1.820           155.031
       339   09 Jun 2027 10:57:51.479   09 Jun 2027 10:57:56.828             5.349          1513.969
       340   09 Jun 2027 10:58:44.650   09 Jun 2027 10:58:48.224             3.574          1413.313
       341   09 Jun 2027 10:59:21.567   09 Jun 2027 10:59:24.611             3.044           878.719
       342   09 Jun 2027 10:59:43.808   09 Jun 2027 10:59:47.243             3.435           575.563
       343   09 Jun 2027 11:00:23.694   09 Jun 2027 11:00:23.846             0.152            76.000
       344   10 Jun 2027 03:19:11.261   10 Jun 2027 03:19:46.271            35.010         17505.000
       345   10 Jun 2027 03:19:59.804   10 Jun 2027 03:22:15.013           135.209         67604.500
       346   10 Jun 2027 03:22:32.152   10 Jun 2027 03:22:33.117             0.965           482.500
       347   10 Jun 2027 03:22:49.319   10 Jun 2027 03:22:56.873             7.554          3777.000
       348   10 Jun 2027 04:42:30.324   10 Jun 2027 04:43:19.071            48.747         24373.500
       349   10 Jun 2027 04:44:08.256   10 Jun 2027 04:44:09.976             1.720           860.000
       350   10 Jun 2027 04:44:30.864   10 Jun 2027 04:44:30.864             0.000             0.000
       351   10 Jun 2027 04:44:36.429   10 Jun 2027 04:44:59.717            23.288         11644.000
       352   10 Jun 2027 04:45:37.631   10 Jun 2027 04:45:44.957             7.326          3663.000
       353   10 Jun 2027 06:19:07.510   10 Jun 2027 06:19:55.094            47.584         23500.750
       354   10 Jun 2027 06:20:21.954   10 Jun 2027 06:20:21.954             0.000             0.000
       355   10 Jun 2027 06:21:02.487   10 Jun 2027 06:21:07.941             5.454          1766.000
       356   10 Jun 2027 06:22:11.785   10 Jun 2027 06:22:16.102             4.317          1915.500
       357   10 Jun 2027 07:54:17.472   10 Jun 2027 07:54:30.886            13.414          5038.594
       358   10 Jun 2027 07:54:35.537   10 Jun 2027 07:54:37.414             1.877            38.219
       359   10 Jun 2027 07:55:18.952   10 Jun 2027 07:55:20.347             1.395           307.500
       360   10 Jun 2027 07:55:41.509   10 Jun 2027 07:55:43.196             1.687           121.781
       361   10 Jun 2027 07:56:31.119   10 Jun 2027 07:56:33.189             2.070           461.625
       362   10 Jun 2027 07:56:50.010   10 Jun 2027 07:56:50.641             0.631           155.500
       363   10 Jun 2027 07:57:17.175   10 Jun 2027 07:57:19.969             2.794           789.844
       364   10 Jun 2027 07:57:36.811   10 Jun 2027 07:57:38.783             1.972           479.344
       365   10 Jun 2027 07:57:44.166   10 Jun 2027 07:57:47.198             3.032           168.219
       366   10 Jun 2027 07:58:58.544   10 Jun 2027 07:59:03.734             5.190          2218.187
       367   10 Jun 2027 07:59:53.079   10 Jun 2027 07:59:58.592             5.513           937.469
       368   10 Jun 2027 08:00:30.442   10 Jun 2027 08:00:30.442             0.000             0.000
       369   10 Jun 2027 09:30:34.789   10 Jun 2027 09:30:50.664            15.875          7607.594
       370   10 Jun 2027 09:32:23.088   10 Jun 2027 09:32:28.998             5.910          2149.500
       371   10 Jun 2027 09:33:05.718   10 Jun 2027 09:33:06.855             1.137           457.000
       372   10 Jun 2027 09:33:23.417   10 Jun 2027 09:33:25.889             2.472           377.250
       373   10 Jun 2027 09:33:31.792   10 Jun 2027 09:33:32.521             0.729            90.406
       374   10 Jun 2027 09:33:33.246   10 Jun 2027 09:33:34.724             1.478            22.656
       375   10 Jun 2027 09:34:52.936   10 Jun 2027 09:35:00.492             7.556          2444.125
       376   10 Jun 2027 09:36:11.726   10 Jun 2027 09:36:17.836             6.110          2226.062
       377   10 Jun 2027 09:36:32.968   10 Jun 2027 09:36:36.461             3.493           472.875
       378   10 Jun 2027 11:08:06.865   10 Jun 2027 11:08:29.553            22.688          9012.781
       379   10 Jun 2027 11:09:15.392   10 Jun 2027 11:09:19.252             3.860          1409.656
       380   10 Jun 2027 11:10:06.015   10 Jun 2027 11:10:12.158             6.143          1461.344
       381   10 Jun 2027 11:10:18.420   10 Jun 2027 11:10:20.889             2.469           195.688
       382   10 Jun 2027 11:10:26.014   10 Jun 2027 11:10:29.412             3.398           160.156
       383   10 Jun 2027 11:11:23.091   10 Jun 2027 11:11:27.655             4.564          1368.906
       384   10 Jun 2027 11:12:14.174   10 Jun 2027 11:12:17.919             3.745          1280.031
       385   11 Jun 2027 03:20:20.678   11 Jun 2027 03:20:31.524            10.846          5423.000
       386   11 Jun 2027 03:31:07.753   11 Jun 2027 03:34:33.821           206.068        103034.000
       387   11 Jun 2027 04:55:06.439   11 Jun 2027 04:55:25.849            19.410          9705.000
       388   11 Jun 2027 04:55:38.898   11 Jun 2027 04:55:57.942            19.044          9522.000
       389   11 Jun 2027 06:30:51.361   11 Jun 2027 06:31:45.920            54.559         26437.719
       390   11 Jun 2027 06:32:06.692   11 Jun 2027 06:32:06.692             0.000             0.000
       391   11 Jun 2027 06:32:58.832   11 Jun 2027 06:33:03.408             4.576          2278.500
       392   11 Jun 2027 06:33:45.840   11 Jun 2027 06:33:48.260             2.420          1192.031
       393   11 Jun 2027 06:34:25.542   11 Jun 2027 06:34:27.907             2.365          1165.063
       394   11 Jun 2027 08:05:44.326   11 Jun 2027 08:05:53.326             9.000          4234.062
       395   11 Jun 2027 08:06:18.439   11 Jun 2027 08:06:19.765             1.326           538.656
       396   11 Jun 2027 08:07:58.377   11 Jun 2027 08:07:58.377             0.000             0.000
       397   11 Jun 2027 08:08:05.848   11 Jun 2027 08:08:09.486             3.638           686.312
       398   11 Jun 2027 08:08:58.238   11 Jun 2027 08:08:58.238             0.000             0.000
       399   11 Jun 2027 08:09:12.601   11 Jun 2027 08:09:14.803             2.202           848.531
       400   11 Jun 2027 08:09:46.042   11 Jun 2027 08:09:50.727             4.685           403.937
       401   11 Jun 2027 08:10:18.971   11 Jun 2027 08:10:23.079             4.108           882.625
       402   11 Jun 2027 08:10:28.105   11 Jun 2027 08:10:30.755             2.650           157.062
       403   11 Jun 2027 08:10:40.406   11 Jun 2027 08:10:40.659             0.253            60.188
       404   11 Jun 2027 08:10:46.228   11 Jun 2027 08:10:47.957             1.729           174.031
       405   11 Jun 2027 08:11:35.979   11 Jun 2027 08:11:37.044             1.065           532.500
       406   11 Jun 2027 08:12:07.244   11 Jun 2027 08:12:07.508             0.264           132.000
       407   11 Jun 2027 08:12:23.997   11 Jun 2027 08:12:29.460             5.463          1683.188
       408   11 Jun 2027 09:42:18.139   11 Jun 2027 09:42:37.011            18.872          9337.094
       409   11 Jun 2027 09:42:41.930   11 Jun 2027 09:42:43.221             1.291            62.062
       410   11 Jun 2027 09:43:29.810   11 Jun 2027 09:43:32.037             2.227           730.813
       411   11 Jun 2027 09:44:24.474   11 Jun 2027 09:44:26.740             2.266           129.719
       412   11 Jun 2027 09:45:02.058   11 Jun 2027 09:45:05.912             3.854           823.875
       413   11 Jun 2027 09:45:36.105   11 Jun 2027 09:45:38.095             1.990           908.875
       414   11 Jun 2027 09:46:37.461   11 Jun 2027 09:46:43.927             6.466          1460.000
       415   11 Jun 2027 09:47:12.462   11 Jun 2027 09:47:14.839             2.377           891.719
       416   11 Jun 2027 09:47:30.930   11 Jun 2027 09:47:35.952             5.022           428.313
       417   11 Jun 2027 09:47:55.652   11 Jun 2027 09:47:57.211             1.559           615.625
       418   11 Jun 2027 09:48:25.119   11 Jun 2027 09:48:29.136             4.017           872.125
       419   11 Jun 2027 11:20:35.532   11 Jun 2027 11:20:52.281            16.749          6963.937
       420   11 Jun 2027 11:21:30.754   11 Jun 2027 11:21:35.692             4.938          1202.281
       421   11 Jun 2027 11:22:12.090   11 Jun 2027 11:22:13.679             1.589           635.375
       422   11 Jun 2027 11:22:25.022   11 Jun 2027 11:22:25.022             0.000             0.000
       423   11 Jun 2027 11:22:43.202   11 Jun 2027 11:22:48.042             4.840           922.594
       424   11 Jun 2027 11:23:48.329   11 Jun 2027 11:23:58.350            10.021          1826.594
       425   11 Jun 2027 11:24:06.950   11 Jun 2027 11:24:07.540             0.590           268.750
       426   12 Jun 2027 03:31:38.244   12 Jun 2027 03:32:39.058            60.814         30407.000
       427   12 Jun 2027 03:43:04.760   12 Jun 2027 03:44:44.433            99.673         49836.500
       428   12 Jun 2027 05:05:43.362   12 Jun 2027 05:06:43.167            59.805         29902.500
       429   12 Jun 2027 05:07:03.086   12 Jun 2027 05:07:41.552            38.466         19233.000
       430   12 Jun 2027 05:07:44.413   12 Jun 2027 05:07:54.126             9.713          4856.500
       431   12 Jun 2027 05:08:25.596   12 Jun 2027 05:08:28.076             2.480          1240.000
       432   12 Jun 2027 06:41:05.612   12 Jun 2027 06:41:47.539            41.927         20390.376
       433   12 Jun 2027 06:42:36.807   12 Jun 2027 06:42:40.627             3.820          1012.938
       434   12 Jun 2027 06:44:07.952   12 Jun 2027 06:44:12.348             4.396          2173.156
       435   12 Jun 2027 06:45:14.829   12 Jun 2027 06:45:20.880             6.051          1837.750
       436   12 Jun 2027 06:45:45.959   12 Jun 2027 06:45:47.680             1.721           783.719
       437   12 Jun 2027 06:46:17.986   12 Jun 2027 06:46:20.622             2.636           904.531
       438   12 Jun 2027 06:46:59.192   12 Jun 2027 06:46:59.573             0.381           190.500
       439   12 Jun 2027 08:17:32.603   12 Jun 2027 08:17:51.192            18.589          5421.844
       440   12 Jun 2027 08:18:32.742   12 Jun 2027 08:18:37.898             5.156           906.094
       441   12 Jun 2027 08:20:08.906   12 Jun 2027 08:20:11.530             2.624           710.156
       442   12 Jun 2027 08:20:42.528   12 Jun 2027 08:20:44.141             1.613           679.813
       443   12 Jun 2027 08:20:56.503   12 Jun 2027 08:20:56.503             0.000             0.000
       444   12 Jun 2027 08:21:52.609   12 Jun 2027 08:22:01.784             9.175          1979.469
       445   12 Jun 2027 08:22:43.159   12 Jun 2027 08:22:52.143             8.984           988.688
       446   12 Jun 2027 08:23:28.292   12 Jun 2027 08:23:30.942             2.650           998.375
       447   12 Jun 2027 08:23:46.299   12 Jun 2027 08:23:46.299             0.000             0.000
       448   12 Jun 2027 08:23:53.674   12 Jun 2027 08:23:55.892             2.218           655.500
       449   12 Jun 2027 08:24:11.230   12 Jun 2027 08:24:11.941             0.711           108.156
       450   12 Jun 2027 08:24:59.767   12 Jun 2027 08:25:03.694             3.927          1096.219
       451   12 Jun 2027 09:54:39.343   12 Jun 2027 09:54:57.581            18.238          7675.125
       452   12 Jun 2027 09:57:11.506   12 Jun 2027 09:57:20.101             8.595          3299.031
       453   12 Jun 2027 09:57:44.951   12 Jun 2027 09:57:52.424             7.473           465.375
       454   12 Jun 2027 09:58:04.770   12 Jun 2027 09:58:05.819             1.049           210.844
       455   12 Jun 2027 09:58:41.501   12 Jun 2027 09:58:46.745             5.244          1088.531
       456   12 Jun 2027 09:58:49.033   12 Jun 2027 09:58:49.542             0.509            71.500
       457   12 Jun 2027 09:58:52.331   12 Jun 2027 09:58:53.435             1.104            87.156
       458   12 Jun 2027 09:59:15.982   12 Jun 2027 09:59:21.656             5.674           428.219
       459   12 Jun 2027 10:00:31.395   12 Jun 2027 10:00:36.675             5.280          2078.875
       460   12 Jun 2027 10:00:52.320   12 Jun 2027 10:00:54.532             2.212           349.906
       461   12 Jun 2027 11:32:33.325   12 Jun 2027 11:32:53.354            20.029          9894.531
       462   12 Jun 2027 11:32:59.697   12 Jun 2027 11:33:00.378             0.681           198.219
       463   12 Jun 2027 11:33:35.027   12 Jun 2027 11:33:41.133             6.106           894.469
       464   12 Jun 2027 11:33:53.665   12 Jun 2027 11:33:54.922             1.257            56.219
       465   12 Jun 2027 11:34:23.181   12 Jun 2027 11:34:28.276             5.095           322.406
       466   12 Jun 2027 11:35:02.017   12 Jun 2027 11:35:06.201             4.184           726.625
       467   12 Jun 2027 11:35:40.940   12 Jun 2027 11:35:45.241             4.301           899.156
       468   12 Jun 2027 11:36:04.368   12 Jun 2027 11:36:07.177             2.809           597.719
       469   13 Jun 2027 03:42:52.597   13 Jun 2027 03:43:10.334            17.737          8868.500
       470   13 Jun 2027 03:43:42.534   13 Jun 2027 03:44:08.575            26.041         13020.500
       471   13 Jun 2027 03:44:58.447   13 Jun 2027 03:45:00.513             2.066          1033.000
       472   13 Jun 2027 03:55:04.699   13 Jun 2027 03:56:05.724            61.025         30512.500
       473   13 Jun 2027 05:17:20.924   13 Jun 2027 05:18:27.442            66.518         33259.000
       474   13 Jun 2027 05:19:15.867   13 Jun 2027 05:20:27.552            71.685         35842.500
       475   13 Jun 2027 05:21:31.005   13 Jun 2027 05:21:34.504             3.499          1749.500
       476   13 Jun 2027 05:21:44.478   13 Jun 2027 05:21:54.604            10.126          5063.000
       477   13 Jun 2027 06:52:14.969   13 Jun 2027 06:53:09.442            54.473         26279.562
       478   13 Jun 2027 06:53:37.930   13 Jun 2027 06:53:40.229             2.299           691.281
       479   13 Jun 2027 06:53:53.097   13 Jun 2027 06:53:54.654             1.557           383.969
       480   13 Jun 2027 06:54:26.504   13 Jun 2027 06:54:28.907             2.403           810.281
       481   13 Jun 2027 06:54:41.137   13 Jun 2027 06:54:42.451             1.314           377.906
       482   13 Jun 2027 06:55:25.886   13 Jun 2027 06:55:28.046             2.160           735.656
       483   13 Jun 2027 06:55:42.906   13 Jun 2027 06:55:42.906             0.000             0.000
       484   13 Jun 2027 06:55:51.105   13 Jun 2027 06:55:53.439             2.334           718.156
       485   13 Jun 2027 06:56:10.953   13 Jun 2027 06:56:10.953             0.000             0.000
       486   13 Jun 2027 06:56:17.532   13 Jun 2027 06:56:17.794             0.262           131.000
       487   13 Jun 2027 06:57:28.138   13 Jun 2027 06:57:33.834             5.696          2517.687
       488   13 Jun 2027 06:58:11.327   13 Jun 2027 06:58:16.802             5.475          1171.656
       489   13 Jun 2027 06:59:11.599   13 Jun 2027 06:59:11.599             0.000             0.000
       490   13 Jun 2027 07:00:16.774   13 Jun 2027 07:00:18.378             1.604           802.000
       491   13 Jun 2027 07:00:40.210   13 Jun 2027 07:00:43.048             2.838          1419.000
       492   13 Jun 2027 08:29:47.598   13 Jun 2027 08:29:56.748             9.150          4240.875
       493   13 Jun 2027 08:31:43.676   13 Jun 2027 08:31:51.290             7.614          3050.469
       494   13 Jun 2027 08:32:42.534   13 Jun 2027 08:32:46.135             3.601          1601.375
       495   13 Jun 2027 08:33:23.766   13 Jun 2027 08:33:31.031             7.265          1117.437
       496   13 Jun 2027 08:34:05.359   13 Jun 2027 08:34:08.834             3.475           485.719
       497   13 Jun 2027 08:34:50.493   13 Jun 2027 08:34:53.604             3.111          1137.906
       498   13 Jun 2027 08:35:21.509   13 Jun 2027 08:35:21.869             0.360           180.000
       499   13 Jun 2027 08:35:44.249   13 Jun 2027 08:35:47.798             3.549          1375.781
       500   13 Jun 2027 08:35:57.747   13 Jun 2027 08:35:59.490             1.743           260.469
       501   13 Jun 2027 08:36:25.632   13 Jun 2027 08:36:28.470             2.838           652.219
       502   13 Jun 2027 08:37:02.842   13 Jun 2027 08:37:05.315             2.473           976.375
       503   13 Jun 2027 10:06:30.573   13 Jun 2027 10:06:46.478            15.905          7552.906
       504   13 Jun 2027 10:08:00.899   13 Jun 2027 10:08:02.895             1.996           456.500
       505   13 Jun 2027 10:09:11.628   13 Jun 2027 10:09:16.241             4.613          2147.906
       506   13 Jun 2027 10:10:15.956   13 Jun 2027 10:10:20.647             4.691          1757.312
       507   13 Jun 2027 10:10:40.220   13 Jun 2027 10:10:44.369             4.149           116.875
       508   13 Jun 2027 10:11:27.514   13 Jun 2027 10:11:30.236             2.722          1348.281
       509   13 Jun 2027 10:11:48.360   13 Jun 2027 10:11:55.015             6.655            84.844
       510   13 Jun 2027 10:12:23.607   13 Jun 2027 10:12:26.828             3.221           680.250
       511   13 Jun 2027 10:12:58.331   13 Jun 2027 10:13:03.430             5.099           777.156
       512   13 Jun 2027 11:44:33.402   13 Jun 2027 11:44:56.823            23.421          8379.938
       513   13 Jun 2027 11:45:00.443   13 Jun 2027 11:45:02.591             2.148            63.062
       514   13 Jun 2027 11:45:28.998   13 Jun 2027 11:45:31.496             2.498           825.219
       515   13 Jun 2027 11:45:54.869   13 Jun 2027 11:45:59.685             4.816           147.063
       516   13 Jun 2027 11:46:20.228   13 Jun 2027 11:46:22.393             2.165           441.875
       517   13 Jun 2027 11:47:34.487   13 Jun 2027 11:47:45.258            10.771          2252.937
