uniorb/output/strategy_2/Camera/Camera_KinoSat_111110.txt

KinoSat_111110
-------------------------
    Access    *     Start Time (UTCG)     *     Stop Time (UTCG)  *   Duration (s) *   Data (Mbytes)
         1   01 Jun 2027 04:11:11.822   01 Jun 2027 04:12:41.127            89.305         44652.500
         2   01 Jun 2027 04:13:12.854   01 Jun 2027 04:13:21.893             9.039          4519.500
         3   01 Jun 2027 05:47:25.413   01 Jun 2027 05:50:15.228           169.815         84907.500
         4   01 Jun 2027 05:50:41.268   01 Jun 2027 05:50:41.268             0.000             0.000
         5   01 Jun 2027 07:20:58.192   01 Jun 2027 07:23:20.215           142.023         71011.500
         6   01 Jun 2027 07:23:46.853   01 Jun 2027 07:24:26.291            39.438         19719.000
         7   01 Jun 2027 07:24:37.802   01 Jun 2027 07:24:42.116             4.314          2157.000
         8   01 Jun 2027 07:25:31.864   01 Jun 2027 07:25:49.740            17.876          8938.000
         9   01 Jun 2027 07:28:44.448   01 Jun 2027 07:28:44.448             0.000             0.000
        10   01 Jun 2027 07:28:51.317   01 Jun 2027 07:29:09.492            18.175          9087.500
        11   01 Jun 2027 08:58:30.649   01 Jun 2027 09:00:34.298           123.649         61824.500
        12   01 Jun 2027 09:00:52.042   01 Jun 2027 09:01:33.760            41.718         20859.000
        13   01 Jun 2027 09:02:15.529   01 Jun 2027 09:02:15.712             0.183            91.500
        14   01 Jun 2027 09:02:40.417   01 Jun 2027 09:02:51.222            10.805          5402.500
        15   01 Jun 2027 09:03:12.329   01 Jun 2027 09:03:12.329             0.000             0.000
        16   01 Jun 2027 10:35:25.877   01 Jun 2027 10:37:27.848           121.971         60985.500
        17   01 Jun 2027 10:38:40.775   01 Jun 2027 10:38:50.564             9.789          4894.500
        18   01 Jun 2027 10:40:54.094   01 Jun 2027 10:41:06.817            12.723          6361.500
        19   02 Jun 2027 03:00:01.639   02 Jun 2027 03:00:39.145            37.506         18753.000
        20   02 Jun 2027 03:00:59.101   02 Jun 2027 03:01:10.606            11.505          5752.500
        21   02 Jun 2027 03:02:19.281   02 Jun 2027 03:03:02.802            43.521         21760.500
        22   02 Jun 2027 03:03:04.934   02 Jun 2027 03:03:12.605             7.671          3835.500
        23   02 Jun 2027 03:03:53.468   02 Jun 2027 03:04:11.552            18.084          9042.000
        24   02 Jun 2027 04:23:02.979   02 Jun 2027 04:23:43.475            40.496         20248.000
        25   02 Jun 2027 04:23:55.130   02 Jun 2027 04:24:12.357            17.227          8613.500
        26   02 Jun 2027 04:25:02.295   02 Jun 2027 04:25:02.295             0.000             0.000
        27   02 Jun 2027 04:25:27.830   02 Jun 2027 04:25:42.389            14.559          7279.500
        28   02 Jun 2027 05:59:30.161   02 Jun 2027 06:01:23.819           113.658         56829.000
        29   02 Jun 2027 06:01:47.930   02 Jun 2027 06:02:11.465            23.535         11767.500
        30   02 Jun 2027 07:31:37.852   02 Jun 2027 07:31:48.822            10.970          5485.000
        31   02 Jun 2027 07:33:36.970   02 Jun 2027 07:36:09.456           152.486         76243.000
        32   02 Jun 2027 07:39:59.324   02 Jun 2027 07:39:59.324             0.000             0.000
        33   02 Jun 2027 07:40:23.590   02 Jun 2027 07:40:25.007             1.417           708.500
        34   02 Jun 2027 07:40:27.997   02 Jun 2027 07:40:57.853            29.856         14928.000
        35   02 Jun 2027 07:41:25.888   02 Jun 2027 07:41:26.067             0.179            89.500
        36   02 Jun 2027 09:10:35.471   02 Jun 2027 09:12:24.883           109.412         54359.030
        37   02 Jun 2027 09:12:52.429   02 Jun 2027 09:12:52.975             0.546           205.063
        38   02 Jun 2027 09:13:20.635   02 Jun 2027 09:13:20.890             0.255            77.875
        39   02 Jun 2027 09:13:43.307   02 Jun 2027 09:13:52.583             9.276           700.531
        40   02 Jun 2027 09:14:21.601   02 Jun 2027 09:14:22.582             0.981           379.094
        41   02 Jun 2027 09:16:48.239   02 Jun 2027 09:16:57.644             9.405          4280.187
        42   02 Jun 2027 09:17:15.350   02 Jun 2027 09:17:17.327             1.977           451.344
        43   02 Jun 2027 10:48:03.920   02 Jun 2027 10:48:24.009            20.089          8813.438
        44   02 Jun 2027 10:48:54.974   02 Jun 2027 10:49:00.165             5.191           841.187
        45   02 Jun 2027 10:49:05.556   02 Jun 2027 10:49:09.545             3.989           168.469
        46   02 Jun 2027 10:49:34.955   02 Jun 2027 10:49:41.962             7.007           740.312
        47   02 Jun 2027 10:50:24.784   02 Jun 2027 10:50:29.521             4.737           870.000
        48   02 Jun 2027 10:50:50.363   02 Jun 2027 10:50:52.109             1.746           651.312
        49   02 Jun 2027 10:51:02.421   02 Jun 2027 10:51:02.421             0.000             0.000
        50   02 Jun 2027 10:51:15.597   02 Jun 2027 10:51:17.506             1.909           687.094
        51   02 Jun 2027 10:51:19.860   02 Jun 2027 10:51:23.012             3.152            73.562
        52   02 Jun 2027 10:51:40.522   02 Jun 2027 10:51:41.801             1.279           246.594
        53   03 Jun 2027 03:11:54.518   03 Jun 2027 03:14:47.603           173.085         86542.500
        54   03 Jun 2027 03:15:38.390   03 Jun 2027 03:15:43.851             5.461          2730.500
        55   03 Jun 2027 04:35:11.172   03 Jun 2027 04:35:52.639            41.467         20733.500
        56   03 Jun 2027 04:36:41.286   03 Jun 2027 04:36:43.734             2.448          1224.000
        57   03 Jun 2027 04:37:06.062   03 Jun 2027 04:37:12.838             6.776          3388.000
        58   03 Jun 2027 06:11:39.977   03 Jun 2027 06:13:09.148            89.171         44585.500
        59   03 Jun 2027 06:13:13.675   03 Jun 2027 06:13:20.477             6.802          2354.000
        60   03 Jun 2027 06:14:23.298   03 Jun 2027 06:14:27.174             3.876          1516.156
        61   03 Jun 2027 06:15:14.833   03 Jun 2027 06:15:17.844             3.011          1248.344
        62   03 Jun 2027 07:46:50.983   03 Jun 2027 07:47:08.136            17.153          4584.469
        63   03 Jun 2027 07:47:57.328   03 Jun 2027 07:48:03.968             6.640          1180.844
        64   03 Jun 2027 07:49:09.259   03 Jun 2027 07:49:15.175             5.916          2040.344
        65   03 Jun 2027 07:50:21.259   03 Jun 2027 07:50:26.023             4.764          1124.531
        66   03 Jun 2027 07:50:37.347   03 Jun 2027 07:50:38.179             0.832           111.063
        67   03 Jun 2027 07:51:59.629   03 Jun 2027 07:52:07.425             7.796          2218.625
        68   03 Jun 2027 07:52:30.514   03 Jun 2027 07:52:30.514             0.000             0.000
        69   03 Jun 2027 07:52:44.353   03 Jun 2027 07:52:46.801             2.448          1154.000
        70   03 Jun 2027 07:52:48.255   03 Jun 2027 07:52:49.290             1.035            45.437
        71   03 Jun 2027 07:53:25.759   03 Jun 2027 07:53:28.308             2.549           979.438
        72   03 Jun 2027 09:23:09.975   03 Jun 2027 09:23:31.496            21.521          8459.688
        73   03 Jun 2027 09:23:54.692   03 Jun 2027 09:23:55.406             0.714           176.688
        74   03 Jun 2027 09:24:34.473   03 Jun 2027 09:24:35.956             1.483           714.906
        75   03 Jun 2027 09:25:12.598   03 Jun 2027 09:25:14.345             1.747           848.187
        76   03 Jun 2027 09:25:38.304   03 Jun 2027 09:25:41.398             3.094           664.063
        77   03 Jun 2027 09:26:08.449   03 Jun 2027 09:26:10.902             2.453           845.344
        78   03 Jun 2027 09:26:22.861   03 Jun 2027 09:26:24.852             1.991           128.562
        79   03 Jun 2027 09:26:47.275   03 Jun 2027 09:26:50.171             2.896           646.625
        80   03 Jun 2027 09:27:23.574   03 Jun 2027 09:27:26.653             3.079           837.719
        81   03 Jun 2027 09:27:39.973   03 Jun 2027 09:27:44.048             4.075           207.750
        82   03 Jun 2027 09:28:25.017   03 Jun 2027 09:28:28.253             3.236          1103.469
        83   03 Jun 2027 09:29:25.156   03 Jun 2027 09:29:26.238             1.082           541.000
        84   03 Jun 2027 11:00:33.343   03 Jun 2027 11:00:52.054            18.711          8144.062
        85   03 Jun 2027 11:01:49.449   03 Jun 2027 11:01:56.185             6.736          1700.469
        86   03 Jun 2027 11:01:58.843   03 Jun 2027 11:02:00.052             1.209            70.375
        87   03 Jun 2027 11:02:02.408   03 Jun 2027 11:02:06.255             3.847            32.812
        88   03 Jun 2027 11:02:33.706   03 Jun 2027 11:02:37.095             3.389           833.187
        89   03 Jun 2027 11:02:51.580   03 Jun 2027 11:02:52.290             0.710           355.000
        90   03 Jun 2027 11:02:58.903   03 Jun 2027 11:03:00.502             1.599           304.313
        91   03 Jun 2027 11:03:17.172   03 Jun 2027 11:03:17.475             0.303           151.500
        92   03 Jun 2027 11:03:20.569   03 Jun 2027 11:03:22.596             2.027           406.250
        93   03 Jun 2027 11:04:01.180   03 Jun 2027 11:04:03.446             2.266           656.125
        94   03 Jun 2027 11:05:02.155   03 Jun 2027 11:05:05.463             3.308          1464.750
        95   04 Jun 2027 03:23:46.313   04 Jun 2027 03:24:22.677            36.364         18182.000
        96   04 Jun 2027 03:24:51.249   04 Jun 2027 03:27:17.262           146.013         73006.500
        97   04 Jun 2027 04:47:53.643   04 Jun 2027 04:48:17.029            23.386         11693.000
        98   04 Jun 2027 04:48:32.071   04 Jun 2027 04:48:45.251            13.180          6590.000
        99   04 Jun 2027 04:49:10.941   04 Jun 2027 04:49:10.941             0.000             0.000
       100   04 Jun 2027 06:23:38.077   04 Jun 2027 06:24:47.017            68.940         34470.000
       101   04 Jun 2027 06:25:07.225   04 Jun 2027 06:25:10.649             3.424          1386.813
       102   04 Jun 2027 06:25:41.750   04 Jun 2027 06:25:44.634             2.884           223.687
       103   04 Jun 2027 06:26:39.385   04 Jun 2027 06:26:43.008             3.623          1560.188
       104   04 Jun 2027 07:58:42.871   04 Jun 2027 07:58:55.185            12.314          5890.563
       105   04 Jun 2027 08:00:16.262   04 Jun 2027 08:00:20.863             4.601          2144.594
       106   04 Jun 2027 08:01:10.869   04 Jun 2027 08:01:18.586             7.717          1496.750
       107   04 Jun 2027 08:01:44.711   04 Jun 2027 08:01:46.684             1.973           705.031
       108   04 Jun 2027 08:02:21.182   04 Jun 2027 08:02:23.589             2.407           311.125
       109   04 Jun 2027 08:02:50.731   04 Jun 2027 08:02:54.044             3.313           848.187
       110   04 Jun 2027 08:02:56.285   04 Jun 2027 08:03:02.447             6.162            70.031
       111   04 Jun 2027 08:04:14.302   04 Jun 2027 08:04:21.240             6.938          2086.687
       112   04 Jun 2027 08:04:27.006   04 Jun 2027 08:04:34.835             7.829           116.000
       113   04 Jun 2027 08:04:50.552   04 Jun 2027 08:04:52.214             1.662           220.500
       114   04 Jun 2027 08:05:26.062   04 Jun 2027 08:05:26.062             0.000             0.000
       115   04 Jun 2027 09:34:47.966   04 Jun 2027 09:35:10.670            22.704          9011.844
       116   04 Jun 2027 09:36:55.606   04 Jun 2027 09:36:57.997             2.391             0.719
       117   04 Jun 2027 09:37:14.699   04 Jun 2027 09:37:16.198             1.499           487.438
       118   04 Jun 2027 09:37:30.321   04 Jun 2027 09:37:38.153             7.832            68.969
       119   04 Jun 2027 09:38:00.773   04 Jun 2027 09:38:05.124             4.351           645.906
       120   04 Jun 2027 09:38:19.376   04 Jun 2027 09:38:19.933             0.557           276.000
       121   04 Jun 2027 09:38:57.513   04 Jun 2027 09:39:00.343             2.830          1173.844
       122   04 Jun 2027 09:39:54.566   04 Jun 2027 09:39:57.726             3.160          1389.750
       123   04 Jun 2027 09:40:50.931   04 Jun 2027 09:40:54.376             3.445          1521.906
       124   04 Jun 2027 09:41:07.596   04 Jun 2027 09:41:08.345             0.749           374.500
       125   04 Jun 2027 11:12:45.987   04 Jun 2027 11:12:59.002            13.015          6507.500
       126   04 Jun 2027 11:13:13.695   04 Jun 2027 11:13:17.221             3.526           562.156
       127   04 Jun 2027 11:13:46.317   04 Jun 2027 11:13:47.706             1.389           491.312
       128   04 Jun 2027 11:14:42.837   04 Jun 2027 11:14:47.720             4.883          1558.750
       129   04 Jun 2027 11:15:01.842   04 Jun 2027 11:15:06.236             4.394           368.656
       130   04 Jun 2027 11:15:17.796   04 Jun 2027 11:15:18.650             0.854           361.250
       131   04 Jun 2027 11:15:31.763   04 Jun 2027 11:15:36.994             5.231           409.781
       132   04 Jun 2027 11:16:06.114   04 Jun 2027 11:16:07.125             1.011           505.500
       133   04 Jun 2027 11:17:02.838   04 Jun 2027 11:17:10.257             7.419          1804.531
       134   05 Jun 2027 03:24:41.822   05 Jun 2027 03:25:14.714            32.892         16446.000
       135   05 Jun 2027 03:35:41.869   05 Jun 2027 03:38:33.910           172.041         86020.500
       136   05 Jun 2027 04:59:00.317   05 Jun 2027 05:00:06.421            66.104         33052.000
       137   05 Jun 2027 05:01:51.150   05 Jun 2027 05:02:05.628            14.478          7239.000
       138   05 Jun 2027 05:02:14.474   05 Jun 2027 05:02:28.505            14.031          7015.500
       139   05 Jun 2027 06:35:22.684   05 Jun 2027 06:35:44.832            22.148         11074.000
       140   05 Jun 2027 06:36:42.178   05 Jun 2027 06:36:46.655             4.477          2145.437
       141   05 Jun 2027 06:37:30.447   05 Jun 2027 06:37:30.447             0.000             0.000
       142   05 Jun 2027 06:37:36.185   05 Jun 2027 06:37:41.949             5.764          1488.375
       143   05 Jun 2027 06:38:21.184   05 Jun 2027 06:38:22.202             1.018           477.750
       144   05 Jun 2027 06:38:58.059   05 Jun 2027 06:38:58.059             0.000             0.000
       145   05 Jun 2027 06:39:41.516   05 Jun 2027 06:39:45.823             4.307          2039.406
       146   05 Jun 2027 08:10:08.275   05 Jun 2027 08:10:18.472            10.197          4967.531
       147   05 Jun 2027 08:11:06.456   05 Jun 2027 08:11:08.369             1.913           948.062
       148   05 Jun 2027 08:12:52.820   05 Jun 2027 08:12:52.820             0.000             0.000
       149   05 Jun 2027 08:13:26.296   05 Jun 2027 08:13:28.891             2.595          1297.500
       150   05 Jun 2027 08:13:36.184   05 Jun 2027 08:13:41.480             5.296          1015.000
       151   05 Jun 2027 08:13:47.043   05 Jun 2027 08:13:47.895             0.852            27.812
       152   05 Jun 2027 08:14:23.073   05 Jun 2027 08:14:25.664             2.591           539.969
       153   05 Jun 2027 08:15:58.471   05 Jun 2027 08:16:06.161             7.690          2900.219
       154   05 Jun 2027 08:16:27.497   05 Jun 2027 08:16:30.538             3.041           593.969
       155   05 Jun 2027 08:17:24.126   05 Jun 2027 08:17:24.126             0.000             0.000
       156   05 Jun 2027 09:46:57.711   05 Jun 2027 09:47:14.634            16.923          8023.156
       157   05 Jun 2027 09:47:57.262   05 Jun 2027 09:48:00.299             3.037           483.125
       158   05 Jun 2027 09:49:00.768   05 Jun 2027 09:49:04.444             3.676          1827.469
       159   05 Jun 2027 09:49:40.450   05 Jun 2027 09:49:45.627             5.177           414.344
       160   05 Jun 2027 09:50:15.109   05 Jun 2027 09:50:19.237             4.128           402.687
       161   05 Jun 2027 09:50:39.335   05 Jun 2027 09:50:40.714             1.379           549.625
       162   05 Jun 2027 09:51:15.756   05 Jun 2027 09:51:21.671             5.915          1003.594
       163   05 Jun 2027 09:51:27.940   05 Jun 2027 09:51:28.972             1.032           183.000
       164   05 Jun 2027 09:52:14.589   05 Jun 2027 09:52:17.113             2.524          1035.844
       165   05 Jun 2027 11:25:08.264   05 Jun 2027 11:25:25.987            17.723          7218.500
       166   05 Jun 2027 11:26:48.968   05 Jun 2027 11:26:56.504             7.536          2593.156
       167   05 Jun 2027 11:27:14.745   05 Jun 2027 11:27:15.920             1.175           478.656
       168   05 Jun 2027 11:27:27.650   05 Jun 2027 11:27:28.311             0.661           287.531
       169   05 Jun 2027 11:27:35.836   05 Jun 2027 11:27:41.940             6.104            81.375
       170   05 Jun 2027 11:28:59.718   05 Jun 2027 11:29:05.945             6.227          2430.562
       171   06 Jun 2027 03:36:01.842   06 Jun 2027 03:36:16.900            15.058          7529.000
       172   06 Jun 2027 03:36:17.017   06 Jun 2027 03:36:43.573            26.556         13278.000
       173   06 Jun 2027 03:47:42.726   06 Jun 2027 03:49:06.580            83.854         41927.000
       174   06 Jun 2027 05:09:58.320   06 Jun 2027 05:11:14.010            75.690         37845.000
       175   06 Jun 2027 05:11:55.417   06 Jun 2027 05:12:48.545            53.128         26564.000
       176   06 Jun 2027 05:13:12.738   06 Jun 2027 05:13:51.428            38.690         18730.344
       177   06 Jun 2027 05:14:16.927   06 Jun 2027 05:14:16.927             0.000             0.000
       178   06 Jun 2027 05:14:34.233   06 Jun 2027 05:14:35.716             1.483           741.500
       179   06 Jun 2027 06:45:10.663   06 Jun 2027 06:45:35.004            24.341          9615.312
       180   06 Jun 2027 06:46:05.096   06 Jun 2027 06:46:05.096             0.000             0.000
       181   06 Jun 2027 06:47:06.712   06 Jun 2027 06:47:14.074             7.362          2347.594
       182   06 Jun 2027 06:47:34.767   06 Jun 2027 06:47:36.991             2.224           151.656
       183   06 Jun 2027 06:48:14.413   06 Jun 2027 06:48:15.698             1.285           270.063
       184   06 Jun 2027 06:48:24.239   06 Jun 2027 06:48:24.239             0.000             0.000
       185   06 Jun 2027 06:48:53.207   06 Jun 2027 06:48:54.960             1.753           876.500
       186   06 Jun 2027 06:50:06.564   06 Jun 2027 06:50:17.849            11.285          2446.063
       187   06 Jun 2027 06:50:26.073   06 Jun 2027 06:50:28.408             2.335           257.000
       188   06 Jun 2027 06:50:50.056   06 Jun 2027 06:50:50.056             0.000             0.000
       189   06 Jun 2027 06:51:30.122   06 Jun 2027 06:51:34.732             4.610          1928.563
       190   06 Jun 2027 06:51:56.014   06 Jun 2027 06:52:00.192             4.178           609.500
       191   06 Jun 2027 08:22:15.294   06 Jun 2027 08:22:26.560            11.266          5278.625
       192   06 Jun 2027 08:23:07.720   06 Jun 2027 08:23:10.793             3.073           910.125
       193   06 Jun 2027 08:25:20.651   06 Jun 2027 08:25:24.518             3.867          1807.000
       194   06 Jun 2027 08:25:29.121   06 Jun 2027 08:25:30.731             1.610            51.187
       195   06 Jun 2027 08:26:47.837   06 Jun 2027 08:26:52.345             4.508          2231.625
       196   06 Jun 2027 08:27:37.887   06 Jun 2027 08:27:39.765             1.878           939.000
       197   06 Jun 2027 08:27:50.123   06 Jun 2027 08:27:52.040             1.917           485.656
       198   06 Jun 2027 08:28:01.932   06 Jun 2027 08:28:02.724             0.792           221.719
       199   06 Jun 2027 08:28:17.936   06 Jun 2027 08:28:20.486             2.550           455.875
       200   06 Jun 2027 08:28:45.724   06 Jun 2027 08:28:46.834             1.110           555.000
       201   06 Jun 2027 08:29:21.639   06 Jun 2027 08:29:26.069             4.430          1291.125
       202   06 Jun 2027 08:29:28.548   06 Jun 2027 08:29:33.378             4.830            77.469
       203   06 Jun 2027 09:59:13.406   06 Jun 2027 09:59:30.175            16.769          7583.562
       204   06 Jun 2027 10:00:55.193   06 Jun 2027 10:00:56.980             1.787           802.000
       205   06 Jun 2027 10:01:12.267   06 Jun 2027 10:01:13.430             1.163           381.219
       206   06 Jun 2027 10:01:48.673   06 Jun 2027 10:01:54.067             5.394            28.688
       207   06 Jun 2027 10:02:29.572   06 Jun 2027 10:02:36.431             6.859           639.406
       208   06 Jun 2027 10:03:22.843   06 Jun 2027 10:03:23.656             0.813           406.500
       209   06 Jun 2027 10:04:03.287   06 Jun 2027 10:04:09.102             5.815          2255.031
       210   06 Jun 2027 11:37:09.717   06 Jun 2027 11:37:28.893            19.176          8338.344
       211   06 Jun 2027 11:37:44.383   06 Jun 2027 11:37:51.897             7.514           484.063
       212   06 Jun 2027 11:38:11.904   06 Jun 2027 11:38:15.177             3.273           625.219
       213   06 Jun 2027 11:38:28.912   06 Jun 2027 11:38:29.875             0.963           429.219
       214   06 Jun 2027 11:38:47.104   06 Jun 2027 11:38:48.057             0.953           428.687
       215   06 Jun 2027 11:38:58.316   06 Jun 2027 11:39:01.929             3.613           312.719
       216   06 Jun 2027 11:39:21.145   06 Jun 2027 11:39:21.145             0.000             0.000
       217   06 Jun 2027 11:39:35.577   06 Jun 2027 11:39:39.965             4.388           830.844
       218   06 Jun 2027 11:39:51.216   06 Jun 2027 11:39:52.626             1.410           154.031
       219   06 Jun 2027 11:39:59.575   06 Jun 2027 11:39:59.575             0.000             0.000
       220   06 Jun 2027 11:40:19.182   06 Jun 2027 11:40:22.152             2.970           814.469
       221   06 Jun 2027 11:40:57.259   06 Jun 2027 11:41:02.304             5.045          1097.094
       222   07 Jun 2027 03:47:25.064   07 Jun 2027 03:47:46.458            21.394         10697.000
       223   07 Jun 2027 03:48:17.481   07 Jun 2027 03:48:44.909            27.428         13714.000
       224   07 Jun 2027 03:49:34.136   07 Jun 2027 03:49:40.892             6.756          3378.000
       225   07 Jun 2027 03:59:39.849   07 Jun 2027 04:00:34.684            54.835         27417.500
       226   07 Jun 2027 05:21:39.913   07 Jun 2027 05:23:00.924            81.011         40505.500
       227   07 Jun 2027 05:23:45.572   07 Jun 2027 05:24:34.048            48.476         24238.000
       228   07 Jun 2027 05:26:10.868   07 Jun 2027 05:26:30.315            19.447          9723.500
       229   07 Jun 2027 06:56:38.477   07 Jun 2027 06:57:33.932            55.455         27697.219
       230   07 Jun 2027 06:58:35.712   07 Jun 2027 06:58:43.218             7.506          1537.656
       231   07 Jun 2027 07:00:43.349   07 Jun 2027 07:00:45.473             2.124          1062.000
       232   07 Jun 2027 07:01:21.390   07 Jun 2027 07:01:27.534             6.144          3072.000
       233   07 Jun 2027 07:02:01.601   07 Jun 2027 07:02:06.303             4.702          1167.031
       234   07 Jun 2027 07:03:18.486   07 Jun 2027 07:03:23.769             5.283          2241.563
       235   07 Jun 2027 07:03:40.183   07 Jun 2027 07:03:40.183             0.000             0.000
       236   07 Jun 2027 07:03:42.804   07 Jun 2027 07:03:45.552             2.748           446.406
       237   07 Jun 2027 07:04:18.522   07 Jun 2027 07:04:20.444             1.922           871.656
       238   07 Jun 2027 07:05:21.466   07 Jun 2027 07:05:21.509             0.043            21.500
       239   07 Jun 2027 08:34:17.411   07 Jun 2027 08:34:31.325            13.914          6296.750
       240   07 Jun 2027 08:35:11.505   07 Jun 2027 08:35:14.233             2.728           958.719
       241   07 Jun 2027 08:35:52.674   07 Jun 2027 08:35:55.928             3.254           586.469
       242   07 Jun 2027 08:36:14.349   07 Jun 2027 08:36:18.127             3.778           411.469
       243   07 Jun 2027 08:37:19.660   07 Jun 2027 08:37:23.642             3.982          1922.906
       244   07 Jun 2027 08:38:28.882   07 Jun 2027 08:38:33.029             4.147           681.562
       245   07 Jun 2027 08:39:28.776   07 Jun 2027 08:39:33.141             4.365          1538.563
       246   07 Jun 2027 08:40:05.142   07 Jun 2027 08:40:11.944             6.802           401.219
       247   07 Jun 2027 08:40:22.659   07 Jun 2027 08:40:24.115             1.456           182.469
       248   07 Jun 2027 08:40:24.561   07 Jun 2027 08:40:24.860             0.299            13.938
       249   07 Jun 2027 08:40:41.231   07 Jun 2027 08:40:44.554             3.323           511.594
       250   07 Jun 2027 08:41:01.886   07 Jun 2027 08:41:10.815             8.929           531.469
       251   07 Jun 2027 08:41:30.597   07 Jun 2027 08:41:32.284             1.687           618.188
       252   07 Jun 2027 08:41:37.528   07 Jun 2027 08:41:39.717             2.189           163.875
       253   07 Jun 2027 10:11:04.167   07 Jun 2027 10:11:18.844            14.677          7332.781
       254   07 Jun 2027 10:11:28.842   07 Jun 2027 10:11:35.265             6.423           312.438
       255   07 Jun 2027 10:11:55.521   07 Jun 2027 10:12:06.703            11.182           494.500
       256   07 Jun 2027 10:12:13.501   07 Jun 2027 10:12:20.515             7.014           212.437
       257   07 Jun 2027 10:12:29.340   07 Jun 2027 10:12:30.880             1.540           275.781
       258   07 Jun 2027 10:13:12.044   07 Jun 2027 10:13:12.881             0.837            49.813
       259   07 Jun 2027 10:13:33.092   07 Jun 2027 10:13:35.364             2.272           431.500
       260   07 Jun 2027 10:13:56.706   07 Jun 2027 10:13:56.706             0.000             0.000
       261   07 Jun 2027 10:14:20.529   07 Jun 2027 10:14:25.250             4.721          1411.406
       262   07 Jun 2027 10:15:14.991   07 Jun 2027 10:15:18.434             3.443          1449.750
       263   07 Jun 2027 10:16:04.163   07 Jun 2027 10:16:07.763             3.600          1429.031
       264   07 Jun 2027 10:16:25.806   07 Jun 2027 10:16:29.042             3.236           381.594
       265   07 Jun 2027 10:17:24.395   07 Jun 2027 10:17:27.594             3.199          1125.313
       266   07 Jun 2027 11:49:06.961   07 Jun 2027 11:49:25.168            18.207          7718.594
       267   07 Jun 2027 11:50:05.113   07 Jun 2027 11:50:07.397             2.284           840.125
       268   07 Jun 2027 11:50:33.069   07 Jun 2027 11:50:35.672             2.603           739.563
       269   07 Jun 2027 11:50:48.030   07 Jun 2027 11:50:49.975             1.945           335.187
       270   07 Jun 2027 11:50:54.828   07 Jun 2027 11:50:57.227             2.399            79.781
       271   07 Jun 2027 11:50:59.942   07 Jun 2027 11:51:00.776             0.834            84.844
       272   07 Jun 2027 11:51:17.538   07 Jun 2027 11:51:19.556             2.018           523.812
       273   07 Jun 2027 11:51:46.745   07 Jun 2027 11:51:47.257             0.512           256.000
       274   07 Jun 2027 11:52:01.239   07 Jun 2027 11:52:04.035             2.796           998.188
       275   07 Jun 2027 11:52:24.801   07 Jun 2027 11:52:26.433             1.632           620.062
       276   08 Jun 2027 03:59:31.390   08 Jun 2027 04:00:46.134            74.744         37372.000
       277   08 Jun 2027 04:01:30.465   08 Jun 2027 04:01:30.546             0.081            40.500
       278   08 Jun 2027 05:33:19.696   08 Jun 2027 05:36:30.089           190.393         95196.500
       279   08 Jun 2027 05:37:22.458   08 Jun 2027 05:38:00.358            37.900         18950.000
       280   08 Jun 2027 07:08:12.453   08 Jun 2027 07:08:50.635            38.182         16976.437
       281   08 Jun 2027 07:09:28.666   08 Jun 2027 07:09:32.913             4.247           484.844
       282   08 Jun 2027 07:10:38.976   08 Jun 2027 07:10:40.205             1.229           511.656
       283   08 Jun 2027 07:11:18.075   08 Jun 2027 07:11:20.462             2.387           891.906
       284   08 Jun 2027 07:11:58.373   08 Jun 2027 07:12:00.183             1.810           205.594
       285   08 Jun 2027 07:14:06.392   08 Jun 2027 07:14:18.596            12.204          3846.781
       286   08 Jun 2027 07:14:28.872   08 Jun 2027 07:14:29.456             0.584           231.844
       287   08 Jun 2027 07:14:58.022   08 Jun 2027 07:15:00.728             2.706           860.406
       288   08 Jun 2027 07:15:33.291   08 Jun 2027 07:15:34.631             1.340           624.344
       289   08 Jun 2027 07:16:13.706   08 Jun 2027 07:16:20.223             6.517           784.062
       290   08 Jun 2027 08:46:19.425   08 Jun 2027 08:46:35.599            16.174          7779.719
       291   08 Jun 2027 08:47:00.163   08 Jun 2027 08:47:01.396             1.233           183.187
       292   08 Jun 2027 08:47:34.524   08 Jun 2027 08:47:47.740            13.216          1035.250
       293   08 Jun 2027 08:48:17.139   08 Jun 2027 08:48:20.209             3.070           473.688
       294   08 Jun 2027 08:48:20.678   08 Jun 2027 08:48:21.864             1.186            14.656
       295   08 Jun 2027 08:49:03.526   08 Jun 2027 08:49:06.876             3.350          1118.188
       296   08 Jun 2027 08:49:11.000   08 Jun 2027 08:49:22.764            11.764           128.875
       297   08 Jun 2027 08:50:15.195   08 Jun 2027 08:50:23.234             8.039           350.625
       298   08 Jun 2027 08:51:12.317   08 Jun 2027 08:51:16.902             4.585          1364.625
       299   08 Jun 2027 08:51:52.494   08 Jun 2027 08:51:52.494             0.000             0.000
       300   08 Jun 2027 08:51:59.199   08 Jun 2027 08:52:03.229             4.030          1288.375
       301   08 Jun 2027 08:52:36.050   08 Jun 2027 08:52:39.172             3.122           587.438
       302   08 Jun 2027 08:53:03.117   08 Jun 2027 08:53:07.008             3.891           218.969
       303   08 Jun 2027 08:53:24.279   08 Jun 2027 08:53:26.120             1.841           539.719
       304   08 Jun 2027 08:53:28.361   08 Jun 2027 08:53:32.785             4.424            70.031
       305   08 Jun 2027 08:53:33.674   08 Jun 2027 08:53:35.539             1.865            27.781
       306   08 Jun 2027 10:23:14.450   08 Jun 2027 10:23:29.809            15.359          6624.219
       307   08 Jun 2027 10:24:06.240   08 Jun 2027 10:24:09.466             3.226           684.188
       308   08 Jun 2027 10:24:38.005   08 Jun 2027 10:24:42.140             4.135           867.000
       309   08 Jun 2027 10:25:06.416   08 Jun 2027 10:25:07.924             1.508           275.062
       310   08 Jun 2027 10:25:37.959   08 Jun 2027 10:25:41.181             3.222           473.219
       311   08 Jun 2027 10:26:12.230   08 Jun 2027 10:26:16.025             3.795           862.187
       312   08 Jun 2027 10:27:02.787   08 Jun 2027 10:27:05.389             2.602          1301.000
       313   08 Jun 2027 10:27:31.200   08 Jun 2027 10:27:34.229             3.029           966.906
       314   08 Jun 2027 10:27:36.136   08 Jun 2027 10:27:38.087             1.951            59.594
       315   08 Jun 2027 10:27:57.273   08 Jun 2027 10:28:02.565             5.292           599.563
       316   08 Jun 2027 10:29:18.882   08 Jun 2027 10:29:25.598             6.716          2368.250
       317   09 Jun 2027 04:11:26.544   09 Jun 2027 04:12:57.787            91.243         45621.500
       318   09 Jun 2027 04:13:15.201   09 Jun 2027 04:13:21.022             5.821          2910.500
       319   09 Jun 2027 04:13:30.405   09 Jun 2027 04:13:37.843             7.438          3719.000
       320   09 Jun 2027 05:47:41.526   09 Jun 2027 05:50:30.912           169.386         84693.000
       321   09 Jun 2027 07:21:13.963   09 Jun 2027 07:21:53.192            39.229         18754.406
       322   09 Jun 2027 07:22:39.131   09 Jun 2027 07:22:42.180             3.049           859.969
       323   09 Jun 2027 07:23:20.571   09 Jun 2027 07:23:24.654             4.083          1199.719
       324   09 Jun 2027 07:23:39.978   09 Jun 2027 07:23:39.978             0.000             0.000
       325   09 Jun 2027 07:23:41.644   09 Jun 2027 07:23:47.005             5.361           257.469
       326   09 Jun 2027 07:24:30.877   09 Jun 2027 07:24:34.157             3.280          1197.625
       327   09 Jun 2027 07:24:54.250   09 Jun 2027 07:24:55.897             1.647           399.031
       328   09 Jun 2027 07:26:54.043   09 Jun 2027 07:27:03.891             9.848          3692.062
       329   09 Jun 2027 07:27:20.493   09 Jun 2027 07:27:21.707             1.214           378.594
       330   09 Jun 2027 07:27:41.799   09 Jun 2027 07:27:46.389             4.590           129.438
       331   09 Jun 2027 07:28:26.255   09 Jun 2027 07:28:30.055             3.800           977.844
       332   09 Jun 2027 07:29:24.098   09 Jun 2027 07:29:28.463             4.365          1460.531
       333   09 Jun 2027 08:58:46.574   09 Jun 2027 08:59:02.524            15.950          6257.781
       334   09 Jun 2027 08:59:44.850   09 Jun 2027 08:59:47.624             2.774          1102.750
       335   09 Jun 2027 09:00:36.363   09 Jun 2027 09:00:39.286             2.923           863.500
       336   09 Jun 2027 09:01:09.710   09 Jun 2027 09:01:09.710             0.000             0.000
       337   09 Jun 2027 09:02:39.057   09 Jun 2027 09:02:47.618             8.561          3540.531
       338   09 Jun 2027 09:03:20.537   09 Jun 2027 09:03:23.103             2.566           446.406
       339   09 Jun 2027 09:03:31.583   09 Jun 2027 09:03:34.216             2.633            93.156
       340   09 Jun 2027 09:04:10.894   09 Jun 2027 09:04:13.537             2.643           962.031
       341   09 Jun 2027 09:05:04.533   09 Jun 2027 09:05:09.116             4.583          1593.625
       342   09 Jun 2027 10:35:41.167   09 Jun 2027 10:36:02.963            21.796          8222.063
       343   09 Jun 2027 10:37:27.366   09 Jun 2027 10:37:31.050             3.684           591.656
       344   09 Jun 2027 10:37:45.056   09 Jun 2027 10:37:45.980             0.924           437.687
       345   09 Jun 2027 10:39:33.661   09 Jun 2027 10:39:37.434             3.773           909.906
       346   09 Jun 2027 10:40:15.050   09 Jun 2027 10:40:15.994             0.944           472.000
       347   09 Jun 2027 10:41:09.192   09 Jun 2027 10:41:15.957             6.765          2228.437
       348   09 Jun 2027 10:41:31.849   09 Jun 2027 10:41:31.988             0.139            69.500
       349   10 Jun 2027 03:00:00.000   10 Jun 2027 03:00:16.515            16.515          8257.500
       350   10 Jun 2027 03:01:26.243   10 Jun 2027 03:01:52.107            25.864         12932.000
       351   10 Jun 2027 03:02:18.038   10 Jun 2027 03:02:18.689             0.651           325.500
       352   10 Jun 2027 03:02:23.164   10 Jun 2027 03:02:37.690            14.526          7263.000
       353   10 Jun 2027 03:03:52.349   10 Jun 2027 03:04:04.602            12.253          6126.500
       354   10 Jun 2027 04:23:18.444   10 Jun 2027 04:24:48.079            89.635         44817.500
       355   10 Jun 2027 04:25:26.654   10 Jun 2027 04:25:42.612            15.958          7979.000
       356   10 Jun 2027 05:59:45.623   10 Jun 2027 06:00:39.400            53.777         26888.500
       357   10 Jun 2027 06:01:17.472   10 Jun 2027 06:02:44.406            86.934         43467.000
       358   10 Jun 2027 07:31:54.108   10 Jun 2027 07:32:03.911             9.803          4901.500
       359   10 Jun 2027 07:33:52.771   10 Jun 2027 07:34:04.370            11.599          5226.843
       360   10 Jun 2027 07:34:45.284   10 Jun 2027 07:34:47.082             1.798           697.344
       361   10 Jun 2027 07:35:44.780   10 Jun 2027 07:35:49.802             5.022           346.375
       362   10 Jun 2027 07:35:56.634   10 Jun 2027 07:35:57.904             1.270           146.344
       363   10 Jun 2027 07:36:32.562   10 Jun 2027 07:36:37.240             4.678           151.531
       364   10 Jun 2027 07:38:22.923   10 Jun 2027 07:38:27.792             4.869          2415.000
       365   10 Jun 2027 07:38:49.899   10 Jun 2027 07:38:54.873             4.974           519.125
       366   10 Jun 2027 07:39:50.124   10 Jun 2027 07:39:57.139             7.015          1726.594
       367   10 Jun 2027 07:40:09.622   10 Jun 2027 07:40:14.638             5.016           346.563
       368   10 Jun 2027 07:40:27.216   10 Jun 2027 07:40:28.058             0.842           362.281
       369   10 Jun 2027 07:40:28.534   10 Jun 2027 07:40:30.349             1.815            14.875
       370   10 Jun 2027 07:40:56.377   10 Jun 2027 07:40:58.786             2.409           813.375
       371   10 Jun 2027 07:41:34.704   10 Jun 2027 07:41:37.845             3.141          1122.438
       372   10 Jun 2027 07:41:41.130   10 Jun 2027 07:41:41.488             0.358           102.656
       373   10 Jun 2027 09:10:51.188   10 Jun 2027 09:11:04.224            13.036          6203.156
       374   10 Jun 2027 09:12:34.447   10 Jun 2027 09:12:37.152             2.705           838.781
       375   10 Jun 2027 09:13:11.703   10 Jun 2027 09:13:13.734             2.031           842.250
       376   10 Jun 2027 09:13:59.118   10 Jun 2027 09:14:09.927            10.809           713.219
       377   10 Jun 2027 09:14:52.934   10 Jun 2027 09:14:54.098             1.164           582.000
       378   10 Jun 2027 09:15:22.244   10 Jun 2027 09:15:24.313             2.069           922.938
       379   10 Jun 2027 09:16:02.843   10 Jun 2027 09:16:05.664             2.821          1086.250
       380   10 Jun 2027 09:17:06.106   10 Jun 2027 09:17:09.693             3.587          1788.250
       381   10 Jun 2027 09:17:32.967   10 Jun 2027 09:17:35.742             2.775           536.750
       382   10 Jun 2027 10:48:23.102   10 Jun 2027 10:48:41.377            18.275          8270.562
       383   10 Jun 2027 10:49:34.606   10 Jun 2027 10:49:35.803             1.197           598.500
       384   10 Jun 2027 10:49:51.053   10 Jun 2027 10:49:57.927             6.874          1294.469
       385   10 Jun 2027 10:50:08.596   10 Jun 2027 10:50:14.479             5.883           333.406
       386   10 Jun 2027 10:50:45.162   10 Jun 2027 10:50:46.146             0.984           492.000
       387   10 Jun 2027 10:50:49.049   10 Jun 2027 10:50:50.166             1.117           471.406
       388   10 Jun 2027 10:51:51.103   10 Jun 2027 10:51:56.758             5.655          1844.000
       389   10 Jun 2027 10:52:52.932   10 Jun 2027 10:52:57.556             4.624          1755.438
       390   11 Jun 2027 03:12:09.733   11 Jun 2027 03:14:56.236           166.503         83251.500
       391   11 Jun 2027 04:35:26.527   11 Jun 2027 04:36:23.292            56.765         28382.500
       392   11 Jun 2027 04:37:07.715   11 Jun 2027 04:37:13.932             6.217          3108.500
       393   11 Jun 2027 04:38:15.812   11 Jun 2027 04:38:15.812             0.000             0.000
       394   11 Jun 2027 06:11:55.777   11 Jun 2027 06:13:24.963            89.186         44335.062
       395   11 Jun 2027 06:14:21.354   11 Jun 2027 06:14:25.813             4.459          1762.219
       396   11 Jun 2027 07:47:06.851   11 Jun 2027 07:47:22.657            15.806          5856.469
       397   11 Jun 2027 07:48:13.954   11 Jun 2027 07:48:18.802             4.848          1236.219
       398   11 Jun 2027 07:49:12.368   11 Jun 2027 07:49:15.328             2.960          1480.000
       399   11 Jun 2027 07:50:00.828   11 Jun 2027 07:50:04.156             3.328          1519.156
       400   11 Jun 2027 07:50:36.882   11 Jun 2027 07:50:38.614             1.732           866.000
       401   11 Jun 2027 07:51:05.572   11 Jun 2027 07:51:10.957             5.385           865.969
       402   11 Jun 2027 07:51:38.935   11 Jun 2027 07:51:39.677             0.742           371.000
       403   11 Jun 2027 07:51:53.787   11 Jun 2027 07:51:55.975             2.188           473.375
       404   11 Jun 2027 07:52:23.894   11 Jun 2027 07:52:30.360             6.466           696.406
       405   11 Jun 2027 07:53:12.160   11 Jun 2027 07:53:12.371             0.211           105.500
       406   11 Jun 2027 07:53:14.505   11 Jun 2027 07:53:17.354             2.849          1265.000
       407   11 Jun 2027 07:53:34.953   11 Jun 2027 07:53:37.239             2.286           198.844
       408   11 Jun 2027 09:23:25.897   11 Jun 2027 09:23:45.076            19.179          9383.813
       409   11 Jun 2027 09:24:08.260   11 Jun 2027 09:24:10.246             1.986           210.219
       410   11 Jun 2027 09:24:49.527   11 Jun 2027 09:24:50.962             1.435           646.469
       411   11 Jun 2027 09:25:27.581   11 Jun 2027 09:25:29.318             1.737           776.281
       412   11 Jun 2027 09:25:58.645   11 Jun 2027 09:26:01.062             2.417           731.094
       413   11 Jun 2027 09:26:01.470   11 Jun 2027 09:26:01.723             0.253            12.750
       414   11 Jun 2027 09:26:23.458   11 Jun 2027 09:26:24.838             1.380           679.219
       415   11 Jun 2027 09:27:38.438   11 Jun 2027 09:27:46.755             8.317          2032.469
       416   11 Jun 2027 09:27:56.535   11 Jun 2027 09:28:00.374             3.839           261.344
       417   11 Jun 2027 09:28:40.720   11 Jun 2027 09:28:42.968             2.248          1100.281
       418   11 Jun 2027 11:00:48.327   11 Jun 2027 11:01:07.895            19.568          8269.500
       419   11 Jun 2027 11:01:14.982   11 Jun 2027 11:01:14.982             0.000             0.000
       420   11 Jun 2027 11:01:51.910   11 Jun 2027 11:02:00.173             8.263          1263.875
       421   11 Jun 2027 11:02:21.540   11 Jun 2027 11:02:23.518             1.978           667.719
       422   11 Jun 2027 11:02:29.149   11 Jun 2027 11:02:38.010             8.861           129.094
       423   11 Jun 2027 11:03:30.002   11 Jun 2027 11:03:34.434             4.432          1624.750
       424   11 Jun 2027 11:03:58.579   11 Jun 2027 11:04:00.485             1.906           724.500
       425   11 Jun 2027 11:04:09.357   11 Jun 2027 11:04:09.357             0.000             0.000
       426   11 Jun 2027 11:04:12.761   11 Jun 2027 11:04:16.982             4.221           383.625
       427   11 Jun 2027 11:04:59.438   11 Jun 2027 11:05:07.330             7.892          1326.750
       428   11 Jun 2027 11:05:13.380   11 Jun 2027 11:05:14.950             1.570           170.500
       429   12 Jun 2027 03:24:01.589   12 Jun 2027 03:24:37.953            36.364         18182.000
       430   12 Jun 2027 03:25:06.542   12 Jun 2027 03:27:32.643           146.101         73050.500
       431   12 Jun 2027 04:48:09.150   12 Jun 2027 04:48:48.981            39.831         19915.500
       432   12 Jun 2027 04:49:01.930   12 Jun 2027 04:49:10.140             8.210          4105.000
       433   12 Jun 2027 04:49:27.166   12 Jun 2027 04:49:28.624             1.458           729.000
       434   12 Jun 2027 04:50:18.667   12 Jun 2027 04:50:24.519             5.852          2926.000
       435   12 Jun 2027 06:23:52.833   12 Jun 2027 06:24:50.353            57.520         27865.281
       436   12 Jun 2027 06:25:05.069   12 Jun 2027 06:25:05.069             0.000             0.000
       437   12 Jun 2027 06:25:23.994   12 Jun 2027 06:25:27.999             4.005           819.312
       438   12 Jun 2027 06:25:58.196   12 Jun 2027 06:25:59.235             1.039           198.469
       439   12 Jun 2027 06:26:20.569   12 Jun 2027 06:26:20.569             0.000             0.000
       440   12 Jun 2027 06:26:26.370   12 Jun 2027 06:26:28.063             1.693           586.063
       441   12 Jun 2027 06:27:03.955   12 Jun 2027 06:27:07.254             3.299          1121.625
       442   12 Jun 2027 07:58:56.776   12 Jun 2027 07:59:08.457            11.681          4498.031
       443   12 Jun 2027 07:59:24.630   12 Jun 2027 07:59:32.037             7.407           134.531
       444   12 Jun 2027 08:00:31.680   12 Jun 2027 08:00:34.500             2.820           673.813
       445   12 Jun 2027 08:00:34.849   12 Jun 2027 08:00:36.626             1.777            10.906
       446   12 Jun 2027 08:01:27.887   12 Jun 2027 08:01:33.672             5.785          1504.125
       447   12 Jun 2027 08:01:59.369   12 Jun 2027 08:02:03.793             4.424           636.437
       448   12 Jun 2027 08:02:45.876   12 Jun 2027 08:02:47.525             1.649           514.938
       449   12 Jun 2027 08:03:11.151   12 Jun 2027 08:03:14.705             3.554           715.313
       450   12 Jun 2027 08:03:22.477   12 Jun 2027 08:03:27.660             5.183            19.312
       451   12 Jun 2027 08:03:40.982   12 Jun 2027 08:03:41.888             0.906           248.906
       452   12 Jun 2027 08:04:26.605   12 Jun 2027 08:04:31.903             5.298          1397.406
       453   12 Jun 2027 08:04:32.063   12 Jun 2027 08:04:33.563             1.500             5.000
       454   12 Jun 2027 08:05:21.564   12 Jun 2027 08:05:26.265             4.701          1500.031
       455   12 Jun 2027 08:05:47.223   12 Jun 2027 08:05:49.179             1.956           497.031
       456   12 Jun 2027 09:35:02.547   12 Jun 2027 09:35:24.735            22.188          8987.594
       457   12 Jun 2027 09:37:14.587   12 Jun 2027 09:37:17.229             2.642           232.000
       458   12 Jun 2027 09:37:55.116   12 Jun 2027 09:37:56.599             1.483           358.500
       459   12 Jun 2027 09:38:39.777   12 Jun 2027 09:38:42.863             3.086          1148.781
       460   12 Jun 2027 09:39:05.500   12 Jun 2027 09:39:05.500             0.000             0.000
       461   12 Jun 2027 09:39:25.574   12 Jun 2027 09:39:29.651             4.077          1088.531
       462   12 Jun 2027 09:39:49.017   12 Jun 2027 09:39:52.096             3.079           429.937
       463   12 Jun 2027 09:40:24.713   12 Jun 2027 09:40:26.893             2.180           732.281
       464   12 Jun 2027 09:40:42.159   12 Jun 2027 09:40:46.502             4.343           477.062
       465   12 Jun 2027 11:13:01.551   12 Jun 2027 11:13:14.866            13.315          6657.500
       466   12 Jun 2027 11:13:16.938   12 Jun 2027 11:13:18.924             1.986           898.406
       467   12 Jun 2027 11:13:39.060   12 Jun 2027 11:13:43.840             4.780           410.781
       468   12 Jun 2027 11:13:56.771   12 Jun 2027 11:13:59.461             2.690           404.094
       469   12 Jun 2027 11:14:46.417   12 Jun 2027 11:14:51.109             4.692          1415.875
       470   12 Jun 2027 11:15:16.665   12 Jun 2027 11:15:17.376             0.711           350.375
       471   12 Jun 2027 11:15:24.501   12 Jun 2027 11:15:27.928             3.427           203.594
       472   12 Jun 2027 11:15:37.858   12 Jun 2027 11:15:39.324             1.466           227.562
       473   12 Jun 2027 11:16:23.161   12 Jun 2027 11:16:27.617             4.456          1240.719
       474   12 Jun 2027 11:17:03.955   12 Jun 2027 11:17:06.925             2.970          1135.563
       475   13 Jun 2027 03:24:55.890   13 Jun 2027 03:25:30.923            35.033         17516.500
       476   13 Jun 2027 03:35:57.173   13 Jun 2027 03:38:55.463           178.290         89145.000
       477   13 Jun 2027 04:59:14.844   13 Jun 2027 04:59:53.347            38.503         19251.500
       478   13 Jun 2027 05:00:21.478   13 Jun 2027 05:00:48.885            27.407         13703.500
       479   13 Jun 2027 05:02:44.238   13 Jun 2027 05:02:46.440             2.202          1101.000
       480   13 Jun 2027 06:34:30.113   13 Jun 2027 06:34:33.074             2.961          1480.500
       481   13 Jun 2027 06:35:37.668   13 Jun 2027 06:35:54.855            17.187          8593.500
       482   13 Jun 2027 06:35:54.990   13 Jun 2027 06:36:08.587            13.597          6583.594
       483   13 Jun 2027 06:36:50.774   13 Jun 2027 06:36:50.774             0.000             0.000
       484   13 Jun 2027 06:37:12.282   13 Jun 2027 06:37:24.047            11.765          1539.250
       485   13 Jun 2027 06:37:50.738   13 Jun 2027 06:37:50.738             0.000             0.000
       486   13 Jun 2027 06:38:21.622   13 Jun 2027 06:38:24.425             2.803          1354.625
       487   13 Jun 2027 06:38:50.449   13 Jun 2027 06:38:51.853             1.404           702.000
       488   13 Jun 2027 06:39:13.892   13 Jun 2027 06:39:13.892             0.000             0.000
       489   13 Jun 2027 06:39:57.529   13 Jun 2027 06:40:02.401             4.872          2126.969
       490   13 Jun 2027 08:10:23.731   13 Jun 2027 08:10:33.391             9.660          3974.406
       491   13 Jun 2027 08:11:00.599   13 Jun 2027 08:11:02.903             2.304           213.375
       492   13 Jun 2027 08:12:35.342   13 Jun 2027 08:12:39.826             4.484          2241.031
       493   13 Jun 2027 08:14:30.481   13 Jun 2027 08:14:37.735             7.254          2522.031
       494   13 Jun 2027 08:14:52.617   13 Jun 2027 08:14:54.596             1.979           335.188
       495   13 Jun 2027 08:15:24.583   13 Jun 2027 08:15:27.869             3.286           483.906
       496   13 Jun 2027 08:15:42.454   13 Jun 2027 08:15:44.241             1.787           353.062
       497   13 Jun 2027 08:16:19.935   13 Jun 2027 08:16:22.110             2.175           832.500
       498   13 Jun 2027 08:16:42.318   13 Jun 2027 08:16:43.509             1.191           576.219
       499   13 Jun 2027 08:16:52.339   13 Jun 2027 08:16:55.753             3.414           186.187
       500   13 Jun 2027 08:17:15.287   13 Jun 2027 08:17:16.823             1.536           610.437
       501   13 Jun 2027 08:17:39.439   13 Jun 2027 08:17:40.401             0.962           214.219
       502   13 Jun 2027 09:47:13.735   13 Jun 2027 09:47:30.950            17.215          7483.437
       503   13 Jun 2027 09:48:08.833   13 Jun 2027 09:48:12.056             3.223          1045.781
       504   13 Jun 2027 09:49:01.377   13 Jun 2027 09:49:07.863             6.486          1474.938
       505   13 Jun 2027 09:49:57.583   13 Jun 2027 09:50:01.032             3.449          1307.625
       506   13 Jun 2027 09:50:11.273   13 Jun 2027 09:50:12.093             0.820           320.031
       507   13 Jun 2027 09:50:37.985   13 Jun 2027 09:50:44.391             6.406           687.062
       508   13 Jun 2027 09:51:30.307   13 Jun 2027 09:51:30.488             0.181            90.500
       509   13 Jun 2027 09:52:04.193   13 Jun 2027 09:52:09.833             5.640          2244.187
       510   13 Jun 2027 09:52:34.979   13 Jun 2027 09:52:36.435             1.456           627.844
       511   13 Jun 2027 09:53:24.137   13 Jun 2027 09:53:29.555             5.418           394.437
       512   13 Jun 2027 11:25:29.002   13 Jun 2027 11:25:43.831            14.829          7272.031
       513   13 Jun 2027 11:26:25.202   13 Jun 2027 11:26:28.530             3.328          1292.844
       514   13 Jun 2027 11:26:42.402   13 Jun 2027 11:26:50.365             7.963           433.500
       515   13 Jun 2027 11:27:34.648   13 Jun 2027 11:27:36.825             2.177           945.625
       516   13 Jun 2027 11:27:56.953   13 Jun 2027 11:27:57.959             1.006           503.000
       517   13 Jun 2027 11:28:16.169   13 Jun 2027 11:28:17.709             1.540           695.062
       518   13 Jun 2027 11:29:11.159   13 Jun 2027 11:29:14.934             3.775          1494.000
       519   13 Jun 2027 11:29:18.913   13 Jun 2027 11:29:21.170             2.257           103.875
