uniorb/output/strategy_2/Camera/Camera_KinoSat_111808.txt

KinoSat_111808
-------------------------
    Access    *     Start Time (UTCG)     *     Stop Time (UTCG)  *   Duration (s) *   Data (Mbytes)
         1   01 Jun 2027 04:13:57.685   01 Jun 2027 04:14:05.286             7.601          3800.500
         2   01 Jun 2027 04:14:53.757   01 Jun 2027 04:16:43.470           109.713         54856.500
         3   01 Jun 2027 04:17:09.703   01 Jun 2027 04:17:39.918            30.215         15107.500
         4   01 Jun 2027 04:17:49.612   01 Jun 2027 04:18:31.298            41.686         20843.000
         5   01 Jun 2027 04:19:51.895   01 Jun 2027 04:20:09.363            17.468          8734.000
         6   01 Jun 2027 05:51:58.351   01 Jun 2027 05:52:55.055            56.704         28352.000
         7   01 Jun 2027 05:52:58.081   01 Jun 2027 05:53:24.164            26.083         13041.500
         8   01 Jun 2027 05:54:10.985   01 Jun 2027 05:54:39.370            28.385         14192.500
         9   01 Jun 2027 05:54:48.749   01 Jun 2027 05:55:14.903            26.154         13077.000
        10   01 Jun 2027 05:55:31.632   01 Jun 2027 05:55:31.632             0.000             0.000
        11   01 Jun 2027 07:15:39.204   01 Jun 2027 07:17:21.302           102.098         51049.000
        12   01 Jun 2027 07:17:41.779   01 Jun 2027 07:17:41.779             0.000             0.000
        13   01 Jun 2027 08:52:03.266   01 Jun 2027 08:54:49.795           166.529         83264.500
        14   01 Jun 2027 10:24:15.457   01 Jun 2027 10:24:24.761             9.304          4652.000
        15   01 Jun 2027 10:26:33.636   01 Jun 2027 10:28:02.711            89.075         44537.500
        16   01 Jun 2027 10:32:53.153   01 Jun 2027 10:33:01.277             8.124          4062.000
        17   01 Jun 2027 10:33:03.666   01 Jun 2027 10:33:56.325            52.659         26329.500
        18   01 Jun 2027 10:34:02.634   01 Jun 2027 10:34:05.562             2.928          1464.000
        19   02 Jun 2027 04:26:03.754   02 Jun 2027 04:27:07.271            63.517         31758.500
        20   02 Jun 2027 04:27:14.544   02 Jun 2027 04:27:35.800            21.256         10628.000
        21   02 Jun 2027 04:27:41.696   02 Jun 2027 04:29:37.889           116.193         58096.500
        22   02 Jun 2027 04:30:23.228   02 Jun 2027 04:30:44.515            21.287         10643.500
        23   02 Jun 2027 04:31:47.918   02 Jun 2027 04:32:01.170            13.252          6626.000
        24   02 Jun 2027 06:05:12.148   02 Jun 2027 06:06:45.536            93.388         46694.000
        25   02 Jun 2027 06:06:48.924   02 Jun 2027 06:07:02.018            13.094          6547.000
        26   02 Jun 2027 06:08:09.241   02 Jun 2027 06:08:09.873             0.632           316.000
        27   02 Jun 2027 06:08:29.453   02 Jun 2027 06:08:45.309            15.856          7928.000
        28   02 Jun 2027 07:27:44.666   02 Jun 2027 07:29:28.250           103.584         51792.000
        29   02 Jun 2027 09:04:13.832   02 Jun 2027 09:04:35.487            21.655         10827.500
        30   02 Jun 2027 09:05:11.241   02 Jun 2027 09:06:49.429            98.188         49094.000
        31   02 Jun 2027 10:39:21.325   02 Jun 2027 10:39:53.782            32.457         16228.500
        32   02 Jun 2027 10:44:23.419   02 Jun 2027 10:44:44.749            21.330         10665.000
        33   02 Jun 2027 10:45:06.829   02 Jun 2027 10:45:14.098             7.269          1764.095
        34   02 Jun 2027 10:45:48.698   02 Jun 2027 10:45:52.445             3.747          1081.250
        35   02 Jun 2027 10:45:58.410   02 Jun 2027 10:46:02.553             4.143           159.063
        36   03 Jun 2027 03:00:28.722   03 Jun 2027 03:01:23.140            54.418         27209.000
        37   03 Jun 2027 03:01:28.026   03 Jun 2027 03:01:39.318            11.292          5646.000
        38   03 Jun 2027 03:02:07.225   03 Jun 2027 03:02:07.225             0.000             0.000
        39   03 Jun 2027 03:03:10.109   03 Jun 2027 03:03:33.614            23.505         11752.500
        40   03 Jun 2027 03:04:20.172   03 Jun 2027 03:04:23.617             3.445          1722.500
        41   03 Jun 2027 03:05:26.980   03 Jun 2027 03:06:06.443            39.463         19731.500
        42   03 Jun 2027 03:06:08.702   03 Jun 2027 03:06:09.892             1.190           595.000
        43   03 Jun 2027 04:38:07.970   03 Jun 2027 04:38:47.828            39.858         19929.000
        44   03 Jun 2027 04:39:11.908   03 Jun 2027 04:39:49.274            37.366         18683.000
        45   03 Jun 2027 04:40:07.143   03 Jun 2027 04:41:09.246            62.103         31051.500
        46   03 Jun 2027 04:41:26.219   03 Jun 2027 04:41:43.944            17.725          8862.500
        47   03 Jun 2027 04:41:59.509   03 Jun 2027 04:42:09.514            10.005          5002.500
        48   03 Jun 2027 04:43:04.428   03 Jun 2027 04:43:26.138            21.710         10855.000
        49   03 Jun 2027 06:16:21.139   03 Jun 2027 06:16:51.482            30.343         15171.500
        50   03 Jun 2027 06:16:54.501   03 Jun 2027 06:16:57.654             3.153          1576.500
        51   03 Jun 2027 06:17:38.081   03 Jun 2027 06:17:41.941             3.860          1408.688
        52   03 Jun 2027 06:18:31.458   03 Jun 2027 06:18:37.541             6.083          1545.750
        53   03 Jun 2027 06:19:43.094   03 Jun 2027 06:19:45.399             2.305          1152.500
        54   03 Jun 2027 07:39:48.307   03 Jun 2027 07:40:01.740            13.433          5281.313
        55   03 Jun 2027 07:40:29.149   03 Jun 2027 07:40:29.149             0.000             0.000
        56   03 Jun 2027 07:40:44.977   03 Jun 2027 07:40:48.357             3.380           996.906
        57   03 Jun 2027 07:42:24.505   03 Jun 2027 07:42:30.247             5.742          2530.687
        58   03 Jun 2027 09:16:17.206   03 Jun 2027 09:16:26.521             9.315          4352.438
        59   03 Jun 2027 09:17:21.966   03 Jun 2027 09:17:25.695             3.729          1703.625
        60   03 Jun 2027 10:51:28.690   03 Jun 2027 10:51:41.628            12.938          6383.062
        61   03 Jun 2027 10:57:49.852   03 Jun 2027 10:58:04.899            15.047          7523.500
        62   04 Jun 2027 03:11:55.069   04 Jun 2027 03:13:50.337           115.268         57634.000
        63   04 Jun 2027 03:15:28.585   04 Jun 2027 03:16:18.678            50.093         25046.500
        64   04 Jun 2027 03:17:19.908   04 Jun 2027 03:17:19.908             0.000             0.000
        65   04 Jun 2027 03:17:34.701   04 Jun 2027 03:17:49.447            14.746          7373.000
        66   04 Jun 2027 03:18:52.271   04 Jun 2027 03:18:56.099             3.828          1914.000
        67   04 Jun 2027 04:51:12.658   04 Jun 2027 04:53:15.497           122.839         60453.875
        68   04 Jun 2027 04:55:21.827   04 Jun 2027 04:55:26.307             4.480          2240.000
        69   04 Jun 2027 04:57:23.025   04 Jun 2027 04:57:31.732             8.707          4353.500
        70   04 Jun 2027 04:57:33.988   04 Jun 2027 04:57:35.277             1.289           644.500
        71   04 Jun 2027 04:58:08.366   04 Jun 2027 04:58:12.018             3.652          1441.063
        72   04 Jun 2027 06:17:26.662   04 Jun 2027 06:17:39.503            12.841          5744.281
        73   04 Jun 2027 06:28:16.998   04 Jun 2027 06:28:24.643             7.645          3565.375
        74   04 Jun 2027 06:29:28.891   04 Jun 2027 06:29:28.891             0.000             0.000
        75   04 Jun 2027 06:30:24.418   04 Jun 2027 06:30:32.541             8.123          2510.250
        76   04 Jun 2027 06:31:05.825   04 Jun 2027 06:31:07.535             1.710            11.594
        77   04 Jun 2027 06:31:13.762   04 Jun 2027 06:31:15.193             1.431           189.000
        78   04 Jun 2027 07:52:15.260   04 Jun 2027 07:52:34.624            19.364          7754.969
        79   04 Jun 2027 07:52:47.483   04 Jun 2027 07:52:48.371             0.888           192.156
        80   04 Jun 2027 07:54:19.382   04 Jun 2027 07:54:24.442             5.060          2357.281
        81   04 Jun 2027 07:54:38.888   04 Jun 2027 07:54:42.823             3.935           426.125
        82   04 Jun 2027 09:30:46.548   04 Jun 2027 09:31:10.579            24.031         10982.437
        83   04 Jun 2027 11:02:44.060   04 Jun 2027 11:02:54.097            10.037          5018.500
        84   04 Jun 2027 11:05:22.129   04 Jun 2027 11:05:33.029            10.900          5312.718
        85   04 Jun 2027 11:09:39.851   04 Jun 2027 11:09:57.273            17.422          7713.187
        86   04 Jun 2027 11:10:02.946   04 Jun 2027 11:10:06.228             3.282           177.125
        87   05 Jun 2027 03:24:35.416   05 Jun 2027 03:27:44.169           188.753         94376.500
        88   05 Jun 2027 03:28:14.197   05 Jun 2027 03:28:53.887            39.690         19845.000
        89   05 Jun 2027 03:29:11.819   05 Jun 2027 03:29:27.353            15.534          7767.000
        90   05 Jun 2027 03:29:50.446   05 Jun 2027 03:29:51.667             1.221           610.500
        91   05 Jun 2027 03:30:04.222   05 Jun 2027 03:30:08.210             3.988          1994.000
        92   05 Jun 2027 03:30:17.042   05 Jun 2027 03:30:17.995             0.953           476.500
        93   05 Jun 2027 05:03:34.475   05 Jun 2027 05:03:49.621            15.146          7573.000
        94   05 Jun 2027 05:04:26.350   05 Jun 2027 05:05:09.229            42.879         21439.500
        95   05 Jun 2027 05:05:48.441   05 Jun 2027 05:05:54.968             6.527          2891.750
        96   05 Jun 2027 05:06:15.289   05 Jun 2027 05:06:17.293             2.004           635.031
        97   05 Jun 2027 05:07:44.465   05 Jun 2027 05:07:47.866             3.401          1700.500
        98   05 Jun 2027 05:08:22.576   05 Jun 2027 05:08:29.941             7.365          1885.406
        99   05 Jun 2027 05:09:00.863   05 Jun 2027 05:09:02.899             2.036           966.313
       100   05 Jun 2027 05:09:21.798   05 Jun 2027 05:09:24.732             2.934           366.188
       101   05 Jun 2027 05:09:36.403   05 Jun 2027 05:09:36.976             0.573            86.250
       102   05 Jun 2027 05:09:43.895   05 Jun 2027 05:09:46.550             2.655           164.000
       103   05 Jun 2027 06:28:41.643   05 Jun 2027 06:28:53.647            12.004          5587.563
       104   05 Jun 2027 06:29:30.810   05 Jun 2027 06:29:35.152             4.342           564.594
       105   05 Jun 2027 06:40:18.120   05 Jun 2027 06:40:25.511             7.391          3227.031
       106   05 Jun 2027 06:40:41.233   05 Jun 2027 06:40:42.260             1.027           279.812
       107   05 Jun 2027 06:41:21.584   05 Jun 2027 06:41:23.099             1.515           736.438
       108   05 Jun 2027 08:02:52.430   05 Jun 2027 08:03:04.258            11.828          5249.219
       109   05 Jun 2027 08:03:09.713   05 Jun 2027 08:03:10.219             0.506            95.781
       110   05 Jun 2027 08:04:31.086   05 Jun 2027 08:04:35.738             4.652          1309.062
       111   05 Jun 2027 08:05:17.167   05 Jun 2027 08:05:22.678             5.511           856.500
       112   05 Jun 2027 09:40:07.747   05 Jun 2027 09:40:23.881            16.134          7966.625
       113   05 Jun 2027 09:41:22.835   05 Jun 2027 09:41:22.835             0.000             0.000
       114   05 Jun 2027 09:42:41.583   05 Jun 2027 09:42:43.666             2.083          1041.500
       115   05 Jun 2027 09:44:13.936   05 Jun 2027 09:44:26.302            12.366          5676.094
       116   05 Jun 2027 11:14:50.904   05 Jun 2027 11:14:59.808             8.904          4452.000
       117   05 Jun 2027 11:17:52.515   05 Jun 2027 11:17:52.515             0.000             0.000
       118   05 Jun 2027 11:17:56.357   05 Jun 2027 11:18:06.678            10.321          5160.500
       119   05 Jun 2027 11:21:26.131   05 Jun 2027 11:21:41.811            15.680          7037.812
       120   06 Jun 2027 03:36:51.507   06 Jun 2027 03:39:11.326           139.819         69909.500
       121   06 Jun 2027 03:39:39.002   06 Jun 2027 03:39:46.055             7.053          3526.500
       122   06 Jun 2027 03:40:13.637   06 Jun 2027 03:40:55.845            42.208         21104.000
       123   06 Jun 2027 03:41:10.105   06 Jun 2027 03:41:51.758            41.653         20826.500
       124   06 Jun 2027 03:42:32.120   06 Jun 2027 03:42:34.772             2.652          1326.000
       125   06 Jun 2027 05:15:51.833   06 Jun 2027 05:16:57.984            66.151         33075.500
       126   06 Jun 2027 05:17:17.946   06 Jun 2027 05:17:28.359            10.413          4905.125
       127   06 Jun 2027 05:18:13.209   06 Jun 2027 05:18:15.330             2.121           959.438
       128   06 Jun 2027 05:19:10.719   06 Jun 2027 05:19:14.307             3.588          1511.031
       129   06 Jun 2027 05:19:49.956   06 Jun 2027 05:19:54.407             4.451           792.687
       130   06 Jun 2027 05:21:03.531   06 Jun 2027 05:21:06.639             3.108          1516.687
       131   06 Jun 2027 05:21:09.257   06 Jun 2027 05:21:09.257             0.000             0.000
       132   06 Jun 2027 05:21:35.458   06 Jun 2027 05:21:37.857             2.399           892.031
       133   06 Jun 2027 05:22:30.321   06 Jun 2027 05:22:35.389             5.068          1639.500
       134   06 Jun 2027 06:40:02.069   06 Jun 2027 06:40:23.446            21.377          6183.406
       135   06 Jun 2027 06:40:47.570   06 Jun 2027 06:40:49.125             1.555           497.906
       136   06 Jun 2027 06:41:14.472   06 Jun 2027 06:41:16.911             2.439           723.313
       137   06 Jun 2027 06:42:04.633   06 Jun 2027 06:42:09.661             5.028          1202.719
       138   06 Jun 2027 06:52:15.487   06 Jun 2027 06:52:23.830             8.343          2364.344
       139   06 Jun 2027 08:14:27.619   06 Jun 2027 08:14:43.675            16.056          6716.844
       140   06 Jun 2027 08:15:25.043   06 Jun 2027 08:15:27.873             2.830          1268.156
       141   06 Jun 2027 08:17:03.354   06 Jun 2027 08:17:09.400             6.046          2933.312
       142   06 Jun 2027 08:18:23.819   06 Jun 2027 08:18:23.819             0.000             0.000
       143   06 Jun 2027 08:18:44.978   06 Jun 2027 08:18:53.761             8.783          2582.375
       144   06 Jun 2027 09:49:21.001   06 Jun 2027 09:49:39.930            18.929          6626.562
       145   06 Jun 2027 09:50:39.919   06 Jun 2027 09:50:39.919             0.000             0.000
       146   06 Jun 2027 09:52:34.491   06 Jun 2027 09:52:44.833            10.342          4850.406
       147   06 Jun 2027 09:55:51.900   06 Jun 2027 09:56:02.861            10.961          5480.500
       148   06 Jun 2027 11:28:42.436   06 Jun 2027 11:29:05.654            23.218         10338.906
       149   06 Jun 2027 11:29:53.446   06 Jun 2027 11:29:57.730             4.284          1493.500
       150   06 Jun 2027 11:30:12.591   06 Jun 2027 11:30:15.147             2.556           463.125
       151   06 Jun 2027 11:31:12.987   06 Jun 2027 11:31:21.718             8.731          1622.031
       152   06 Jun 2027 11:31:28.082   06 Jun 2027 11:31:29.042             0.960           141.937
       153   06 Jun 2027 11:32:15.001   06 Jun 2027 11:32:18.938             3.937           910.031
       154   06 Jun 2027 11:32:32.777   06 Jun 2027 11:32:34.098             1.321           432.469
       155   06 Jun 2027 11:33:04.371   06 Jun 2027 11:33:06.692             2.321           756.875
       156   06 Jun 2027 11:33:18.034   06 Jun 2027 11:33:22.238             4.204           210.406
       157   06 Jun 2027 11:33:46.247   06 Jun 2027 11:33:47.753             1.506           750.281
       158   07 Jun 2027 03:49:10.758   07 Jun 2027 03:49:23.665            12.907          6453.500
       159   07 Jun 2027 03:49:38.188   07 Jun 2027 03:51:07.288            89.100         44550.000
       160   07 Jun 2027 03:52:50.289   07 Jun 2027 03:53:43.047            52.758         26379.000
       161   07 Jun 2027 03:54:23.557   07 Jun 2027 03:55:07.893            44.336         22168.000
       162   07 Jun 2027 05:27:58.635   07 Jun 2027 05:29:38.672           100.037         50018.500
       163   07 Jun 2027 05:29:54.012   07 Jun 2027 05:30:12.120            18.108          8373.437
       164   07 Jun 2027 05:30:35.748   07 Jun 2027 05:30:35.880             0.132            66.000
       165   07 Jun 2027 05:31:52.113   07 Jun 2027 05:31:57.212             5.099          2463.593
       166   07 Jun 2027 05:32:18.461   07 Jun 2027 05:32:19.607             1.146           408.063
       167   07 Jun 2027 05:33:11.962   07 Jun 2027 05:33:16.251             4.289          1403.094
       168   07 Jun 2027 06:52:07.730   07 Jun 2027 06:52:20.527            12.797          5879.875
       169   07 Jun 2027 06:52:41.501   07 Jun 2027 06:52:44.017             2.516           321.438
       170   07 Jun 2027 06:53:37.864   07 Jun 2027 06:53:49.231            11.367          1472.562
       171   07 Jun 2027 08:25:57.763   07 Jun 2027 08:26:20.045            22.282          9020.313
       172   07 Jun 2027 08:27:55.372   07 Jun 2027 08:28:00.652             5.280          2532.313
       173   07 Jun 2027 08:28:53.491   07 Jun 2027 08:28:57.158             3.667          1647.000
       174   07 Jun 2027 08:29:47.989   07 Jun 2027 08:29:47.989             0.000             0.000
       175   07 Jun 2027 08:31:06.786   07 Jun 2027 08:31:20.231            13.445          3932.312
       176   07 Jun 2027 10:00:51.518   07 Jun 2027 10:01:05.091            13.573          5170.625
       177   07 Jun 2027 10:03:51.438   07 Jun 2027 10:03:59.963             8.525          3883.156
       178   07 Jun 2027 10:09:51.938   07 Jun 2027 10:10:15.944            24.006         10762.406
       179   07 Jun 2027 11:38:54.151   07 Jun 2027 11:39:07.085            12.934          6442.937
       180   07 Jun 2027 11:39:28.669   07 Jun 2027 11:39:33.628             4.959           515.281
       181   07 Jun 2027 11:40:10.271   07 Jun 2027 11:40:13.423             3.152          1004.406
       182   07 Jun 2027 11:41:39.058   07 Jun 2027 11:41:44.686             5.628          2197.844
       183   07 Jun 2027 11:42:11.986   07 Jun 2027 11:42:15.789             3.803           853.125
       184   07 Jun 2027 11:43:08.536   07 Jun 2027 11:43:13.740             5.204          1320.063
       185   07 Jun 2027 11:44:36.919   07 Jun 2027 11:44:48.202            11.283          2312.187
       186   07 Jun 2027 11:45:40.469   07 Jun 2027 11:45:43.788             3.319          1411.156
       187   08 Jun 2027 04:01:48.637   08 Jun 2027 04:01:55.109             6.472          3236.000
       188   08 Jun 2027 04:02:10.070   08 Jun 2027 04:03:10.743            60.673         30336.500
       189   08 Jun 2027 04:03:15.642   08 Jun 2027 04:05:38.778           143.136         71568.000
       190   08 Jun 2027 04:05:55.062   08 Jun 2027 04:06:15.469            20.407         10203.500
       191   08 Jun 2027 04:06:37.595   08 Jun 2027 04:06:53.212            15.617          7808.500
       192   08 Jun 2027 05:40:35.244   08 Jun 2027 05:41:58.001            82.757         40768.812
       193   08 Jun 2027 05:43:38.971   08 Jun 2027 05:43:48.658             9.687          2491.594
       194   08 Jun 2027 05:44:52.609   08 Jun 2027 05:44:56.362             3.753          1822.437
       195   08 Jun 2027 07:04:04.909   08 Jun 2027 07:04:19.193            14.284          6826.156
       196   08 Jun 2027 07:05:17.592   08 Jun 2027 07:05:20.959             3.367          1613.813
       197   08 Jun 2027 07:06:19.456   08 Jun 2027 07:06:22.200             2.744          1372.000
       198   08 Jun 2027 08:40:16.499   08 Jun 2027 08:40:24.558             8.059          4029.500
       199   08 Jun 2027 08:40:46.028   08 Jun 2027 08:40:52.666             6.638          3311.750
       200   08 Jun 2027 08:41:40.813   08 Jun 2027 08:41:40.813             0.000             0.000
       201   08 Jun 2027 08:42:19.099   08 Jun 2027 08:42:24.818             5.719          2632.969
       202   08 Jun 2027 08:42:50.417   08 Jun 2027 08:42:50.417             0.000             0.000
       203   08 Jun 2027 08:43:22.922   08 Jun 2027 08:43:27.281             4.359          1195.813
       204   08 Jun 2027 10:13:49.882   08 Jun 2027 10:14:00.497            10.615          3488.219
       205   08 Jun 2027 10:15:41.370   08 Jun 2027 10:15:41.370             0.000             0.000
       206   08 Jun 2027 10:18:41.793   08 Jun 2027 10:18:57.499            15.706          7209.281
       207   08 Jun 2027 10:19:26.137   08 Jun 2027 10:19:28.606             2.469           894.938
       208   08 Jun 2027 10:21:29.250   08 Jun 2027 10:21:37.677             8.427          3733.719
       209   08 Jun 2027 10:21:56.031   08 Jun 2027 10:21:58.305             2.274           484.250
       210   08 Jun 2027 10:22:07.264   08 Jun 2027 10:22:08.738             1.474           279.969
       211   08 Jun 2027 11:51:16.568   08 Jun 2027 11:51:32.096            15.528          7623.344
       212   08 Jun 2027 11:52:04.377   08 Jun 2027 11:52:08.225             3.848          1008.781
       213   08 Jun 2027 11:53:26.805   08 Jun 2027 11:53:29.985             3.180          1590.000
       214   08 Jun 2027 11:55:38.472   08 Jun 2027 11:55:46.556             8.084          4042.000
       215   08 Jun 2027 11:55:48.907   08 Jun 2027 11:55:53.998             5.091           619.875
       216   08 Jun 2027 11:57:30.541   08 Jun 2027 11:57:35.557             5.016          2294.156
       217   08 Jun 2027 11:57:43.338   08 Jun 2027 11:57:44.590             1.252            32.562
       218   09 Jun 2027 04:14:14.302   09 Jun 2027 04:14:41.983            27.681         13840.500
       219   09 Jun 2027 04:14:45.904   09 Jun 2027 04:17:11.503           145.599         72799.500
       220   09 Jun 2027 04:17:39.954   09 Jun 2027 04:18:34.797            54.843         27421.500
       221   09 Jun 2027 05:52:15.876   09 Jun 2027 05:53:44.318            88.442         44221.000
       222   09 Jun 2027 05:54:29.596   09 Jun 2027 05:54:39.349             9.753          4059.813
       223   09 Jun 2027 05:56:32.333   09 Jun 2027 05:56:38.000             5.667          2833.500
       224   09 Jun 2027 05:56:51.646   09 Jun 2027 05:56:53.391             1.745           542.500
       225   09 Jun 2027 07:15:55.726   09 Jun 2027 07:16:18.033            22.307          8046.281
       226   09 Jun 2027 07:17:48.518   09 Jun 2027 07:17:54.892             6.374          2808.000
       227   09 Jun 2027 07:18:18.674   09 Jun 2027 07:18:20.878             2.204           692.781
       228   09 Jun 2027 08:52:23.495   09 Jun 2027 08:52:45.759            22.264          8334.031
       229   09 Jun 2027 08:55:07.454   09 Jun 2027 08:55:16.508             9.054          4427.969
       230   09 Jun 2027 10:24:32.693   09 Jun 2027 10:24:41.500             8.807          3786.187
       231   09 Jun 2027 10:26:51.556   09 Jun 2027 10:26:59.399             7.843          3839.625
       232   09 Jun 2027 10:31:33.845   09 Jun 2027 10:31:33.845             0.000             0.000
       233   09 Jun 2027 10:33:13.020   09 Jun 2027 10:33:18.567             5.547          2773.500
       234   09 Jun 2027 10:33:20.769   09 Jun 2027 10:33:35.998            15.229          6499.219
       235   09 Jun 2027 10:34:19.666   09 Jun 2027 10:34:22.351             2.685          1300.156
       236   10 Jun 2027 04:26:21.110   10 Jun 2027 04:27:14.225            53.115         26557.500
       237   10 Jun 2027 04:27:49.137   10 Jun 2027 04:30:19.405           150.268         75134.000
       238   10 Jun 2027 04:30:38.051   10 Jun 2027 04:31:01.982            23.931         11965.500
       239   10 Jun 2027 06:05:29.332   10 Jun 2027 06:07:09.216            99.884         49942.000
       240   10 Jun 2027 06:07:58.619   10 Jun 2027 06:08:10.954            12.335          3502.938
       241   10 Jun 2027 06:09:00.254   10 Jun 2027 06:09:01.405             1.151           575.500
       242   10 Jun 2027 07:28:03.354   10 Jun 2027 07:28:20.039            16.685          7074.719
       243   10 Jun 2027 07:28:59.658   10 Jun 2027 07:29:01.623             1.965           906.812
       244   10 Jun 2027 07:29:33.337   10 Jun 2027 07:29:35.563             2.226           991.063
       245   10 Jun 2027 07:30:50.380   10 Jun 2027 07:30:53.629             3.249          1624.500
       246   10 Jun 2027 09:04:31.458   10 Jun 2027 09:04:42.275            10.817          3759.187
       247   10 Jun 2027 09:07:07.031   10 Jun 2027 09:07:21.326            14.295          4213.031
       248   10 Jun 2027 10:39:42.051   10 Jun 2027 10:40:02.098            20.047          8611.937
       249   10 Jun 2027 10:40:36.190   10 Jun 2027 10:40:38.433             2.243           983.531
       250   10 Jun 2027 10:43:43.332   10 Jun 2027 10:43:43.332             0.000             0.000
       251   10 Jun 2027 10:45:45.002   10 Jun 2027 10:46:05.183            20.181          9310.875
       252   11 Jun 2027 03:00:13.438   11 Jun 2027 03:00:40.390            26.952         13476.000
       253   11 Jun 2027 03:00:56.014   11 Jun 2027 03:01:16.979            20.965         10482.500
       254   11 Jun 2027 03:01:29.810   11 Jun 2027 03:01:48.480            18.670          9335.000
       255   11 Jun 2027 03:01:57.754   11 Jun 2027 03:02:11.398            13.644          6822.000
       256   11 Jun 2027 03:02:29.245   11 Jun 2027 03:02:42.009            12.764          6382.000
       257   11 Jun 2027 03:04:42.660   11 Jun 2027 03:04:44.627             1.967           983.500
       258   11 Jun 2027 03:04:45.844   11 Jun 2027 03:04:51.059             5.215          2607.500
       259   11 Jun 2027 03:05:46.344   11 Jun 2027 03:05:51.368             5.024          2512.000
       260   11 Jun 2027 03:05:51.811   11 Jun 2027 03:06:00.949             9.138          4569.000
       261   11 Jun 2027 03:06:05.779   11 Jun 2027 03:06:21.260            15.481          7740.500
       262   11 Jun 2027 03:06:23.503   11 Jun 2027 03:06:38.967            15.464          7732.000
       263   11 Jun 2027 04:38:26.097   11 Jun 2027 04:38:56.051            29.954         14977.000
       264   11 Jun 2027 04:39:29.164   11 Jun 2027 04:40:46.330            77.166         38583.000
       265   11 Jun 2027 04:41:11.098   11 Jun 2027 04:42:00.974            49.876         24938.000
       266   11 Jun 2027 04:42:29.033   11 Jun 2027 04:42:44.359            15.326          7614.281
       267   11 Jun 2027 04:43:18.518   11 Jun 2027 04:43:23.675             5.157           287.656
       268   11 Jun 2027 04:43:58.057   11 Jun 2027 04:44:00.109             2.052           794.500
       269   11 Jun 2027 04:44:29.850   11 Jun 2027 04:44:32.150             2.300           920.437
       270   11 Jun 2027 06:16:38.353   11 Jun 2027 06:16:53.113            14.760          7280.031
       271   11 Jun 2027 06:17:08.721   11 Jun 2027 06:17:12.723             4.002           366.594
       272   11 Jun 2027 06:17:43.404   11 Jun 2027 06:17:44.744             1.340           316.938
       273   11 Jun 2027 06:18:47.398   11 Jun 2027 06:18:54.066             6.668          1712.094
       274   11 Jun 2027 06:19:24.241   11 Jun 2027 06:19:26.029             1.788           180.000
       275   11 Jun 2027 07:40:05.378   11 Jun 2027 07:40:17.450            12.072          5652.594
       276   11 Jun 2027 07:40:45.490   11 Jun 2027 07:40:47.410             1.920           525.813
       277   11 Jun 2027 07:42:41.348   11 Jun 2027 07:42:48.037             6.689          3093.844
       278   11 Jun 2027 09:16:33.565   11 Jun 2027 09:16:42.314             8.749          4356.125
       279   11 Jun 2027 09:19:05.934   11 Jun 2027 09:19:19.570            13.636          4380.750
       280   11 Jun 2027 09:19:55.273   11 Jun 2027 09:19:59.181             3.908           501.969
       281   11 Jun 2027 10:51:57.669   11 Jun 2027 10:52:16.323            18.654          7302.063
       282   11 Jun 2027 10:58:06.546   11 Jun 2027 10:58:22.437            15.891          7945.500
       283   12 Jun 2027 03:12:13.184   12 Jun 2027 03:14:29.284           136.100         68050.000
       284   12 Jun 2027 03:14:59.408   12 Jun 2027 03:15:25.989            26.581         13290.500
       285   12 Jun 2027 03:15:43.216   12 Jun 2027 03:15:43.945             0.729           364.500
       286   12 Jun 2027 03:16:00.419   12 Jun 2027 03:16:29.862            29.443         14721.500
       287   12 Jun 2027 03:17:32.366   12 Jun 2027 03:17:34.518             2.152          1076.000
       288   12 Jun 2027 03:19:10.870   12 Jun 2027 03:19:10.870             0.000             0.000
       289   12 Jun 2027 03:19:17.703   12 Jun 2027 03:19:20.146             2.443          1221.500
       290   12 Jun 2027 04:51:30.619   12 Jun 2027 04:52:33.921            63.302         31651.000
       291   12 Jun 2027 04:52:53.819   12 Jun 2027 04:53:42.151            48.332         24166.000
       292   12 Jun 2027 04:54:19.159   12 Jun 2027 04:54:24.656             5.497          2606.875
       293   12 Jun 2027 04:56:11.476   12 Jun 2027 04:56:17.541             6.065          2816.344
       294   12 Jun 2027 04:57:57.405   12 Jun 2027 04:58:02.550             5.145          1821.125
       295   12 Jun 2027 04:59:03.252   12 Jun 2027 04:59:07.057             3.805          1679.531
       296   12 Jun 2027 06:17:40.786   12 Jun 2027 06:17:53.611            12.825          6351.656
       297   12 Jun 2027 06:28:34.126   12 Jun 2027 06:28:41.634             7.508          3204.563
       298   12 Jun 2027 06:28:44.775   12 Jun 2027 06:28:45.595             0.820            98.156
       299   12 Jun 2027 06:29:38.700   12 Jun 2027 06:29:42.849             4.149          1477.094
       300   12 Jun 2027 06:30:13.883   12 Jun 2027 06:30:17.503             3.620           845.281
       301   12 Jun 2027 06:30:42.612   12 Jun 2027 06:30:43.522             0.910            77.375
       302   12 Jun 2027 07:52:32.150   12 Jun 2027 07:52:46.035            13.885          6175.031
       303   12 Jun 2027 07:53:31.522   12 Jun 2027 07:53:34.819             3.297          1125.313
       304   12 Jun 2027 07:55:21.046   12 Jun 2027 07:55:22.519             1.473           736.500
       305   12 Jun 2027 09:28:16.937   12 Jun 2027 09:28:27.421            10.484          4615.250
       306   12 Jun 2027 09:28:35.188   12 Jun 2027 09:28:36.676             1.488           242.719
       307   12 Jun 2027 09:31:03.996   12 Jun 2027 09:31:17.526            13.530          4603.750
       308   12 Jun 2027 11:03:40.285   12 Jun 2027 11:03:55.269            14.984          7374.781
       309   12 Jun 2027 11:04:17.707   12 Jun 2027 11:04:19.196             1.489           701.188
       310   12 Jun 2027 11:04:39.848   12 Jun 2027 11:04:41.821             1.973           321.500
       311   12 Jun 2027 11:05:15.818   12 Jun 2027 11:05:18.340             2.522           952.031
       312   12 Jun 2027 11:05:34.418   12 Jun 2027 11:05:34.819             0.401            42.937
       313   12 Jun 2027 11:09:56.283   12 Jun 2027 11:10:12.146            15.863          7926.250
       314   13 Jun 2027 03:24:53.359   13 Jun 2027 03:28:04.762           191.403         95701.500
       315   13 Jun 2027 03:28:08.656   13 Jun 2027 03:28:14.693             6.037          3018.500
       316   13 Jun 2027 03:28:32.328   13 Jun 2027 03:28:38.328             6.000          3000.000
       317   13 Jun 2027 03:29:11.312   13 Jun 2027 03:29:14.489             3.177          1588.500
       318   13 Jun 2027 03:29:28.812   13 Jun 2027 03:29:41.921            13.109          6554.500
       319   13 Jun 2027 03:30:07.426   13 Jun 2027 03:30:11.299             3.873          1936.500
       320   13 Jun 2027 03:30:31.205   13 Jun 2027 03:30:31.924             0.719           359.500
       321   13 Jun 2027 03:31:08.436   13 Jun 2027 03:31:08.904             0.468           234.000
       322   13 Jun 2027 05:03:53.579   13 Jun 2027 05:04:47.939            54.360         27180.000
       323   13 Jun 2027 05:05:01.316   13 Jun 2027 05:05:20.678            19.362          9681.000
       324   13 Jun 2027 05:06:05.117   13 Jun 2027 05:06:08.540             3.423          1711.500
       325   13 Jun 2027 05:06:13.558   13 Jun 2027 05:06:26.073            12.515          3925.031
       326   13 Jun 2027 05:07:40.996   13 Jun 2027 05:07:43.125             2.129           895.406
       327   13 Jun 2027 05:08:37.791   13 Jun 2027 05:08:45.679             7.888          1679.344
       328   13 Jun 2027 05:09:17.569   13 Jun 2027 05:09:17.871             0.302           151.000
       329   13 Jun 2027 05:09:28.198   13 Jun 2027 05:09:31.035             2.837          1168.281
       330   13 Jun 2027 05:09:54.458   13 Jun 2027 05:09:57.713             3.255           563.406
       331   13 Jun 2027 05:09:59.586   13 Jun 2027 05:10:02.416             2.830            45.094
       332   13 Jun 2027 06:28:55.916   13 Jun 2027 06:29:12.665            16.749          6331.469
       333   13 Jun 2027 06:29:45.146   13 Jun 2027 06:29:47.071             1.925           472.188
       334   13 Jun 2027 06:40:35.390   13 Jun 2027 06:40:36.615             1.225           612.500
       335   13 Jun 2027 06:40:47.792   13 Jun 2027 06:40:52.663             4.871          2312.969
       336   13 Jun 2027 06:41:39.101   13 Jun 2027 06:41:42.452             3.351           838.688
       337   13 Jun 2027 08:03:07.489   13 Jun 2027 08:03:20.794            13.305          5943.375
       338   13 Jun 2027 08:03:27.784   13 Jun 2027 08:03:27.784             0.000             0.000
       339   13 Jun 2027 08:05:21.042   13 Jun 2027 08:05:30.052             9.010          3612.781
       340   13 Jun 2027 08:06:41.099   13 Jun 2027 08:06:46.602             5.503          2087.125
       341   13 Jun 2027 08:07:46.130   13 Jun 2027 08:07:49.807             3.677          1442.531
       342   13 Jun 2027 09:38:10.397   13 Jun 2027 09:38:15.264             4.867          2433.500
       343   13 Jun 2027 09:42:50.503   13 Jun 2027 09:42:58.543             8.040          4020.000
       344   13 Jun 2027 09:44:28.518   13 Jun 2027 09:44:46.263            17.745          8649.344
       345   13 Jun 2027 11:15:09.165   13 Jun 2027 11:15:14.528             5.363          2681.500
       346   13 Jun 2027 11:18:07.144   13 Jun 2027 11:18:07.144             0.000             0.000
       347   13 Jun 2027 11:18:17.325   13 Jun 2027 11:18:23.679             6.354          3177.000
       348   13 Jun 2027 11:21:42.180   13 Jun 2027 11:22:04.144            21.964         10485.156
       349   13 Jun 2027 11:22:12.939   13 Jun 2027 11:22:12.939             0.000             0.000
       350   13 Jun 2027 11:22:15.719   13 Jun 2027 11:22:22.598             6.879           278.531
