uniorb/output/strategy_2/Drop/Drop_KinoSat_111001.txt

KinoSat_111001
-------------------------
    Access    *     Start Time (UTCG)     *     Stop Time (UTCG)  *   Duration (s)        *       Station  *  Data (Mbytes)
         1   01 Jun 2027 04:06:45.248   01 Jun 2027 04:09:25.399           160.151                Anadyr1          5004.719
         2   01 Jun 2027 04:09:32.933   01 Jun 2027 04:09:38.208             5.275               Magadan1           164.844
         3   01 Jun 2027 04:11:30.003   01 Jun 2027 04:11:37.005             7.002               Magadan2           218.813
         4   01 Jun 2027 05:45:15.502   01 Jun 2027 05:46:06.713            51.211                Irkutsk          1600.344
         5   01 Jun 2027 05:46:09.922   01 Jun 2027 05:48:09.352           119.430               Magadan2          3732.187
         6   01 Jun 2027 07:19:58.641   01 Jun 2027 07:20:28.016            29.375               Magadan2           917.969
         7   01 Jun 2027 07:20:28.016   01 Jun 2027 07:23:04.474           156.458               Magadan1          4889.313
         8   01 Jun 2027 07:23:17.047   01 Jun 2027 07:23:24.192             7.145               Magadan1           223.281
         9   01 Jun 2027 07:24:27.515   01 Jun 2027 07:24:39.211            11.696                Novosib           365.500
        10   01 Jun 2027 07:26:57.467   01 Jun 2027 07:27:32.825            35.358              Murmansk1          1104.938
        11   01 Jun 2027 07:27:40.229   01 Jun 2027 07:28:24.098            43.869                Norilsk          1370.906
        12   01 Jun 2027 07:31:35.363   01 Jun 2027 07:32:00.126            24.763              Murmansk1           773.844
        13   01 Jun 2027 07:32:33.763   01 Jun 2027 07:32:46.441            12.678              Murmansk1           396.188
        14   01 Jun 2027 07:58:35.837   01 Jun 2027 07:59:24.122            48.285            RioGallegos          1508.906
        15   01 Jun 2027 08:05:48.570   01 Jun 2027 08:05:57.680             9.110            RioGallegos           284.687
        16   01 Jun 2027 08:34:27.289   01 Jun 2027 08:35:39.477            72.188                Sumatra          2255.875
        17   01 Jun 2027 08:38:42.444   01 Jun 2027 08:40:03.595            81.151                Sumatra          2535.969
        18   01 Jun 2027 08:56:10.248   01 Jun 2027 08:56:25.361            15.113                Irkutsk           472.281
        19   01 Jun 2027 08:56:35.050   01 Jun 2027 08:56:53.882            18.832                Novosib           588.500
        20   01 Jun 2027 08:57:05.113   01 Jun 2027 09:01:33.760           268.647                Norilsk          8395.219
        21   01 Jun 2027 09:02:40.417   01 Jun 2027 09:02:56.144            15.727                Norilsk           491.469
        22   01 Jun 2027 09:03:56.480   01 Jun 2027 09:04:49.293            52.813                Norilsk          1650.406
        23   01 Jun 2027 09:36:26.817   01 Jun 2027 09:37:19.835            53.018            RioGallegos          1656.813
        24   01 Jun 2027 09:40:37.719   01 Jun 2027 09:40:43.018             5.299            RioGallegos           165.594
        25   01 Jun 2027 09:41:19.577   01 Jun 2027 09:41:37.871            18.294            RioGallegos           571.687
        26   01 Jun 2027 09:45:03.605   01 Jun 2027 09:45:24.340            20.735            RioGallegos           647.969
        27   01 Jun 2027 10:09:59.288   01 Jun 2027 10:11:14.777            75.489                Sumatra          2359.031
        28   01 Jun 2027 10:25:00.103   01 Jun 2027 10:25:24.437            24.334                  Delhi           760.437
        29   01 Jun 2027 10:32:40.611   01 Jun 2027 10:34:47.256           126.645                Irkutsk          3957.656
        30   01 Jun 2027 10:36:21.974   01 Jun 2027 10:36:46.718            24.744                 Moscow           773.250
        31   01 Jun 2027 10:37:16.113   01 Jun 2027 10:37:30.385            14.272                 Moscow           446.000
        32   01 Jun 2027 11:54:58.514   01 Jun 2027 11:55:50.735            52.221                  Delhi          1631.906
        33   01 Jun 2027 11:57:51.734   01 Jun 2027 11:59:49.358           117.624                  Delhi          3675.750
        34   01 Jun 2027 12:05:49.457   01 Jun 2027 12:06:10.023            20.566                Novosib           642.688
        35   01 Jun 2027 12:07:31.460   01 Jun 2027 12:08:00.426            28.966                Novosib           905.188
        36   01 Jun 2027 12:09:39.524   01 Jun 2027 12:10:11.515            31.991                Novosib           999.719
        37   01 Jun 2027 12:11:15.184   01 Jun 2027 12:11:44.956            29.772                Norilsk           930.375
        38   01 Jun 2027 12:15:06.106   01 Jun 2027 12:15:09.813             3.707                Norilsk           115.844
        39   01 Jun 2027 12:17:25.250   01 Jun 2027 12:17:50.414            25.164              Murmansk1           786.375
        40   01 Jun 2027 13:45:03.069   01 Jun 2027 13:45:27.429            24.360                 Moscow           761.250
        41   01 Jun 2027 13:45:48.988   01 Jun 2027 13:46:17.587            28.599                 Moscow           893.719
        42   01 Jun 2027 13:46:54.627   01 Jun 2027 13:47:46.349            51.722                 Moscow          1616.312
        43   01 Jun 2027 13:48:02.928   01 Jun 2027 13:48:29.590            26.662                 Moscow           833.188
        44   01 Jun 2027 13:48:48.403   01 Jun 2027 13:50:39.076           110.673                Norilsk          3458.531
        45   01 Jun 2027 13:50:41.307   01 Jun 2027 13:51:06.109            24.802                Norilsk           775.063
        46   01 Jun 2027 13:53:33.316   01 Jun 2027 13:54:23.287            49.971              Murmansk1          1561.594
        47   01 Jun 2027 13:58:51.116   01 Jun 2027 13:59:48.434            57.318                Anadyr1          1791.187
        48   01 Jun 2027 14:00:18.472   01 Jun 2027 14:00:48.313            29.841                Anadyr1           932.531
        49   01 Jun 2027 14:02:15.400   01 Jun 2027 14:02:45.615            30.215                Anadyr2           944.219
        50   01 Jun 2027 15:01:09.421   01 Jun 2027 15:01:38.565            29.144               CapeTown           910.750
        51   01 Jun 2027 15:24:37.857   01 Jun 2027 15:24:53.364            15.507              Murmansk1           484.594
        52   01 Jun 2027 15:25:06.568   01 Jun 2027 15:25:23.387            16.819                 Moscow           525.594
        53   01 Jun 2027 15:26:25.406   01 Jun 2027 15:26:41.397            15.991              Murmansk1           499.719
        54   01 Jun 2027 15:27:04.407   01 Jun 2027 15:28:22.896            78.489              Murmansk2          2452.781
        55   01 Jun 2027 15:29:10.052   01 Jun 2027 15:29:38.452            28.400              Murmansk1           887.500
        56   01 Jun 2027 15:36:07.918   01 Jun 2027 15:37:01.591            53.673                Anadyr1          1677.281
        57   01 Jun 2027 15:38:33.010   01 Jun 2027 15:39:02.933            29.923                Anadyr2           935.094
        58   01 Jun 2027 15:40:10.415   01 Jun 2027 15:41:02.124            51.709                Anadyr1          1615.906
        59   01 Jun 2027 15:43:12.140   01 Jun 2027 15:43:27.432            15.292                Anadyr1           477.875
        60   01 Jun 2027 17:00:37.079   01 Jun 2027 17:02:00.412            83.333              Murmansk1          2604.156
        61   01 Jun 2027 17:02:00.412   01 Jun 2027 17:02:40.390            39.978              Murmansk2          1249.312
        62   01 Jun 2027 17:03:05.853   01 Jun 2027 17:04:15.238            69.385              Murmansk1          2168.281
        63   01 Jun 2027 17:14:27.083   01 Jun 2027 17:14:47.992            20.909                Anadyr2           653.406
        64   01 Jun 2027 17:15:07.139   01 Jun 2027 17:16:05.224            58.085               Magadan2          1815.156
        65   01 Jun 2027 17:17:14.782   01 Jun 2027 17:18:24.846            70.064               Magadan1          2189.500
        66   01 Jun 2027 17:20:32.602   01 Jun 2027 17:21:20.155            47.553               Magadan2          1486.031
        67   01 Jun 2027 18:46:13.459   01 Jun 2027 18:47:12.767            59.308               Magadan1          1853.375
        68   01 Jun 2027 18:49:29.771   01 Jun 2027 18:50:12.478            42.707               Magadan1          1334.594
        69   01 Jun 2027 18:50:38.592   01 Jun 2027 18:50:59.989            21.397               Magadan2           668.656
        70   01 Jun 2027 18:51:29.468   01 Jun 2027 18:51:46.416            16.948               Magadan1           529.625
        71   01 Jun 2027 18:52:38.092   01 Jun 2027 18:53:10.576            32.484                Anadyr1          1015.125
        72   01 Jun 2027 18:53:29.978   01 Jun 2027 18:53:31.827             1.849                Anadyr1            57.781
        73   01 Jun 2027 18:53:52.361   01 Jun 2027 18:54:19.101            26.740               Magadan2           835.625
        74   01 Jun 2027 18:54:31.067   01 Jun 2027 18:54:54.474            23.407               Magadan2           731.469
        75   01 Jun 2027 18:55:48.858   01 Jun 2027 18:56:10.581            21.723                Anadyr2           678.844
        76   01 Jun 2027 18:56:34.947   01 Jun 2027 18:57:18.768            43.821               Magadan2          1369.406
        77   01 Jun 2027 18:57:24.820   01 Jun 2027 18:57:47.588            22.768               Magadan2           711.500
        78   01 Jun 2027 18:58:33.417   01 Jun 2027 18:59:07.689            34.272               Magadan1          1071.000
        79   01 Jun 2027 19:41:40.112   01 Jun 2027 19:41:44.366             4.254            RioGallegos           132.938
        80   01 Jun 2027 19:42:11.492   01 Jun 2027 19:44:41.101           149.609            RioGallegos          4675.281
        81   01 Jun 2027 19:47:55.679   01 Jun 2027 19:48:06.776            11.097            RioGallegos           346.781
        82   01 Jun 2027 20:25:40.226   01 Jun 2027 20:26:47.286            67.060                Norilsk          2095.625
        83   01 Jun 2027 20:27:11.561   01 Jun 2027 20:28:00.018            48.457                Irkutsk          1514.281
        84   01 Jun 2027 20:29:34.819   01 Jun 2027 20:29:52.931            18.112                Irkutsk           566.000
        85   01 Jun 2027 20:30:24.419   01 Jun 2027 20:31:10.131            45.712                Norilsk          1428.500
        86   01 Jun 2027 20:31:44.561   01 Jun 2027 20:32:18.993            34.432                Irkutsk          1076.000
        87   01 Jun 2027 20:33:05.448   01 Jun 2027 20:33:44.950            39.502                Irkutsk          1234.437
        88   01 Jun 2027 20:35:35.856   01 Jun 2027 20:35:40.492             4.636                Irkutsk           144.875
        89   01 Jun 2027 20:35:56.529   01 Jun 2027 20:36:16.661            20.132                Irkutsk           629.125
        90   01 Jun 2027 20:36:53.805   01 Jun 2027 20:37:09.150            15.345                Irkutsk           479.531
        91   01 Jun 2027 20:46:31.805   01 Jun 2027 20:46:54.963            23.158                Sumatra           723.688
        92   01 Jun 2027 20:49:32.407   01 Jun 2027 20:51:46.911           134.504                Sumatra          4203.250
        93   01 Jun 2027 22:01:37.107   01 Jun 2027 22:01:43.593             6.486               Magadan2           202.688
        94   01 Jun 2027 22:01:45.806   01 Jun 2027 22:02:12.316            26.510                Anadyr2           828.437
        95   01 Jun 2027 22:02:46.079   01 Jun 2027 22:03:12.833            26.754                Novosib           836.063
        96   01 Jun 2027 22:04:32.916   01 Jun 2027 22:05:12.053            39.137               Magadan1          1223.031
        97   01 Jun 2027 22:06:41.275   01 Jun 2027 22:07:30.921            49.646                Novosib          1551.437
        98   01 Jun 2027 22:08:14.163   01 Jun 2027 22:08:22.988             8.825                Novosib           275.781
        99   01 Jun 2027 22:09:01.058   01 Jun 2027 22:11:09.768           128.710                Novosib          4022.188
       100   01 Jun 2027 22:16:58.236   01 Jun 2027 22:18:01.087            62.851                  Delhi          1964.094
       101   01 Jun 2027 23:28:58.039   01 Jun 2027 23:29:58.922            60.883                Anadyr1          1902.594
       102   01 Jun 2027 23:33:16.463   01 Jun 2027 23:34:09.543            53.080                Anadyr2          1658.750
       103   01 Jun 2027 23:34:15.010   01 Jun 2027 23:34:38.886            23.876               Magadan2           746.125
       104   01 Jun 2027 23:34:53.911   01 Jun 2027 23:35:09.884            15.973               Magadan1           499.156
       105   01 Jun 2027 23:35:29.375   01 Jun 2027 23:35:31.316             1.941                Norilsk            60.656
       106   01 Jun 2027 23:36:00.000   01 Jun 2027 23:36:12.315            12.316               Magadan2           384.875
       107   01 Jun 2027 23:36:14.024   01 Jun 2027 23:39:18.223           184.199              Murmansk1          5756.219
       108   01 Jun 2027 23:41:48.792   01 Jun 2027 23:42:02.105            13.313              Murmansk2           416.031
       109   01 Jun 2027 23:42:33.213   01 Jun 2027 23:43:09.292            36.079                 Moscow          1127.469
       110   01 Jun 2027 23:44:00.090   01 Jun 2027 23:45:09.672            69.582                 Moscow          2174.437
       111   01 Jun 2027 23:57:05.159   01 Jun 2027 23:57:16.907            11.748                  Delhi           367.125
       112   02 Jun 2027 01:01:41.017   02 Jun 2027 01:02:41.415            60.398                Anadyr1          1887.438
       113   02 Jun 2027 01:03:13.989   02 Jun 2027 01:03:54.568            40.579                Anadyr1          1268.094
       114   02 Jun 2027 01:04:53.011   02 Jun 2027 01:04:53.171             0.160                Anadyr2             5.000
       115   02 Jun 2027 01:05:46.363   02 Jun 2027 01:06:27.760            41.397                Anadyr2          1293.656
       116   02 Jun 2027 01:07:12.848   02 Jun 2027 01:08:22.171            69.323               Magadan1          2166.344
       117   02 Jun 2027 01:09:03.268   02 Jun 2027 01:09:15.173            11.905               Magadan1           372.031
       118   02 Jun 2027 01:09:34.958   02 Jun 2027 01:10:20.650            45.692               Magadan1          1427.875
       119   02 Jun 2027 01:11:50.982   02 Jun 2027 01:12:36.488            45.506              Murmansk1          1422.063
       120   02 Jun 2027 01:15:11.384   02 Jun 2027 01:16:48.571            97.187                Novosib          3037.094
       121   02 Jun 2027 01:22:10.654   02 Jun 2027 01:22:40.091            29.437              Murmansk1           919.906
       122   02 Jun 2027 01:22:50.143   02 Jun 2027 01:22:57.323             7.180                 Moscow           224.375
       123   02 Jun 2027 01:26:27.243   02 Jun 2027 01:26:55.182            27.939                 Moscow           873.094
       124   02 Jun 2027 01:44:41.946   02 Jun 2027 01:45:30.933            48.987               CapeTown          1530.844
       125   02 Jun 2027 01:48:16.846   02 Jun 2027 01:49:25.477            68.631               CapeTown          2144.719
       126   02 Jun 2027 02:35:55.370   02 Jun 2027 02:37:09.857            74.487                Anadyr2          2327.719
       127   02 Jun 2027 02:38:22.314   02 Jun 2027 02:38:34.224            11.910                Anadyr2           372.188
       128   02 Jun 2027 02:38:54.262   02 Jun 2027 02:39:04.981            10.719               Magadan1           334.969
       129   02 Jun 2027 02:39:57.986   02 Jun 2027 02:40:17.305            19.319               Magadan2           603.719
       130   02 Jun 2027 02:41:19.545   02 Jun 2027 02:41:43.746            24.201               Magadan1           756.281
       131   02 Jun 2027 02:42:28.900   02 Jun 2027 02:42:32.258             3.358               Magadan1           104.938
       132   02 Jun 2027 02:43:34.554   02 Jun 2027 02:44:08.598            34.044               Magadan2          1063.875
       133   02 Jun 2027 02:45:16.728   02 Jun 2027 02:45:41.764            25.036                Norilsk           782.375
       134   02 Jun 2027 02:47:48.639   02 Jun 2027 02:48:24.903            36.264              Murmansk1          1133.250
       135   02 Jun 2027 02:48:51.780   02 Jun 2027 02:49:23.143            31.363              Murmansk2           980.094
       136   02 Jun 2027 02:51:45.988   02 Jun 2027 02:52:22.705            36.717              Murmansk1          1147.406
       137   02 Jun 2027 02:53:57.592   02 Jun 2027 02:54:43.865            46.273                Novosib          1446.031
       138   02 Jun 2027 02:59:56.614   02 Jun 2027 03:00:00.625             4.011                 Moscow           125.344
       139   02 Jun 2027 03:16:30.347   02 Jun 2027 03:16:50.801            20.454               CapeTown           639.187
       140   02 Jun 2027 04:19:24.581   02 Jun 2027 04:21:26.751           122.170               Magadan1          3817.812
       141   02 Jun 2027 05:56:16.010   02 Jun 2027 05:57:01.671            45.661               Magadan1          1426.906
       142   02 Jun 2027 05:57:01.671   02 Jun 2027 05:58:08.955            67.284               Magadan2          2102.625
       143   02 Jun 2027 07:32:03.739   02 Jun 2027 07:32:56.095            52.356               Magadan2          1636.125
       144   02 Jun 2027 07:32:56.095   02 Jun 2027 07:34:07.015            70.920               Magadan1          2216.250
       145   02 Jun 2027 07:34:26.467   02 Jun 2027 07:35:46.834            80.367                Irkutsk          2511.469
       146   02 Jun 2027 09:07:13.197   02 Jun 2027 09:07:49.248            36.051                Novosib          1126.594
       147   02 Jun 2027 09:07:55.736   02 Jun 2027 09:07:59.288             3.552                Norilsk           111.000
       148   02 Jun 2027 09:07:59.338   02 Jun 2027 09:08:45.434            46.096                Irkutsk          1440.500
       149   02 Jun 2027 09:08:48.160   02 Jun 2027 09:09:02.362            14.202              Murmansk1           443.813
       150   02 Jun 2027 09:09:21.194   02 Jun 2027 09:10:30.240            69.046                Novosib          2157.688
       151   02 Jun 2027 09:10:31.376   02 Jun 2027 09:11:36.658            65.282                Irkutsk          2040.063
       152   02 Jun 2027 09:11:54.963   02 Jun 2027 09:12:33.474            38.511                Novosib          1203.469
       153   02 Jun 2027 09:48:16.415   02 Jun 2027 09:48:37.816            21.401            RioGallegos           668.781
       154   02 Jun 2027 09:49:52.088   02 Jun 2027 09:50:23.510            31.422            RioGallegos           981.937
       155   02 Jun 2027 10:22:28.230   02 Jun 2027 10:23:14.730            46.500                Sumatra          1453.125
       156   02 Jun 2027 10:25:08.566   02 Jun 2027 10:25:57.711            49.145                Sumatra          1535.781
       157   02 Jun 2027 10:43:17.556   02 Jun 2027 10:44:01.971            44.415                Irkutsk          1387.969
       158   02 Jun 2027 10:44:05.873   02 Jun 2027 10:45:00.179            54.306                 Moscow          1697.063
       159   02 Jun 2027 10:45:03.030   02 Jun 2027 10:45:25.169            22.139                Norilsk           691.844
       160   02 Jun 2027 10:45:25.384   02 Jun 2027 10:46:27.286            61.902                Novosib          1934.437
       161   02 Jun 2027 10:46:39.198   02 Jun 2027 10:47:01.254            22.056                Novosib           689.250
       162   02 Jun 2027 10:47:04.165   02 Jun 2027 10:47:32.020            27.855                Norilsk           870.469
       163   02 Jun 2027 10:47:35.771   02 Jun 2027 10:48:26.584            50.813              Murmansk1          1587.906
       164   02 Jun 2027 12:07:43.466   02 Jun 2027 12:09:39.773           116.307                  Delhi          3634.594
       165   02 Jun 2027 12:15:22.698   02 Jun 2027 12:15:51.206            28.508                 Moscow           890.875
       166   02 Jun 2027 12:16:15.398   02 Jun 2027 12:16:49.346            33.948                Novosib          1060.875
       167   02 Jun 2027 12:17:33.633   02 Jun 2027 12:19:20.694           107.061              Murmansk2          3345.656
       168   02 Jun 2027 12:19:31.883   02 Jun 2027 12:19:58.448            26.565                Norilsk           830.156
       169   02 Jun 2027 12:25:12.067   02 Jun 2027 12:25:28.552            16.485              Murmansk1           515.156
       170   02 Jun 2027 12:28:56.536   02 Jun 2027 12:29:18.620            22.084              Murmansk1           690.125
       171   02 Jun 2027 13:31:40.447   02 Jun 2027 13:32:59.331            78.884               CapeTown          2465.125
       172   02 Jun 2027 13:34:33.504   02 Jun 2027 13:35:14.659            41.155               CapeTown          1286.094
       173   02 Jun 2027 13:50:23.469   02 Jun 2027 13:51:50.448            86.979                 Moscow          2718.094
       174   02 Jun 2027 13:53:52.448   02 Jun 2027 13:56:49.162           176.714              Murmansk2          5522.313
       175   02 Jun 2027 13:58:34.862   02 Jun 2027 13:58:45.619            10.757              Murmansk1           336.156
       176   02 Jun 2027 14:09:13.810   02 Jun 2027 14:12:40.286           206.476                Anadyr1          6452.375
       177   02 Jun 2027 14:14:16.329   02 Jun 2027 14:14:29.000            12.671                Anadyr2           395.969
       178   02 Jun 2027 15:11:27.756   02 Jun 2027 15:11:55.081            27.325               CapeTown           853.906
       179   02 Jun 2027 15:32:09.650   02 Jun 2027 15:33:19.016            69.366              Murmansk2          2167.687
       180   02 Jun 2027 15:36:36.283   02 Jun 2027 15:36:38.463             2.180              Murmansk2            68.125
       181   02 Jun 2027 15:36:38.463   02 Jun 2027 15:36:54.169            15.706              Murmansk1           490.813
       182   02 Jun 2027 15:44:12.774   02 Jun 2027 15:46:19.283           126.509                Anadyr2          3953.406
       183   02 Jun 2027 15:48:55.806   02 Jun 2027 15:49:05.356             9.550                Anadyr2           298.437
       184   02 Jun 2027 15:50:23.077   02 Jun 2027 15:50:47.864            24.787                Anadyr2           774.594
       185   02 Jun 2027 15:55:21.210   02 Jun 2027 15:55:50.404            29.194                Anadyr1           912.313
       186   02 Jun 2027 16:42:04.980   02 Jun 2027 16:42:27.111            22.131               CapeTown           691.594
       187   02 Jun 2027 17:13:46.033   02 Jun 2027 17:16:14.387           148.354              Murmansk1          4636.062
       188   02 Jun 2027 17:16:42.601   02 Jun 2027 17:16:57.840            15.239              Murmansk2           476.219
       189   02 Jun 2027 17:20:02.630   02 Jun 2027 17:22:41.379           158.749                Anadyr2          4960.906
       190   02 Jun 2027 17:22:57.684   02 Jun 2027 17:24:45.841           108.157               Magadan1          3379.906
       191   02 Jun 2027 17:28:39.736   02 Jun 2027 17:28:43.251             3.515               Magadan2           109.844
       192   02 Jun 2027 17:28:52.131   02 Jun 2027 17:30:24.631            92.500               Magadan2          2890.625
       193   02 Jun 2027 18:55:57.501   02 Jun 2027 18:58:14.646           137.145                Anadyr2          4285.781
       194   02 Jun 2027 18:58:26.666   02 Jun 2027 18:59:31.397            64.731               Magadan2          2022.844
       195   02 Jun 2027 18:59:31.397   02 Jun 2027 19:00:09.785            38.388               Magadan1          1199.625
       196   02 Jun 2027 19:00:16.110   02 Jun 2027 19:01:36.711            80.601                Norilsk          2518.781
       197   02 Jun 2027 19:50:34.506   02 Jun 2027 19:54:03.984           209.478            RioGallegos          6546.187
       198   02 Jun 2027 19:59:51.034   02 Jun 2027 19:59:58.989             7.955            RioGallegos           248.594
       199   02 Jun 2027 20:31:36.133   02 Jun 2027 20:32:03.394            27.261                Anadyr2           851.906
       200   02 Jun 2027 20:34:16.183   02 Jun 2027 20:34:57.039            40.856               Magadan1          1276.750
       201   02 Jun 2027 20:34:57.039   02 Jun 2027 20:36:06.882            69.843               Magadan2          2182.594
       202   02 Jun 2027 20:37:21.333   02 Jun 2027 20:37:26.437             5.104               Magadan2           159.500
       203   02 Jun 2027 20:38:04.482   02 Jun 2027 20:39:40.281            95.799                Irkutsk          2993.719
       204   02 Jun 2027 20:40:41.172   02 Jun 2027 20:42:52.747           131.575                Novosib          4111.719
       205   02 Jun 2027 20:51:54.480   02 Jun 2027 20:52:24.358            29.878                Sumatra           933.688
       206   02 Jun 2027 20:52:53.186   02 Jun 2027 20:54:16.303            83.117                Sumatra          2597.406
       207   02 Jun 2027 20:56:04.422   02 Jun 2027 20:56:30.658            26.236                Sumatra           819.875
       208   02 Jun 2027 22:09:44.767   02 Jun 2027 22:10:13.735            28.968                Norilsk           905.250
       209   02 Jun 2027 22:10:22.144   02 Jun 2027 22:11:48.200            86.056               Magadan2          2689.250
       210   02 Jun 2027 22:13:24.867   02 Jun 2027 22:13:37.552            12.685                Norilsk           396.406
       211   02 Jun 2027 22:13:48.733   02 Jun 2027 22:15:19.469            90.736                Novosib          2835.500
       212   02 Jun 2027 22:21:46.222   02 Jun 2027 22:25:04.947           198.725                  Delhi          6210.156
       213   02 Jun 2027 23:40:58.917   02 Jun 2027 23:41:58.008            59.091                Anadyr1          1846.594
       214   02 Jun 2027 23:45:44.270   02 Jun 2027 23:45:47.370             3.100                Norilsk            96.875
       215   02 Jun 2027 23:45:57.890   02 Jun 2027 23:46:29.690            31.800               Magadan1           993.750
       216   02 Jun 2027 23:46:29.690   02 Jun 2027 23:46:57.768            28.078               Magadan2           877.438
       217   02 Jun 2027 23:47:28.122   02 Jun 2027 23:47:53.941            25.819               Magadan2           806.844
       218   02 Jun 2027 23:48:09.775   02 Jun 2027 23:50:45.240           155.465              Murmansk1          4858.281
       219   02 Jun 2027 23:50:51.501   02 Jun 2027 23:51:51.987            60.486              Murmansk2          1890.188
       220   02 Jun 2027 23:52:36.478   02 Jun 2027 23:54:02.461            85.983              Murmansk2          2686.969
       221   02 Jun 2027 23:55:09.913   02 Jun 2027 23:56:15.616            65.703                 Moscow          2053.219
       222   03 Jun 2027 01:13:25.328   03 Jun 2027 01:13:31.170             5.842                Anadyr1           182.563
       223   03 Jun 2027 01:13:57.362   03 Jun 2027 01:14:28.408            31.046                Anadyr2           970.188
       224   03 Jun 2027 01:15:13.305   03 Jun 2027 01:15:45.295            31.990                Anadyr1           999.688
       225   03 Jun 2027 01:16:08.022   03 Jun 2027 01:16:19.041            11.019                Anadyr1           344.344
       226   03 Jun 2027 01:16:44.209   03 Jun 2027 01:16:54.193             9.984                Anadyr1           312.000
       227   03 Jun 2027 01:18:41.197   03 Jun 2027 01:20:21.766           100.569               Magadan2          3142.781
       228   03 Jun 2027 01:20:21.766   03 Jun 2027 01:20:44.615            22.849               Magadan1           714.031
       229   03 Jun 2027 01:22:26.749   03 Jun 2027 01:22:38.189            11.440               Magadan2           357.500
       230   03 Jun 2027 01:23:52.216   03 Jun 2027 01:24:30.705            38.489              Murmansk2          1202.781
       231   03 Jun 2027 01:24:35.084   03 Jun 2027 01:25:45.156            70.072              Murmansk1          2189.750
       232   03 Jun 2027 01:25:50.865   03 Jun 2027 01:25:55.079             4.214                Novosib           131.688
       233   03 Jun 2027 01:26:29.049   03 Jun 2027 01:26:32.494             3.445                Novosib           107.656
       234   03 Jun 2027 01:27:16.630   03 Jun 2027 01:28:46.044            89.414                 Moscow          2794.188
       235   03 Jun 2027 01:51:46.619   03 Jun 2027 01:52:41.162            54.543               CapeTown          1704.469
       236   03 Jun 2027 01:58:17.382   03 Jun 2027 01:58:52.159            34.777               CapeTown          1086.781
       237   03 Jun 2027 02:47:50.657   03 Jun 2027 02:50:14.650           143.993                Anadyr1          4499.781
       238   03 Jun 2027 02:50:28.324   03 Jun 2027 02:50:37.560             9.236               Magadan2           288.625
       239   03 Jun 2027 02:50:50.313   03 Jun 2027 02:51:30.814            40.501               Magadan1          1265.656
       240   03 Jun 2027 02:56:56.782   03 Jun 2027 02:57:09.228            12.446                Norilsk           388.938
       241   03 Jun 2027 02:58:06.799   03 Jun 2027 02:58:43.869            37.070               Magadan2          1158.437
       242   03 Jun 2027 02:59:50.322   03 Jun 2027 02:59:56.775             6.453              Murmansk2           201.656
       243   03 Jun 2027 03:08:44.203   03 Jun 2027 03:09:15.257            31.054              Murmansk2           970.438
       244   03 Jun 2027 03:09:31.972   03 Jun 2027 03:09:41.703             9.731              Murmansk2           304.094
       245   03 Jun 2027 03:10:04.922   03 Jun 2027 03:10:32.151            27.229              Murmansk1           850.906
       246   03 Jun 2027 04:23:50.208   03 Jun 2027 04:25:17.212            87.004               Magadan1          2718.875
       247   03 Jun 2027 04:25:17.212   03 Jun 2027 04:26:10.573            53.361               Magadan2          1667.531
       248   03 Jun 2027 04:30:39.992   03 Jun 2027 04:31:26.067            46.075               Magadan2          1439.844
       249   03 Jun 2027 04:31:59.584   03 Jun 2027 04:32:10.348            10.764               Magadan2           336.375
       250   03 Jun 2027 04:32:17.304   03 Jun 2027 04:32:21.691             4.387               Magadan2           137.094
       251   03 Jun 2027 04:32:40.538   03 Jun 2027 04:36:33.485           232.947                Anadyr2          7279.594
       252   03 Jun 2027 04:39:13.856   03 Jun 2027 04:39:19.985             6.129                Norilsk           191.531
       253   03 Jun 2027 04:40:13.550   03 Jun 2027 04:40:19.078             5.528                Norilsk           172.750
       254   03 Jun 2027 04:40:28.005   03 Jun 2027 04:40:55.457            27.452              Murmansk1           857.875
       255   03 Jun 2027 05:18:07.770   03 Jun 2027 05:18:15.791             8.021            RioGallegos           250.656
       256   03 Jun 2027 06:05:51.878   03 Jun 2027 06:07:22.267            90.389                Irkutsk          2824.656
       257   03 Jun 2027 06:08:55.362   03 Jun 2027 06:09:29.911            34.549                Anadyr1          1079.656
       258   03 Jun 2027 06:09:54.276   03 Jun 2027 06:10:21.644            27.368               Magadan1           855.250
       259   03 Jun 2027 06:10:31.377   03 Jun 2027 06:11:24.447            53.070                Anadyr1          1658.437
       260   03 Jun 2027 06:14:41.244   03 Jun 2027 06:14:58.323            17.079              Murmansk2           533.719
       261   03 Jun 2027 06:48:09.272   03 Jun 2027 06:49:18.754            69.482            RioGallegos          2171.312
       262   03 Jun 2027 07:40:44.977   03 Jun 2027 07:41:09.423            24.446               Magadan2           763.937
       263   03 Jun 2027 07:41:09.423   03 Jun 2027 07:41:14.419             4.996               Magadan1           156.125
       264   03 Jun 2027 07:42:05.069   03 Jun 2027 07:42:20.719            15.650                Irkutsk           489.062
       265   03 Jun 2027 07:43:09.728   03 Jun 2027 07:45:04.669           114.941                Irkutsk          3591.906
       266   03 Jun 2027 07:45:32.680   03 Jun 2027 07:45:36.366             3.686                Novosib           115.188
       267   03 Jun 2027 07:46:04.976   03 Jun 2027 07:46:29.879            24.903                Novosib           778.219
       268   03 Jun 2027 07:46:30.581   03 Jun 2027 07:46:42.711            12.130               Magadan2           379.062
       269   03 Jun 2027 07:46:44.127   03 Jun 2027 07:47:52.552            68.425              Murmansk2          2138.281
       270   03 Jun 2027 07:48:32.032   03 Jun 2027 07:48:48.900            16.868              Murmansk1           527.125
       271   03 Jun 2027 07:53:13.578   03 Jun 2027 07:53:27.482            13.904              Murmansk1           434.500
       272   03 Jun 2027 08:22:35.284   03 Jun 2027 08:23:16.689            41.405            RioGallegos          1293.906
       273   03 Jun 2027 08:23:40.188   03 Jun 2027 08:24:00.950            20.762            RioGallegos           648.812
       274   03 Jun 2027 08:31:33.514   03 Jun 2027 08:31:45.226            11.712            RioGallegos           366.000
       275   03 Jun 2027 08:57:47.146   03 Jun 2027 08:59:42.570           115.424                Sumatra          3607.000
       276   03 Jun 2027 09:09:54.292   03 Jun 2027 09:11:28.133            93.841                  Delhi          2932.531
       277   03 Jun 2027 09:17:26.586   03 Jun 2027 09:18:26.315            59.729                Novosib          1866.531
       278   03 Jun 2027 09:18:57.973   03 Jun 2027 09:19:07.278             9.305                Novosib           290.781
       279   03 Jun 2027 09:19:11.747   03 Jun 2027 09:19:16.717             4.970                Norilsk           155.313
       280   03 Jun 2027 09:19:44.733   03 Jun 2027 09:19:51.411             6.678                Novosib           208.688
       281   03 Jun 2027 09:20:00.290   03 Jun 2027 09:20:50.790            50.500                Irkutsk          1578.125
       282   03 Jun 2027 09:20:56.887   03 Jun 2027 09:21:11.110            14.223                Irkutsk           444.469
       283   03 Jun 2027 09:21:17.808   03 Jun 2027 09:21:45.700            27.892              Murmansk1           871.625
       284   03 Jun 2027 09:21:45.700   03 Jun 2027 09:22:22.598            36.898              Murmansk2          1153.063
       285   03 Jun 2027 09:22:25.555   03 Jun 2027 09:22:48.676            23.121              Murmansk2           722.531
       286   03 Jun 2027 09:23:07.204   03 Jun 2027 09:23:55.406            48.202                Novosib          1506.312
       287   03 Jun 2027 09:28:02.116   03 Jun 2027 09:28:43.805            41.689              Murmansk2          1302.781
       288   03 Jun 2027 10:01:42.587   03 Jun 2027 10:02:24.178            41.591            RioGallegos          1299.719
       289   03 Jun 2027 10:35:09.540   03 Jun 2027 10:35:20.346            10.806                Sumatra           337.687
       290   03 Jun 2027 10:39:48.629   03 Jun 2027 10:40:10.251            21.622                Sumatra           675.687
       291   03 Jun 2027 10:42:51.364   03 Jun 2027 10:44:41.128           109.764                  Delhi          3430.125
       292   03 Jun 2027 10:55:43.430   03 Jun 2027 10:56:05.359            21.929                 Moscow           685.281
       293   03 Jun 2027 10:56:12.233   03 Jun 2027 10:57:27.274            75.041                Novosib          2345.031
       294   03 Jun 2027 10:57:36.877   03 Jun 2027 10:58:03.777            26.900              Murmansk2           840.625
       295   03 Jun 2027 10:58:09.826   03 Jun 2027 10:59:10.509            60.683              Murmansk2          1896.344
       296   03 Jun 2027 10:59:16.747   03 Jun 2027 10:59:31.002            14.255                Norilsk           445.469
       297   03 Jun 2027 11:00:21.128   03 Jun 2027 11:00:57.004            35.876                Norilsk          1121.125
       298   03 Jun 2027 12:20:47.139   03 Jun 2027 12:24:42.027           234.888                  Delhi          7340.250
       299   03 Jun 2027 12:28:41.683   03 Jun 2027 12:29:08.949            27.266                 Moscow           852.062
       300   03 Jun 2027 12:29:32.524   03 Jun 2027 12:31:22.359           109.835              Murmansk2          3432.344
       301   03 Jun 2027 13:42:14.497   03 Jun 2027 13:44:33.584           139.087               CapeTown          4346.469
       302   03 Jun 2027 13:47:52.561   03 Jun 2027 13:49:07.638            75.077               CapeTown          2346.156
       303   03 Jun 2027 14:03:07.049   03 Jun 2027 14:03:13.045             5.996                 Moscow           187.375
       304   03 Jun 2027 14:03:22.533   03 Jun 2027 14:03:52.461            29.928                 Moscow           935.250
       305   03 Jun 2027 14:06:04.345   03 Jun 2027 14:08:50.889           166.544              Murmansk1          5204.500
       306   03 Jun 2027 14:13:13.900   03 Jun 2027 14:13:57.209            43.309              Murmansk2          1353.406
       307   03 Jun 2027 14:20:59.622   03 Jun 2027 14:22:56.847           117.225                Anadyr1          3663.281
       308   03 Jun 2027 14:23:20.853   03 Jun 2027 14:24:13.754            52.901                Anadyr2          1653.156
       309   03 Jun 2027 14:26:17.041   03 Jun 2027 14:27:10.881            53.840                Anadyr1          1682.500
       310   03 Jun 2027 15:44:39.282   03 Jun 2027 15:44:47.178             7.896              Murmansk1           246.750
       311   03 Jun 2027 15:44:54.961   03 Jun 2027 15:45:01.983             7.022              Murmansk2           219.438
       312   03 Jun 2027 15:45:43.862   03 Jun 2027 15:46:05.771            21.909              Murmansk1           684.656
       313   03 Jun 2027 15:46:38.049   03 Jun 2027 15:46:58.673            20.624              Murmansk2           644.500
       314   03 Jun 2027 15:48:33.678   03 Jun 2027 15:48:40.403             6.725              Murmansk1           210.156
       315   03 Jun 2027 15:48:55.242   03 Jun 2027 15:49:25.928            30.686              Murmansk1           958.938
       316   03 Jun 2027 15:56:12.281   03 Jun 2027 15:58:25.185           132.904                Anadyr1          4153.250
       317   03 Jun 2027 16:00:55.581   03 Jun 2027 16:01:19.739            24.158               Magadan2           754.937
       318   03 Jun 2027 16:02:46.105   03 Jun 2027 16:03:28.533            42.428               Magadan2          1325.875
       319   03 Jun 2027 16:04:36.342   03 Jun 2027 16:04:43.276             6.934               Magadan1           216.687
       320   03 Jun 2027 17:32:04.050   03 Jun 2027 17:36:40.900           276.850                Anadyr2          8651.562
       321   03 Jun 2027 17:37:10.674   03 Jun 2027 17:37:51.771            41.097                Anadyr1          1284.281
       322   03 Jun 2027 17:38:48.155   03 Jun 2027 17:39:23.744            35.589               Magadan1          1112.156
       323   03 Jun 2027 17:40:19.367   03 Jun 2027 17:40:57.858            38.491               Magadan1          1202.844
       324   03 Jun 2027 17:42:23.119   03 Jun 2027 17:44:06.322           103.203               Magadan2          3225.094
       325   03 Jun 2027 19:07:58.119   03 Jun 2027 19:11:24.275           206.156                Anadyr2          6442.375
       326   03 Jun 2027 19:11:33.319   03 Jun 2027 19:13:35.361           122.042               Magadan2          3813.812
       327   03 Jun 2027 20:02:22.315   03 Jun 2027 20:05:51.719           209.404            RioGallegos          6543.875
       328   03 Jun 2027 20:11:58.201   03 Jun 2027 20:13:01.638            63.437            RioGallegos          1982.406
       329   03 Jun 2027 20:46:18.941   03 Jun 2027 20:46:31.713            12.772               Magadan1           399.125
       330   03 Jun 2027 20:46:58.959   03 Jun 2027 20:47:48.695            49.736                Norilsk          1554.250
       331   03 Jun 2027 20:48:30.509   03 Jun 2027 20:49:20.925            50.416                Norilsk          1575.500
       332   03 Jun 2027 20:49:58.169   03 Jun 2027 20:50:08.266            10.097                Irkutsk           315.531
       333   03 Jun 2027 20:50:22.027   03 Jun 2027 20:51:00.288            38.261                Norilsk          1195.656
       334   03 Jun 2027 20:51:26.744   03 Jun 2027 20:52:04.901            38.157                Irkutsk          1192.406
       335   03 Jun 2027 20:52:22.141   03 Jun 2027 20:52:38.544            16.403                Irkutsk           512.594
       336   03 Jun 2027 20:53:20.596   03 Jun 2027 20:54:35.587            74.991                Novosib          2343.469
       337   03 Jun 2027 20:56:01.109   03 Jun 2027 20:56:40.232            39.123                Novosib          1222.594
       338   03 Jun 2027 21:03:41.402   03 Jun 2027 21:06:18.151           156.749                Sumatra          4898.406
       339   03 Jun 2027 22:21:46.752   03 Jun 2027 22:21:56.508             9.756                Norilsk           304.875
       340   03 Jun 2027 22:22:24.089   03 Jun 2027 22:22:26.104             2.015               Magadan2            62.969
       341   03 Jun 2027 22:23:16.567   03 Jun 2027 22:23:52.980            36.413               Magadan1          1137.906
       342   03 Jun 2027 22:25:24.272   03 Jun 2027 22:25:38.042            13.770                Norilsk           430.312
       343   03 Jun 2027 22:25:38.929   03 Jun 2027 22:26:26.278            47.349                Irkutsk          1479.656
       344   03 Jun 2027 22:26:59.717   03 Jun 2027 22:27:29.438            29.721                Irkutsk           928.781
       345   03 Jun 2027 22:27:38.663   03 Jun 2027 22:29:07.097            88.434                Novosib          2763.562
       346   03 Jun 2027 22:33:28.184   03 Jun 2027 22:35:21.657           113.473                  Delhi          3546.031
       347   03 Jun 2027 23:51:44.147   03 Jun 2027 23:52:59.960            75.813                Anadyr2          2369.156
       348   03 Jun 2027 23:54:10.143   03 Jun 2027 23:54:28.871            18.728                Anadyr2           585.250
       349   03 Jun 2027 23:57:45.635   03 Jun 2027 23:59:02.302            76.667                Norilsk          2395.844
       350   03 Jun 2027 23:59:14.064   03 Jun 2027 23:59:35.346            21.282                Norilsk           665.062
       351   04 Jun 2027 00:00:07.007   04 Jun 2027 00:02:28.484           141.477              Murmansk2          4421.156
       352   04 Jun 2027 00:02:37.608   04 Jun 2027 00:03:37.872            60.264              Murmansk1          1883.250
       353   04 Jun 2027 00:04:48.649   04 Jun 2027 00:05:59.159            70.510                 Moscow          2203.437
       354   04 Jun 2027 00:07:53.757   04 Jun 2027 00:08:15.224            21.467                 Moscow           670.844
       355   04 Jun 2027 00:09:34.536   04 Jun 2027 00:11:53.048           138.512                 Moscow          4328.500
       356   04 Jun 2027 01:25:10.690   04 Jun 2027 01:25:23.506            12.816                Anadyr2           400.500
       357   04 Jun 2027 01:27:51.700   04 Jun 2027 01:28:10.435            18.735                Anadyr2           585.469
       358   04 Jun 2027 01:28:32.893   04 Jun 2027 01:28:45.881            12.988                Anadyr2           405.875
       359   04 Jun 2027 01:30:09.128   04 Jun 2027 01:32:02.369           113.241               Magadan2          3538.781
       360   04 Jun 2027 01:33:58.529   04 Jun 2027 01:34:27.830            29.301               Magadan1           915.656
       361   04 Jun 2027 01:35:53.650   04 Jun 2027 01:36:23.317            29.667              Murmansk2           927.094
       362   04 Jun 2027 01:36:29.362   04 Jun 2027 01:37:03.687            34.325              Murmansk1          1072.656
       363   04 Jun 2027 01:37:34.180   04 Jun 2027 01:37:45.424            11.244              Murmansk1           351.375
       364   04 Jun 2027 01:37:57.816   04 Jun 2027 01:38:18.525            20.709                Novosib           647.156
       365   04 Jun 2027 01:39:14.128   04 Jun 2027 01:40:54.626           100.498                 Moscow          3140.563
       366   04 Jun 2027 02:03:28.429   04 Jun 2027 02:04:39.384            70.955               CapeTown          2217.344
       367   04 Jun 2027 02:59:47.671   04 Jun 2027 03:00:21.616            33.945                Anadyr1          1060.781
       368   04 Jun 2027 03:00:21.616   04 Jun 2027 03:01:10.239            48.623                Anadyr2          1519.469
       369   04 Jun 2027 03:07:02.140   04 Jun 2027 03:09:17.339           135.199                Anadyr2          4224.969
       370   04 Jun 2027 03:09:17.339   04 Jun 2027 03:10:45.152            87.813                Anadyr1          2744.156
       371   04 Jun 2027 03:11:08.875   04 Jun 2027 03:11:20.799            11.924                Anadyr1           372.625
       372   04 Jun 2027 03:11:36.314   04 Jun 2027 03:12:10.748            34.434                Anadyr1          1076.063
       373   04 Jun 2027 04:42:41.801   04 Jun 2027 04:43:56.471            74.670               Magadan2          2333.437
       374   04 Jun 2027 04:44:19.975   04 Jun 2027 04:44:23.889             3.914               Magadan2           122.313
       375   04 Jun 2027 04:44:23.889   04 Jun 2027 04:48:17.029           233.140               Magadan1          7285.625
       376   04 Jun 2027 06:17:10.956   04 Jun 2027 06:17:39.790            28.834                Anadyr2           901.062
       377   04 Jun 2027 06:17:46.087   04 Jun 2027 06:17:50.834             4.747                Norilsk           148.344
       378   04 Jun 2027 06:17:52.610   04 Jun 2027 06:18:49.013            56.403                Anadyr1          1762.594
       379   04 Jun 2027 06:18:58.774   04 Jun 2027 06:20:26.966            88.192                Irkutsk          2756.000
       380   04 Jun 2027 06:20:57.006   04 Jun 2027 06:21:39.334            42.328                Anadyr1          1322.750
       381   04 Jun 2027 06:21:41.679   04 Jun 2027 06:22:01.126            19.447               Magadan1           607.719
       382   04 Jun 2027 06:22:01.874   04 Jun 2027 06:22:31.308            29.434                Anadyr1           919.812
       383   04 Jun 2027 06:22:43.850   04 Jun 2027 06:23:23.374            39.524                Novosib          1235.125
       384   04 Jun 2027 06:59:48.101   04 Jun 2027 07:00:30.425            42.324            RioGallegos          1322.625
       385   04 Jun 2027 07:02:54.858   04 Jun 2027 07:03:03.019             8.161            RioGallegos           255.031
       386   04 Jun 2027 07:08:44.849   04 Jun 2027 07:08:46.230             1.381            RioGallegos            43.156
       387   04 Jun 2027 07:52:41.707   04 Jun 2027 07:52:45.161             3.454                Norilsk           107.938
       388   04 Jun 2027 07:52:47.483   04 Jun 2027 07:53:14.549            27.066               Magadan1           845.812
       389   04 Jun 2027 07:53:26.142   04 Jun 2027 07:54:08.816            42.674                Irkutsk          1333.562
       390   04 Jun 2027 07:54:24.442   04 Jun 2027 07:54:31.177             6.735                Norilsk           210.469
       391   04 Jun 2027 07:54:35.194   04 Jun 2027 07:55:41.001            65.807                Novosib          2056.469
       392   04 Jun 2027 07:56:05.413   04 Jun 2027 07:56:09.961             4.548                Norilsk           142.125
       393   04 Jun 2027 07:56:34.392   04 Jun 2027 07:57:05.481            31.089               Magadan1           971.531
       394   04 Jun 2027 07:57:23.880   04 Jun 2027 07:57:57.642            33.762                Norilsk          1055.063
       395   04 Jun 2027 07:57:58.264   04 Jun 2027 07:58:02.760             4.496              Murmansk2           140.500
       396   04 Jun 2027 07:58:04.970   04 Jun 2027 07:58:24.853            19.883               Magadan1           621.344
       397   04 Jun 2027 07:58:28.449   04 Jun 2027 07:59:51.227            82.778                Irkutsk          2586.812
       398   04 Jun 2027 08:00:03.827   04 Jun 2027 08:00:04.429             0.602                Norilsk            18.813
       399   04 Jun 2027 08:00:26.453   04 Jun 2027 08:00:58.318            31.865              Murmansk1           995.781
       400   04 Jun 2027 08:01:31.014   04 Jun 2027 08:01:44.732            13.718              Murmansk2           428.687
       401   04 Jun 2027 08:06:55.184   04 Jun 2027 08:07:24.448            29.264              Murmansk1           914.500
       402   04 Jun 2027 08:34:40.039   04 Jun 2027 08:35:46.586            66.547            RioGallegos          2079.594
       403   04 Jun 2027 09:09:37.154   04 Jun 2027 09:10:34.632            57.478                Sumatra          1796.187
       404   04 Jun 2027 09:20:48.305   04 Jun 2027 09:21:41.497            53.192                  Delhi          1662.250
       405   04 Jun 2027 09:24:17.529   04 Jun 2027 09:25:10.369            52.840                  Delhi          1651.250
       406   04 Jun 2027 09:30:30.503   04 Jun 2027 09:31:52.704            82.201                Irkutsk          2568.781
       407   04 Jun 2027 09:32:00.319   04 Jun 2027 09:33:11.188            70.869                Irkutsk          2214.656
       408   04 Jun 2027 09:33:26.671   04 Jun 2027 09:33:28.499             1.828                Irkutsk            57.125
       409   04 Jun 2027 09:33:37.508   04 Jun 2027 09:33:49.933            12.425                Norilsk           388.281
       410   04 Jun 2027 09:33:51.520   04 Jun 2027 09:33:58.170             6.650                Irkutsk           207.812
       411   04 Jun 2027 09:34:01.954   04 Jun 2027 09:34:22.407            20.453                Norilsk           639.156
       412   04 Jun 2027 09:34:24.235   04 Jun 2027 09:34:26.839             2.604              Murmansk1            81.375
       413   04 Jun 2027 09:34:29.101   04 Jun 2027 09:35:46.144            77.043                Irkutsk          2407.594
       414   04 Jun 2027 10:14:28.232   04 Jun 2027 10:15:08.079            39.847            RioGallegos          1245.219
       415   04 Jun 2027 10:48:12.236   04 Jun 2027 10:49:28.533            76.297                Sumatra          2384.281
       416   04 Jun 2027 10:56:54.145   04 Jun 2027 10:58:06.124            71.979                  Delhi          2249.344
       417   04 Jun 2027 11:07:43.700   04 Jun 2027 11:08:47.996            64.296              Murmansk2          2009.250
       418   04 Jun 2027 11:09:02.492   04 Jun 2027 11:09:04.824             2.332              Murmansk2            72.875
       419   04 Jun 2027 11:09:04.824   04 Jun 2027 11:09:25.556            20.732              Murmansk1           647.875
       420   04 Jun 2027 11:09:26.552   04 Jun 2027 11:09:36.878            10.326                Novosib           322.688
       421   04 Jun 2027 11:09:40.805   04 Jun 2027 11:10:35.171            54.366                 Moscow          1698.937
       422   04 Jun 2027 11:10:43.104   04 Jun 2027 11:11:28.567            45.463                 Moscow          1420.719
       423   04 Jun 2027 11:12:26.707   04 Jun 2027 11:13:28.940            62.233                 Moscow          1944.781
       424   04 Jun 2027 12:34:37.353   04 Jun 2027 12:36:18.874           101.521                  Delhi          3172.531
       425   04 Jun 2027 12:39:37.074   04 Jun 2027 12:41:24.617           107.543                 Moscow          3360.719
       426   04 Jun 2027 12:41:32.835   04 Jun 2027 12:43:24.060           111.225              Murmansk2          3475.781
       427   04 Jun 2027 12:44:54.333   04 Jun 2027 12:45:15.558            21.225              Murmansk2           663.281
       428   04 Jun 2027 13:53:26.915   04 Jun 2027 13:56:14.839           167.924               CapeTown          5247.625
       429   04 Jun 2027 13:59:47.914   04 Jun 2027 14:00:53.938            66.024               CapeTown          2063.250
       430   04 Jun 2027 14:18:18.150   04 Jun 2027 14:20:52.545           154.395              Murmansk1          4824.844
       431   04 Jun 2027 14:27:30.560   04 Jun 2027 14:28:05.051            34.491              Murmansk2          1077.844
       432   04 Jun 2027 14:32:49.646   04 Jun 2027 14:35:05.394           135.748                Anadyr1          4242.125
       433   04 Jun 2027 14:35:22.430   04 Jun 2027 14:36:24.672            62.242                Anadyr1          1945.062
       434   04 Jun 2027 15:57:11.756   04 Jun 2027 15:58:04.160            52.404              Murmansk1          1637.625
       435   04 Jun 2027 15:58:39.178   04 Jun 2027 15:58:59.107            19.929              Murmansk2           622.781
       436   04 Jun 2027 15:59:00.582   04 Jun 2027 16:00:29.661            89.079              Murmansk1          2783.719
       437   04 Jun 2027 16:08:12.255   04 Jun 2027 16:09:20.461            68.206                Anadyr1          2131.438
       438   04 Jun 2027 16:09:20.461   04 Jun 2027 16:09:54.751            34.290                Anadyr2          1071.563
       439   04 Jun 2027 16:12:11.289   04 Jun 2027 16:15:14.405           183.116               Magadan2          5722.375
       440   04 Jun 2027 16:15:21.277   04 Jun 2027 16:16:39.041            77.764               Magadan1          2430.125
       441   04 Jun 2027 17:44:05.489   04 Jun 2027 17:45:56.297           110.808                Anadyr1          3462.750
       442   04 Jun 2027 17:46:31.360   04 Jun 2027 17:48:12.388           101.028               Magadan1          3157.125
       443   04 Jun 2027 17:48:12.388   04 Jun 2027 17:48:39.692            27.304               Magadan2           853.250
       444   04 Jun 2027 17:53:46.260   04 Jun 2027 17:54:03.652            17.392               Magadan2           543.500
       445   04 Jun 2027 17:57:30.590   04 Jun 2027 17:57:39.978             9.388               Magadan1           293.375
       446   04 Jun 2027 17:57:48.990   04 Jun 2027 17:58:33.032            44.042               Magadan1          1376.313
       447   04 Jun 2027 19:19:58.455   04 Jun 2027 19:23:52.949           234.494                Anadyr2          7327.938
       448   04 Jun 2027 19:23:54.131   04 Jun 2027 19:26:03.991           129.860                Norilsk          4058.125
       449   04 Jun 2027 19:28:30.893   04 Jun 2027 19:28:39.223             8.330                Irkutsk           260.313
       450   04 Jun 2027 19:29:46.098   04 Jun 2027 19:30:55.769            69.671                Irkutsk          2177.219
       451   04 Jun 2027 19:32:10.525   04 Jun 2027 19:33:15.344            64.819                Irkutsk          2025.594
       452   04 Jun 2027 20:15:28.670   04 Jun 2027 20:15:48.110            19.440            RioGallegos           607.500
       453   04 Jun 2027 20:17:13.309   04 Jun 2027 20:17:15.955             2.646            RioGallegos            82.688
       454   04 Jun 2027 20:23:42.070   04 Jun 2027 20:24:14.368            32.298            RioGallegos          1009.312
       455   04 Jun 2027 20:57:32.601   04 Jun 2027 20:57:38.055             5.454                Anadyr1           170.438
       456   04 Jun 2027 20:57:50.343   04 Jun 2027 21:00:32.417           162.074                Norilsk          5064.813
       457   04 Jun 2027 21:01:34.407   04 Jun 2027 21:01:49.591            15.184                Norilsk           474.500
       458   04 Jun 2027 21:01:53.627   04 Jun 2027 21:03:29.288            95.661                Irkutsk          2989.406
       459   04 Jun 2027 21:04:00.263   04 Jun 2027 21:04:27.916            27.653                Novosib           864.156
       460   04 Jun 2027 21:05:02.842   04 Jun 2027 21:06:22.876            80.034                Novosib          2501.062
       461   04 Jun 2027 21:15:34.358   04 Jun 2027 21:16:23.906            49.548                Sumatra          1548.375
       462   04 Jun 2027 21:18:33.094   04 Jun 2027 21:18:39.750             6.656                Sumatra           208.000
       463   04 Jun 2027 21:21:12.148   04 Jun 2027 21:21:34.544            22.396                Sumatra           699.875
       464   04 Jun 2027 21:24:03.895   04 Jun 2027 21:25:07.293            63.398                Sumatra          1981.187
       465   04 Jun 2027 22:33:48.751   04 Jun 2027 22:33:56.288             7.537                Norilsk           235.531
       466   04 Jun 2027 22:34:25.623   04 Jun 2027 22:35:38.027            72.404               Magadan1          2262.625
       467   04 Jun 2027 22:37:26.439   04 Jun 2027 22:37:42.248            15.809               Magadan2           494.031
       468   04 Jun 2027 22:37:42.439   04 Jun 2027 22:38:42.413            59.974                Irkutsk          1874.188
       469   04 Jun 2027 22:39:23.771   04 Jun 2027 22:40:31.950            68.179                Novosib          2130.594
       470   04 Jun 2027 22:45:15.468   04 Jun 2027 22:47:44.435           148.967                  Delhi          4655.219
       471   04 Jun 2027 22:54:00.632   04 Jun 2027 22:54:42.967            42.335                  Delhi          1322.969
       472   05 Jun 2027 00:05:01.132   05 Jun 2027 00:05:53.450            52.318                Anadyr2          1634.938
       473   05 Jun 2027 00:09:25.537   05 Jun 2027 00:09:32.737             7.200                Anadyr1           225.000
       474   05 Jun 2027 00:09:33.873   05 Jun 2027 00:11:07.611            93.738               Magadan1          2929.312
       475   05 Jun 2027 00:11:23.063   05 Jun 2027 00:12:09.197            46.134               Magadan1          1441.687
       476   05 Jun 2027 00:12:09.872   05 Jun 2027 00:14:39.050           149.178              Murmansk2          4661.813
       477   05 Jun 2027 00:14:55.593   05 Jun 2027 00:15:31.921            36.328              Murmansk1          1135.250
       478   05 Jun 2027 00:16:25.547   05 Jun 2027 00:17:00.258            34.711                 Moscow          1084.719
       479   05 Jun 2027 00:17:41.317   05 Jun 2027 00:17:57.286            15.969                 Moscow           499.031
       480   05 Jun 2027 00:18:13.414   05 Jun 2027 00:18:17.652             4.238                 Moscow           132.438
       481   05 Jun 2027 00:20:12.039   05 Jun 2027 00:20:30.361            18.322                 Moscow           572.563
       482   05 Jun 2027 00:20:53.018   05 Jun 2027 00:21:19.095            26.077                 Moscow           814.906
