uniorb/output/strategy_2/Drop/Drop_KinoSat_111405.txt

KinoSat_111405
-------------------------
    Access    *     Start Time (UTCG)     *     Stop Time (UTCG)  *   Duration (s)        *       Station  *  Data (Mbytes)
         1   01 Jun 2027 03:25:36.927   01 Jun 2027 03:25:39.383             2.456                Norilsk            76.750
         2   01 Jun 2027 03:25:47.702   01 Jun 2027 03:25:57.846            10.144              Murmansk1           317.000
         3   01 Jun 2027 03:26:01.080   01 Jun 2027 03:27:03.974            62.894              Murmansk2          1965.437
         4   01 Jun 2027 03:27:35.970   01 Jun 2027 03:28:05.479            29.509              Murmansk2           922.156
         5   01 Jun 2027 03:28:45.893   01 Jun 2027 03:29:07.184            21.291              Murmansk1           665.344
         6   01 Jun 2027 03:29:20.066   01 Jun 2027 03:29:41.953            21.887              Murmansk1           683.969
         7   01 Jun 2027 03:29:56.053   01 Jun 2027 03:31:10.177            74.124                 Moscow          2316.375
         8   01 Jun 2027 03:45:36.524   01 Jun 2027 03:48:15.205           158.681               CapeTown          4958.781
         9   01 Jun 2027 03:48:55.929   01 Jun 2027 03:49:36.084            40.155               CapeTown          1254.844
        10   01 Jun 2027 04:45:00.117   01 Jun 2027 04:45:39.123            39.006               Magadan1          1218.937
        11   01 Jun 2027 04:49:04.545   01 Jun 2027 04:50:35.350            90.805               Magadan2          2837.656
        12   01 Jun 2027 04:50:35.350   01 Jun 2027 04:50:44.825             9.475               Magadan1           296.094
        13   01 Jun 2027 04:50:51.728   01 Jun 2027 04:51:20.420            28.692                Anadyr2           896.625
        14   01 Jun 2027 04:51:20.420   01 Jun 2027 04:51:25.944             5.524                Anadyr1           172.625
        15   01 Jun 2027 04:51:28.280   01 Jun 2027 04:52:45.246            76.966                Anadyr1          2405.188
        16   01 Jun 2027 05:04:41.894   01 Jun 2027 05:04:46.520             4.626              Murmansk1           144.562
        17   01 Jun 2027 05:06:53.263   01 Jun 2027 05:06:56.192             2.929              Murmansk2            91.531
        18   01 Jun 2027 06:24:33.069   01 Jun 2027 06:26:25.874           112.805               Magadan2          3525.156
        19   01 Jun 2027 06:26:36.697   01 Jun 2027 06:28:04.534            87.837               Magadan2          2744.906
        20   01 Jun 2027 06:28:08.462   01 Jun 2027 06:29:04.094            55.632                Anadyr1          1738.500
        21   01 Jun 2027 06:29:06.927   01 Jun 2027 06:30:08.554            61.627               Magadan1          1925.844
        22   01 Jun 2027 08:00:46.512   01 Jun 2027 08:00:47.551             1.039                Irkutsk            32.469
        23   01 Jun 2027 08:01:10.490   01 Jun 2027 08:03:00.676           110.186                Anadyr2          3443.312
        24   01 Jun 2027 08:03:30.888   01 Jun 2027 08:03:54.391            23.503               Magadan2           734.469
        25   01 Jun 2027 08:03:54.391   01 Jun 2027 08:06:16.758           142.367               Magadan1          4448.969
        26   01 Jun 2027 09:35:18.157   01 Jun 2027 09:36:46.386            88.229               Magadan1          2757.156
        27   01 Jun 2027 09:37:50.736   01 Jun 2027 09:41:15.136           204.400               Magadan1          6387.500
        28   01 Jun 2027 09:42:13.370   01 Jun 2027 09:43:14.419            61.049                Novosib          1907.781
        29   01 Jun 2027 09:43:24.924   01 Jun 2027 09:43:53.286            28.362                Norilsk           886.312
        30   01 Jun 2027 10:16:46.810   01 Jun 2027 10:17:41.623            54.813            RioGallegos          1712.906
        31   01 Jun 2027 10:18:11.773   01 Jun 2027 10:18:59.425            47.652            RioGallegos          1489.125
        32   01 Jun 2027 10:19:41.189   01 Jun 2027 10:20:00.258            19.069            RioGallegos           595.906
        33   01 Jun 2027 10:51:44.642   01 Jun 2027 10:53:56.561           131.919                Sumatra          4122.469
        34   01 Jun 2027 11:13:36.277   01 Jun 2027 11:15:54.587           138.310                Norilsk          4322.188
        35   01 Jun 2027 11:15:57.395   01 Jun 2027 11:17:53.921           116.526                Irkutsk          3641.437
        36   01 Jun 2027 11:56:50.959   01 Jun 2027 11:57:24.401            33.442            RioGallegos          1045.063
        37   01 Jun 2027 11:57:45.861   01 Jun 2027 11:58:47.888            62.027            RioGallegos          1938.344
        38   01 Jun 2027 12:30:15.646   01 Jun 2027 12:31:47.052            91.406                Sumatra          2856.438
        39   01 Jun 2027 12:39:41.153   01 Jun 2027 12:39:53.400            12.247                  Delhi           382.719
        40   01 Jun 2027 12:43:18.004   01 Jun 2027 12:44:46.170            88.166                Novosib          2755.187
        41   01 Jun 2027 12:45:46.988   01 Jun 2027 12:47:54.057           127.069                Novosib          3970.906
        42   01 Jun 2027 12:48:29.497   01 Jun 2027 12:48:59.266            29.769              Murmansk2           930.281
        43   01 Jun 2027 12:49:09.112   01 Jun 2027 12:49:37.143            28.031                Norilsk           875.969
        44   01 Jun 2027 12:51:58.094   01 Jun 2027 12:52:22.168            24.074                Norilsk           752.313
        45   01 Jun 2027 14:16:34.245   01 Jun 2027 14:19:05.870           151.625                  Delhi          4738.281
        46   01 Jun 2027 14:20:02.419   01 Jun 2027 14:20:06.673             4.254                  Delhi           132.938
        47   01 Jun 2027 14:21:28.891   01 Jun 2027 14:22:30.907            62.016                 Moscow          1938.000
        48   01 Jun 2027 14:23:39.994   01 Jun 2027 14:26:10.426           150.432              Murmansk2          4701.000
        49   01 Jun 2027 14:26:24.463   01 Jun 2027 14:27:48.875            84.412                Novosib          2637.875
        50   01 Jun 2027 14:28:50.517   01 Jun 2027 14:29:30.512            39.995                Norilsk          1249.844
        51   01 Jun 2027 15:35:35.202   01 Jun 2027 15:38:14.692           159.490               CapeTown          4984.063
        52   01 Jun 2027 15:57:04.203   01 Jun 2027 15:58:21.834            77.631                 Moscow          2425.969
        53   01 Jun 2027 16:00:24.263   01 Jun 2027 16:01:53.321            89.058              Murmansk2          2783.062
        54   01 Jun 2027 16:14:55.876   01 Jun 2027 16:16:13.837            77.961                Anadyr2          2436.281
        55   01 Jun 2027 16:17:25.178   01 Jun 2027 16:18:24.644            59.466                Anadyr1          1858.313
        56   01 Jun 2027 17:09:40.295   01 Jun 2027 17:12:04.908           144.613               CapeTown          4519.156
        57   01 Jun 2027 17:39:16.185   01 Jun 2027 17:39:51.756            35.571              Murmansk1          1111.594
        58   01 Jun 2027 17:40:29.260   01 Jun 2027 17:44:27.496           238.236              Murmansk2          7444.875
        59   01 Jun 2027 17:54:17.916   01 Jun 2027 17:54:37.594            19.678               Magadan2           614.938
        60   01 Jun 2027 17:55:39.231   01 Jun 2027 17:56:17.786            38.555               Magadan1          1204.844
        61   01 Jun 2027 17:58:33.736   01 Jun 2027 18:00:02.678            88.942               Magadan2          2779.437
        62   01 Jun 2027 18:47:46.536   01 Jun 2027 18:48:10.662            24.126               CapeTown           753.938
        63   01 Jun 2027 19:26:12.698   01 Jun 2027 19:27:59.343           106.645                Anadyr2          3332.656
        64   01 Jun 2027 19:27:59.881   01 Jun 2027 19:29:58.336           118.455                Anadyr1          3701.719
        65   01 Jun 2027 19:30:17.511   01 Jun 2027 19:32:03.781           106.270               Magadan2          3320.937
        66   01 Jun 2027 19:33:36.221   01 Jun 2027 19:34:05.032            28.811               Magadan2           900.344
        67   01 Jun 2027 19:34:14.873   01 Jun 2027 19:34:56.254            41.381               Magadan1          1293.156
        68   01 Jun 2027 21:02:06.197   01 Jun 2027 21:05:47.807           221.610                Anadyr1          6925.312
        69   01 Jun 2027 21:05:48.330   01 Jun 2027 21:05:56.388             8.058                Norilsk           251.812
        70   01 Jun 2027 21:05:58.340   01 Jun 2027 21:08:40.774           162.434               Magadan1          5076.063
        71   01 Jun 2027 21:08:45.943   01 Jun 2027 21:09:43.844            57.901                Norilsk          1809.406
        72   01 Jun 2027 21:10:55.444   01 Jun 2027 21:11:13.581            18.137                Irkutsk           566.781
        73   01 Jun 2027 21:11:52.624   01 Jun 2027 21:12:56.320            63.696                Irkutsk          1990.500
        74   01 Jun 2027 21:56:20.188   01 Jun 2027 21:57:34.773            74.585            RioGallegos          2330.781
        75   01 Jun 2027 22:02:27.913   01 Jun 2027 22:02:28.336             0.423            RioGallegos            13.219
        76   01 Jun 2027 22:37:37.023   01 Jun 2027 22:38:20.820            43.797                Anadyr1          1368.656
        77   01 Jun 2027 22:38:22.477   01 Jun 2027 22:40:00.648            98.171                Anadyr2          3067.844
        78   01 Jun 2027 22:40:04.707   01 Jun 2027 22:41:22.418            77.711                Norilsk          2428.469
        79   01 Jun 2027 22:41:40.955   01 Jun 2027 22:42:22.710            41.755               Magadan1          1304.844
        80   01 Jun 2027 22:44:00.649   01 Jun 2027 22:44:34.495            33.846                Irkutsk          1057.687
        81   01 Jun 2027 22:45:04.697   01 Jun 2027 22:45:38.724            34.027                Irkutsk          1063.344
        82   01 Jun 2027 22:45:39.129   01 Jun 2027 22:46:56.482            77.353                Novosib          2417.281
        83   01 Jun 2027 22:57:41.777   01 Jun 2027 22:59:12.358            90.581                Sumatra          2830.656
        84   02 Jun 2027 00:12:09.040   02 Jun 2027 00:14:26.657           137.617                Anadyr1          4300.531
        85   02 Jun 2027 00:15:55.597   02 Jun 2027 00:16:09.377            13.780                Norilsk           430.625
        86   02 Jun 2027 00:16:34.517   02 Jun 2027 00:18:23.544           109.027               Magadan2          3407.094
        87   02 Jun 2027 00:19:49.752   02 Jun 2027 00:21:10.585            80.833                Irkutsk          2526.031
        88   02 Jun 2027 00:22:04.210   02 Jun 2027 00:23:27.011            82.801                Novosib          2587.531
        89   02 Jun 2027 00:27:22.948   02 Jun 2027 00:29:20.997           118.049                  Delhi          3689.031
        90   02 Jun 2027 00:29:50.708   02 Jun 2027 00:30:51.303            60.595                  Delhi          1893.594
        91   02 Jun 2027 01:09:49.937   02 Jun 2027 01:10:05.851            15.914            RioGallegos           497.312
        92   02 Jun 2027 01:12:08.027   02 Jun 2027 01:12:19.720            11.693            RioGallegos           365.406
        93   02 Jun 2027 01:15:07.563   02 Jun 2027 01:15:49.081            41.518            RioGallegos          1297.437
        94   02 Jun 2027 01:45:34.271   02 Jun 2027 01:45:48.023            13.752                Anadyr2           429.750
        95   02 Jun 2027 01:46:21.509   02 Jun 2027 01:46:46.005            24.496                Anadyr2           765.500
        96   02 Jun 2027 01:47:42.173   02 Jun 2027 01:48:03.681            21.508                Anadyr2           672.125
        97   02 Jun 2027 01:48:23.631   02 Jun 2027 01:48:32.269             8.638                Anadyr1           269.938
        98   02 Jun 2027 01:51:05.993   02 Jun 2027 01:51:34.452            28.459                Anadyr2           889.344
        99   02 Jun 2027 01:51:45.698   02 Jun 2027 01:52:03.440            17.742               Magadan2           554.438
       100   02 Jun 2027 01:52:06.622   02 Jun 2027 01:52:58.364            51.742               Magadan1          1616.938
       101   02 Jun 2027 01:53:24.018   02 Jun 2027 01:53:34.371            10.353                Norilsk           323.531
       102   02 Jun 2027 01:53:48.222   02 Jun 2027 01:53:59.995            11.773                Norilsk           367.906
       103   02 Jun 2027 01:54:11.506   02 Jun 2027 01:57:12.470           180.964              Murmansk1          5655.125
       104   02 Jun 2027 01:58:32.454   02 Jun 2027 01:58:48.479            16.025                 Moscow           500.781
       105   02 Jun 2027 02:03:39.753   02 Jun 2027 02:04:16.845            37.092                  Delhi          1159.125
       106   02 Jun 2027 02:08:16.400   02 Jun 2027 02:08:30.645            14.245                  Delhi           445.156
       107   02 Jun 2027 02:09:01.478   02 Jun 2027 02:09:08.357             6.879                  Delhi           214.969
       108   02 Jun 2027 02:13:32.164   02 Jun 2027 02:14:08.272            36.108                  Delhi          1128.375
       109   02 Jun 2027 02:27:23.778   02 Jun 2027 02:27:56.447            32.669               CapeTown          1020.906
       110   02 Jun 2027 03:26:00.168   02 Jun 2027 03:26:08.077             7.909               Magadan2           247.156
       111   02 Jun 2027 03:37:05.554   02 Jun 2027 03:37:11.754             6.200                Norilsk           193.750
       112   02 Jun 2027 03:38:02.304   02 Jun 2027 03:38:53.421            51.117                Norilsk          1597.406
       113   02 Jun 2027 03:39:07.362   02 Jun 2027 03:39:37.826            30.464              Murmansk2           952.000
       114   02 Jun 2027 03:40:02.626   02 Jun 2027 03:41:28.189            85.563              Murmansk2          2673.844
       115   02 Jun 2027 03:41:43.257   02 Jun 2027 03:42:23.638            40.381              Murmansk1          1261.906
       116   02 Jun 2027 05:00:32.905   02 Jun 2027 05:02:19.455           106.550               Magadan2          3329.688
       117   02 Jun 2027 05:02:19.455   02 Jun 2027 05:02:37.367            17.912               Magadan1           559.750
       118   02 Jun 2027 05:02:51.565   02 Jun 2027 05:03:04.530            12.965                Anadyr2           405.156
       119   02 Jun 2027 05:03:04.530   02 Jun 2027 05:04:46.432           101.902                Anadyr1          3184.438
       120   02 Jun 2027 05:04:47.783   02 Jun 2027 05:05:09.671            21.888                Anadyr2           684.000
       121   02 Jun 2027 05:05:10.115   02 Jun 2027 05:06:17.787            67.672               Magadan2          2114.750
       122   02 Jun 2027 05:15:12.078   02 Jun 2027 05:16:37.121            85.043              Murmansk2          2657.594
       123   02 Jun 2027 06:36:46.665   02 Jun 2027 06:37:08.322            21.657               Magadan1           676.781
       124   02 Jun 2027 06:37:08.322   02 Jun 2027 06:38:25.471            77.149               Magadan2          2410.906
       125   02 Jun 2027 06:38:49.129   02 Jun 2027 06:39:13.002            23.873               Magadan1           746.031
       126   02 Jun 2027 06:39:35.269   02 Jun 2027 06:42:12.384           157.115               Magadan2          4909.844
       127   02 Jun 2027 08:10:53.410   02 Jun 2027 08:11:33.343            39.933               Magadan2          1247.906
       128   02 Jun 2027 08:11:36.530   02 Jun 2027 08:11:49.372            12.842                Anadyr2           401.312
       129   02 Jun 2027 08:11:49.372   02 Jun 2027 08:13:11.137            81.765                Anadyr1          2555.156
       130   02 Jun 2027 08:13:23.630   02 Jun 2027 08:15:16.545           112.915               Magadan1          3528.594
       131   02 Jun 2027 08:15:19.988   02 Jun 2027 08:16:07.087            47.099                Anadyr2          1471.844
       132   02 Jun 2027 08:16:43.121   02 Jun 2027 08:17:13.683            30.562               Magadan1           955.062
       133   02 Jun 2027 08:17:13.683   02 Jun 2027 08:18:15.725            62.042               Magadan2          1938.813
       134   02 Jun 2027 08:18:24.787   02 Jun 2027 08:18:47.008            22.221                Norilsk           694.406
       135   02 Jun 2027 08:53:38.665   02 Jun 2027 08:54:03.584            24.919            RioGallegos           778.719
       136   02 Jun 2027 08:55:54.200   02 Jun 2027 08:56:51.023            56.823            RioGallegos          1775.719
       137   02 Jun 2027 09:47:14.615   02 Jun 2027 09:47:24.250             9.635                Irkutsk           301.094
       138   02 Jun 2027 09:47:27.987   02 Jun 2027 09:48:04.767            36.780                Norilsk          1149.375
       139   02 Jun 2027 09:48:26.073   02 Jun 2027 09:49:00.439            34.366                Norilsk          1073.937
       140   02 Jun 2027 09:49:10.320   02 Jun 2027 09:49:58.720            48.400                Irkutsk          1512.500
       141   02 Jun 2027 09:50:15.578   02 Jun 2027 09:51:01.740            46.162                Irkutsk          1442.563
       142   02 Jun 2027 09:51:13.210   02 Jun 2027 09:51:58.413            45.203                Irkutsk          1412.594
       143   02 Jun 2027 09:52:05.741   02 Jun 2027 09:53:08.882            63.141                Irkutsk          1973.156
       144   02 Jun 2027 09:53:30.630   02 Jun 2027 09:54:20.876            50.246              Murmansk2          1570.188
       145   02 Jun 2027 10:28:55.019   02 Jun 2027 10:29:07.551            12.532            RioGallegos           391.625
       146   02 Jun 2027 10:30:17.169   02 Jun 2027 10:30:42.789            25.620            RioGallegos           800.625
       147   02 Jun 2027 10:31:51.320   02 Jun 2027 10:32:53.782            62.462            RioGallegos          1951.937
       148   02 Jun 2027 11:03:40.342   02 Jun 2027 11:04:07.698            27.356                Sumatra           854.875
       149   02 Jun 2027 11:14:40.242   02 Jun 2027 11:16:34.471           114.229                  Delhi          3569.656
       150   02 Jun 2027 11:25:06.937   02 Jun 2027 11:25:47.192            40.255                Norilsk          1257.969
       151   02 Jun 2027 11:25:48.673   02 Jun 2027 11:26:28.886            40.213                Novosib          1256.656
       152   02 Jun 2027 11:26:51.684   02 Jun 2027 11:27:05.145            13.461              Murmansk2           420.656
       153   02 Jun 2027 11:27:10.416   02 Jun 2027 11:27:50.899            40.483                 Moscow          1265.094
       154   02 Jun 2027 11:27:53.463   02 Jun 2027 11:28:20.706            27.243                Novosib           851.344
       155   02 Jun 2027 11:28:25.390   02 Jun 2027 11:28:56.988            31.598                Irkutsk           987.437
       156   02 Jun 2027 11:29:06.631   02 Jun 2027 11:29:38.378            31.747              Murmansk1           992.094
       157   02 Jun 2027 11:29:38.479   02 Jun 2027 11:29:49.859            11.380                Norilsk           355.625
       158   02 Jun 2027 11:29:58.570   02 Jun 2027 11:30:07.440             8.870              Murmansk2           277.188
       159   02 Jun 2027 11:30:07.440   02 Jun 2027 11:30:15.776             8.336              Murmansk1           260.500
       160   02 Jun 2027 11:30:27.452   02 Jun 2027 11:31:14.136            46.684                Norilsk          1458.875
       161   02 Jun 2027 12:08:39.671   02 Jun 2027 12:08:59.777            20.106            RioGallegos           628.313
       162   02 Jun 2027 12:12:03.324   02 Jun 2027 12:12:53.872            50.548            RioGallegos          1579.625
       163   02 Jun 2027 12:44:26.010   02 Jun 2027 12:46:32.841           126.831                Sumatra          3963.469
       164   02 Jun 2027 12:55:38.122   02 Jun 2027 12:56:18.693            40.571                Novosib          1267.844
       165   02 Jun 2027 12:58:09.600   02 Jun 2027 13:00:03.009           113.409                Novosib          3544.031
       166   02 Jun 2027 13:00:35.101   02 Jun 2027 13:00:59.125            24.024              Murmansk2           750.750
       167   02 Jun 2027 14:32:16.984   02 Jun 2027 14:35:33.940           196.956                 Moscow          6154.875
       168   02 Jun 2027 14:35:41.816   02 Jun 2027 14:37:44.677           122.861              Murmansk1          3839.406
       169   02 Jun 2027 14:39:03.139   02 Jun 2027 14:39:10.945             7.806              Murmansk1           243.937
       170   02 Jun 2027 14:39:26.575   02 Jun 2027 14:39:47.479            20.904                Norilsk           653.250
       171   02 Jun 2027 14:40:22.452   02 Jun 2027 14:40:36.002            13.550                Norilsk           423.438
       172   02 Jun 2027 14:40:43.824   02 Jun 2027 14:40:55.158            11.334                Norilsk           354.187
       173   02 Jun 2027 14:41:32.630   02 Jun 2027 14:43:10.713            98.083                Norilsk          3065.094
       174   02 Jun 2027 15:47:02.533   02 Jun 2027 15:49:59.515           176.982               CapeTown          5530.687
       175   02 Jun 2027 16:09:27.609   02 Jun 2027 16:09:45.617            18.008                 Moscow           562.750
       176   02 Jun 2027 16:11:10.558   02 Jun 2027 16:11:43.149            32.591                 Moscow          1018.469
       177   02 Jun 2027 16:12:40.077   02 Jun 2027 16:13:20.075            39.998              Murmansk2          1249.937
       178   02 Jun 2027 16:15:01.871   02 Jun 2027 16:15:15.289            13.418              Murmansk1           419.313
       179   02 Jun 2027 16:26:48.868   02 Jun 2027 16:28:03.094            74.226                Anadyr1          2319.562
       180   02 Jun 2027 16:28:03.094   02 Jun 2027 16:28:13.602            10.508                Anadyr2           328.375
       181   02 Jun 2027 16:29:26.281   02 Jun 2027 16:30:25.565            59.284                Anadyr2          1852.625
       182   02 Jun 2027 16:35:02.389   02 Jun 2027 16:35:13.589            11.200                Anadyr2           350.000
       183   02 Jun 2027 16:35:13.589   02 Jun 2027 16:35:48.350            34.761                Anadyr1          1086.281
       184   02 Jun 2027 17:21:44.029   02 Jun 2027 17:23:49.105           125.076               CapeTown          3908.625
       185   02 Jun 2027 17:51:51.697   02 Jun 2027 17:52:46.597            54.900              Murmansk2          1715.625
       186   02 Jun 2027 17:53:03.466   02 Jun 2027 17:55:01.884           118.418              Murmansk1          3700.562
       187   02 Jun 2027 17:56:44.612   02 Jun 2027 17:56:53.327             8.715              Murmansk1           272.344
       188   02 Jun 2027 17:56:53.327   02 Jun 2027 17:57:17.223            23.896              Murmansk2           746.750
       189   02 Jun 2027 17:58:06.412   02 Jun 2027 17:58:54.193            47.781              Murmansk2          1493.156
       190   02 Jun 2027 18:05:52.070   02 Jun 2027 18:07:41.583           109.513               Magadan2          3422.281
       191   02 Jun 2027 18:07:51.017   02 Jun 2027 18:08:31.292            40.275               Magadan1          1258.594
       192   02 Jun 2027 19:38:14.330   02 Jun 2027 19:39:59.890           105.560                Anadyr2          3298.750
       193   02 Jun 2027 19:40:16.451   02 Jun 2027 19:41:59.763           103.312                Anadyr1          3228.500
       194   02 Jun 2027 19:42:01.227   02 Jun 2027 19:45:08.224           186.997               Magadan1          5843.656
       195   02 Jun 2027 19:51:21.931   02 Jun 2027 19:51:48.619            26.688               Magadan2           834.000
       196   02 Jun 2027 21:14:06.406   02 Jun 2027 21:16:16.368           129.962                Anadyr1          4061.313
       197   02 Jun 2027 21:16:21.007   02 Jun 2027 21:21:03.807           282.800                Norilsk          8837.500
       198   02 Jun 2027 21:21:51.235   02 Jun 2027 21:21:57.469             6.234                Irkutsk           194.812
       199   02 Jun 2027 21:22:31.599   02 Jun 2027 21:23:01.942            30.343                Norilsk           948.219
       200   02 Jun 2027 21:23:18.884   02 Jun 2027 21:24:07.723            48.839                Irkutsk          1526.219
       201   02 Jun 2027 21:27:17.475   02 Jun 2027 21:27:55.111            37.636                Irkutsk          1176.125
       202   02 Jun 2027 21:38:10.294   02 Jun 2027 21:39:11.642            61.348                Sumatra          1917.125
       203   02 Jun 2027 21:42:32.211   02 Jun 2027 21:42:56.339            24.128                Sumatra           754.000
       204   02 Jun 2027 22:49:32.079   02 Jun 2027 22:51:58.951           146.872                Anadyr1          4589.750
       205   02 Jun 2027 22:52:09.629   02 Jun 2027 22:53:19.517            69.888                Norilsk          2184.000
       206   02 Jun 2027 22:53:33.008   02 Jun 2027 22:53:49.006            15.998                Norilsk           499.938
       207   02 Jun 2027 22:55:03.418   02 Jun 2027 22:55:26.005            22.587               Magadan2           705.844
       208   02 Jun 2027 22:55:57.733   02 Jun 2027 22:57:06.645            68.912                Irkutsk          2153.500
       209   02 Jun 2027 22:59:38.461   02 Jun 2027 23:00:24.768            46.307                Novosib          1447.094
       210   02 Jun 2027 23:09:40.304   02 Jun 2027 23:10:10.591            30.287                Sumatra           946.469
       211   02 Jun 2027 23:12:07.182   02 Jun 2027 23:12:31.231            24.049                Sumatra           751.531
       212   02 Jun 2027 23:13:41.373   02 Jun 2027 23:14:07.230            25.857                Sumatra           808.031
       213   02 Jun 2027 23:16:17.071   02 Jun 2027 23:17:57.751           100.680                Sumatra          3146.250
       214   03 Jun 2027 00:23:54.400   03 Jun 2027 00:24:32.024            37.624                Anadyr1          1175.750
       215   03 Jun 2027 00:25:32.191   03 Jun 2027 00:25:59.434            27.243                Anadyr1           851.344
       216   03 Jun 2027 00:26:09.396   03 Jun 2027 00:26:27.806            18.410                Anadyr2           575.312
       217   03 Jun 2027 00:27:57.774   03 Jun 2027 00:28:10.120            12.346                Norilsk           385.813
       218   03 Jun 2027 00:28:35.860   03 Jun 2027 00:30:39.812           123.952               Magadan2          3873.500
       219   03 Jun 2027 00:31:31.252   03 Jun 2027 00:32:19.523            48.271              Murmansk1          1508.469
       220   03 Jun 2027 00:32:19.523   03 Jun 2027 00:34:23.081           123.558              Murmansk2          3861.188
       221   03 Jun 2027 00:39:14.607   03 Jun 2027 00:40:06.380            51.773                  Delhi          1617.906
       222   03 Jun 2027 00:45:22.386   03 Jun 2027 00:45:40.019            17.633                  Delhi           551.031
       223   03 Jun 2027 00:47:32.698   03 Jun 2027 00:48:45.104            72.406                  Delhi          2262.687
       224   03 Jun 2027 01:23:40.667   03 Jun 2027 01:23:58.613            17.946            RioGallegos           560.813
       225   03 Jun 2027 01:24:40.099   03 Jun 2027 01:25:02.600            22.501            RioGallegos           703.156
       226   03 Jun 2027 01:26:47.108   03 Jun 2027 01:27:02.234            15.126            RioGallegos           472.688
       227   03 Jun 2027 01:28:58.017   03 Jun 2027 01:29:11.972            13.955            RioGallegos           436.094
       228   03 Jun 2027 01:57:15.422   03 Jun 2027 01:57:20.515             5.093                Anadyr1           159.156
       229   03 Jun 2027 01:57:40.942   03 Jun 2027 01:57:44.237             3.295                Anadyr1           102.969
       230   03 Jun 2027 01:57:55.781   03 Jun 2027 01:58:17.996            22.215                Anadyr1           694.219
       231   03 Jun 2027 01:58:50.538   03 Jun 2027 01:59:14.447            23.909                Anadyr2           747.156
       232   03 Jun 2027 01:59:41.424   03 Jun 2027 02:00:15.869            34.445                Anadyr2          1076.406
       233   03 Jun 2027 02:03:01.320   03 Jun 2027 02:03:37.935            36.615                Anadyr2          1144.219
       234   03 Jun 2027 02:03:43.713   03 Jun 2027 02:04:32.394            48.681               Magadan2          1521.281
       235   03 Jun 2027 02:05:15.355   03 Jun 2027 02:05:30.666            15.311                Norilsk           478.469
       236   03 Jun 2027 02:06:10.880   03 Jun 2027 02:07:40.970            90.090              Murmansk2          2815.312
       237   03 Jun 2027 02:07:48.087   03 Jun 2027 02:08:51.377            63.290                Novosib          1977.813
       238   03 Jun 2027 02:13:22.218   03 Jun 2027 02:13:30.739             8.521                Irkutsk           266.281
       239   03 Jun 2027 02:15:04.611   03 Jun 2027 02:16:34.335            89.724                 Moscow          2803.875
       240   03 Jun 2027 02:43:04.475   03 Jun 2027 02:43:10.641             6.166               CapeTown           192.688
       241   03 Jun 2027 02:43:33.980   03 Jun 2027 02:43:49.574            15.594               CapeTown           487.312
       242   03 Jun 2027 03:50:48.585   03 Jun 2027 03:51:06.002            17.417                Norilsk           544.281
       243   03 Jun 2027 03:51:17.456   03 Jun 2027 03:51:44.777            27.321              Murmansk2           853.781
       244   03 Jun 2027 03:51:45.983   03 Jun 2027 03:52:01.006            15.023              Murmansk1           469.469
       245   03 Jun 2027 03:52:45.636   03 Jun 2027 03:52:47.445             1.809              Murmansk2            56.531
       246   03 Jun 2027 03:52:47.445   03 Jun 2027 03:54:21.532            94.087              Murmansk1          2940.219
       247   03 Jun 2027 03:54:21.532   03 Jun 2027 03:54:35.895            14.363              Murmansk2           448.844
       248   03 Jun 2027 03:54:36.828   03 Jun 2027 03:58:09.196           212.368                 Moscow          6636.500
       249   03 Jun 2027 04:09:15.567   03 Jun 2027 04:10:09.551            53.984               CapeTown          1687.000
       250   03 Jun 2027 04:10:10.691   03 Jun 2027 04:12:10.920           120.229               CapeTown          3757.156
       251   03 Jun 2027 05:12:44.504   03 Jun 2027 05:14:39.142           114.638               Magadan1          3582.437
       252   03 Jun 2027 05:14:39.142   03 Jun 2027 05:16:26.507           107.365               Magadan2          3355.156
       253   03 Jun 2027 05:16:33.327   03 Jun 2027 05:17:03.769            30.442                Anadyr1           951.313
       254   03 Jun 2027 05:17:08.020   03 Jun 2027 05:17:48.257            40.237               Magadan2          1257.406
       255   03 Jun 2027 06:46:25.736   03 Jun 2027 06:47:17.383            51.647                Anadyr2          1613.969
       256   03 Jun 2027 06:47:35.026   03 Jun 2027 06:47:51.470            16.444                Anadyr1           513.875
       257   03 Jun 2027 06:48:02.656   03 Jun 2027 06:48:46.827            44.171                Anadyr2          1380.344
       258   03 Jun 2027 06:48:49.977   03 Jun 2027 06:49:14.197            24.220               Magadan1           756.875
       259   03 Jun 2027 06:49:15.560   03 Jun 2027 06:50:23.190            67.630               Magadan2          2113.437
       260   03 Jun 2027 06:50:31.740   03 Jun 2027 06:50:33.032             1.292               Magadan1            40.375
       261   03 Jun 2027 06:50:33.032   03 Jun 2027 06:50:42.047             9.015               Magadan2           281.719
       262   03 Jun 2027 06:51:00.407   03 Jun 2027 06:52:23.466            83.059                Anadyr2          2595.594
       263   03 Jun 2027 06:57:28.118   03 Jun 2027 06:57:31.302             3.184              Murmansk1            99.500
       264   03 Jun 2027 06:59:01.653   03 Jun 2027 06:59:30.346            28.693                 Moscow           896.656
       265   03 Jun 2027 07:34:50.110   03 Jun 2027 07:34:56.769             6.659            RioGallegos           208.094
       266   03 Jun 2027 07:36:22.603   03 Jun 2027 07:37:47.389            84.786            RioGallegos          2649.563
       267   03 Jun 2027 08:21:02.376   03 Jun 2027 08:21:38.768            36.392               Magadan2          1137.250
       268   03 Jun 2027 08:21:41.208   03 Jun 2027 08:22:50.736            69.528               Magadan2          2172.750
       269   03 Jun 2027 08:22:54.504   03 Jun 2027 08:23:18.818            24.314               Magadan2           759.813
       270   03 Jun 2027 08:23:45.361   03 Jun 2027 08:24:10.046            24.685               Magadan2           771.406
       271   03 Jun 2027 08:24:16.317   03 Jun 2027 08:24:27.013            10.696               Magadan2           334.250
       272   03 Jun 2027 08:24:56.006   03 Jun 2027 08:25:25.320            29.314               Magadan1           916.062
       273   03 Jun 2027 08:25:25.320   03 Jun 2027 08:26:36.069            70.749               Magadan2          2210.906
       274   03 Jun 2027 08:26:54.699   03 Jun 2027 08:28:00.754            66.055                Irkutsk          2064.219
       275   03 Jun 2027 08:28:05.723   03 Jun 2027 08:28:17.507            11.784                Norilsk           368.250
       276   03 Jun 2027 08:28:21.674   03 Jun 2027 08:29:40.340            78.666                Anadyr1          2458.313
       277   03 Jun 2027 08:29:47.893   03 Jun 2027 08:30:18.638            30.745              Murmansk2           960.781
       278   03 Jun 2027 08:30:33.119   03 Jun 2027 08:30:55.270            22.151              Murmansk2           692.219
       279   03 Jun 2027 09:05:23.926   03 Jun 2027 09:06:11.890            47.964            RioGallegos          1498.875
       280   03 Jun 2027 09:10:53.959   03 Jun 2027 09:11:08.456            14.497            RioGallegos           453.031
       281   03 Jun 2027 09:43:18.493   03 Jun 2027 09:44:40.759            82.266                Sumatra          2570.812
       282   03 Jun 2027 09:58:55.376   03 Jun 2027 09:59:25.656            30.280               Magadan1           946.250
       283   03 Jun 2027 09:59:32.287   03 Jun 2027 10:00:09.516            37.229                Irkutsk          1163.406
       284   03 Jun 2027 10:00:17.006   03 Jun 2027 10:00:36.946            19.940                Novosib           623.125
       285   03 Jun 2027 10:00:38.148   03 Jun 2027 10:01:42.713            64.565                Novosib          2017.656
       286   03 Jun 2027 10:01:57.152   03 Jun 2027 10:02:14.966            17.814                Norilsk           556.687
       287   03 Jun 2027 10:02:18.082   03 Jun 2027 10:02:20.556             2.474                Irkutsk            77.312
       288   03 Jun 2027 10:02:41.124   03 Jun 2027 10:03:01.643            20.519               Magadan2           641.219
       289   03 Jun 2027 10:03:08.352   03 Jun 2027 10:03:30.911            22.559                Novosib           704.969
       290   03 Jun 2027 10:03:37.615   03 Jun 2027 10:03:40.730             3.115                Norilsk            97.344
       291   03 Jun 2027 10:03:41.989   03 Jun 2027 10:04:28.306            46.317               Magadan2          1447.406
       292   03 Jun 2027 10:04:32.475   03 Jun 2027 10:04:39.607             7.132                Norilsk           222.875
       293   03 Jun 2027 10:04:42.866   03 Jun 2027 10:04:52.617             9.751                Novosib           304.719
       294   03 Jun 2027 10:05:04.802   03 Jun 2027 10:05:36.685            31.883                Novosib           996.344
       295   03 Jun 2027 10:05:39.783   03 Jun 2027 10:06:21.583            41.800              Murmansk1          1306.250
       296   03 Jun 2027 10:07:18.422   03 Jun 2027 10:07:30.857            12.435              Murmansk2           388.594
       297   03 Jun 2027 10:41:06.954   03 Jun 2027 10:42:20.189            73.235            RioGallegos          2288.594
       298   03 Jun 2027 11:15:41.682   03 Jun 2027 11:15:47.521             5.839                Sumatra           182.469
       299   03 Jun 2027 11:17:35.136   03 Jun 2027 11:18:20.771            45.635                Sumatra          1426.094
       300   03 Jun 2027 11:28:38.008   03 Jun 2027 11:28:56.349            18.341                  Delhi           573.156
       301   03 Jun 2027 11:36:04.208   03 Jun 2027 11:36:13.734             9.526                Novosib           297.687
       302   03 Jun 2027 11:36:37.156   03 Jun 2027 11:36:55.324            18.168                Irkutsk           567.750
       303   03 Jun 2027 11:37:26.630   03 Jun 2027 11:37:29.764             3.134                Norilsk            97.937
       304   03 Jun 2027 11:37:37.830   03 Jun 2027 11:37:47.455             9.625                Norilsk           300.781
       305   03 Jun 2027 11:37:50.410   03 Jun 2027 11:37:59.358             8.948              Murmansk2           279.625
       306   03 Jun 2027 11:38:14.045   03 Jun 2027 11:38:44.079            30.034                Irkutsk           938.563
       307   03 Jun 2027 11:39:04.475   03 Jun 2027 11:39:20.925            16.450                Norilsk           514.063
       308   03 Jun 2027 11:39:33.536   03 Jun 2027 11:39:53.632            20.096                 Moscow           628.000
       309   03 Jun 2027 11:40:02.262   03 Jun 2027 11:41:04.058            61.796              Murmansk1          1931.125
       310   03 Jun 2027 11:41:24.123   03 Jun 2027 11:41:39.490            15.367              Murmansk2           480.219
       311   03 Jun 2027 11:41:39.490   03 Jun 2027 11:41:52.418            12.928              Murmansk1           404.000
       312   03 Jun 2027 11:42:03.402   03 Jun 2027 11:42:13.839            10.437                Norilsk           326.156
       313   03 Jun 2027 11:42:32.745   03 Jun 2027 11:42:44.251            11.506                 Moscow           359.562
       314   03 Jun 2027 11:42:44.745   03 Jun 2027 11:43:14.385            29.640              Murmansk1           926.250
       315   03 Jun 2027 12:21:56.889   03 Jun 2027 12:22:40.013            43.124            RioGallegos          1347.625
       316   03 Jun 2027 12:24:01.663   03 Jun 2027 12:24:35.586            33.923            RioGallegos          1060.094
       317   03 Jun 2027 13:00:51.488   03 Jun 2027 13:01:16.286            24.798                  Delhi           774.937
       318   03 Jun 2027 13:02:06.868   03 Jun 2027 13:02:55.972            49.104                  Delhi          1534.500
       319   03 Jun 2027 13:08:02.447   03 Jun 2027 13:09:38.763            96.316                Novosib          3009.875
       320   03 Jun 2027 13:10:13.384   03 Jun 2027 13:12:02.697           109.313                Novosib          3416.031
       321   03 Jun 2027 13:12:03.589   03 Jun 2027 13:13:02.610            59.021                Norilsk          1844.406
       322   03 Jun 2027 13:17:55.092   03 Jun 2027 13:18:47.466            52.374                Novosib          1636.687
       323   03 Jun 2027 14:44:16.818   03 Jun 2027 14:47:09.127           172.309                 Moscow          5384.656
       324   03 Jun 2027 14:47:35.782   03 Jun 2027 14:47:58.545            22.763                 Moscow           711.344
       325   03 Jun 2027 14:49:03.680   03 Jun 2027 14:51:04.939           121.259              Murmansk1          3789.344
       326   03 Jun 2027 14:52:10.582   03 Jun 2027 14:53:31.017            80.435                Norilsk          2513.594
       327   03 Jun 2027 14:55:09.347   03 Jun 2027 14:56:57.981           108.634                Norilsk          3394.813
       328   03 Jun 2027 15:58:39.151   03 Jun 2027 15:59:35.107            55.956               CapeTown          1748.625
       329   03 Jun 2027 16:09:13.962   03 Jun 2027 16:09:36.260            22.298               CapeTown           696.813
       330   03 Jun 2027 16:21:55.625   03 Jun 2027 16:22:44.413            48.788                 Moscow          1524.625
       331   03 Jun 2027 16:24:57.954   03 Jun 2027 16:26:12.347            74.393              Murmansk1          2324.781
       332   03 Jun 2027 16:28:43.198   03 Jun 2027 16:29:09.077            25.879              Murmansk2           808.719
       333   03 Jun 2027 16:32:54.492   03 Jun 2027 16:32:57.264             2.772              Murmansk1            86.625
       334   03 Jun 2027 16:33:31.157   03 Jun 2027 16:34:32.566            61.409              Murmansk1          1919.031
       335   03 Jun 2027 16:38:43.837   03 Jun 2027 16:39:49.004            65.167                Anadyr1          2036.469
       336   03 Jun 2027 16:40:22.228   03 Jun 2027 16:40:40.101            17.873                Anadyr2           558.531
       337   03 Jun 2027 16:44:10.336   03 Jun 2027 16:44:45.330            34.994                Anadyr1          1093.562
       338   03 Jun 2027 17:33:50.578   03 Jun 2027 17:34:40.678            50.100               CapeTown          1565.625
       339   03 Jun 2027 17:41:53.182   03 Jun 2027 17:42:07.853            14.671               CapeTown           458.469
       340   03 Jun 2027 17:42:45.717   03 Jun 2027 17:43:23.981            38.264               CapeTown          1195.750
       341   03 Jun 2027 18:04:30.688   03 Jun 2027 18:05:53.821            83.133              Murmansk1          2597.906
       342   03 Jun 2027 18:05:55.984   03 Jun 2027 18:08:43.669           167.685              Murmansk2          5240.156
       343   03 Jun 2027 18:14:20.412   03 Jun 2027 18:14:45.335            24.923                Anadyr1           778.844
       344   03 Jun 2027 18:15:53.008   03 Jun 2027 18:16:07.627            14.619                Anadyr1           456.844
       345   03 Jun 2027 18:17:34.559   03 Jun 2027 18:18:46.637            72.078               Magadan1          2252.437
       346   03 Jun 2027 18:19:03.547   03 Jun 2027 18:19:12.560             9.013               Magadan1           281.656
       347   03 Jun 2027 18:19:57.903   03 Jun 2027 18:20:06.482             8.579               Magadan2           268.094
       348   03 Jun 2027 18:22:11.707   03 Jun 2027 18:22:29.489            17.782               Magadan1           555.688
       349   03 Jun 2027 19:50:15.924   03 Jun 2027 19:52:00.136           104.212                Anadyr2          3256.625
       350   03 Jun 2027 19:52:06.639   03 Jun 2027 19:54:01.057           114.418                Anadyr1          3575.562
       351   03 Jun 2027 19:54:08.507   03 Jun 2027 19:54:55.850            47.343               Magadan1          1479.469
       352   03 Jun 2027 19:55:08.087   03 Jun 2027 19:56:18.810            70.723               Magadan2          2210.094
       353   03 Jun 2027 19:57:30.837   03 Jun 2027 19:57:56.099            25.262               Magadan2           789.438
       354   03 Jun 2027 19:57:56.099   03 Jun 2027 19:58:27.994            31.895               Magadan1           996.719
       355   03 Jun 2027 20:00:15.871   03 Jun 2027 20:00:33.845            17.974               Magadan2           561.687
       356   03 Jun 2027 20:01:51.220   03 Jun 2027 20:02:18.438            27.218               Magadan2           850.562
       357   03 Jun 2027 20:04:24.304   03 Jun 2027 20:04:34.708            10.404               Magadan1           325.125
       358   03 Jun 2027 20:47:01.158   03 Jun 2027 20:49:08.783           127.625            RioGallegos          3988.281
       359   03 Jun 2027 21:26:06.225   03 Jun 2027 21:27:28.254            82.029                Anadyr1          2563.406
       360   03 Jun 2027 21:27:41.070   03 Jun 2027 21:27:48.855             7.785                Anadyr1           243.281
       361   03 Jun 2027 21:28:16.394   03 Jun 2027 21:30:17.186           120.792                Norilsk          3774.750
       362   03 Jun 2027 21:30:31.947   03 Jun 2027 21:30:51.781            19.834                Norilsk           619.813
       363   03 Jun 2027 21:30:52.491   03 Jun 2027 21:31:33.390            40.899               Magadan2          1278.094
       364   03 Jun 2027 21:32:17.937   03 Jun 2027 21:33:39.278            81.341                Norilsk          2541.906
       365   03 Jun 2027 21:35:03.925   03 Jun 2027 21:35:20.882            16.957                Irkutsk           529.906
       366   03 Jun 2027 21:36:08.091   03 Jun 2027 21:36:10.939             2.848                Irkutsk            89.000
       367   03 Jun 2027 21:48:40.317   03 Jun 2027 21:50:36.783           116.466                Sumatra          3639.563
       368   03 Jun 2027 21:53:00.330   03 Jun 2027 21:54:23.747            83.417                Sumatra          2606.781
       369   03 Jun 2027 23:01:26.101   03 Jun 2027 23:01:55.603            29.502                Anadyr1           921.938
       370   03 Jun 2027 23:02:12.746   03 Jun 2027 23:02:22.903            10.157                Anadyr2           317.406
       371   03 Jun 2027 23:02:44.076   03 Jun 2027 23:03:56.560            72.484                Anadyr1          2265.125
       372   03 Jun 2027 23:04:35.584   03 Jun 2027 23:05:19.098            43.514               Magadan1          1359.812
       373   03 Jun 2027 23:07:32.495   03 Jun 2027 23:07:46.095            13.600                Norilsk           425.000
       374   03 Jun 2027 23:07:56.093   03 Jun 2027 23:09:05.395            69.302                Irkutsk          2165.688
       375   03 Jun 2027 23:09:08.807   03 Jun 2027 23:09:43.826            35.019                Novosib          1094.344
       376   03 Jun 2027 23:15:14.292   03 Jun 2027 23:15:58.226            43.934                Novosib          1372.937
       377   03 Jun 2027 23:18:00.640   03 Jun 2027 23:18:20.908            20.268                Novosib           633.375
       378   03 Jun 2027 23:19:37.505   03 Jun 2027 23:20:53.862            76.357                  Delhi          2386.156
       379   03 Jun 2027 23:21:35.311   03 Jun 2027 23:22:59.400            84.089                  Delhi          2627.781
       380   04 Jun 2027 00:36:33.163   04 Jun 2027 00:37:37.226            64.063                Anadyr2          2001.969
       381   04 Jun 2027 00:37:37.226   04 Jun 2027 00:38:08.433            31.207                Anadyr1           975.219
       382   04 Jun 2027 00:39:59.912   04 Jun 2027 00:40:11.322            11.410                Norilsk           356.563
       383   04 Jun 2027 00:40:36.480   04 Jun 2027 00:42:17.944           101.464               Magadan2          3170.750
       384   04 Jun 2027 00:43:05.040   04 Jun 2027 00:45:19.445           134.405              Murmansk2          4200.156
       385   04 Jun 2027 00:48:24.482   04 Jun 2027 00:49:42.722            78.240                Novosib          2445.000
       386   04 Jun 2027 00:54:47.644   04 Jun 2027 00:54:54.786             7.142                  Delhi           223.188
       387   04 Jun 2027 00:55:13.157   04 Jun 2027 00:56:48.177            95.020                  Delhi          2969.375
       388   04 Jun 2027 01:32:54.403   04 Jun 2027 01:33:23.239            28.836            RioGallegos           901.125
       389   04 Jun 2027 01:38:17.035   04 Jun 2027 01:38:26.120             9.085            RioGallegos           283.906
       390   04 Jun 2027 01:40:01.242   04 Jun 2027 01:40:31.373            30.131            RioGallegos           941.594
       391   04 Jun 2027 02:08:56.885   04 Jun 2027 02:09:25.289            28.404                Anadyr1           887.625
       392   04 Jun 2027 02:10:16.258   04 Jun 2027 02:10:36.986            20.728                Anadyr2           647.750
       393   04 Jun 2027 02:11:14.742   04 Jun 2027 02:11:40.067            25.325                Anadyr2           791.406
       394   04 Jun 2027 02:14:15.627   04 Jun 2027 02:14:30.442            14.815                Anadyr2           462.969
       395   04 Jun 2027 02:15:05.011   04 Jun 2027 02:15:57.608            52.597               Magadan2          1643.656
       396   04 Jun 2027 02:16:24.984   04 Jun 2027 02:17:15.040            50.056               Magadan1          1564.250
       397   04 Jun 2027 02:18:10.885   04 Jun 2027 02:19:35.158            84.273              Murmansk2          2633.531
       398   04 Jun 2027 02:19:52.413   04 Jun 2027 02:21:08.808            76.395                Novosib          2387.344
       399   04 Jun 2027 02:29:02.618   04 Jun 2027 02:29:23.524            20.906                  Delhi           653.313
       400   04 Jun 2027 02:29:59.913   04 Jun 2027 02:31:13.385            73.472                  Delhi          2296.000
       401   04 Jun 2027 04:02:38.418   04 Jun 2027 04:03:03.449            25.031              Murmansk2           782.219
       402   04 Jun 2027 04:03:09.810   04 Jun 2027 04:03:17.556             7.746                Norilsk           242.063
       403   04 Jun 2027 04:03:53.642   04 Jun 2027 04:04:35.019            41.377              Murmansk2          1293.031
       404   04 Jun 2027 04:05:01.583   04 Jun 2027 04:06:45.779           104.196              Murmansk2          3256.125
       405   04 Jun 2027 04:06:45.779   04 Jun 2027 04:06:46.290             0.511              Murmansk1            15.969
       406   04 Jun 2027 04:30:13.149   04 Jun 2027 04:30:35.892            22.743               CapeTown           710.719
       407   04 Jun 2027 05:24:38.700   04 Jun 2027 05:26:45.956           127.256               Magadan2          3976.750
       408   04 Jun 2027 05:26:49.613   04 Jun 2027 05:29:41.899           172.286                Anadyr2          5383.937
       409   04 Jun 2027 05:30:32.966   04 Jun 2027 05:30:52.536            19.570                Anadyr1           611.563
       410   04 Jun 2027 07:00:42.204   04 Jun 2027 07:00:44.664             2.460                Anadyr1            76.875
       411   04 Jun 2027 07:00:45.502   04 Jun 2027 07:00:53.276             7.774               Magadan2           242.938
       412   04 Jun 2027 07:01:19.119   04 Jun 2027 07:02:00.982            41.863                Anadyr2          1308.219
       413   04 Jun 2027 07:02:03.226   04 Jun 2027 07:02:31.068            27.842               Magadan2           870.063
       414   04 Jun 2027 07:02:34.961   04 Jun 2027 07:04:24.456           109.495               Magadan2          3421.719
       415   04 Jun 2027 07:44:35.279   04 Jun 2027 07:45:15.247            39.968            RioGallegos          1249.000
       416   04 Jun 2027 08:34:05.965   04 Jun 2027 08:34:24.358            18.393                Irkutsk           574.781
       417   04 Jun 2027 08:34:25.684   04 Jun 2027 08:34:43.487            17.803                Irkutsk           556.344
       418   04 Jun 2027 08:34:55.160   04 Jun 2027 08:35:17.738            22.578               Magadan2           705.563
       419   04 Jun 2027 08:35:19.670   04 Jun 2027 08:36:11.456            51.786               Magadan1          1618.313
       420   04 Jun 2027 08:36:15.015   04 Jun 2027 08:36:58.196            43.181               Magadan1          1349.406
       421   04 Jun 2027 08:37:11.115   04 Jun 2027 08:38:17.545            66.430                Anadyr2          2075.938
       422   04 Jun 2027 08:38:27.637   04 Jun 2027 08:39:23.147            55.510                Irkutsk          1734.687
       423   04 Jun 2027 08:39:29.656   04 Jun 2027 08:39:35.052             5.396                Norilsk           168.625
       424   04 Jun 2027 08:39:35.322   04 Jun 2027 08:40:28.904            53.582               Magadan1          1674.437
       425   04 Jun 2027 08:40:33.772   04 Jun 2027 08:41:31.965            58.193               Magadan2          1818.531
       426   04 Jun 2027 08:41:35.587   04 Jun 2027 08:42:07.212            31.625              Murmansk1           988.281
       427   04 Jun 2027 08:42:11.338   04 Jun 2027 08:42:40.822            29.484                Norilsk           921.375
       428   04 Jun 2027 08:48:09.638   04 Jun 2027 08:48:15.086             5.448              Murmansk2           170.250
       429   04 Jun 2027 08:49:32.292   04 Jun 2027 08:49:37.473             5.181              Murmansk1           161.906
       430   04 Jun 2027 08:51:23.395   04 Jun 2027 08:51:32.535             9.140              Murmansk1           285.625
       431   04 Jun 2027 09:17:12.413   04 Jun 2027 09:17:48.383            35.970            RioGallegos          1124.063
       432   04 Jun 2027 09:18:07.206   04 Jun 2027 09:18:24.820            17.614            RioGallegos           550.437
       433   04 Jun 2027 09:22:42.897   04 Jun 2027 09:22:55.740            12.843            RioGallegos           401.344
       434   04 Jun 2027 09:54:09.883   04 Jun 2027 09:55:40.108            90.225                Sumatra          2819.531
       435   04 Jun 2027 10:11:21.075   04 Jun 2027 10:11:22.025             0.950                Norilsk            29.687
       436   04 Jun 2027 10:11:56.808   04 Jun 2027 10:12:00.325             3.517                Novosib           109.906
       437   04 Jun 2027 10:12:04.884   04 Jun 2027 10:12:34.725            29.841                Novosib           932.531
       438   04 Jun 2027 10:12:43.077   04 Jun 2027 10:13:22.736            39.659               Magadan1          1239.344
       439   04 Jun 2027 10:13:33.994   04 Jun 2027 10:13:43.236             9.242                Norilsk           288.813
       440   04 Jun 2027 10:13:47.599   04 Jun 2027 10:14:06.144            18.545                Novosib           579.531
       441   04 Jun 2027 10:14:24.750   04 Jun 2027 10:14:27.245             2.495                Irkutsk            77.969
       442   04 Jun 2027 10:14:42.110   04 Jun 2027 10:15:31.568            49.458               Magadan2          1545.562
       443   04 Jun 2027 10:15:33.929   04 Jun 2027 10:15:35.730             1.801              Murmansk2            56.281
       444   04 Jun 2027 10:15:39.211   04 Jun 2027 10:15:50.822            11.611              Murmansk2           362.844
       445   04 Jun 2027 10:15:59.868   04 Jun 2027 10:16:14.972            15.104                Norilsk           472.000
       446   04 Jun 2027 10:16:36.465   04 Jun 2027 10:17:33.281            56.816              Murmansk2          1775.500
       447   04 Jun 2027 10:17:37.793   04 Jun 2027 10:17:42.460             4.667                Irkutsk           145.844
       448   04 Jun 2027 10:17:43.756   04 Jun 2027 10:18:22.502            38.746              Murmansk1          1210.812
       449   04 Jun 2027 10:21:18.271   04 Jun 2027 10:21:59.919            41.648              Murmansk1          1301.500
       450   04 Jun 2027 10:53:22.883   04 Jun 2027 10:54:01.042            38.159            RioGallegos          1192.469
       451   04 Jun 2027 11:27:48.750   04 Jun 2027 11:27:57.305             8.555                Sumatra           267.344
       452   04 Jun 2027 11:28:06.950   04 Jun 2027 11:30:05.213           118.263                Sumatra          3695.719
       453   04 Jun 2027 11:48:40.449   04 Jun 2027 11:49:48.691            68.242                Novosib          2132.562
       454   04 Jun 2027 11:50:00.952   04 Jun 2027 11:50:11.761            10.809              Murmansk1           337.781
       455   04 Jun 2027 11:50:17.121   04 Jun 2027 11:51:20.611            63.490                Irkutsk          1984.063
       456   04 Jun 2027 11:51:23.415   04 Jun 2027 11:51:35.734            12.319              Murmansk2           384.969
       457   04 Jun 2027 11:51:35.734   04 Jun 2027 11:52:03.594            27.860              Murmansk1           870.625
       458   04 Jun 2027 11:52:09.075   04 Jun 2027 11:53:18.773            69.698                Norilsk          2178.063
       459   04 Jun 2027 11:53:23.566   04 Jun 2027 11:54:03.558            39.992              Murmansk1          1249.750
       460   04 Jun 2027 11:54:23.409   04 Jun 2027 11:54:50.979            27.570                 Moscow           861.563
       461   04 Jun 2027 13:12:23.421   04 Jun 2027 13:12:57.001            33.580                  Delhi          1049.375
       462   04 Jun 2027 13:14:02.197   04 Jun 2027 13:14:14.347            12.150                  Delhi           379.688
       463   04 Jun 2027 13:14:41.287   04 Jun 2027 13:17:01.589           140.302                  Delhi          4384.438
       464   04 Jun 2027 13:20:31.508   04 Jun 2027 13:21:28.089            56.581                Novosib          1768.156
       465   04 Jun 2027 13:24:01.498   04 Jun 2027 13:25:42.420           100.922                Novosib          3153.813
       466   04 Jun 2027 13:25:43.480   04 Jun 2027 13:27:05.643            82.163                Norilsk          2567.594
       467   04 Jun 2027 13:28:01.632   04 Jun 2027 13:29:15.153            73.521                Norilsk          2297.531
       468   04 Jun 2027 13:34:22.732   04 Jun 2027 13:35:06.739            44.007                Norilsk          1375.219
       469   04 Jun 2027 14:56:19.564   04 Jun 2027 15:00:19.910           240.346                 Moscow          7510.813
       470   04 Jun 2027 15:01:27.136   04 Jun 2027 15:01:34.813             7.677              Murmansk1           239.906
       471   04 Jun 2027 15:03:27.348   04 Jun 2027 15:04:06.899            39.551              Murmansk1          1235.969
       472   04 Jun 2027 15:04:59.516   04 Jun 2027 15:07:06.769           127.253                Norilsk          3976.656
       473   04 Jun 2027 15:09:15.052   04 Jun 2027 15:09:22.829             7.777                Norilsk           243.031
       474   04 Jun 2027 16:10:22.198   04 Jun 2027 16:10:49.388            27.190               CapeTown           849.688
       475   04 Jun 2027 16:10:54.721   04 Jun 2027 16:10:59.317             4.596               CapeTown           143.625
       476   04 Jun 2027 16:11:40.718   04 Jun 2027 16:12:07.882            27.164               CapeTown           848.875
       477   04 Jun 2027 16:15:57.681   04 Jun 2027 16:16:36.716            39.035               CapeTown          1219.844
       478   04 Jun 2027 16:17:21.709   04 Jun 2027 16:17:52.597            30.888               CapeTown           965.250
       479   04 Jun 2027 16:20:23.977   04 Jun 2027 16:20:35.298            11.321               CapeTown           353.781
       480   04 Jun 2027 16:20:51.254   04 Jun 2027 16:21:21.065            29.811               CapeTown           931.594
       481   04 Jun 2027 16:34:28.943   04 Jun 2027 16:34:56.004            27.061                 Moscow           845.656
       482   04 Jun 2027 16:35:49.407   04 Jun 2027 16:36:04.324            14.917                 Moscow           466.156
