uniorb/output/strategy_2/Drop/Drop_KinoSat_111106.txt

KinoSat_111106
-------------------------
    Access    *     Start Time (UTCG)     *     Stop Time (UTCG)  *   Duration (s)        *       Station  *  Data (Mbytes)
         1   01 Jun 2027 03:31:07.748   01 Jun 2027 03:31:47.295            39.547              Murmansk1          1235.844
         2   01 Jun 2027 04:51:16.091   01 Jun 2027 04:52:21.406            65.315               Magadan2          2041.094
         3   01 Jun 2027 04:52:29.845   01 Jun 2027 04:54:35.835           125.990               Magadan2          3937.188
         4   01 Jun 2027 04:54:39.202   01 Jun 2027 04:55:09.159            29.957                Anadyr2           936.156
         5   01 Jun 2027 04:55:09.159   01 Jun 2027 04:55:13.961             4.802                Anadyr1           150.063
         6   01 Jun 2027 04:55:29.141   01 Jun 2027 04:55:29.945             0.804               Magadan2            25.125
         7   01 Jun 2027 06:26:26.137   01 Jun 2027 06:26:32.719             6.582                Irkutsk           205.688
         8   01 Jun 2027 06:27:01.742   01 Jun 2027 06:28:07.496            65.754                Irkutsk          2054.812
         9   01 Jun 2027 06:29:54.081   01 Jun 2027 06:30:43.963            49.882                Irkutsk          1558.812
        10   01 Jun 2027 08:03:30.888   01 Jun 2027 08:03:43.773            12.885               Magadan1           402.656
        11   01 Jun 2027 08:03:54.391   01 Jun 2027 08:06:16.758           142.367               Magadan2          4448.969
        12   01 Jun 2027 08:06:18.198   01 Jun 2027 08:07:40.538            82.340                Irkutsk          2573.125
        13   01 Jun 2027 08:44:05.590   01 Jun 2027 08:45:01.435            55.845            RioGallegos          1745.156
        14   01 Jun 2027 09:17:57.314   01 Jun 2027 09:18:50.745            53.431                Sumatra          1669.719
        15   01 Jun 2027 09:39:41.356   01 Jun 2027 09:43:51.649           250.293                Irkutsk          7821.656
        16   01 Jun 2027 09:43:53.286   01 Jun 2027 09:44:59.739            66.453                Norilsk          2076.656
        17   01 Jun 2027 09:45:28.258   01 Jun 2027 09:46:18.538            50.280              Murmansk1          1571.250
        18   01 Jun 2027 10:20:32.290   01 Jun 2027 10:20:54.024            21.734            RioGallegos           679.187
        19   01 Jun 2027 10:54:45.068   01 Jun 2027 10:55:25.408            40.340                Sumatra          1260.625
        20   01 Jun 2027 10:56:38.521   01 Jun 2027 10:57:56.075            77.554                Sumatra          2423.562
        21   01 Jun 2027 11:01:46.875   01 Jun 2027 11:02:53.507            66.632                  Delhi          2082.250
        22   01 Jun 2027 11:04:52.791   01 Jun 2027 11:05:01.580             8.789                  Delhi           274.656
        23   01 Jun 2027 11:17:03.305   01 Jun 2027 11:18:26.605            83.300                 Moscow          2603.125
        24   01 Jun 2027 11:18:34.726   01 Jun 2027 11:19:05.372            30.646                Novosib           957.688
        25   01 Jun 2027 11:19:16.121   01 Jun 2027 11:21:01.352           105.231                Norilsk          3288.469
        26   01 Jun 2027 11:21:42.168   01 Jun 2027 11:21:45.570             3.402                Norilsk           106.313
        27   01 Jun 2027 11:22:24.456   01 Jun 2027 11:22:35.004            10.548                 Moscow           329.625
        28   01 Jun 2027 11:22:37.847   01 Jun 2027 11:23:01.616            23.769                Norilsk           742.781
        29   01 Jun 2027 11:24:04.680   01 Jun 2027 11:24:27.771            23.091              Murmansk1           721.594
        30   01 Jun 2027 12:40:08.320   01 Jun 2027 12:42:35.200           146.880                  Delhi          4590.000
        31   01 Jun 2027 12:47:10.658   01 Jun 2027 12:47:39.315            28.657                 Moscow           895.531
        32   01 Jun 2027 12:47:54.073   01 Jun 2027 12:48:12.692            18.619                  Delhi           581.844
        33   01 Jun 2027 12:48:40.719   01 Jun 2027 12:49:42.955            62.236                Novosib          1944.875
        34   01 Jun 2027 12:49:52.839   01 Jun 2027 12:52:27.583           154.744              Murmansk2          4835.750
        35   01 Jun 2027 12:54:57.615   01 Jun 2027 12:55:16.557            18.942                Norilsk           591.938
        36   01 Jun 2027 12:56:58.534   01 Jun 2027 12:57:11.850            13.316                Norilsk           416.125
        37   01 Jun 2027 14:02:57.263   01 Jun 2027 14:04:47.337           110.074               CapeTown          3439.812
        38   01 Jun 2027 14:06:12.046   01 Jun 2027 14:07:09.970            57.924               CapeTown          1810.125
        39   01 Jun 2027 14:22:30.907   01 Jun 2027 14:23:59.375            88.468                 Moscow          2764.625
        40   01 Jun 2027 14:25:58.555   01 Jun 2027 14:28:51.414           172.859              Murmansk1          5401.844
        41   01 Jun 2027 14:41:08.313   01 Jun 2027 14:42:53.838           105.525                Anadyr1          3297.656
        42   01 Jun 2027 14:43:44.263   01 Jun 2027 14:44:35.934            51.671                Anadyr1          1614.719
        43   01 Jun 2027 14:45:19.966   01 Jun 2027 14:46:41.680            81.714                Anadyr1          2553.563
        44   01 Jun 2027 15:35:34.486   01 Jun 2027 15:35:35.202             0.716               CapeTown            22.375
        45   01 Jun 2027 16:03:05.816   01 Jun 2027 16:03:35.128            29.312                 Moscow           916.000
        46   01 Jun 2027 16:04:22.898   01 Jun 2027 16:04:46.731            23.833              Murmansk1           744.781
        47   01 Jun 2027 16:05:04.925   01 Jun 2027 16:05:17.862            12.937              Murmansk2           404.281
        48   01 Jun 2027 16:05:46.455   01 Jun 2027 16:06:19.291            32.836              Murmansk2          1026.125
        49   01 Jun 2027 16:07:05.054   01 Jun 2027 16:07:35.485            30.431              Murmansk1           950.969
        50   01 Jun 2027 16:08:32.681   01 Jun 2027 16:08:50.650            17.969              Murmansk1           561.531
        51   01 Jun 2027 16:16:13.837   01 Jun 2027 16:18:32.018           138.181                Anadyr2          4318.156
        52   01 Jun 2027 16:19:59.658   01 Jun 2027 16:20:29.678            30.020                Anadyr1           938.125
        53   01 Jun 2027 16:21:55.551   01 Jun 2027 16:23:22.993            87.442               Magadan1          2732.563
        54   01 Jun 2027 17:12:41.506   01 Jun 2027 17:13:35.409            53.903               CapeTown          1684.469
        55   01 Jun 2027 17:46:24.126   01 Jun 2027 17:48:41.255           137.129              Murmansk1          4285.281
        56   01 Jun 2027 17:52:04.663   01 Jun 2027 17:54:02.774           118.111                Anadyr2          3690.969
        57   01 Jun 2027 17:54:37.594   01 Jun 2027 17:58:33.736           236.142               Magadan2          7379.438
        58   01 Jun 2027 19:27:59.343   01 Jun 2027 19:32:03.530           244.187                Anadyr2          7630.844
        59   01 Jun 2027 19:32:03.781   01 Jun 2027 19:34:14.873           131.092               Magadan1          4096.625
        60   01 Jun 2027 20:22:30.294   01 Jun 2027 20:26:20.659           230.365            RioGallegos          7198.906
        61   01 Jun 2027 21:03:41.610   01 Jun 2027 21:04:15.022            33.412                Anadyr2          1044.125
        62   01 Jun 2027 21:05:56.388   01 Jun 2027 21:08:45.943           169.555                Norilsk          5298.594
        63   01 Jun 2027 21:10:02.956   01 Jun 2027 21:10:55.444            52.488                Irkutsk          1640.250
        64   01 Jun 2027 21:11:13.581   01 Jun 2027 21:11:52.624            39.043                Irkutsk          1220.094
        65   01 Jun 2027 21:12:12.859   01 Jun 2027 21:12:50.974            38.115                Novosib          1191.094
        66   01 Jun 2027 21:14:14.396   01 Jun 2027 21:14:43.559            29.163                Novosib           911.344
        67   01 Jun 2027 21:23:49.714   01 Jun 2027 21:27:25.367           215.653                Sumatra          6739.156
        68   01 Jun 2027 22:42:24.775   01 Jun 2027 22:43:46.311            81.536               Magadan2          2548.000
        69   01 Jun 2027 22:44:21.537   01 Jun 2027 22:44:28.782             7.245               Magadan2           226.406
        70   01 Jun 2027 22:44:50.417   01 Jun 2027 22:45:10.753            20.336               Magadan1           635.500
        71   01 Jun 2027 22:45:38.724   01 Jun 2027 22:46:31.380            52.656                Irkutsk          1645.500
        72   01 Jun 2027 22:46:56.482   01 Jun 2027 22:47:53.954            57.472                Novosib          1796.000
        73   01 Jun 2027 22:48:06.887   01 Jun 2027 22:49:04.336            57.449                Novosib          1795.281
        74   01 Jun 2027 22:53:39.360   01 Jun 2027 22:56:29.436           170.076                  Delhi          5314.875
        75   02 Jun 2027 00:14:26.657   02 Jun 2027 00:15:06.447            39.790                Anadyr1          1243.437
        76   02 Jun 2027 00:17:56.397   02 Jun 2027 00:18:23.544            27.147               Magadan1           848.344
        77   02 Jun 2027 00:18:23.544   02 Jun 2027 00:19:51.690            88.146               Magadan2          2754.563
        78   02 Jun 2027 00:20:09.635   02 Jun 2027 00:22:21.772           132.137              Murmansk2          4129.281
        79   02 Jun 2027 00:25:06.078   02 Jun 2027 00:25:37.713            31.635                Novosib           988.594
        80   02 Jun 2027 00:25:46.363   02 Jun 2027 00:25:47.437             1.074                 Moscow            33.562
        81   02 Jun 2027 00:26:22.855   02 Jun 2027 00:27:21.004            58.149                 Moscow          1817.156
        82   02 Jun 2027 00:28:07.613   02 Jun 2027 00:28:49.125            41.512                 Moscow          1297.250
        83   02 Jun 2027 00:29:34.358   02 Jun 2027 00:29:50.708            16.350                  Delhi           510.937
        84   02 Jun 2027 01:45:20.686   02 Jun 2027 01:48:23.631           182.945                Anadyr1          5717.031
        85   02 Jun 2027 01:48:23.631   02 Jun 2027 01:48:26.248             2.617                Anadyr2            81.781
        86   02 Jun 2027 01:48:32.418   02 Jun 2027 01:48:59.200            26.782                Anadyr2           836.937
        87   02 Jun 2027 01:50:29.837   02 Jun 2027 01:51:48.947            79.110               Magadan1          2472.188
        88   02 Jun 2027 01:53:39.260   02 Jun 2027 01:53:48.222             8.962                Norilsk           280.063
        89   02 Jun 2027 01:54:10.109   02 Jun 2027 01:54:18.961             8.852               Magadan2           276.625
        90   02 Jun 2027 01:54:29.790   02 Jun 2027 01:55:21.202            51.412               Magadan2          1606.625
        91   02 Jun 2027 01:55:54.141   02 Jun 2027 01:56:35.653            41.512              Murmansk2          1297.250
        92   02 Jun 2027 01:57:55.335   02 Jun 2027 01:59:52.912           117.577                Novosib          3674.281
        93   02 Jun 2027 02:06:51.882   02 Jun 2027 02:07:31.799            39.917                Novosib          1247.406
        94   02 Jun 2027 02:23:39.891   02 Jun 2027 02:24:32.512            52.621               CapeTown          1644.406
        95   02 Jun 2027 02:28:19.220   02 Jun 2027 02:29:20.763            61.543               CapeTown          1923.219
        96   02 Jun 2027 03:26:54.477   02 Jun 2027 03:27:36.199            41.722               Magadan2          1303.813
        97   02 Jun 2027 03:41:28.189   02 Jun 2027 03:41:43.257            15.068              Murmansk1           470.875
        98   02 Jun 2027 03:42:34.293   02 Jun 2027 03:42:56.521            22.228              Murmansk1           694.625
        99   02 Jun 2027 03:43:24.374   02 Jun 2027 03:43:55.510            31.136              Murmansk1           973.000
       100   02 Jun 2027 03:44:35.976   02 Jun 2027 03:44:49.663            13.687              Murmansk1           427.719
       101   02 Jun 2027 05:01:40.600   02 Jun 2027 05:02:25.350            44.750                Anadyr1          1398.437
       102   02 Jun 2027 05:02:25.350   02 Jun 2027 05:02:51.565            26.215                Anadyr2           819.219
       103   02 Jun 2027 05:03:04.530   02 Jun 2027 05:04:46.432           101.902                Anadyr2          3184.438
       104   02 Jun 2027 05:04:46.432   02 Jun 2027 05:06:43.762           117.330                Anadyr1          3666.563
       105   02 Jun 2027 05:07:00.999   02 Jun 2027 05:07:38.395            37.396               Magadan2          1168.625
       106   02 Jun 2027 06:38:48.121   02 Jun 2027 06:40:06.282            78.161                Irkutsk          2442.531
       107   02 Jun 2027 06:41:46.344   02 Jun 2027 06:42:41.554            55.210                Anadyr1          1725.312
       108   02 Jun 2027 08:14:31.349   02 Jun 2027 08:16:44.417           133.068                Irkutsk          4158.375
       109   02 Jun 2027 08:16:57.999   02 Jun 2027 08:18:03.474            65.475                Novosib          2046.094
       110   02 Jun 2027 08:18:05.723   02 Jun 2027 08:18:29.130            23.407              Murmansk2           731.469
       111   02 Jun 2027 08:18:29.130   02 Jun 2027 08:18:41.722            12.592              Murmansk1           393.500
       112   02 Jun 2027 08:18:47.008   02 Jun 2027 08:18:54.536             7.528                Norilsk           235.250
       113   02 Jun 2027 08:19:06.001   02 Jun 2027 08:19:06.480             0.479              Murmansk1            14.969
       114   02 Jun 2027 08:19:16.125   02 Jun 2027 08:20:17.271            61.146              Murmansk1          1910.813
       115   02 Jun 2027 08:21:45.681   02 Jun 2027 08:22:22.356            36.675              Murmansk1          1146.094
       116   02 Jun 2027 08:54:38.313   02 Jun 2027 08:55:31.780            53.467            RioGallegos          1670.844
       117   02 Jun 2027 09:29:43.723   02 Jun 2027 09:31:02.190            78.467                Sumatra          2452.094
       118   02 Jun 2027 09:32:31.061   02 Jun 2027 09:33:25.872            54.811                Sumatra          1712.844
       119   02 Jun 2027 09:44:22.697   02 Jun 2027 09:44:31.906             9.209                  Delhi           287.781
       120   02 Jun 2027 09:47:26.678   02 Jun 2027 09:48:40.675            73.997                  Delhi          2312.406
       121   02 Jun 2027 09:49:58.720   02 Jun 2027 09:50:15.578            16.858                Irkutsk           526.812
       122   02 Jun 2027 09:51:23.568   02 Jun 2027 09:51:43.836            20.268                Norilsk           633.375
       123   02 Jun 2027 09:51:58.413   02 Jun 2027 09:52:05.741             7.328                Irkutsk           229.000
       124   02 Jun 2027 09:52:16.415   02 Jun 2027 09:52:36.712            20.297              Murmansk1           634.281
       125   02 Jun 2027 09:52:55.013   02 Jun 2027 09:53:30.630            35.617              Murmansk2          1113.031
       126   02 Jun 2027 09:53:31.493   02 Jun 2027 09:54:02.608            31.115                Irkutsk           972.344
       127   02 Jun 2027 09:54:06.906   02 Jun 2027 09:54:08.657             1.751                Irkutsk            54.719
       128   02 Jun 2027 09:54:15.652   02 Jun 2027 09:54:20.674             5.022                Novosib           156.937
       129   02 Jun 2027 09:54:20.876   02 Jun 2027 09:54:45.022            24.146              Murmansk2           754.562
       130   02 Jun 2027 09:55:11.516   02 Jun 2027 09:55:19.842             8.326              Murmansk1           260.187
       131   02 Jun 2027 09:55:19.842   02 Jun 2027 09:55:23.330             3.488              Murmansk2           109.000
       132   02 Jun 2027 09:55:24.933   02 Jun 2027 09:55:29.687             4.754                Norilsk           148.563
       133   02 Jun 2027 09:55:30.830   02 Jun 2027 09:55:35.761             4.931              Murmansk1           154.094
       134   02 Jun 2027 09:55:49.803   02 Jun 2027 09:56:15.642            25.839              Murmansk1           807.469
       135   02 Jun 2027 10:01:34.988   02 Jun 2027 10:01:40.620             5.632              Murmansk2           176.000
       136   02 Jun 2027 10:33:12.709   02 Jun 2027 10:33:40.322            27.613            RioGallegos           862.906
       137   02 Jun 2027 10:34:08.441   02 Jun 2027 10:34:37.266            28.825            RioGallegos           900.781
       138   02 Jun 2027 10:35:58.026   02 Jun 2027 10:36:55.665            57.639            RioGallegos          1801.219
       139   02 Jun 2027 11:07:33.620   02 Jun 2027 11:07:34.488             0.868                Sumatra            27.125
       140   02 Jun 2027 11:08:00.590   02 Jun 2027 11:09:42.607           102.017                Sumatra          3188.031
       141   02 Jun 2027 11:27:42.006   02 Jun 2027 11:28:25.390            43.384                Irkutsk          1355.750
       142   02 Jun 2027 11:28:35.387   02 Jun 2027 11:28:45.814            10.427                 Moscow           325.844
       143   02 Jun 2027 11:29:08.972   02 Jun 2027 11:30:36.012            87.040                 Moscow          2720.000
       144   02 Jun 2027 11:30:44.632   02 Jun 2027 11:31:00.294            15.662                 Moscow           489.438
       145   02 Jun 2027 11:31:15.577   02 Jun 2027 11:31:18.845             3.268                Novosib           102.125
       146   02 Jun 2027 11:31:21.823   02 Jun 2027 11:31:52.951            31.128                 Moscow           972.750
       147   02 Jun 2027 11:31:59.240   02 Jun 2027 11:32:13.438            14.198              Murmansk2           443.687
       148   02 Jun 2027 11:33:14.876   02 Jun 2027 11:33:17.229             2.353                 Moscow            73.531
       149   02 Jun 2027 12:53:24.633   02 Jun 2027 12:56:36.363           191.730                  Delhi          5991.563
       150   02 Jun 2027 12:59:43.144   02 Jun 2027 13:01:04.063            80.919                 Moscow          2528.719
       151   02 Jun 2027 13:01:33.966   02 Jun 2027 13:01:49.633            15.667              Murmansk1           489.594
       152   02 Jun 2027 13:01:49.633   02 Jun 2027 13:04:09.369           139.736              Murmansk2          4366.750
       153   02 Jun 2027 14:13:53.404   02 Jun 2027 14:16:24.006           150.602               CapeTown          4706.313
       154   02 Jun 2027 14:18:59.314   02 Jun 2027 14:19:44.487            45.173               CapeTown          1411.656
       155   02 Jun 2027 14:38:11.268   02 Jun 2027 14:40:24.079           132.811              Murmansk2          4150.344
       156   02 Jun 2027 14:40:53.157   02 Jun 2027 14:41:09.652            16.495              Murmansk2           515.469
       157   02 Jun 2027 14:45:13.229   02 Jun 2027 14:45:18.744             5.515              Murmansk2           172.344
       158   02 Jun 2027 14:46:37.734   02 Jun 2027 14:47:00.166            22.432              Murmansk1           701.000
       159   02 Jun 2027 14:52:56.215   02 Jun 2027 14:54:42.257           106.042                Anadyr1          3313.813
       160   02 Jun 2027 14:56:03.078   02 Jun 2027 14:56:21.531            18.453                Anadyr2           576.656
       161   02 Jun 2027 14:57:18.323   02 Jun 2027 14:57:55.334            37.011                Anadyr2          1156.594
       162   02 Jun 2027 15:51:59.134   02 Jun 2027 15:53:24.009            84.875               CapeTown          2652.344
       163   02 Jun 2027 16:16:53.702   02 Jun 2027 16:17:07.491            13.789              Murmansk1           430.906
       164   02 Jun 2027 16:17:54.432   02 Jun 2027 16:18:05.572            11.140              Murmansk2           348.125
       165   02 Jun 2027 16:18:47.075   02 Jun 2027 16:19:06.969            19.894              Murmansk1           621.687
       166   02 Jun 2027 16:19:41.448   02 Jun 2027 16:20:29.750            48.302              Murmansk1          1509.437
       167   02 Jun 2027 16:21:30.022   02 Jun 2027 16:22:28.485            58.463              Murmansk2          1826.969
       168   02 Jun 2027 16:28:13.602   02 Jun 2027 16:29:26.281            72.679                Anadyr2          2271.219
       169   02 Jun 2027 16:30:25.565   02 Jun 2027 16:30:33.356             7.791                Anadyr2           243.469
       170   02 Jun 2027 16:32:34.317   02 Jun 2027 16:33:32.659            58.342               Magadan2          1823.187
       171   02 Jun 2027 16:33:32.659   02 Jun 2027 16:35:20.362           107.703               Magadan1          3365.719
       172   02 Jun 2027 16:35:56.874   02 Jun 2027 16:36:07.077            10.203               Magadan2           318.844
       173   02 Jun 2027 18:04:06.142   02 Jun 2027 18:08:00.699           234.557                Anadyr1          7329.906
       174   02 Jun 2027 18:08:31.292   02 Jun 2027 18:10:58.214           146.922               Magadan2          4591.312
       175   02 Jun 2027 19:39:59.890   02 Jun 2027 19:43:50.467           230.577                Anadyr2          7205.531
       176   02 Jun 2027 19:44:19.422   02 Jun 2027 19:46:02.900           103.478                Norilsk          3233.688
       177   02 Jun 2027 19:46:26.681   02 Jun 2027 19:47:22.055            55.374               Magadan2          1730.437
       178   02 Jun 2027 19:48:46.016   02 Jun 2027 19:49:02.751            16.735               Magadan2           522.969
       179   02 Jun 2027 19:49:22.869   02 Jun 2027 19:50:21.362            58.493                Irkutsk          1827.906
       180   02 Jun 2027 19:51:07.411   02 Jun 2027 19:51:30.639            23.228                Irkutsk           725.875
       181   02 Jun 2027 20:34:19.527   02 Jun 2027 20:36:11.019           111.492            RioGallegos          3484.125
       182   02 Jun 2027 20:37:33.092   02 Jun 2027 20:37:36.791             3.699            RioGallegos           115.594
       183   02 Jun 2027 20:40:25.969   02 Jun 2027 20:40:26.822             0.853            RioGallegos            26.656
       184   02 Jun 2027 20:43:23.437   02 Jun 2027 20:43:47.386            23.949            RioGallegos           748.406
       185   02 Jun 2027 20:44:46.492   02 Jun 2027 20:44:53.187             6.695            RioGallegos           209.219
       186   02 Jun 2027 21:16:40.216   02 Jun 2027 21:17:46.948            66.732                Anadyr2          2085.375
       187   02 Jun 2027 21:18:21.725   02 Jun 2027 21:20:14.266           112.541               Magadan1          3516.906
       188   02 Jun 2027 21:20:26.172   02 Jun 2027 21:20:39.445            13.273               Magadan2           414.781
       189   02 Jun 2027 21:21:03.807   02 Jun 2027 21:21:43.709            39.902                Norilsk          1246.938
       190   02 Jun 2027 21:21:57.469   02 Jun 2027 21:23:18.884            81.415                Irkutsk          2544.219
       191   02 Jun 2027 21:23:30.278   02 Jun 2027 21:24:49.063            78.785                Novosib          2462.031
       192   02 Jun 2027 21:26:40.772   02 Jun 2027 21:27:19.611            38.839                Novosib          1213.719
       193   02 Jun 2027 21:35:39.243   02 Jun 2027 21:36:32.155            52.912                Sumatra          1653.500
       194   02 Jun 2027 21:44:07.397   02 Jun 2027 21:45:09.561            62.164                Sumatra          1942.625
       195   02 Jun 2027 22:53:49.006   02 Jun 2027 22:55:44.142           115.136                Norilsk          3598.000
       196   02 Jun 2027 22:55:49.556   02 Jun 2027 22:56:19.685            30.129               Magadan2           941.531
       197   02 Jun 2027 22:57:41.841   02 Jun 2027 22:58:30.128            48.287                Irkutsk          1508.969
       198   02 Jun 2027 22:59:01.868   02 Jun 2027 22:59:38.461            36.593                Novosib          1143.531
       199   02 Jun 2027 23:00:24.768   02 Jun 2027 23:03:09.367           164.599                Novosib          5143.719
       200   02 Jun 2027 23:06:26.853   02 Jun 2027 23:07:33.546            66.693                  Delhi          2084.156
       201   03 Jun 2027 00:24:32.024   03 Jun 2027 00:25:32.191            60.167                Anadyr1          1880.219
       202   03 Jun 2027 00:26:27.806   03 Jun 2027 00:26:40.438            12.632                Anadyr2           394.750
       203   03 Jun 2027 00:29:14.339   03 Jun 2027 00:29:28.520            14.181                Anadyr2           443.156
       204   03 Jun 2027 00:29:44.869   03 Jun 2027 00:30:39.812            54.943               Magadan1          1716.969
       205   03 Jun 2027 00:30:39.812   03 Jun 2027 00:32:16.877            97.065               Magadan2          3033.281
       206   03 Jun 2027 00:32:19.523   03 Jun 2027 00:34:29.494           129.971              Murmansk1          4061.594
       207   03 Jun 2027 00:36:39.182   03 Jun 2027 00:38:07.245            88.063                 Moscow          2751.969
       208   03 Jun 2027 00:42:12.847   03 Jun 2027 00:43:24.152            71.305                 Moscow          2228.281
       209   03 Jun 2027 01:57:06.524   03 Jun 2027 01:58:17.996            71.472                Anadyr2          2233.500
       210   03 Jun 2027 01:58:50.538   03 Jun 2027 01:59:41.424            50.886                Anadyr1          1590.188
       211   03 Jun 2027 02:00:15.869   03 Jun 2027 02:00:26.643            10.774                Anadyr2           336.688
       212   03 Jun 2027 02:01:57.688   03 Jun 2027 02:03:43.713           106.025               Magadan1          3313.281
       213   03 Jun 2027 02:05:37.143   03 Jun 2027 02:06:01.948            24.805                Norilsk           775.156
       214   03 Jun 2027 02:07:55.686   03 Jun 2027 02:08:30.146            34.460              Murmansk1          1076.875
       215   03 Jun 2027 02:09:09.509   03 Jun 2027 02:09:13.137             3.628              Murmansk2           113.375
       216   03 Jun 2027 02:09:26.963   03 Jun 2027 02:09:53.745            26.782              Murmansk1           836.937
       217   03 Jun 2027 02:10:26.208   03 Jun 2027 02:11:40.738            74.530                Novosib          2329.063
       218   03 Jun 2027 02:14:56.277   03 Jun 2027 02:15:24.081            27.804                Novosib           868.875
       219   03 Jun 2027 02:19:27.369   03 Jun 2027 02:19:40.409            13.040                 Moscow           407.500
       220   03 Jun 2027 02:35:23.980   03 Jun 2027 02:36:30.273            66.293               CapeTown          2071.656
       221   03 Jun 2027 02:46:00.834   03 Jun 2027 02:46:19.560            18.726               CapeTown           585.187
       222   03 Jun 2027 03:39:28.892   03 Jun 2027 03:39:29.067             0.175               Magadan1             5.469
       223   03 Jun 2027 03:39:29.067   03 Jun 2027 03:40:08.112            39.045               Magadan2          1220.156
       224   03 Jun 2027 03:40:08.112   03 Jun 2027 03:40:19.691            11.579               Magadan1           361.844
       225   03 Jun 2027 03:42:18.278   03 Jun 2027 03:42:25.243             6.965               Magadan1           217.656
       226   03 Jun 2027 05:14:35.239   03 Jun 2027 05:14:39.142             3.903               Magadan2           121.969
       227   03 Jun 2027 05:14:50.897   03 Jun 2027 05:16:33.327           102.430                Anadyr1          3200.938
       228   03 Jun 2027 05:16:47.413   03 Jun 2027 05:17:44.955            57.542                Anadyr2          1798.188
       229   03 Jun 2027 05:18:07.266   03 Jun 2027 05:18:23.522            16.256               Magadan1           508.000
       230   03 Jun 2027 05:18:29.087   03 Jun 2027 05:18:37.957             8.870               Magadan1           277.188
       231   03 Jun 2027 06:48:02.656   03 Jun 2027 06:48:25.190            22.534                Anadyr1           704.188
       232   03 Jun 2027 06:48:38.306   03 Jun 2027 06:48:49.977            11.671               Magadan1           364.719
       233   03 Jun 2027 06:49:14.197   03 Jun 2027 06:49:15.560             1.363               Magadan2            42.594
       234   03 Jun 2027 06:49:19.212   03 Jun 2027 06:49:44.297            25.085                Anadyr1           783.906
       235   03 Jun 2027 06:49:44.297   03 Jun 2027 06:49:53.035             8.738                Anadyr2           273.063
       236   03 Jun 2027 06:50:11.127   03 Jun 2027 06:50:24.437            13.310                Norilsk           415.937
       237   03 Jun 2027 06:50:29.789   03 Jun 2027 06:50:46.251            16.462                Irkutsk           514.437
       238   03 Jun 2027 06:51:00.407   03 Jun 2027 06:51:44.776            44.369                Anadyr1          1386.531
       239   03 Jun 2027 06:52:24.360   03 Jun 2027 06:52:42.031            17.671               Magadan1           552.219
       240   03 Jun 2027 06:52:49.765   03 Jun 2027 06:53:07.461            17.696                Anadyr1           553.000
       241   03 Jun 2027 06:53:30.005   03 Jun 2027 06:53:32.463             2.458               Magadan2            76.813
       242   03 Jun 2027 06:53:32.463   03 Jun 2027 06:53:45.401            12.938               Magadan1           404.313
       243   03 Jun 2027 06:53:53.927   03 Jun 2027 06:54:55.687            61.760               Magadan1          1930.000
       244   03 Jun 2027 06:54:55.687   03 Jun 2027 06:56:10.323            74.636               Magadan2          2332.375
       245   03 Jun 2027 07:32:17.851   03 Jun 2027 07:33:08.033            50.182            RioGallegos          1568.187
       246   03 Jun 2027 08:24:56.006   03 Jun 2027 08:25:25.320            29.314               Magadan2           916.062
       247   03 Jun 2027 08:26:21.168   03 Jun 2027 08:26:54.699            33.531                Irkutsk          1047.844
       248   03 Jun 2027 08:27:03.606   03 Jun 2027 08:27:19.184            15.578                Norilsk           486.812
       249   03 Jun 2027 08:27:36.434   03 Jun 2027 08:27:45.307             8.873               Magadan1           277.281
       250   03 Jun 2027 08:27:52.183   03 Jun 2027 08:28:06.130            13.947               Magadan1           435.844
       251   03 Jun 2027 08:28:38.473   03 Jun 2027 08:28:59.853            21.380                Irkutsk           668.125
       252   03 Jun 2027 08:29:21.115   03 Jun 2027 08:29:31.223            10.108                Norilsk           315.875
       253   03 Jun 2027 08:29:38.344   03 Jun 2027 08:30:19.945            41.601                Irkutsk          1300.031
       254   03 Jun 2027 08:30:32.788   03 Jun 2027 08:30:52.057            19.269                Irkutsk           602.156
       255   03 Jun 2027 08:30:55.193   03 Jun 2027 08:31:12.805            17.612                Norilsk           550.375
       256   03 Jun 2027 08:31:25.153   03 Jun 2027 08:32:11.728            46.575              Murmansk1          1455.469
       257   03 Jun 2027 08:32:58.895   03 Jun 2027 08:33:33.789            34.894              Murmansk2          1090.438
       258   03 Jun 2027 09:06:44.532   03 Jun 2027 09:07:49.191            64.659            RioGallegos          2020.594
       259   03 Jun 2027 09:41:36.224   03 Jun 2027 09:42:22.645            46.421                Sumatra          1450.656
       260   03 Jun 2027 09:52:27.961   03 Jun 2027 09:52:30.061             2.100                  Delhi            65.625
       261   03 Jun 2027 09:54:57.719   03 Jun 2027 09:55:15.950            18.231                  Delhi           569.719
       262   03 Jun 2027 10:00:05.687   03 Jun 2027 10:00:50.099            44.412                  Delhi          1387.875
       263   03 Jun 2027 10:02:14.966   03 Jun 2027 10:03:20.734            65.768                Norilsk          2055.250
       264   03 Jun 2027 10:03:30.911   03 Jun 2027 10:03:50.264            19.353                Novosib           604.781
       265   03 Jun 2027 10:04:03.555   03 Jun 2027 10:04:24.101            20.546              Murmansk2           642.063
       266   03 Jun 2027 10:04:45.378   03 Jun 2027 10:04:53.620             8.242              Murmansk2           257.562
       267   03 Jun 2027 10:05:17.385   03 Jun 2027 10:05:21.169             3.784                Irkutsk           118.250
       268   03 Jun 2027 10:05:23.219   03 Jun 2027 10:05:45.618            22.399                Irkutsk           699.969
       269   03 Jun 2027 10:05:50.712   03 Jun 2027 10:06:10.016            19.304                Irkutsk           603.250
       270   03 Jun 2027 10:06:21.583   03 Jun 2027 10:07:18.422            56.839              Murmansk1          1776.219
       271   03 Jun 2027 10:07:25.284   03 Jun 2027 10:07:51.745            26.461                Norilsk           826.906
       272   03 Jun 2027 10:09:33.504   03 Jun 2027 10:09:37.857             4.353                 Moscow           136.031
       273   03 Jun 2027 10:15:07.564   03 Jun 2027 10:15:10.768             3.204              Murmansk1           100.125
       274   03 Jun 2027 10:46:02.717   03 Jun 2027 10:46:43.611            40.894            RioGallegos          1277.937
       275   03 Jun 2027 10:48:45.985   03 Jun 2027 10:48:49.128             3.143            RioGallegos            98.219
       276   03 Jun 2027 10:49:26.695   03 Jun 2027 10:49:53.592            26.897            RioGallegos           840.531
       277   03 Jun 2027 11:20:52.692   03 Jun 2027 11:21:35.290            42.598                Sumatra          1331.187
       278   03 Jun 2027 11:22:09.580   03 Jun 2027 11:23:10.507            60.927                Sumatra          1903.969
       279   03 Jun 2027 11:39:38.908   03 Jun 2027 11:40:02.262            23.354              Murmansk2           729.812
       280   03 Jun 2027 11:40:20.553   03 Jun 2027 11:40:48.904            28.351                Novosib           885.969
       281   03 Jun 2027 11:40:55.852   03 Jun 2027 11:40:59.245             3.393                 Moscow           106.031
       282   03 Jun 2027 11:41:04.058   03 Jun 2027 11:41:39.490            35.432              Murmansk1          1107.250
       283   03 Jun 2027 11:41:49.312   03 Jun 2027 11:42:39.113            49.801                Novosib          1556.281
       284   03 Jun 2027 11:42:42.850   03 Jun 2027 11:43:15.404            32.554                Norilsk          1017.313
       285   03 Jun 2027 11:43:20.037   03 Jun 2027 11:43:30.388            10.351                Norilsk           323.469
       286   03 Jun 2027 11:44:13.544   03 Jun 2027 11:44:17.801             4.257              Murmansk1           133.031
       287   03 Jun 2027 11:44:17.801   03 Jun 2027 11:44:46.947            29.146              Murmansk2           910.813
       288   03 Jun 2027 11:45:09.329   03 Jun 2027 11:45:10.655             1.326                Novosib            41.437
       289   03 Jun 2027 11:45:58.081   03 Jun 2027 11:46:14.690            16.609              Murmansk1           519.031
       290   03 Jun 2027 13:10:12.424   03 Jun 2027 13:14:04.517           232.093                 Moscow          7252.906
       291   03 Jun 2027 13:14:37.052   03 Jun 2027 13:17:14.207           157.155              Murmansk2          4911.094
       292   03 Jun 2027 13:17:14.536   03 Jun 2027 13:17:33.966            19.430                Norilsk           607.188
       293   03 Jun 2027 13:18:47.536   03 Jun 2027 13:19:20.735            33.199                Norilsk          1037.469
       294   03 Jun 2027 14:25:13.410   03 Jun 2027 14:28:07.024           173.614               CapeTown          5425.437
       295   03 Jun 2027 14:31:38.565   03 Jun 2027 14:32:19.604            41.039               CapeTown          1282.469
       296   03 Jun 2027 14:50:25.916   03 Jun 2027 14:51:27.484            61.568              Murmansk2          1924.000
       297   03 Jun 2027 14:52:54.822   03 Jun 2027 14:53:10.970            16.148              Murmansk1           504.625
       298   03 Jun 2027 14:53:30.357   03 Jun 2027 14:54:51.227            80.870              Murmansk1          2527.187
       299   03 Jun 2027 15:04:47.594   03 Jun 2027 15:07:57.397           189.803                Anadyr2          5931.344
       300   03 Jun 2027 16:02:46.570   03 Jun 2027 16:03:44.911            58.341               CapeTown          1823.156
       301   03 Jun 2027 16:29:27.463   03 Jun 2027 16:31:08.984           101.521              Murmansk1          3172.531
       302   03 Jun 2027 16:31:49.124   03 Jun 2027 16:32:25.279            36.155              Murmansk1          1129.844
       303   03 Jun 2027 16:34:58.125   03 Jun 2027 16:35:53.489            55.364              Murmansk1          1730.125
       304   03 Jun 2027 16:40:13.786   03 Jun 2027 16:41:28.455            74.669                Anadyr1          2333.406
       305   03 Jun 2027 16:41:42.426   03 Jun 2027 16:42:09.605            27.179                Anadyr2           849.344
       306   03 Jun 2027 16:44:00.232   03 Jun 2027 16:46:01.772           121.540               Magadan1          3798.125
       307   03 Jun 2027 16:47:00.565   03 Jun 2027 16:47:07.923             7.358               Magadan1           229.938
       308   03 Jun 2027 16:47:49.358   03 Jun 2027 16:47:59.207             9.849               Magadan1           307.781
       309   03 Jun 2027 16:48:08.684   03 Jun 2027 16:49:04.801            56.117               Magadan1          1753.656
       310   03 Jun 2027 18:16:07.627   03 Jun 2027 18:19:50.359           222.732                Anadyr1          6960.375
       311   03 Jun 2027 18:19:57.903   03 Jun 2027 18:20:52.130            54.227               Magadan1          1694.594
       312   03 Jun 2027 18:20:53.288   03 Jun 2027 18:22:11.707            78.419               Magadan2          2450.594
       313   03 Jun 2027 19:52:00.136   03 Jun 2027 19:56:17.355           257.219                Anadyr2          8038.094
       314   03 Jun 2027 19:56:18.810   03 Jun 2027 19:57:30.837            72.027               Magadan2          2250.844
       315   03 Jun 2027 19:57:30.837   03 Jun 2027 19:57:56.099            25.262               Magadan1           789.438
       316   03 Jun 2027 20:00:08.991   03 Jun 2027 20:02:46.870           157.879                Irkutsk          4933.719
       317   03 Jun 2027 20:17:57.793   03 Jun 2027 20:19:01.754            63.961                Sumatra          1998.781
       318   03 Jun 2027 20:51:16.292   03 Jun 2027 20:51:27.847            11.555            RioGallegos           361.094
       319   03 Jun 2027 20:52:12.306   03 Jun 2027 20:52:13.794             1.488            RioGallegos            46.500
       320   03 Jun 2027 20:55:12.861   03 Jun 2027 20:55:41.089            28.228            RioGallegos           882.125
       321   03 Jun 2027 21:27:28.254   03 Jun 2027 21:27:41.070            12.816                Anadyr1           400.500
       322   03 Jun 2027 21:27:48.855   03 Jun 2027 21:29:45.544           116.689                Anadyr1          3646.531
       323   03 Jun 2027 21:30:17.186   03 Jun 2027 21:30:31.947            14.761                Norilsk           461.281
       324   03 Jun 2027 21:30:51.781   03 Jun 2027 21:32:17.937            86.156                Norilsk          2692.375
       325   03 Jun 2027 21:33:53.627   03 Jun 2027 21:35:03.925            70.298                Irkutsk          2196.812
       326   03 Jun 2027 21:35:14.505   03 Jun 2027 21:36:16.387            61.882                Novosib          1933.813
       327   03 Jun 2027 21:38:57.448   03 Jun 2027 21:39:26.114            28.666                Novosib           895.813
       328   03 Jun 2027 21:40:48.502   03 Jun 2027 21:42:17.353            88.851                Novosib          2776.594
       329   03 Jun 2027 21:56:16.858   03 Jun 2027 21:56:38.356            21.498                Sumatra           671.812
       330   03 Jun 2027 21:57:09.422   03 Jun 2027 21:57:23.130            13.708                Sumatra           428.375
       331   03 Jun 2027 23:01:55.603   03 Jun 2027 23:02:44.076            48.473                Anadyr1          1514.781
       332   03 Jun 2027 23:05:51.041   03 Jun 2027 23:07:32.495           101.454                Norilsk          3170.437
       333   03 Jun 2027 23:09:43.826   03 Jun 2027 23:12:02.113           138.287                Novosib          4321.469
       334   03 Jun 2027 23:17:12.966   03 Jun 2027 23:19:36.689           143.723                  Delhi          4491.344
       335   04 Jun 2027 00:35:18.989   04 Jun 2027 00:35:27.703             8.714                Anadyr1           272.312
       336   04 Jun 2027 00:35:30.437   04 Jun 2027 00:36:33.163            62.726                Anadyr2          1960.188
       337   04 Jun 2027 00:37:37.226   04 Jun 2027 00:37:55.978            18.752                Anadyr2           586.000
       338   04 Jun 2027 00:38:08.433   04 Jun 2027 00:38:22.401            13.968                Anadyr1           436.500
       339   04 Jun 2027 00:40:12.722   04 Jun 2027 00:40:30.586            17.864                Anadyr1           558.250
       340   04 Jun 2027 00:40:57.734   04 Jun 2027 00:41:30.139            32.405                Anadyr1          1012.656
       341   04 Jun 2027 00:41:39.780   04 Jun 2027 00:43:59.448           139.668               Magadan1          4364.625
       342   04 Jun 2027 00:44:06.177   04 Jun 2027 00:46:47.936           161.759              Murmansk1          5054.969
       343   04 Jun 2027 00:48:19.283   04 Jun 2027 00:48:32.002            12.719                 Moscow           397.469
       344   04 Jun 2027 00:51:05.297   04 Jun 2027 00:51:40.007            34.710                 Moscow          1084.687
       345   04 Jun 2027 01:01:16.164   04 Jun 2027 01:03:26.393           130.229                  Delhi          4069.656
       346   04 Jun 2027 02:08:53.558   04 Jun 2027 02:09:11.093            17.535                Anadyr2           547.969
       347   04 Jun 2027 02:10:16.258   04 Jun 2027 02:11:14.742            58.484                Anadyr1          1827.625
       348   04 Jun 2027 02:12:09.292   04 Jun 2027 02:12:17.188             7.896                Anadyr1           246.750
       349   04 Jun 2027 02:13:25.770   04 Jun 2027 02:14:32.538            66.768               Magadan1          2086.500
       350   04 Jun 2027 02:14:46.010   04 Jun 2027 02:15:05.011            19.001               Magadan2           593.781
       351   04 Jun 2027 02:17:31.789   04 Jun 2027 02:18:03.762            31.973                Norilsk           999.156
       352   04 Jun 2027 02:19:57.344   04 Jun 2027 02:20:26.577            29.233              Murmansk2           913.531
       353   04 Jun 2027 02:20:56.604   04 Jun 2027 02:21:13.551            16.947              Murmansk1           529.594
       354   04 Jun 2027 02:21:33.486   04 Jun 2027 02:22:38.730            65.244              Murmansk2          2038.875
       355   04 Jun 2027 02:22:50.108   04 Jun 2027 02:23:37.631            47.523                Novosib          1485.094
       356   04 Jun 2027 02:32:19.712   04 Jun 2027 02:32:47.996            28.284                 Moscow           883.875
       357   04 Jun 2027 02:48:25.009   04 Jun 2027 02:50:14.054           109.045               CapeTown          3407.656
       358   04 Jun 2027 03:51:01.135   04 Jun 2027 03:51:19.170            18.035               Magadan1           563.594
       359   04 Jun 2027 03:51:56.434   04 Jun 2027 03:52:49.325            52.891               Magadan2          1652.844
       360   04 Jun 2027 03:52:53.670   04 Jun 2027 03:55:17.338           143.668                Anadyr1          4489.625
       361   04 Jun 2027 04:02:42.699   04 Jun 2027 04:03:09.810            27.111                Norilsk           847.219
       362   04 Jun 2027 04:03:17.556   04 Jun 2027 04:03:26.785             9.229                Norilsk           288.406
       363   04 Jun 2027 04:06:46.290   04 Jun 2027 04:07:28.159            41.869              Murmansk1          1308.406
       364   04 Jun 2027 05:26:33.575   04 Jun 2027 05:27:07.910            34.335                Anadyr1          1072.969
       365   04 Jun 2027 05:27:12.233   04 Jun 2027 05:27:29.513            17.280               Magadan1           540.000
       366   04 Jun 2027 05:27:34.963   04 Jun 2027 05:29:41.899           126.936                Anadyr1          3966.750
       367   04 Jun 2027 05:29:41.899   04 Jun 2027 05:30:32.966            51.067                Anadyr2          1595.844
       368   04 Jun 2027 05:30:52.536   04 Jun 2027 05:31:10.170            17.634                Anadyr1           551.062
       369   04 Jun 2027 07:00:01.590   04 Jun 2027 07:00:45.502            43.912               Magadan2          1372.250
       370   04 Jun 2027 07:00:53.276   04 Jun 2027 07:01:25.532            32.256               Magadan1          1008.000
       371   04 Jun 2027 07:01:32.342   04 Jun 2027 07:01:54.002            21.660                Norilsk           676.875
       372   04 Jun 2027 07:02:00.982   04 Jun 2027 07:03:00.755            59.773                Anadyr2          1867.906
       373   04 Jun 2027 07:03:09.206   04 Jun 2027 07:04:18.238            69.032                Anadyr2          2157.250
       374   04 Jun 2027 07:04:24.456   04 Jun 2027 07:04:45.124            20.668               Magadan2           645.875
       375   04 Jun 2027 07:05:08.960   04 Jun 2027 07:05:13.154             4.194                Anadyr2           131.063
       376   04 Jun 2027 07:05:20.474   04 Jun 2027 07:05:54.723            34.249                Norilsk          1070.281
       377   04 Jun 2027 07:05:58.315   04 Jun 2027 07:06:07.319             9.004                Norilsk           281.375
       378   04 Jun 2027 07:06:10.522   04 Jun 2027 07:06:40.333            29.811                Anadyr1           931.594
       379   04 Jun 2027 07:06:44.578   04 Jun 2027 07:07:34.685            50.107                Norilsk          1565.844
       380   04 Jun 2027 07:07:39.401   04 Jun 2027 07:07:41.241             1.840                Anadyr1            57.500
       381   04 Jun 2027 07:07:57.195   04 Jun 2027 07:08:03.038             5.843              Murmansk2           182.594
       382   04 Jun 2027 07:08:03.038   04 Jun 2027 07:08:34.609            31.571              Murmansk1           986.594
       383   04 Jun 2027 07:09:37.890   04 Jun 2027 07:10:07.605            29.715              Murmansk2           928.594
       384   04 Jun 2027 07:43:25.366   04 Jun 2027 07:44:20.004            54.638            RioGallegos          1707.438
       385   04 Jun 2027 08:22:08.908   04 Jun 2027 08:23:07.458            58.550                Sumatra          1829.688
       386   04 Jun 2027 08:36:55.019   04 Jun 2027 08:37:28.540            33.521                Irkutsk          1047.531
       387   04 Jun 2027 08:37:29.538   04 Jun 2027 08:38:43.281            73.743               Magadan2          2304.469
       388   04 Jun 2027 08:39:10.979   04 Jun 2027 08:39:26.846            15.867                Norilsk           495.844
       389   04 Jun 2027 08:39:29.811   04 Jun 2027 08:39:44.352            14.541                Novosib           454.406
       390   04 Jun 2027 08:40:06.064   04 Jun 2027 08:40:30.447            24.383                Irkutsk           761.969
       391   04 Jun 2027 08:40:45.335   04 Jun 2027 08:41:09.947            24.612                Norilsk           769.125
       392   04 Jun 2027 08:41:31.965   04 Jun 2027 08:42:37.417            65.452               Magadan2          2045.375
       393   04 Jun 2027 08:42:42.737   04 Jun 2027 08:43:50.942            68.205                Novosib          2131.406
       394   04 Jun 2027 08:43:55.305   04 Jun 2027 08:43:57.232             1.927                Irkutsk            60.219
       395   04 Jun 2027 08:43:58.297   04 Jun 2027 08:43:58.967             0.670                Novosib            20.937
       396   04 Jun 2027 08:44:01.703   04 Jun 2027 08:44:06.887             5.184              Murmansk1           162.000
       397   04 Jun 2027 08:44:06.887   04 Jun 2027 08:44:51.090            44.203              Murmansk2          1381.344
       398   04 Jun 2027 09:18:54.360   04 Jun 2027 09:19:40.187            45.827            RioGallegos          1432.094
       399   04 Jun 2027 09:21:52.659   04 Jun 2027 09:22:42.897            50.238            RioGallegos          1569.938
       400   04 Jun 2027 09:53:34.424   04 Jun 2027 09:53:57.773            23.349                Sumatra           729.656
       401   04 Jun 2027 10:03:44.155   04 Jun 2027 10:04:53.800            69.645                  Delhi          2176.406
       402   04 Jun 2027 10:13:43.605   04 Jun 2027 10:14:24.750            41.145                Irkutsk          1285.781
       403   04 Jun 2027 10:14:42.453   04 Jun 2027 10:15:37.799            55.346                Novosib          1729.563
       404   04 Jun 2027 10:15:50.822   04 Jun 2027 10:16:11.750            20.928              Murmansk2           654.000
       405   04 Jun 2027 10:16:14.882   04 Jun 2027 10:17:31.759            76.877                Irkutsk          2402.406
       406   04 Jun 2027 10:17:35.497   04 Jun 2027 10:17:43.756             8.259              Murmansk2           258.094
       407   04 Jun 2027 10:17:47.812   04 Jun 2027 10:17:54.177             6.365                Norilsk           198.906
       408   04 Jun 2027 10:18:03.083   04 Jun 2027 10:18:14.413            11.330                Novosib           354.062
       409   04 Jun 2027 10:18:18.995   04 Jun 2027 10:18:42.442            23.447                Irkutsk           732.719
       410   04 Jun 2027 10:18:44.640   04 Jun 2027 10:18:44.697             0.057                Irkutsk             1.781
       411   04 Jun 2027 10:19:05.784   04 Jun 2027 10:19:10.212             4.428              Murmansk2           138.375
       412   04 Jun 2027 10:19:18.514   04 Jun 2027 10:19:25.944             7.430                Norilsk           232.188
       413   04 Jun 2027 10:19:26.566   04 Jun 2027 10:19:34.234             7.668              Murmansk2           239.625
       414   04 Jun 2027 10:19:43.745   04 Jun 2027 10:20:00.546            16.801              Murmansk2           525.031
       415   04 Jun 2027 10:20:00.546   04 Jun 2027 10:20:32.971            32.425              Murmansk1          1013.281
       416   04 Jun 2027 10:20:42.377   04 Jun 2027 10:21:16.997            34.620                Novosib          1081.875
       417   04 Jun 2027 11:00:20.610   04 Jun 2027 11:00:45.834            25.224            RioGallegos           788.250
       418   04 Jun 2027 11:37:53.781   04 Jun 2027 11:38:07.004            13.223                  Delhi           413.219
       419   04 Jun 2027 11:39:59.729   04 Jun 2027 11:40:53.094            53.365                  Delhi          1667.656
       420   04 Jun 2027 11:47:02.328   04 Jun 2027 11:47:38.602            36.274                  Delhi          1133.563
       421   04 Jun 2027 11:51:51.187   04 Jun 2027 11:51:55.857             4.670                 Moscow           145.938
       422   04 Jun 2027 11:51:56.015   04 Jun 2027 11:52:23.312            27.297                Novosib           853.031
       423   04 Jun 2027 11:52:52.338   04 Jun 2027 11:53:18.690            26.352                 Moscow           823.500
       424   04 Jun 2027 11:53:18.773   04 Jun 2027 11:53:35.092            16.319                Norilsk           509.969
       425   04 Jun 2027 11:53:37.841   04 Jun 2027 11:54:04.093            26.252                Norilsk           820.375
       426   04 Jun 2027 11:54:19.704   04 Jun 2027 11:55:12.498            52.794              Murmansk1          1649.812
       427   04 Jun 2027 11:55:16.371   04 Jun 2027 11:55:22.146             5.775                Norilsk           180.469
       428   04 Jun 2027 11:55:25.010   04 Jun 2027 11:55:25.856             0.846              Murmansk1            26.437
       429   04 Jun 2027 11:55:30.407   04 Jun 2027 11:55:41.152            10.745                Norilsk           335.781
       430   04 Jun 2027 11:56:11.064   04 Jun 2027 11:57:07.378            56.314                Norilsk          1759.813
       431   04 Jun 2027 12:01:40.265   04 Jun 2027 12:02:03.538            23.273              Murmansk2           727.281
       432   04 Jun 2027 12:02:40.175   04 Jun 2027 12:02:40.364             0.189              Murmansk2             5.906
       433   04 Jun 2027 13:22:10.672   04 Jun 2027 13:26:10.249           239.577                 Moscow          7486.781
       434   04 Jun 2027 13:26:24.329   04 Jun 2027 13:29:08.754           164.425              Murmansk2          5138.281
       435   04 Jun 2027 13:29:24.351   04 Jun 2027 13:29:40.807            16.456              Murmansk1           514.250
       436   04 Jun 2027 13:30:37.904   04 Jun 2027 13:30:46.636             8.732                Norilsk           272.875
       437   04 Jun 2027 13:31:22.857   04 Jun 2027 13:32:06.079            43.222                Norilsk          1350.688
       438   04 Jun 2027 13:33:26.055   04 Jun 2027 13:34:22.732            56.677                Norilsk          1771.156
       439   04 Jun 2027 14:36:45.391   04 Jun 2027 14:38:18.110            92.719               CapeTown          2897.469
       440   04 Jun 2027 14:39:32.326   04 Jun 2027 14:39:54.871            22.545               CapeTown           704.531
       441   04 Jun 2027 14:41:13.428   04 Jun 2027 14:42:17.576            64.148               CapeTown          2004.625
       442   04 Jun 2027 14:45:32.637   04 Jun 2027 14:46:03.159            30.522               CapeTown           953.812
       443   04 Jun 2027 15:02:42.579   04 Jun 2027 15:03:27.348            44.769              Murmansk2          1399.031
       444   04 Jun 2027 15:04:06.899   04 Jun 2027 15:04:56.365            49.466              Murmansk1          1545.812
       445   04 Jun 2027 15:08:57.449   04 Jun 2027 15:09:11.035            13.586              Murmansk1           424.563
       446   04 Jun 2027 15:10:41.337   04 Jun 2027 15:11:02.431            21.094              Murmansk1           659.188
       447   04 Jun 2027 15:11:02.431   04 Jun 2027 15:11:04.315             1.884              Murmansk2            58.875
       448   04 Jun 2027 15:13:01.741   04 Jun 2027 15:13:41.688            39.947              Murmansk2          1248.344
       449   04 Jun 2027 15:16:41.349   04 Jun 2027 15:17:33.342            51.993                Anadyr1          1624.781
       450   04 Jun 2027 15:18:10.488   04 Jun 2027 15:19:30.119            79.631                Anadyr2          2488.469
       451   04 Jun 2027 15:21:48.121   04 Jun 2027 15:21:57.991             9.870                Anadyr2           308.437
       452   04 Jun 2027 15:25:12.984   04 Jun 2027 15:26:02.534            49.550                Anadyr2          1548.437
       453   04 Jun 2027 16:23:13.106   04 Jun 2027 16:23:23.598            10.492               CapeTown           327.875
       454   04 Jun 2027 16:42:04.481   04 Jun 2027 16:44:07.529           123.048              Murmansk1          3845.250
       455   04 Jun 2027 16:48:54.749   04 Jun 2027 16:49:34.411            39.662              Murmansk2          1239.438
       456   04 Jun 2027 16:52:14.324   04 Jun 2027 16:53:15.459            61.135                Anadyr1          1910.469
       457   04 Jun 2027 16:53:27.973   04 Jun 2027 16:53:51.251            23.278                Anadyr2           727.437
       458   04 Jun 2027 16:55:38.519   04 Jun 2027 16:55:45.150             6.631               Magadan2           207.219
       459   04 Jun 2027 16:55:55.394   04 Jun 2027 16:56:10.743            15.349                Anadyr1           479.656
       460   04 Jun 2027 16:56:53.249   04 Jun 2027 16:57:51.948            58.699               Magadan1          1834.344
       461   04 Jun 2027 16:57:51.948   04 Jun 2027 16:58:39.320            47.372               Magadan2          1480.375
       462   04 Jun 2027 16:59:26.637   04 Jun 2027 16:59:52.045            25.408               Magadan1           794.000
       463   04 Jun 2027 18:28:09.092   04 Jun 2027 18:30:27.919           138.827                Anadyr2          4338.344
       464   04 Jun 2027 18:30:30.424   04 Jun 2027 18:33:42.497           192.073               Magadan1          6002.281
       465   04 Jun 2027 18:35:31.869   04 Jun 2027 18:35:56.146            24.277               Magadan2           758.656
       466   04 Jun 2027 18:38:41.853   04 Jun 2027 18:39:30.869            49.016               Magadan1          1531.750
       467   04 Jun 2027 19:26:02.756   04 Jun 2027 19:27:20.413            77.657            RioGallegos          2426.781
       468   04 Jun 2027 20:04:00.016   04 Jun 2027 20:06:02.191           122.175                Anadyr1          3817.969
       469   04 Jun 2027 20:06:14.212   04 Jun 2027 20:09:26.973           192.761                Norilsk          6023.781
       470   04 Jun 2027 20:11:31.524   04 Jun 2027 20:14:21.359           169.835                Irkutsk          5307.344
       471   04 Jun 2027 20:17:12.871   04 Jun 2027 20:18:03.116            50.245                Irkutsk          1570.156
       472   04 Jun 2027 20:27:15.862   04 Jun 2027 20:28:49.672            93.810                Sumatra          2931.562
       473   04 Jun 2027 20:32:58.473   04 Jun 2027 20:33:36.625            38.152                Sumatra          1192.250
       474   04 Jun 2027 21:41:53.420   04 Jun 2027 21:43:26.422            93.002                Norilsk          2906.312
       475   04 Jun 2027 21:45:51.154   04 Jun 2027 21:47:19.697            88.543                Irkutsk          2766.969
       476   04 Jun 2027 21:49:50.692   04 Jun 2027 21:51:10.558            79.866                Novosib          2495.813
       477   04 Jun 2027 22:02:27.427   04 Jun 2027 22:03:56.113            88.686                Sumatra          2771.437
       478   04 Jun 2027 23:13:40.383   04 Jun 2027 23:15:51.973           131.590                Anadyr2          4112.187
       479   04 Jun 2027 23:17:53.055   04 Jun 2027 23:18:07.674            14.619                Norilsk           456.844
       480   04 Jun 2027 23:18:28.771   04 Jun 2027 23:19:36.357            67.586               Magadan2          2112.062
       481   04 Jun 2027 23:21:13.862   04 Jun 2027 23:22:34.589            80.727              Murmansk2          2522.719
       482   04 Jun 2027 23:23:21.173   04 Jun 2027 23:23:33.131            11.958                Novosib           373.688
