uniorb/output/strategy_2/Drop/Drop_KinoSat_110604.txt

KinoSat_110604
-------------------------
    Access    *     Start Time (UTCG)     *     Stop Time (UTCG)  *   Duration (s)        *       Station  *  Data (Mbytes)
         1   01 Jun 2027 03:55:05.690   01 Jun 2027 03:55:06.656             0.966               Magadan2            30.188
         2   01 Jun 2027 03:55:11.665   01 Jun 2027 03:55:41.456            29.791                Anadyr1           930.969
         3   01 Jun 2027 03:55:42.772   01 Jun 2027 03:56:38.112            55.340               Magadan2          1729.375
         4   01 Jun 2027 03:56:52.465   01 Jun 2027 03:56:59.315             6.850               Magadan1           214.062
         5   01 Jun 2027 03:57:12.724   01 Jun 2027 03:57:50.818            38.094                Anadyr1          1190.438
         6   01 Jun 2027 03:58:34.989   01 Jun 2027 03:59:58.555            83.566               Magadan1          2611.437
         7   01 Jun 2027 04:39:09.675   01 Jun 2027 04:40:46.232            96.557            RioGallegos          3017.406
         8   01 Jun 2027 05:31:22.350   01 Jun 2027 05:32:44.561            82.211               Magadan2          2569.094
         9   01 Jun 2027 05:32:56.463   01 Jun 2027 05:34:39.562           103.099               Magadan2          3221.844
        10   01 Jun 2027 05:34:44.484   01 Jun 2027 05:35:16.175            31.691               Magadan1           990.344
        11   01 Jun 2027 05:36:39.674   01 Jun 2027 05:36:44.839             5.165                Novosib           161.406
        12   01 Jun 2027 05:37:01.192   01 Jun 2027 05:38:17.010            75.818                Norilsk          2369.312
        13   01 Jun 2027 05:40:04.540   01 Jun 2027 05:40:29.175            24.635                Norilsk           769.844
        14   01 Jun 2027 06:10:22.738   01 Jun 2027 06:14:34.960           252.222            RioGallegos          7881.937
        15   01 Jun 2027 06:15:02.630   01 Jun 2027 06:15:30.365            27.735            RioGallegos           866.719
        16   01 Jun 2027 06:15:42.887   01 Jun 2027 06:15:51.541             8.654            RioGallegos           270.438
        17   01 Jun 2027 06:45:48.354   01 Jun 2027 06:49:41.854           233.500                Sumatra          7296.875
        18   01 Jun 2027 06:51:43.359   01 Jun 2027 06:52:14.485            31.126                Sumatra           972.687
        19   01 Jun 2027 06:58:59.379   01 Jun 2027 07:03:08.774           249.395                  Delhi          7793.594
        20   01 Jun 2027 07:07:25.186   01 Jun 2027 07:07:41.325            16.139                Irkutsk           504.344
        21   01 Jun 2027 07:08:34.086   01 Jun 2027 07:09:41.309            67.223                Irkutsk          2100.719
        22   01 Jun 2027 07:10:33.658   01 Jun 2027 07:11:16.597            42.939                Novosib          1341.844
        23   01 Jun 2027 07:11:21.438   01 Jun 2027 07:11:29.978             8.540                Norilsk           266.875
        24   01 Jun 2027 07:11:36.794   01 Jun 2027 07:11:55.072            18.278              Murmansk1           571.188
        25   01 Jun 2027 07:11:55.072   01 Jun 2027 07:12:24.873            29.801              Murmansk2           931.281
        26   01 Jun 2027 07:12:24.873   01 Jun 2027 07:12:49.018            24.145              Murmansk1           754.531
        27   01 Jun 2027 07:12:49.018   01 Jun 2027 07:12:55.080             6.062              Murmansk2           189.438
        28   01 Jun 2027 07:12:56.290   01 Jun 2027 07:13:12.213            15.923                Novosib           497.594
        29   01 Jun 2027 07:14:08.278   01 Jun 2027 07:14:13.144             4.866              Murmansk1           152.062
        30   01 Jun 2027 07:15:17.028   01 Jun 2027 07:15:18.533             1.505              Murmansk1            47.031
        31   01 Jun 2027 07:15:41.321   01 Jun 2027 07:15:42.666             1.345              Murmansk1            42.031
        32   01 Jun 2027 07:48:12.760   01 Jun 2027 07:48:56.697            43.937            RioGallegos          1373.031
        33   01 Jun 2027 07:49:41.857   01 Jun 2027 07:50:39.836            57.979            RioGallegos          1811.844
        34   01 Jun 2027 07:51:56.499   01 Jun 2027 07:52:56.115            59.616            RioGallegos          1863.000
        35   01 Jun 2027 07:53:44.669   01 Jun 2027 07:54:36.940            52.271            RioGallegos          1633.469
        36   01 Jun 2027 07:55:15.219   01 Jun 2027 07:55:21.148             5.929            RioGallegos           185.281
        37   01 Jun 2027 07:56:13.747   01 Jun 2027 07:57:18.586            64.839            RioGallegos          2026.219
        38   01 Jun 2027 08:23:08.228   01 Jun 2027 08:23:53.902            45.674                Sumatra          1427.312
        39   01 Jun 2027 08:25:18.291   01 Jun 2027 08:26:47.284            88.993                Sumatra          2781.031
        40   01 Jun 2027 08:29:35.492   01 Jun 2027 08:32:51.026           195.534                  Delhi          6110.438
        41   01 Jun 2027 08:45:31.711   01 Jun 2027 08:45:58.052            26.341                Irkutsk           823.156
        42   01 Jun 2027 08:46:41.751   01 Jun 2027 08:46:57.374            15.623                Norilsk           488.219
        43   01 Jun 2027 08:47:05.811   01 Jun 2027 08:48:04.505            58.694                Norilsk          1834.187
        44   01 Jun 2027 08:48:13.685   01 Jun 2027 08:48:43.928            30.243              Murmansk1           945.094
        45   01 Jun 2027 08:49:37.665   01 Jun 2027 08:49:41.533             3.868                Norilsk           120.875
        46   01 Jun 2027 08:49:57.296   01 Jun 2027 08:50:22.034            24.738                Norilsk           773.063
        47   01 Jun 2027 08:50:54.889   01 Jun 2027 08:51:19.791            24.902                Norilsk           778.187
        48   01 Jun 2027 08:51:48.997   01 Jun 2027 08:53:03.165            74.168              Murmansk1          2317.750
        49   01 Jun 2027 08:53:26.125   01 Jun 2027 08:53:41.691            15.566              Murmansk1           486.437
        50   01 Jun 2027 08:54:28.216   01 Jun 2027 08:54:29.085             0.869              Murmansk1            27.156
        51   01 Jun 2027 10:07:43.964   01 Jun 2027 10:10:56.615           192.651                  Delhi          6020.344
        52   01 Jun 2027 10:10:57.099   01 Jun 2027 10:15:02.890           245.791                  Delhi          7680.969
        53   01 Jun 2027 10:21:20.604   01 Jun 2027 10:22:50.172            89.568              Murmansk2          2799.000
        54   01 Jun 2027 10:22:57.945   01 Jun 2027 10:23:29.932            31.987                Novosib           999.594
        55   01 Jun 2027 10:23:35.729   01 Jun 2027 10:29:24.192           348.463              Murmansk1         10889.469
        56   01 Jun 2027 11:31:05.157   01 Jun 2027 11:35:41.188           276.031               CapeTown          8625.969
        57   01 Jun 2027 12:09:00.111   01 Jun 2027 12:15:32.425           392.314                Anadyr2         12259.812
        58   01 Jun 2027 13:52:40.025   01 Jun 2027 13:52:52.175            12.150                Anadyr2           379.688
        59   01 Jun 2027 13:53:35.807   01 Jun 2027 13:54:40.957            65.150                Anadyr2          2035.937
        60   01 Jun 2027 13:55:40.878   01 Jun 2027 13:55:48.460             7.582                Anadyr2           236.938
        61   01 Jun 2027 15:22:26.264   01 Jun 2027 15:24:35.612           129.348               Magadan1          4042.125
        62   01 Jun 2027 15:27:57.711   01 Jun 2027 15:29:18.489            80.778               Magadan2          2524.313
        63   01 Jun 2027 15:29:24.864   01 Jun 2027 15:30:54.693            89.829               Magadan2          2807.156
        64   01 Jun 2027 15:33:43.137   01 Jun 2027 15:33:45.205             2.068               Magadan1            64.625
        65   01 Jun 2027 16:58:42.384   01 Jun 2027 17:02:09.550           207.166                Norilsk          6473.938
        66   01 Jun 2027 17:53:33.161   01 Jun 2027 17:59:45.852           372.691            RioGallegos         11646.594
        67   01 Jun 2027 18:34:59.926   01 Jun 2027 18:35:04.312             4.386                Norilsk           137.063
        68   01 Jun 2027 18:40:15.221   01 Jun 2027 18:44:19.299           244.078                Novosib          7627.437
        69   01 Jun 2027 18:47:14.780   01 Jun 2027 18:48:17.366            62.586                Irkutsk          1955.812
        70   01 Jun 2027 18:55:34.726   01 Jun 2027 18:55:43.169             8.443                Sumatra           263.844
        71   01 Jun 2027 19:01:01.833   01 Jun 2027 19:03:54.600           172.767                Sumatra          5398.969
        72   01 Jun 2027 20:19:11.151   01 Jun 2027 20:20:11.342            60.191                Novosib          1880.969
        73   01 Jun 2027 20:20:57.644   01 Jun 2027 20:22:10.247            72.603                Novosib          2268.844
        74   01 Jun 2027 20:22:46.618   01 Jun 2027 20:25:13.386           146.768                  Delhi          4586.500
        75   01 Jun 2027 20:26:11.453   01 Jun 2027 20:32:18.198           366.745                  Delhi         11460.781
        76   01 Jun 2027 21:47:58.557   01 Jun 2027 21:56:28.139           509.582              Murmansk2         15924.437
        77   01 Jun 2027 21:57:59.552   01 Jun 2027 21:58:58.637            59.085                 Moscow          1846.406
        78   01 Jun 2027 23:37:24.092   01 Jun 2027 23:38:21.048            56.956                 Moscow          1779.875
        79   01 Jun 2027 23:53:40.856   01 Jun 2027 23:55:14.717            93.861               CapeTown          2933.156
        80   01 Jun 2027 23:56:11.122   01 Jun 2027 23:56:21.299            10.177               CapeTown           318.031
        81   02 Jun 2027 00:00:02.006   02 Jun 2027 00:00:51.498            49.492               CapeTown          1546.625
        82   02 Jun 2027 00:02:46.770   02 Jun 2027 00:03:24.556            37.786               CapeTown          1180.813
        83   02 Jun 2027 00:59:39.466   02 Jun 2027 01:00:33.089            53.623              Murmansk2          1675.719
        84   02 Jun 2027 01:03:09.110   02 Jun 2027 01:03:31.287            22.177              Murmansk2           693.031
        85   02 Jun 2027 01:04:52.689   02 Jun 2027 01:06:14.696            82.007              Murmansk1          2562.719
        86   02 Jun 2027 01:09:15.190   02 Jun 2027 01:10:04.839            49.649              Murmansk1          1551.531
        87   02 Jun 2027 01:12:57.435   02 Jun 2027 01:13:34.274            36.839                 Moscow          1151.219
        88   02 Jun 2027 01:33:51.303   02 Jun 2027 01:35:11.392            80.089               CapeTown          2502.781
        89   02 Jun 2027 02:23:36.806   02 Jun 2027 02:24:56.865            80.059               Magadan2          2501.844
        90   02 Jun 2027 02:25:23.682   02 Jun 2027 02:25:25.556             1.874               Magadan1            58.563
        91   02 Jun 2027 02:25:50.683   02 Jun 2027 02:26:09.780            19.097               Magadan1           596.781
        92   02 Jun 2027 02:26:47.952   02 Jun 2027 02:27:00.219            12.267               Magadan1           383.344
        93   02 Jun 2027 02:27:27.805   02 Jun 2027 02:27:37.716             9.911               Magadan2           309.719
        94   02 Jun 2027 02:28:52.984   02 Jun 2027 02:29:41.562            48.578               Magadan2          1518.062
        95   02 Jun 2027 02:30:54.755   02 Jun 2027 02:31:11.565            16.810               Magadan2           525.313
        96   02 Jun 2027 02:32:19.317   02 Jun 2027 02:32:22.915             3.598                Norilsk           112.437
        97   02 Jun 2027 02:32:27.611   02 Jun 2027 02:32:55.600            27.989               Magadan1           874.656
        98   02 Jun 2027 02:34:54.912   02 Jun 2027 02:34:59.491             4.579               Magadan2           143.094
        99   02 Jun 2027 02:34:59.491   02 Jun 2027 02:35:04.348             4.857               Magadan1           151.781
       100   02 Jun 2027 02:35:12.741   02 Jun 2027 02:35:21.332             8.591                Norilsk           268.469
       101   02 Jun 2027 02:36:09.185   02 Jun 2027 02:36:44.041            34.856                Norilsk          1089.250
       102   02 Jun 2027 02:37:58.321   02 Jun 2027 02:38:12.016            13.695              Murmansk1           427.969
       103   02 Jun 2027 02:38:49.609   02 Jun 2027 02:38:57.335             7.726              Murmansk1           241.438
       104   02 Jun 2027 02:39:41.951   02 Jun 2027 02:39:57.564            15.613                 Moscow           487.906
       105   02 Jun 2027 02:40:31.924   02 Jun 2027 02:40:36.729             4.805              Murmansk1           150.156
       106   02 Jun 2027 02:40:50.998   02 Jun 2027 02:40:54.191             3.193                Norilsk            99.781
       107   02 Jun 2027 02:41:25.957   02 Jun 2027 02:42:12.877            46.920              Murmansk2          1466.250
       108   02 Jun 2027 02:44:09.322   02 Jun 2027 02:44:14.809             5.487              Murmansk2           171.469
       109   02 Jun 2027 02:44:42.521   02 Jun 2027 02:45:27.630            45.109                 Moscow          1409.656
       110   02 Jun 2027 03:17:35.748   02 Jun 2027 03:17:51.917            16.169            RioGallegos           505.281
       111   02 Jun 2027 03:18:52.235   02 Jun 2027 03:20:06.479            74.244            RioGallegos          2320.125
       112   02 Jun 2027 04:06:38.208   02 Jun 2027 04:09:08.282           150.074                Anadyr1          4689.812
       113   02 Jun 2027 04:09:12.510   02 Jun 2027 04:09:15.668             3.158                Anadyr1            98.687
       114   02 Jun 2027 04:09:20.101   02 Jun 2027 04:09:48.855            28.754                Anadyr1           898.563
       115   02 Jun 2027 04:09:50.622   02 Jun 2027 04:10:37.843            47.221               Magadan1          1475.656
       116   02 Jun 2027 04:10:37.843   02 Jun 2027 04:11:23.547            45.704               Magadan2          1428.250
       117   02 Jun 2027 04:49:34.120   02 Jun 2027 04:50:45.203            71.083            RioGallegos          2221.344
       118   02 Jun 2027 05:43:10.301   02 Jun 2027 05:43:37.855            27.554                Irkutsk           861.063
       119   02 Jun 2027 05:43:54.739   02 Jun 2027 05:43:54.934             0.195                Irkutsk             6.094
       120   02 Jun 2027 05:44:37.656   02 Jun 2027 05:47:05.065           147.409               Magadan2          4606.531
       121   02 Jun 2027 05:47:07.538   02 Jun 2027 05:47:41.882            34.344                Irkutsk          1073.250
       122   02 Jun 2027 05:48:05.945   02 Jun 2027 05:48:28.882            22.937              Murmansk2           716.781
       123   02 Jun 2027 05:48:44.198   02 Jun 2027 05:50:13.215            89.017                Norilsk          2781.781
       124   02 Jun 2027 05:50:15.793   02 Jun 2027 05:50:42.968            27.175              Murmansk2           849.219
       125   02 Jun 2027 06:22:24.756   02 Jun 2027 06:27:16.456           291.700            RioGallegos          9115.625
       126   02 Jun 2027 06:27:42.153   02 Jun 2027 06:28:15.030            32.877            RioGallegos          1027.406
       127   02 Jun 2027 06:29:57.245   02 Jun 2027 06:31:44.852           107.607            RioGallegos          3362.719
       128   02 Jun 2027 06:57:33.334   02 Jun 2027 07:00:57.440           204.106                Sumatra          6378.313
       129   02 Jun 2027 07:01:45.905   02 Jun 2027 07:02:02.984            17.079                Sumatra           533.719
       130   02 Jun 2027 07:09:26.775   02 Jun 2027 07:16:18.763           411.988                  Delhi         12874.625
       131   02 Jun 2027 07:19:26.213   02 Jun 2027 07:20:06.009            39.796                Novosib          1243.625
       132   02 Jun 2027 07:20:50.753   02 Jun 2027 07:21:33.220            42.467                Novosib          1327.094
       133   02 Jun 2027 07:21:33.356   02 Jun 2027 07:21:57.218            23.862                Irkutsk           745.687
       134   02 Jun 2027 07:22:50.560   02 Jun 2027 07:23:37.113            46.553                Irkutsk          1454.781
       135   02 Jun 2027 07:27:51.216   02 Jun 2027 07:27:53.849             2.633                Norilsk            82.281
       136   02 Jun 2027 08:07:18.839   02 Jun 2027 08:08:14.050            55.211            RioGallegos          1725.344
       137   02 Jun 2027 08:36:47.323   02 Jun 2027 08:37:29.702            42.379                Sumatra          1324.344
       138   02 Jun 2027 08:38:11.190   02 Jun 2027 08:39:06.499            55.309                Sumatra          1728.406
       139   02 Jun 2027 08:41:31.245   02 Jun 2027 08:42:33.777            62.532                  Delhi          1954.125
       140   02 Jun 2027 08:44:12.408   02 Jun 2027 08:44:43.067            30.659                  Delhi           958.094
       141   02 Jun 2027 08:48:52.595   02 Jun 2027 08:51:06.184           133.589                  Delhi          4174.656
       142   02 Jun 2027 08:57:37.173   02 Jun 2027 08:58:02.421            25.248                Norilsk           789.000
       143   02 Jun 2027 08:58:05.307   02 Jun 2027 08:58:12.655             7.348                Novosib           229.625
       144   02 Jun 2027 08:58:18.252   02 Jun 2027 08:58:55.104            36.852                Norilsk          1151.625
       145   02 Jun 2027 08:58:57.716   02 Jun 2027 09:00:02.230            64.514              Murmansk2          2016.063
       146   02 Jun 2027 09:00:22.566   02 Jun 2027 09:00:45.313            22.747              Murmansk1           710.844
       147   02 Jun 2027 09:00:54.051   02 Jun 2027 09:01:50.026            55.975                 Moscow          1749.219
       148   02 Jun 2027 10:20:53.404   02 Jun 2027 10:23:00.265           126.861                  Delhi          3964.406
       149   02 Jun 2027 10:23:08.271   02 Jun 2027 10:23:40.404            32.133                  Delhi          1004.156
       150   02 Jun 2027 10:29:21.182   02 Jun 2027 10:29:49.160            27.978              Murmansk1           874.313
       151   02 Jun 2027 10:29:52.232   02 Jun 2027 10:30:14.880            22.648              Murmansk1           707.750
       152   02 Jun 2027 10:30:14.880   02 Jun 2027 10:30:44.402            29.522              Murmansk2           922.563
       153   02 Jun 2027 10:30:54.276   02 Jun 2027 10:31:49.073            54.797              Murmansk2          1712.406
       154   02 Jun 2027 10:31:52.524   02 Jun 2027 10:33:07.858            75.334              Murmansk1          2354.188
       155   02 Jun 2027 10:33:14.694   02 Jun 2027 10:33:31.191            16.497              Murmansk2           515.531
       156   02 Jun 2027 10:33:31.191   02 Jun 2027 10:34:10.651            39.460              Murmansk1          1233.125
       157   02 Jun 2027 10:34:19.807   02 Jun 2027 10:34:46.220            26.413              Murmansk2           825.406
       158   02 Jun 2027 10:34:51.207   02 Jun 2027 10:35:35.588            44.381                 Moscow          1386.906
       159   02 Jun 2027 10:35:49.091   02 Jun 2027 10:36:24.093            35.002              Murmansk2          1093.812
       160   02 Jun 2027 10:36:32.666   02 Jun 2027 10:36:57.730            25.064                 Moscow           783.250
       161   02 Jun 2027 11:41:51.968   02 Jun 2027 11:49:11.426           439.458               CapeTown         13733.063
       162   02 Jun 2027 12:20:46.763   02 Jun 2027 12:26:49.326           362.563                Anadyr1         11330.094
       163   02 Jun 2027 12:27:21.555   02 Jun 2027 12:28:33.145            71.590                Anadyr2          2237.188
       164   02 Jun 2027 13:57:13.663   02 Jun 2027 13:57:25.598            11.935                Anadyr1           372.969
       165   02 Jun 2027 13:58:04.927   02 Jun 2027 13:58:17.632            12.705                Anadyr2           397.031
       166   02 Jun 2027 13:59:54.748   02 Jun 2027 13:59:56.392             1.644                Anadyr2            51.375
       167   02 Jun 2027 14:00:33.763   02 Jun 2027 14:04:50.851           257.088               Magadan1          8034.000
       168   02 Jun 2027 15:32:08.788   02 Jun 2027 15:33:58.961           110.173                Anadyr1          3442.906
       169   02 Jun 2027 15:34:22.478   02 Jun 2027 15:36:06.565           104.087               Magadan2          3252.719
       170   02 Jun 2027 15:37:38.375   02 Jun 2027 15:38:08.617            30.242               Magadan1           945.062
       171   02 Jun 2027 15:38:17.052   02 Jun 2027 15:38:37.068            20.016               Magadan1           625.500
       172   02 Jun 2027 15:40:32.747   02 Jun 2027 15:41:22.167            49.420               Magadan1          1544.375
       173   02 Jun 2027 17:07:46.698   02 Jun 2027 17:08:55.761            69.063                Anadyr2          2158.219
       174   02 Jun 2027 17:10:04.796   02 Jun 2027 17:11:55.578           110.782               Magadan2          3461.938
       175   02 Jun 2027 17:13:52.119   02 Jun 2027 17:15:00.977            68.858                Norilsk          2151.813
       176   02 Jun 2027 17:17:54.272   02 Jun 2027 17:19:02.714            68.442                Irkutsk          2138.813
       177   02 Jun 2027 18:02:09.243   02 Jun 2027 18:04:10.585           121.342            RioGallegos          3791.937
       178   02 Jun 2027 18:05:35.842   02 Jun 2027 18:05:49.167            13.325            RioGallegos           416.406
       179   02 Jun 2027 18:11:36.607   02 Jun 2027 18:12:38.541            61.934            RioGallegos          1935.438
       180   02 Jun 2027 18:45:38.856   02 Jun 2027 18:47:26.627           107.771                Norilsk          3367.844
       181   02 Jun 2027 18:48:04.580   02 Jun 2027 18:50:02.720           118.140                Norilsk          3691.875
       182   02 Jun 2027 18:50:38.747   02 Jun 2027 18:52:05.058            86.311                Irkutsk          2697.219
       183   02 Jun 2027 18:53:31.928   02 Jun 2027 18:57:42.461           250.533                Novosib          7829.156
       184   02 Jun 2027 19:04:20.411   02 Jun 2027 19:04:52.362            31.951                Sumatra           998.469
       185   02 Jun 2027 19:06:07.501   02 Jun 2027 19:07:24.002            76.501                Sumatra          2390.656
       186   02 Jun 2027 20:29:29.248   02 Jun 2027 20:29:50.193            20.945                Novosib           654.531
       187   02 Jun 2027 20:29:58.876   02 Jun 2027 20:31:04.265            65.389                Novosib          2043.406
       188   02 Jun 2027 20:33:14.012   02 Jun 2027 20:37:10.424           236.412                  Delhi          7387.875
       189   02 Jun 2027 20:38:25.523   02 Jun 2027 20:38:29.033             3.510                  Delhi           109.687
       190   02 Jun 2027 21:59:55.887   02 Jun 2027 22:09:03.226           547.339              Murmansk2         17104.344
       191   02 Jun 2027 22:09:52.348   02 Jun 2027 22:12:01.072           128.724                 Moscow          4022.625
       192   02 Jun 2027 23:39:02.597   02 Jun 2027 23:39:45.274            42.677                 Moscow          1333.656
       193   02 Jun 2027 23:43:03.065   02 Jun 2027 23:43:21.347            18.282                 Moscow           571.312
       194   02 Jun 2027 23:49:01.694   02 Jun 2027 23:50:57.507           115.813                 Moscow          3619.156
       195   03 Jun 2027 00:03:13.965   03 Jun 2027 00:05:05.385           111.420               CapeTown          3481.875
       196   03 Jun 2027 00:07:14.289   03 Jun 2027 00:07:15.288             0.999               CapeTown            31.219
       197   03 Jun 2027 01:04:08.235   03 Jun 2027 01:04:55.459            47.224               Magadan2          1475.750
       198   03 Jun 2027 01:11:40.940   03 Jun 2027 01:12:29.908            48.968              Murmansk2          1530.250
       199   03 Jun 2027 01:12:42.118   03 Jun 2027 01:12:46.167             4.049              Murmansk1           126.531
       200   03 Jun 2027 01:13:59.332   03 Jun 2027 01:14:16.735            17.403              Murmansk1           543.844
       201   03 Jun 2027 01:14:56.161   03 Jun 2027 01:15:59.818            63.657                 Moscow          1989.281
       202   03 Jun 2027 01:18:07.959   03 Jun 2027 01:19:21.346            73.387              Murmansk2          2293.344
       203   03 Jun 2027 01:39:51.520   03 Jun 2027 01:39:52.741             1.221               CapeTown            38.156
       204   03 Jun 2027 01:41:18.690   03 Jun 2027 01:42:30.799            72.109               CapeTown          2253.406
       205   03 Jun 2027 02:35:28.352   03 Jun 2027 02:38:24.165           175.813               Magadan1          5494.156
       206   03 Jun 2027 02:39:36.715   03 Jun 2027 02:39:54.211            17.496               Magadan1           546.750
       207   03 Jun 2027 02:42:21.640   03 Jun 2027 02:42:43.091            21.451               Magadan1           670.344
       208   03 Jun 2027 02:44:13.915   03 Jun 2027 02:44:41.354            27.439                Norilsk           857.469
       209   03 Jun 2027 02:47:31.550   03 Jun 2027 02:48:15.287            43.737              Murmansk2          1366.781
       210   03 Jun 2027 02:48:31.110   03 Jun 2027 02:48:43.397            12.287              Murmansk2           383.969
       211   03 Jun 2027 02:49:48.078   03 Jun 2027 02:50:15.364            27.286              Murmansk2           852.688
       212   03 Jun 2027 02:51:24.465   03 Jun 2027 02:52:05.938            41.473                 Moscow          1296.031
       213   03 Jun 2027 02:53:45.727   03 Jun 2027 02:54:12.087            26.360                 Moscow           823.750
       214   03 Jun 2027 03:28:26.060   03 Jun 2027 03:30:14.472           108.412            RioGallegos          3387.875
       215   03 Jun 2027 03:31:40.916   03 Jun 2027 03:33:01.060            80.144            RioGallegos          2504.500
       216   03 Jun 2027 04:17:23.409   03 Jun 2027 04:17:48.408            24.999                Anadyr2           781.219
       217   03 Jun 2027 04:17:56.366   03 Jun 2027 04:19:44.643           108.277               Magadan1          3383.656
       218   03 Jun 2027 04:19:44.643   03 Jun 2027 04:20:24.376            39.733               Magadan2          1241.656
       219   03 Jun 2027 04:20:24.376   03 Jun 2027 04:20:26.114             1.738               Magadan1            54.313
       220   03 Jun 2027 04:20:41.201   03 Jun 2027 04:20:55.117            13.916                Irkutsk           434.875
       221   03 Jun 2027 04:20:56.218   03 Jun 2027 04:21:44.345            48.127                Anadyr1          1503.969
       222   03 Jun 2027 04:21:46.623   03 Jun 2027 04:23:05.125            78.502                Anadyr2          2453.187
       223   03 Jun 2027 04:59:32.621   03 Jun 2027 05:01:31.923           119.302            RioGallegos          3728.187
       224   03 Jun 2027 05:02:46.813   03 Jun 2027 05:03:15.970            29.157            RioGallegos           911.156
       225   03 Jun 2027 05:55:01.031   03 Jun 2027 05:56:05.082            64.051               Magadan1          2001.594
       226   03 Jun 2027 05:56:50.387   03 Jun 2027 05:58:49.977           119.590               Magadan2          3737.187
       227   03 Jun 2027 05:59:11.433   03 Jun 2027 05:59:15.986             4.553                Norilsk           142.281
       228   03 Jun 2027 05:59:31.600   03 Jun 2027 06:01:22.876           111.276              Murmansk1          3477.375
       229   03 Jun 2027 06:04:55.907   03 Jun 2027 06:05:30.605            34.698              Murmansk1          1084.313
       230   03 Jun 2027 06:34:30.174   03 Jun 2027 06:35:52.726            82.552            RioGallegos          2579.750
       231   03 Jun 2027 06:37:41.433   03 Jun 2027 06:38:45.186            63.753            RioGallegos          1992.281
       232   03 Jun 2027 06:38:54.136   03 Jun 2027 06:39:34.416            40.280            RioGallegos          1258.750
       233   03 Jun 2027 07:09:24.515   03 Jun 2027 07:12:53.008           208.493                Sumatra          6515.406
       234   03 Jun 2027 07:20:25.434   03 Jun 2027 07:29:00.470           515.036                  Delhi         16094.875
       235   03 Jun 2027 07:30:50.002   03 Jun 2027 07:31:26.475            36.473                Irkutsk          1139.781
       236   03 Jun 2027 07:31:52.968   03 Jun 2027 07:33:10.493            77.525              Murmansk2          2422.656
       237   03 Jun 2027 07:33:15.137   03 Jun 2027 07:33:45.785            30.648                Novosib           957.750
       238   03 Jun 2027 07:33:55.872   03 Jun 2027 07:35:04.522            68.650                Novosib          2145.312
       239   03 Jun 2027 07:35:17.895   03 Jun 2027 07:35:36.361            18.466              Murmansk2           577.063
       240   03 Jun 2027 07:36:00.288   03 Jun 2027 07:37:03.604            63.316                 Moscow          1978.625
       241   03 Jun 2027 08:13:39.177   03 Jun 2027 08:13:59.964            20.787            RioGallegos           649.594
       242   03 Jun 2027 08:14:19.742   03 Jun 2027 08:14:34.543            14.801            RioGallegos           462.531
       243   03 Jun 2027 08:48:18.627   03 Jun 2027 08:48:25.159             6.532                Sumatra           204.125
       244   03 Jun 2027 08:49:24.547   03 Jun 2027 08:50:36.040            71.493                Sumatra          2234.156
       245   03 Jun 2027 08:54:35.147   03 Jun 2027 08:55:42.366            67.219                  Delhi          2100.594
       246   03 Jun 2027 08:57:14.068   03 Jun 2027 08:58:36.423            82.355                  Delhi          2573.594
       247   03 Jun 2027 09:07:50.178   03 Jun 2027 09:09:00.610            70.432                 Moscow          2201.000
       248   03 Jun 2027 09:09:17.828   03 Jun 2027 09:09:33.024            15.196                 Moscow           474.875
       249   03 Jun 2027 09:09:35.431   03 Jun 2027 09:10:15.233            39.802                Novosib          1243.813
       250   03 Jun 2027 09:10:15.979   03 Jun 2027 09:10:36.936            20.957                 Moscow           654.906
       251   03 Jun 2027 09:10:43.269   03 Jun 2027 09:10:49.343             6.074                Norilsk           189.813
       252   03 Jun 2027 09:10:51.428   03 Jun 2027 09:11:07.913            16.485                Norilsk           515.156
       253   03 Jun 2027 09:11:11.203   03 Jun 2027 09:11:25.716            14.513              Murmansk1           453.531
       254   03 Jun 2027 09:11:51.404   03 Jun 2027 09:12:15.959            24.555              Murmansk1           767.344
       255   03 Jun 2027 09:12:15.959   03 Jun 2027 09:12:46.809            30.850              Murmansk2           964.063
       256   03 Jun 2027 10:35:14.885   03 Jun 2027 10:36:08.551            53.666                  Delhi          1677.063
       257   03 Jun 2027 10:36:10.931   03 Jun 2027 10:36:47.733            36.802                  Delhi          1150.063
       258   03 Jun 2027 10:41:13.831   03 Jun 2027 10:42:09.066            55.235                 Moscow          1726.094
       259   03 Jun 2027 10:42:23.343   03 Jun 2027 10:43:17.113            53.770                 Moscow          1680.312
       260   03 Jun 2027 10:43:32.477   03 Jun 2027 10:43:37.290             4.813                 Moscow           150.406
       261   03 Jun 2027 10:43:46.162   03 Jun 2027 10:44:05.552            19.390              Murmansk2           605.937
       262   03 Jun 2027 10:44:22.923   03 Jun 2027 10:45:38.240            75.317                 Moscow          2353.656
       263   03 Jun 2027 10:45:45.653   03 Jun 2027 10:46:08.418            22.765                Norilsk           711.406
       264   03 Jun 2027 10:46:26.617   03 Jun 2027 10:46:28.309             1.692                 Moscow            52.875
       265   03 Jun 2027 10:46:37.056   03 Jun 2027 10:47:32.068            55.012              Murmansk2          1719.125
       266   03 Jun 2027 10:47:37.283   03 Jun 2027 10:48:11.945            34.662              Murmansk1          1083.188
       267   03 Jun 2027 10:48:35.235   03 Jun 2027 10:48:37.253             2.018              Murmansk1            63.062
       268   03 Jun 2027 10:48:39.448   03 Jun 2027 10:48:44.141             4.693                 Moscow           146.656
       269   03 Jun 2027 10:48:44.748   03 Jun 2027 10:49:08.605            23.857              Murmansk1           745.531
       270   03 Jun 2027 11:53:08.310   03 Jun 2027 12:01:07.534           479.224               CapeTown         14975.750
       271   03 Jun 2027 12:32:37.278   03 Jun 2027 12:38:26.378           349.100                Anadyr2         10909.375
       272   03 Jun 2027 12:38:56.922   03 Jun 2027 12:41:15.261           138.339                Anadyr1          4323.094
       273   03 Jun 2027 14:08:01.162   03 Jun 2027 14:09:21.615            80.453                Anadyr2          2514.156
       274   03 Jun 2027 14:11:54.612   03 Jun 2027 14:18:06.277           371.665               Magadan2         11614.531
       275   03 Jun 2027 15:46:19.788   03 Jun 2027 15:48:04.036           104.248               Magadan1          3257.750
       276   03 Jun 2027 15:48:36.270   03 Jun 2027 15:48:50.471            14.201               Magadan2           443.781
       277   03 Jun 2027 15:50:36.800   03 Jun 2027 15:51:48.636            71.836               Magadan2          2244.875
       278   03 Jun 2027 15:53:42.731   03 Jun 2027 15:54:59.713            76.982               Magadan1          2405.687
       279   03 Jun 2027 17:22:06.386   03 Jun 2027 17:23:41.175            94.789               Magadan2          2962.156
       280   03 Jun 2027 17:25:42.584   03 Jun 2027 17:27:11.398            88.814                Norilsk          2775.437
       281   03 Jun 2027 17:28:08.433   03 Jun 2027 17:33:22.175           313.742                Irkutsk          9804.438
       282   03 Jun 2027 19:01:42.061   03 Jun 2027 19:02:04.287            22.226                Norilsk           694.562
       283   03 Jun 2027 19:02:47.967   03 Jun 2027 19:02:59.397            11.430                Norilsk           357.187
       284   03 Jun 2027 19:03:16.092   03 Jun 2027 19:10:03.094           407.002                Novosib         12718.813
       285   03 Jun 2027 19:17:35.477   03 Jun 2027 19:18:27.420            51.943                Sumatra          1623.219
       286   03 Jun 2027 19:25:21.059   03 Jun 2027 19:26:24.429            63.370                Sumatra          1980.312
       287   03 Jun 2027 20:39:12.690   03 Jun 2027 20:39:31.447            18.757                Novosib           586.156
       288   03 Jun 2027 20:40:23.317   03 Jun 2027 20:41:08.751            45.434                Novosib          1419.812
       289   03 Jun 2027 20:45:02.170   03 Jun 2027 20:48:45.463           223.293                  Delhi          6977.906
       290   03 Jun 2027 20:55:26.083   03 Jun 2027 20:56:13.884            47.801                  Delhi          1493.781
       291   03 Jun 2027 22:11:54.262   03 Jun 2027 22:13:34.362           100.100              Murmansk1          3128.125
       292   03 Jun 2027 22:14:14.262   03 Jun 2027 22:17:28.645           194.383              Murmansk2          6074.469
       293   03 Jun 2027 22:19:01.947   03 Jun 2027 22:22:39.469           217.522                 Moscow          6797.563
       294   03 Jun 2027 22:44:27.336   03 Jun 2027 22:48:43.129           255.793               CapeTown          7993.531
       295   04 Jun 2027 00:15:02.179   04 Jun 2027 00:17:01.064           118.885               CapeTown          3715.156
       296   04 Jun 2027 01:13:45.241   04 Jun 2027 01:13:53.717             8.476               Magadan1           264.875
       297   04 Jun 2027 01:15:18.199   04 Jun 2027 01:15:28.015             9.816               Magadan1           306.750
       298   04 Jun 2027 01:17:03.385   04 Jun 2027 01:18:08.258            64.873               Magadan2          2027.281
       299   04 Jun 2027 01:23:42.305   04 Jun 2027 01:23:48.032             5.727              Murmansk1           178.969
       300   04 Jun 2027 01:24:30.282   04 Jun 2027 01:24:47.867            17.585              Murmansk1           549.531
       301   04 Jun 2027 01:25:55.888   04 Jun 2027 01:26:59.491            63.603              Murmansk2          1987.594
       302   04 Jun 2027 01:26:59.671   04 Jun 2027 01:27:53.381            53.710                 Moscow          1678.438
       303   04 Jun 2027 01:29:37.883   04 Jun 2027 01:29:41.554             3.671                 Moscow           114.719
       304   04 Jun 2027 01:31:19.313   04 Jun 2027 01:31:34.878            15.565                 Moscow           486.406
       305   04 Jun 2027 01:32:13.201   04 Jun 2027 01:32:15.016             1.815                 Moscow            56.719
       306   04 Jun 2027 01:33:03.453   04 Jun 2027 01:33:33.189            29.736                 Moscow           929.250
       307   04 Jun 2027 01:52:27.766   04 Jun 2027 01:52:59.173            31.407               CapeTown           981.469
       308   04 Jun 2027 01:54:08.000   04 Jun 2027 01:54:51.954            43.954               CapeTown          1373.562
       309   04 Jun 2027 02:00:36.179   04 Jun 2027 02:01:30.926            54.747               CapeTown          1710.844
       310   04 Jun 2027 02:47:22.101   04 Jun 2027 02:49:33.286           131.185               Magadan2          4099.531
       311   04 Jun 2027 02:50:32.115   04 Jun 2027 02:50:57.815            25.700               Magadan1           803.125
       312   04 Jun 2027 02:52:57.988   04 Jun 2027 02:53:11.543            13.555               Magadan2           423.594
       313   04 Jun 2027 02:55:13.174   04 Jun 2027 02:55:47.972            34.798               Magadan1          1087.437
       314   04 Jun 2027 02:59:30.928   04 Jun 2027 03:00:16.947            46.019              Murmansk2          1438.094
       315   04 Jun 2027 03:39:31.601   04 Jun 2027 03:42:46.976           195.375            RioGallegos          6105.469
       316   04 Jun 2027 04:29:24.190   04 Jun 2027 04:29:30.783             6.593                Anadyr2           206.031
       317   04 Jun 2027 04:29:34.216   04 Jun 2027 04:29:59.269            25.053                Anadyr2           782.906
       318   04 Jun 2027 04:30:07.208   04 Jun 2027 04:31:01.829            54.621               Magadan1          1706.906
       319   04 Jun 2027 04:31:07.802   04 Jun 2027 04:31:34.078            26.276                Norilsk           821.125
       320   04 Jun 2027 04:31:41.358   04 Jun 2027 04:31:58.173            16.815                Anadyr2           525.469
       321   04 Jun 2027 04:32:05.790   04 Jun 2027 04:35:01.337           175.547                Irkutsk          5485.844
       322   04 Jun 2027 04:35:25.561   04 Jun 2027 04:35:29.900             4.339                Anadyr2           135.594
       323   04 Jun 2027 04:35:41.328   04 Jun 2027 04:35:48.824             7.496               Magadan2           234.250
       324   04 Jun 2027 05:11:15.444   04 Jun 2027 05:14:39.190           203.746            RioGallegos          6367.062
       325   04 Jun 2027 05:50:27.000   04 Jun 2027 05:54:05.139           218.139                Sumatra          6816.844
       326   04 Jun 2027 06:06:28.978   04 Jun 2027 06:06:53.544            24.566               Magadan1           767.688
       327   04 Jun 2027 06:07:00.175   04 Jun 2027 06:07:47.321            47.146                Novosib          1473.313
       328   04 Jun 2027 06:08:03.156   04 Jun 2027 06:09:34.168            91.012                Novosib          2844.125
       329   04 Jun 2027 06:09:37.121   04 Jun 2027 06:09:45.711             8.590                Norilsk           268.438
       330   04 Jun 2027 06:10:05.029   04 Jun 2027 06:10:34.841            29.812              Murmansk2           931.625
       331   04 Jun 2027 06:10:34.841   04 Jun 2027 06:11:26.352            51.511              Murmansk1          1609.719
       332   04 Jun 2027 06:11:36.116   04 Jun 2027 06:12:05.992            29.876              Murmansk2           933.625
       333   04 Jun 2027 06:12:27.301   04 Jun 2027 06:12:42.469            15.168                Novosib           474.000
       334   04 Jun 2027 06:13:00.824   04 Jun 2027 06:13:19.343            18.519              Murmansk1           578.719
       335   04 Jun 2027 06:15:20.147   04 Jun 2027 06:15:47.753            27.606              Murmansk1           862.688
       336   04 Jun 2027 06:17:51.197   04 Jun 2027 06:17:58.628             7.431              Murmansk2           232.219
       337   04 Jun 2027 06:46:39.149   04 Jun 2027 06:47:44.170            65.021            RioGallegos          2031.906
       338   04 Jun 2027 06:48:16.300   04 Jun 2027 06:48:25.530             9.230            RioGallegos           288.437
       339   04 Jun 2027 06:49:40.260   04 Jun 2027 06:50:30.232            49.972            RioGallegos          1561.625
       340   04 Jun 2027 07:21:21.418   04 Jun 2027 07:23:47.469           146.051                Sumatra          4564.094
       341   04 Jun 2027 07:31:39.308   04 Jun 2027 07:34:01.516           142.208                  Delhi          4444.000
       342   04 Jun 2027 07:34:30.113   04 Jun 2027 07:39:12.452           282.339                  Delhi          8823.094
       343   04 Jun 2027 07:42:06.353   04 Jun 2027 07:42:07.868             1.515                Novosib            47.344
       344   04 Jun 2027 07:42:29.807   04 Jun 2027 07:42:33.001             3.194                Norilsk            99.813
       345   04 Jun 2027 07:42:55.974   04 Jun 2027 07:43:14.825            18.851                Novosib           589.094
       346   04 Jun 2027 07:43:16.613   04 Jun 2027 07:43:25.706             9.093                Irkutsk           284.156
       347   04 Jun 2027 07:43:40.155   04 Jun 2027 07:43:59.307            19.152              Murmansk1           598.500
       348   04 Jun 2027 07:43:59.307   04 Jun 2027 07:44:01.950             2.643              Murmansk2            82.594
       349   04 Jun 2027 07:44:04.551   04 Jun 2027 07:45:03.196            58.645              Murmansk1          1832.656
       350   04 Jun 2027 07:45:03.795   04 Jun 2027 07:45:10.507             6.712                 Moscow           209.750
       351   04 Jun 2027 07:45:22.450   04 Jun 2027 07:45:50.339            27.889                Norilsk           871.531
       352   04 Jun 2027 07:45:51.078   04 Jun 2027 07:46:11.933            20.855              Murmansk1           651.719
       353   04 Jun 2027 07:46:39.632   04 Jun 2027 07:46:59.003            19.371                Norilsk           605.344
       354   04 Jun 2027 07:47:04.079   04 Jun 2027 07:47:15.583            11.504                Novosib           359.500
       355   04 Jun 2027 07:47:32.102   04 Jun 2027 07:47:52.817            20.715              Murmansk2           647.344
       356   04 Jun 2027 07:48:05.758   04 Jun 2027 07:48:27.295            21.537                 Moscow           673.031
       357   04 Jun 2027 07:50:17.782   04 Jun 2027 07:50:19.020             1.238              Murmansk1            38.687
       358   04 Jun 2027 07:50:56.319   04 Jun 2027 07:51:12.576            16.257              Murmansk1           508.031
       359   04 Jun 2027 07:53:31.078   04 Jun 2027 07:53:37.328             6.250              Murmansk2           195.313
       360   04 Jun 2027 08:26:40.113   04 Jun 2027 08:27:11.954            31.841            RioGallegos           995.031
       361   04 Jun 2027 08:28:18.345   04 Jun 2027 08:28:35.881            17.536            RioGallegos           548.000
       362   04 Jun 2027 09:05:38.757   04 Jun 2027 09:08:15.560           156.803                  Delhi          4900.094
       363   04 Jun 2027 09:09:30.718   04 Jun 2027 09:10:52.979            82.261                  Delhi          2570.656
       364   04 Jun 2027 09:19:43.367   04 Jun 2027 09:19:53.278             9.911                Novosib           309.719
       365   04 Jun 2027 09:19:55.793   04 Jun 2027 09:20:38.504            42.711                 Moscow          1334.719
       366   04 Jun 2027 09:20:41.502   04 Jun 2027 09:21:35.242            53.740                Norilsk          1679.375
       367   04 Jun 2027 09:21:37.255   04 Jun 2027 09:23:02.715            85.460                 Moscow          2670.625
       368   04 Jun 2027 09:23:10.621   04 Jun 2027 09:23:32.488            21.867                Norilsk           683.344
       369   04 Jun 2027 09:27:53.463   04 Jun 2027 09:28:38.711            45.248              Murmansk1          1414.000
       370   04 Jun 2027 10:53:15.751   04 Jun 2027 10:53:27.754            12.003                 Moscow           375.094
       371   04 Jun 2027 10:53:30.256   04 Jun 2027 10:53:51.045            20.789              Murmansk2           649.656
       372   04 Jun 2027 10:53:52.552   04 Jun 2027 10:54:30.646            38.094              Murmansk2          1190.437
       373   04 Jun 2027 10:54:42.894   04 Jun 2027 10:55:12.749            29.855              Murmansk2           932.969
       374   04 Jun 2027 10:55:14.149   04 Jun 2027 10:55:28.571            14.422                 Moscow           450.687
       375   04 Jun 2027 10:55:43.814   04 Jun 2027 10:55:53.450             9.636              Murmansk2           301.125
       376   04 Jun 2027 10:56:04.435   04 Jun 2027 10:56:38.898            34.463                 Moscow          1076.969
       377   04 Jun 2027 10:56:42.589   04 Jun 2027 10:57:11.803            29.214              Murmansk1           912.938
       378   04 Jun 2027 10:57:38.088   04 Jun 2027 10:57:48.510            10.422                 Moscow           325.687
       379   04 Jun 2027 10:57:52.721   04 Jun 2027 10:58:42.250            49.529              Murmansk2          1547.781
       380   04 Jun 2027 10:58:56.419   04 Jun 2027 10:59:25.055            28.636              Murmansk1           894.875
       381   04 Jun 2027 10:59:30.943   04 Jun 2027 11:00:00.223            29.280              Murmansk2           915.000
       382   04 Jun 2027 11:02:02.544   04 Jun 2027 11:02:08.103             5.559              Murmansk2           173.719
       383   04 Jun 2027 11:02:48.044   04 Jun 2027 11:02:55.929             7.885              Murmansk1           246.406
       384   04 Jun 2027 12:04:38.098   04 Jun 2027 12:11:31.507           413.409               CapeTown         12919.031
       385   04 Jun 2027 12:44:30.378   04 Jun 2027 12:53:52.399           562.021                Anadyr2         17563.156
       386   04 Jun 2027 14:20:01.478   04 Jun 2027 14:20:57.654            56.176                Anadyr2          1755.500
       387   04 Jun 2027 14:23:30.629   04 Jun 2027 14:30:14.430           403.801               Magadan2         12618.781
       388   04 Jun 2027 14:31:00.031   04 Jun 2027 14:31:03.640             3.609               Magadan1           112.781
       389   04 Jun 2027 15:58:17.992   04 Jun 2027 15:59:41.568            83.576               Magadan1          2611.750
       390   04 Jun 2027 16:02:12.753   04 Jun 2027 16:02:22.569             9.816               Magadan2           306.750
       391   04 Jun 2027 16:02:37.043   04 Jun 2027 16:03:15.984            38.941               Magadan2          1216.906
       392   04 Jun 2027 17:31:46.689   04 Jun 2027 17:32:34.984            48.295                Anadyr2          1509.219
       393   04 Jun 2027 17:32:42.929   04 Jun 2027 17:33:31.443            48.514                Anadyr1          1516.063
       394   04 Jun 2027 17:34:03.744   04 Jun 2027 17:34:40.073            36.329                Norilsk          1135.281
       395   04 Jun 2027 17:35:19.199   04 Jun 2027 17:37:18.909           119.710               Magadan1          3740.937
       396   04 Jun 2027 17:39:26.265   04 Jun 2027 17:46:34.768           428.503                Irkutsk         13390.719
       397   04 Jun 2027 17:55:22.965   04 Jun 2027 18:01:05.531           342.566                Sumatra         10705.187
       398   04 Jun 2027 19:15:34.892   04 Jun 2027 19:23:30.539           475.647                Novosib         14863.969
       399   04 Jun 2027 20:49:10.208   04 Jun 2027 20:52:33.275           203.067              Murmansk1          6345.844
       400   04 Jun 2027 22:25:23.295   04 Jun 2027 22:25:24.329             1.034              Murmansk1            32.312
       401   04 Jun 2027 22:25:34.256   04 Jun 2027 22:29:51.621           257.365              Murmansk2          8042.656
       402   04 Jun 2027 22:30:36.251   04 Jun 2027 22:35:50.230           313.979                 Moscow          9811.844
       403   04 Jun 2027 22:54:59.955   04 Jun 2027 23:01:45.707           405.752               CapeTown         12679.750
       404   05 Jun 2027 01:48:41.726   05 Jun 2027 01:48:49.038             7.312                 Moscow           228.500
       405   05 Jun 2027 01:49:41.436   05 Jun 2027 01:50:45.915            64.479                 Moscow          2014.969
       406   05 Jun 2027 02:08:28.612   05 Jun 2027 02:08:30.429             1.817               CapeTown            56.781
       407   05 Jun 2027 02:12:08.749   05 Jun 2027 02:12:39.458            30.709               CapeTown           959.656
       408   05 Jun 2027 02:59:18.119   05 Jun 2027 03:00:21.028            62.909               Magadan1          1965.906
       409   05 Jun 2027 03:01:02.915   05 Jun 2027 03:01:06.052             3.137               Magadan2            98.031
       410   05 Jun 2027 03:01:13.896   05 Jun 2027 03:01:17.964             4.068               Magadan2           127.125
       411   05 Jun 2027 03:03:35.951   05 Jun 2027 03:03:59.228            23.277                Anadyr1           727.406
       412   05 Jun 2027 03:03:59.228   05 Jun 2027 03:04:21.639            22.411                Anadyr2           700.344
       413   05 Jun 2027 03:04:24.757   05 Jun 2027 03:04:44.184            19.427               Magadan1           607.094
       414   05 Jun 2027 03:05:22.603   05 Jun 2027 03:06:28.162            65.559                Anadyr1          2048.719
       415   05 Jun 2027 03:06:58.397   05 Jun 2027 03:07:24.443            26.046               Magadan2           813.938
       416   05 Jun 2027 03:07:24.443   05 Jun 2027 03:07:50.284            25.841               Magadan1           807.531
       417   05 Jun 2027 03:07:56.174   05 Jun 2027 03:08:08.532            12.358                Anadyr2           386.187
       418   05 Jun 2027 03:08:43.155   05 Jun 2027 03:08:49.841             6.686               Magadan1           208.938
       419   05 Jun 2027 03:09:27.784   05 Jun 2027 03:11:12.034           104.250                Anadyr1          3257.813
       420   05 Jun 2027 03:11:12.034   05 Jun 2027 03:12:21.186            69.152                Anadyr2          2161.000
       421   05 Jun 2027 04:40:13.117   05 Jun 2027 04:40:39.364            26.247                Irkutsk           820.219
       422   05 Jun 2027 04:41:01.041   05 Jun 2027 04:41:06.757             5.716               Magadan1           178.625
       423   05 Jun 2027 04:41:08.818   05 Jun 2027 04:41:24.689            15.871                Anadyr2           495.969
       424   05 Jun 2027 04:41:24.689   05 Jun 2027 04:41:35.665            10.976                Anadyr1           343.000
       425   05 Jun 2027 04:41:39.185   05 Jun 2027 04:42:52.301            73.116               Magadan2          2284.875
       426   05 Jun 2027 04:43:02.913   05 Jun 2027 04:46:18.567           195.654               Magadan2          6114.187
       427   05 Jun 2027 04:46:46.048   05 Jun 2027 04:47:53.482            67.434               Magadan2          2107.312
       428   05 Jun 2027 05:23:01.484   05 Jun 2027 05:26:58.240           236.756            RioGallegos          7398.625
       429   05 Jun 2027 05:28:59.783   05 Jun 2027 05:29:32.651            32.868            RioGallegos          1027.125
       430   05 Jun 2027 05:30:14.394   05 Jun 2027 05:30:50.269            35.875            RioGallegos          1121.094
       431   05 Jun 2027 05:31:22.525   05 Jun 2027 05:31:38.447            15.922            RioGallegos           497.563
       432   05 Jun 2027 06:00:39.443   05 Jun 2027 06:07:45.701           426.258                Sumatra         13320.563
       433   05 Jun 2027 06:17:56.439   05 Jun 2027 06:18:48.539            52.100               Magadan2          1628.125
       434   05 Jun 2027 06:18:53.055   05 Jun 2027 06:19:33.331            40.276               Magadan1          1258.625
       435   05 Jun 2027 06:19:47.754   05 Jun 2027 06:20:07.284            19.530                Novosib           610.312
       436   05 Jun 2027 06:20:16.488   05 Jun 2027 06:20:18.915             2.427                Norilsk            75.844
       437   05 Jun 2027 06:20:19.939   05 Jun 2027 06:20:30.995            11.056                Irkutsk           345.500
       438   05 Jun 2027 06:20:36.840   05 Jun 2027 06:22:48.542           131.702                Irkutsk          4115.688
       439   05 Jun 2027 06:23:19.955   05 Jun 2027 06:23:55.002            35.047              Murmansk2          1095.219
       440   05 Jun 2027 06:24:25.255   05 Jun 2027 06:24:44.945            19.690                Novosib           615.313
       441   05 Jun 2027 06:27:10.559   05 Jun 2027 06:27:14.331             3.772              Murmansk1           117.875
       442   05 Jun 2027 06:27:56.106   05 Jun 2027 06:28:09.478            13.372              Murmansk1           417.875
       443   05 Jun 2027 06:58:51.878   05 Jun 2027 06:59:38.781            46.903            RioGallegos          1465.719
       444   05 Jun 2027 07:00:55.643   05 Jun 2027 07:01:03.350             7.707            RioGallegos           240.844
       445   05 Jun 2027 07:01:37.866   05 Jun 2027 07:02:09.739            31.873            RioGallegos           996.031
       446   05 Jun 2027 07:33:23.894   05 Jun 2027 07:33:46.497            22.603                Sumatra           706.344
       447   05 Jun 2027 07:36:29.651   05 Jun 2027 07:38:36.347           126.696                Sumatra          3959.250
       448   05 Jun 2027 07:43:03.487   05 Jun 2027 07:46:16.642           193.155                  Delhi          6036.094
       449   05 Jun 2027 07:47:58.838   05 Jun 2027 07:50:04.041           125.203                  Delhi          3912.594
       450   05 Jun 2027 07:53:44.081   05 Jun 2027 07:53:51.418             7.337                  Delhi           229.281
       451   05 Jun 2027 07:54:40.988   05 Jun 2027 07:55:06.124            25.136                Novosib           785.500
       452   05 Jun 2027 07:55:11.179   05 Jun 2027 07:56:07.185            56.006                Novosib          1750.187
       453   05 Jun 2027 07:56:16.291   05 Jun 2027 07:56:59.394            43.103                Norilsk          1346.969
       454   05 Jun 2027 07:57:09.187   05 Jun 2027 07:57:43.443            34.256                Norilsk          1070.500
       455   05 Jun 2027 07:57:45.761   05 Jun 2027 07:57:59.777            14.016              Murmansk1           438.000
       456   05 Jun 2027 07:58:02.019   05 Jun 2027 07:58:07.583             5.564                Novosib           173.875
       457   05 Jun 2027 07:58:19.329   05 Jun 2027 07:59:22.450            63.121                Irkutsk          1972.531
       458   05 Jun 2027 07:59:37.455   05 Jun 2027 07:59:49.176            11.721                Norilsk           366.281
       459   05 Jun 2027 07:59:49.332   05 Jun 2027 08:00:21.718            32.386              Murmansk1          1012.062
       460   05 Jun 2027 08:00:39.410   05 Jun 2027 08:00:54.281            14.871              Murmansk2           464.719
       461   05 Jun 2027 08:40:07.349   05 Jun 2027 08:41:04.764            57.415            RioGallegos          1794.219
       462   05 Jun 2027 09:17:50.990   05 Jun 2027 09:20:34.750           163.760                  Delhi          5117.500
       463   05 Jun 2027 09:22:24.562   05 Jun 2027 09:22:52.323            27.761                  Delhi           867.531
       464   05 Jun 2027 09:30:47.527   05 Jun 2027 09:30:59.847            12.320                Novosib           385.000
       465   05 Jun 2027 09:31:01.672   05 Jun 2027 09:32:40.496            98.824                 Moscow          3088.250
       466   05 Jun 2027 09:32:46.848   05 Jun 2027 09:32:49.895             3.047                 Moscow            95.219
       467   05 Jun 2027 09:32:53.053   05 Jun 2027 09:33:37.417            44.364              Murmansk2          1386.375
       468   05 Jun 2027 09:33:39.547   05 Jun 2027 09:33:41.009             1.462                 Moscow            45.687
       469   05 Jun 2027 09:33:42.652   05 Jun 2027 09:34:18.783            36.131                Novosib          1129.094
       470   05 Jun 2027 09:34:26.237   05 Jun 2027 09:35:05.143            38.906              Murmansk2          1215.812
       471   05 Jun 2027 09:35:16.148   05 Jun 2027 09:35:17.190             1.042                Novosib            32.562
       472   05 Jun 2027 09:35:32.022   05 Jun 2027 09:36:50.041            78.019              Murmansk2          2438.094
       473   05 Jun 2027 11:05:27.404   05 Jun 2027 11:05:36.624             9.220              Murmansk1           288.125
       474   05 Jun 2027 11:05:42.301   05 Jun 2027 11:05:50.991             8.690              Murmansk2           271.563
       475   05 Jun 2027 11:06:17.701   05 Jun 2027 11:06:40.925            23.224                 Moscow           725.750
       476   05 Jun 2027 11:07:22.547   05 Jun 2027 11:07:31.574             9.027                 Moscow           282.094
       477   05 Jun 2027 11:07:41.590   05 Jun 2027 11:07:53.231            11.641              Murmansk1           363.781
       478   05 Jun 2027 11:07:53.231   05 Jun 2027 11:08:00.365             7.134              Murmansk2           222.937
       479   05 Jun 2027 11:08:08.709   05 Jun 2027 11:08:30.300            21.591              Murmansk1           674.719
       480   05 Jun 2027 11:08:42.477   05 Jun 2027 11:09:25.233            42.756                 Moscow          1336.125
       481   05 Jun 2027 11:09:37.144   05 Jun 2027 11:10:34.043            56.899                 Moscow          1778.094
       482   05 Jun 2027 12:16:16.228   05 Jun 2027 12:19:51.351           215.123               CapeTown          6722.594
