uniorb/output/strategy_2/Drop/Drop_KinoSat_111705.txt

KinoSat_111705
-------------------------
    Access    *     Start Time (UTCG)     *     Stop Time (UTCG)  *   Duration (s)        *       Station  *  Data (Mbytes)
         1   01 Jun 2027 03:11:48.417   01 Jun 2027 03:13:15.174            86.757                 Moscow          2711.156
         2   01 Jun 2027 03:13:27.462   01 Jun 2027 03:14:16.524            49.062                 Moscow          1533.187
         3   01 Jun 2027 03:14:18.820   01 Jun 2027 03:15:27.008            68.188                 Moscow          2130.875
         4   01 Jun 2027 03:20:10.098   01 Jun 2027 03:20:42.606            32.508                Novosib          1015.875
         5   01 Jun 2027 04:50:58.151   01 Jun 2027 04:51:29.991            31.840              Murmansk1           995.000
         6   01 Jun 2027 04:51:43.678   01 Jun 2027 04:52:49.608            65.930              Murmansk2          2060.313
         7   01 Jun 2027 04:53:11.514   01 Jun 2027 04:53:18.369             6.855                Novosib           214.219
         8   01 Jun 2027 04:53:29.019   01 Jun 2027 04:54:11.507            42.488              Murmansk2          1327.750
         9   01 Jun 2027 04:54:20.563   01 Jun 2027 04:55:02.198            41.635              Murmansk2          1301.094
        10   01 Jun 2027 04:55:22.892   01 Jun 2027 04:55:32.611             9.719                 Moscow           303.719
        11   01 Jun 2027 04:55:42.640   01 Jun 2027 04:57:05.090            82.450                 Moscow          2576.562
        12   01 Jun 2027 05:10:03.241   01 Jun 2027 05:12:52.932           169.691               CapeTown          5302.844
        13   01 Jun 2027 06:06:32.974   01 Jun 2027 06:07:40.832            67.858                Anadyr1          2120.562
        14   01 Jun 2027 06:07:40.832   01 Jun 2027 06:08:39.594            58.762                Anadyr2          1836.313
        15   01 Jun 2027 06:13:38.934   01 Jun 2027 06:15:14.614            95.680                Anadyr1          2990.000
        16   01 Jun 2027 06:16:49.682   01 Jun 2027 06:16:50.997             1.315               Magadan2            41.094
        17   01 Jun 2027 06:18:56.808   01 Jun 2027 06:19:28.399            31.591                Anadyr1           987.219
        18   01 Jun 2027 06:25:39.225   01 Jun 2027 06:25:50.110            10.885                 Moscow           340.156
        19   01 Jun 2027 06:27:05.371   01 Jun 2027 06:27:08.363             2.992                 Moscow            93.500
        20   01 Jun 2027 06:27:47.240   01 Jun 2027 06:28:15.290            28.050              Murmansk1           876.562
        21   01 Jun 2027 06:32:44.026   01 Jun 2027 06:33:17.519            33.493                 Moscow          1046.656
        22   01 Jun 2027 07:48:44.326   01 Jun 2027 07:49:28.354            44.028                Anadyr1          1375.875
        23   01 Jun 2027 07:50:05.024   01 Jun 2027 07:51:35.482            90.458                Anadyr2          2826.813
        24   01 Jun 2027 07:51:52.422   01 Jun 2027 07:55:05.014           192.592               Magadan2          6018.500
        25   01 Jun 2027 07:55:16.702   01 Jun 2027 07:55:20.321             3.619              Murmansk1           113.094
        26   01 Jun 2027 07:56:13.750   01 Jun 2027 07:56:30.832            17.082              Murmansk1           533.812
        27   01 Jun 2027 08:03:37.593   01 Jun 2027 08:04:15.226            37.633                 Moscow          1176.031
        28   01 Jun 2027 08:04:41.267   01 Jun 2027 08:05:35.677            54.410                 Moscow          1700.312
        29   01 Jun 2027 09:22:55.620   01 Jun 2027 09:23:30.517            34.897                Anadyr1          1090.531
        30   01 Jun 2027 09:23:30.517   01 Jun 2027 09:24:19.271            48.754                Anadyr2          1523.563
        31   01 Jun 2027 09:25:00.055   01 Jun 2027 09:25:34.290            34.235               Magadan2          1069.844
        32   01 Jun 2027 09:25:41.871   01 Jun 2027 09:25:45.843             3.972                Irkutsk           124.125
        33   01 Jun 2027 09:25:50.724   01 Jun 2027 09:26:19.803            29.079                Norilsk           908.719
        34   01 Jun 2027 09:26:20.654   01 Jun 2027 09:26:39.292            18.638                Irkutsk           582.437
        35   01 Jun 2027 09:26:52.104   01 Jun 2027 09:27:11.738            19.634                Irkutsk           613.563
        36   01 Jun 2027 09:27:11.965   01 Jun 2027 09:29:02.093           110.128               Magadan1          3441.500
        37   01 Jun 2027 09:29:15.626   01 Jun 2027 09:30:35.692            80.066                Anadyr1          2502.062
        38   01 Jun 2027 11:01:27.762   01 Jun 2027 11:02:50.122            82.360                Irkutsk          2573.750
        39   01 Jun 2027 11:02:59.464   01 Jun 2027 11:05:38.326           158.862               Magadan1          4964.438
        40   01 Jun 2027 11:05:43.486   01 Jun 2027 11:06:16.888            33.402              Murmansk1          1043.813
        41   01 Jun 2027 11:06:18.656   01 Jun 2027 11:07:08.651            49.995                Norilsk          1562.344
        42   01 Jun 2027 11:07:57.876   01 Jun 2027 11:07:59.115             1.239                Novosib            38.719
        43   01 Jun 2027 11:41:33.509   01 Jun 2027 11:43:24.962           111.453            RioGallegos          3482.906
        44   01 Jun 2027 11:45:29.853   01 Jun 2027 11:45:31.861             2.008            RioGallegos            62.750
        45   01 Jun 2027 12:16:19.540   01 Jun 2027 12:17:33.083            73.543                Sumatra          2298.219
        46   01 Jun 2027 12:19:17.198   01 Jun 2027 12:19:50.241            33.043                Sumatra          1032.594
        47   01 Jun 2027 12:30:25.403   01 Jun 2027 12:35:02.214           276.811                Irkutsk          8650.344
        48   01 Jun 2027 12:35:51.976   01 Jun 2027 12:36:04.350            12.374                Norilsk           386.687
        49   01 Jun 2027 12:36:40.452   01 Jun 2027 12:37:33.242            52.790                Norilsk          1649.688
        50   01 Jun 2027 13:21:14.259   01 Jun 2027 13:25:30.952           256.693            RioGallegos          8021.656
        51   01 Jun 2027 13:56:51.180   01 Jun 2027 13:59:27.447           156.267                Sumatra          4883.344
        52   01 Jun 2027 14:10:23.418   01 Jun 2027 14:10:38.066            14.648                Novosib           457.750
        53   01 Jun 2027 14:12:32.284   01 Jun 2027 14:13:02.331            30.047                Novosib           938.969
        54   01 Jun 2027 14:13:20.375   01 Jun 2027 14:14:40.630            80.255                Irkutsk          2507.969
        55   01 Jun 2027 15:44:56.277   01 Jun 2027 15:46:52.053           115.776                 Moscow          3618.000
        56   01 Jun 2027 15:48:20.810   01 Jun 2027 15:49:38.609            77.799              Murmansk1          2431.219
        57   01 Jun 2027 15:52:02.114   01 Jun 2027 15:53:18.500            76.386                Norilsk          2387.063
        58   01 Jun 2027 15:54:31.569   01 Jun 2027 15:55:44.864            73.295                Norilsk          2290.469
        59   01 Jun 2027 15:56:30.283   01 Jun 2027 15:56:35.228             4.945                Norilsk           154.531
        60   01 Jun 2027 17:22:05.041   01 Jun 2027 17:23:50.536           105.495                 Moscow          3296.719
        61   01 Jun 2027 17:25:18.001   01 Jun 2027 17:29:16.703           238.702              Murmansk1          7459.438
        62   01 Jun 2027 17:29:35.809   01 Jun 2027 17:29:45.572             9.763              Murmansk2           305.094
        63   01 Jun 2027 18:34:23.016   01 Jun 2027 18:36:28.110           125.094               CapeTown          3909.187
        64   01 Jun 2027 18:36:32.945   01 Jun 2027 18:37:29.300            56.355               CapeTown          1761.094
        65   01 Jun 2027 19:04:27.857   01 Jun 2027 19:05:14.311            46.454              Murmansk2          1451.688
        66   01 Jun 2027 19:05:33.061   01 Jun 2027 19:09:25.767           232.706              Murmansk1          7272.062
        67   01 Jun 2027 19:11:13.961   01 Jun 2027 19:11:51.372            37.411              Murmansk1          1169.094
        68   01 Jun 2027 19:21:33.768   01 Jun 2027 19:21:58.187            24.419               Magadan1           763.094
        69   01 Jun 2027 20:13:35.692   01 Jun 2027 20:15:46.371           130.679               CapeTown          4083.719
        70   01 Jun 2027 20:16:29.617   01 Jun 2027 20:17:13.935            44.318               CapeTown          1384.938
        71   01 Jun 2027 20:50:53.515   01 Jun 2027 20:51:36.663            43.148                Anadyr1          1348.375
        72   01 Jun 2027 20:52:16.958   01 Jun 2027 20:52:31.415            14.457                Anadyr1           451.781
        73   01 Jun 2027 20:52:48.970   01 Jun 2027 20:53:06.550            17.580                Anadyr2           549.375
        74   01 Jun 2027 20:53:15.381   01 Jun 2027 20:54:20.256            64.875               Magadan1          2027.344
        75   01 Jun 2027 20:54:20.256   01 Jun 2027 20:55:30.941            70.685               Magadan2          2208.906
        76   01 Jun 2027 20:56:38.642   01 Jun 2027 20:57:23.687            45.045               Magadan2          1407.656
        77   01 Jun 2027 22:26:46.070   01 Jun 2027 22:28:45.497           119.427                Anadyr2          3732.094
        78   01 Jun 2027 22:28:55.322   01 Jun 2027 22:30:27.253            91.931                Anadyr1          2872.844
        79   01 Jun 2027 22:30:31.898   01 Jun 2027 22:32:10.910            99.012                Norilsk          3094.125
        80   01 Jun 2027 22:32:18.068   01 Jun 2027 22:33:05.348            47.280               Magadan1          1477.500
        81   01 Jun 2027 22:34:30.886   01 Jun 2027 22:35:26.363            55.477                Irkutsk          1733.656
        82   01 Jun 2027 22:35:40.154   01 Jun 2027 22:36:02.341            22.187                Irkutsk           693.344
        83   01 Jun 2027 22:50:56.538   01 Jun 2027 22:51:49.452            52.914                Sumatra          1653.563
        84   01 Jun 2027 23:20:52.587   01 Jun 2027 23:22:14.833            82.246            RioGallegos          2570.188
        85   01 Jun 2027 23:22:34.943   01 Jun 2027 23:22:55.147            20.204            RioGallegos           631.375
        86   01 Jun 2027 23:23:26.298   01 Jun 2027 23:23:40.406            14.108            RioGallegos           440.875
        87   02 Jun 2027 00:02:12.454   02 Jun 2027 00:04:29.379           136.925                Anadyr1          4278.906
        88   02 Jun 2027 00:04:36.476   02 Jun 2027 00:06:19.476           103.000                Norilsk          3218.750
        89   02 Jun 2027 00:06:20.672   02 Jun 2027 00:06:58.679            38.007               Magadan1          1187.719
        90   02 Jun 2027 00:07:39.618   02 Jun 2027 00:08:09.761            30.143               Magadan2           941.969
        91   02 Jun 2027 00:08:36.774   02 Jun 2027 00:09:43.577            66.803                Irkutsk          2087.594
        92   02 Jun 2027 00:11:23.965   02 Jun 2027 00:11:58.184            34.219                Novosib          1069.344
        93   02 Jun 2027 00:12:42.680   02 Jun 2027 00:13:26.731            44.051                Novosib          1376.594
        94   02 Jun 2027 00:22:19.428   02 Jun 2027 00:22:58.790            39.362                Sumatra          1230.062
        95   02 Jun 2027 00:24:53.277   02 Jun 2027 00:25:07.265            13.988                Sumatra           437.125
        96   02 Jun 2027 00:30:58.575   02 Jun 2027 00:31:48.862            50.287                Sumatra          1571.469
        97   02 Jun 2027 00:56:33.456   02 Jun 2027 00:58:28.292           114.836            RioGallegos          3588.625
        98   02 Jun 2027 01:37:31.358   02 Jun 2027 01:38:07.876            36.518                Anadyr1          1141.187
        99   02 Jun 2027 01:38:42.675   02 Jun 2027 01:38:50.753             8.078                Anadyr1           252.438
       100   02 Jun 2027 01:38:56.370   02 Jun 2027 01:39:12.450            16.080                Anadyr2           502.500
       101   02 Jun 2027 01:40:36.645   02 Jun 2027 01:42:18.663           102.018                Norilsk          3188.063
       102   02 Jun 2027 01:44:08.416   02 Jun 2027 01:46:41.185           152.769              Murmansk1          4774.031
       103   02 Jun 2027 01:46:59.164   02 Jun 2027 01:47:29.836            30.672                Novosib           958.500
       104   02 Jun 2027 01:49:40.437   02 Jun 2027 01:50:16.512            36.075                Irkutsk          1127.344
       105   02 Jun 2027 01:51:44.295   02 Jun 2027 01:51:50.041             5.746                Novosib           179.563
       106   02 Jun 2027 01:51:53.976   02 Jun 2027 01:53:37.028           103.052                  Delhi          3220.375
       107   02 Jun 2027 02:33:18.716   02 Jun 2027 02:35:51.965           153.249            RioGallegos          4789.031
       108   02 Jun 2027 02:36:16.871   02 Jun 2027 02:36:35.858            18.987            RioGallegos           593.344
       109   02 Jun 2027 03:25:29.856   02 Jun 2027 03:28:39.118           189.262                 Moscow          5914.438
       110   02 Jun 2027 03:28:56.284   02 Jun 2027 03:29:22.178            25.894                Norilsk           809.187
       111   02 Jun 2027 03:29:33.136   02 Jun 2027 03:31:13.597           100.461                 Moscow          3139.406
       112   02 Jun 2027 03:31:44.055   02 Jun 2027 03:32:19.409            35.354                 Moscow          1104.813
       113   02 Jun 2027 03:51:04.935   02 Jun 2027 03:51:20.881            15.946               CapeTown           498.313
       114   02 Jun 2027 03:51:36.186   02 Jun 2027 03:51:53.143            16.957               CapeTown           529.906
       115   02 Jun 2027 05:02:20.804   02 Jun 2027 05:03:11.154            50.350                Norilsk          1573.438
       116   02 Jun 2027 05:03:32.060   02 Jun 2027 05:03:49.208            17.148                 Moscow           535.875
       117   02 Jun 2027 05:03:56.893   02 Jun 2027 05:05:52.459           115.566              Murmansk1          3611.437
       118   02 Jun 2027 05:05:52.459   02 Jun 2027 05:06:13.160            20.701              Murmansk2           646.906
       119   02 Jun 2027 05:06:14.306   02 Jun 2027 05:07:28.497            74.191                 Moscow          2318.469
       120   02 Jun 2027 05:09:17.886   02 Jun 2027 05:09:39.703            21.817                 Moscow           681.781
       121   02 Jun 2027 05:10:17.740   02 Jun 2027 05:10:30.707            12.967                 Moscow           405.219
       122   02 Jun 2027 05:21:55.115   02 Jun 2027 05:22:48.749            53.634               CapeTown          1676.063
       123   02 Jun 2027 05:24:33.597   02 Jun 2027 05:25:01.529            27.932               CapeTown           872.875
       124   02 Jun 2027 06:25:17.836   02 Jun 2027 06:26:41.214            83.378                Anadyr1          2605.563
       125   02 Jun 2027 08:01:51.499   02 Jun 2027 08:02:47.427            55.928               Magadan2          1747.750
       126   02 Jun 2027 08:02:47.427   02 Jun 2027 08:03:01.353            13.926               Magadan1           435.188
       127   02 Jun 2027 08:03:17.235   02 Jun 2027 08:05:51.147           153.912               Magadan1          4809.750
       128   02 Jun 2027 08:06:22.885   02 Jun 2027 08:07:07.253            44.368               Magadan2          1386.500
       129   02 Jun 2027 09:33:36.264   02 Jun 2027 09:34:38.116            61.852                Irkutsk          1932.875
       130   02 Jun 2027 09:35:23.629   02 Jun 2027 09:36:19.152            55.523               Magadan1          1735.094
       131   02 Jun 2027 09:36:56.802   02 Jun 2027 09:37:44.255            47.453               Magadan1          1482.906
       132   02 Jun 2027 09:39:04.079   02 Jun 2027 09:41:10.115           126.036                Anadyr2          3938.625
       133   02 Jun 2027 09:41:14.924   02 Jun 2027 09:42:22.240            67.316                Anadyr1          2103.625
       134   02 Jun 2027 09:42:35.898   02 Jun 2027 09:42:55.328            19.430                Novosib           607.187
       135   02 Jun 2027 09:43:36.629   02 Jun 2027 09:43:54.895            18.266              Murmansk2           570.812
       136   02 Jun 2027 09:44:06.684   02 Jun 2027 09:44:09.784             3.100                Norilsk            96.875
       137   02 Jun 2027 09:44:45.957   02 Jun 2027 09:45:37.814            51.857              Murmansk2          1620.531
       138   02 Jun 2027 10:18:42.645   02 Jun 2027 10:18:43.502             0.857            RioGallegos            26.781
       139   02 Jun 2027 10:20:38.685   02 Jun 2027 10:21:23.866            45.181            RioGallegos          1411.906
       140   02 Jun 2027 10:56:02.300   02 Jun 2027 10:57:10.216            67.916                Sumatra          2122.375
       141   02 Jun 2027 11:11:55.518   02 Jun 2027 11:12:01.697             6.179                Novosib           193.094
       142   02 Jun 2027 11:12:02.684   02 Jun 2027 11:12:23.824            21.140                Norilsk           660.625
       143   02 Jun 2027 11:13:00.403   02 Jun 2027 11:13:01.325             0.922                Irkutsk            28.813
       144   02 Jun 2027 11:13:32.972   02 Jun 2027 11:13:35.156             2.184                Irkutsk            68.250
       145   02 Jun 2027 11:14:09.402   02 Jun 2027 11:14:21.743            12.341                Novosib           385.656
       146   02 Jun 2027 11:15:02.878   02 Jun 2027 11:15:19.054            16.176                Norilsk           505.500
       147   02 Jun 2027 11:15:23.794   02 Jun 2027 11:15:26.979             3.185                Novosib            99.531
       148   02 Jun 2027 11:15:36.161   02 Jun 2027 11:16:22.450            46.289                Irkutsk          1446.531
       149   02 Jun 2027 11:16:42.653   02 Jun 2027 11:17:40.280            57.627                Irkutsk          1800.844
       150   02 Jun 2027 11:17:43.140   02 Jun 2027 11:18:20.808            37.668                Norilsk          1177.125
       151   02 Jun 2027 11:18:28.992   02 Jun 2027 11:19:32.933            63.941              Murmansk2          1998.156
       152   02 Jun 2027 11:53:45.338   02 Jun 2027 11:54:04.954            19.616            RioGallegos           613.000
       153   02 Jun 2027 11:54:39.417   02 Jun 2027 11:55:22.574            43.157            RioGallegos          1348.656
       154   02 Jun 2027 12:28:20.736   02 Jun 2027 12:30:24.485           123.749                Sumatra          3867.156
       155   02 Jun 2027 12:42:45.502   02 Jun 2027 12:43:51.417            65.915                Irkutsk          2059.844
       156   02 Jun 2027 12:46:58.356   02 Jun 2027 12:48:41.558           103.202                Norilsk          3225.062
       157   02 Jun 2027 12:53:37.230   02 Jun 2027 12:53:38.274             1.044              Murmansk2            32.625
       158   02 Jun 2027 12:53:44.693   02 Jun 2027 12:54:03.612            18.919              Murmansk2           591.219
       159   02 Jun 2027 13:34:29.555   02 Jun 2027 13:37:15.111           165.556            RioGallegos          5173.625
       160   02 Jun 2027 14:15:35.790   02 Jun 2027 14:17:18.251           102.461                  Delhi          3201.906
       161   02 Jun 2027 14:20:39.968   02 Jun 2027 14:20:55.869            15.901                Novosib           496.906
       162   02 Jun 2027 14:24:32.378   02 Jun 2027 14:25:53.229            80.851                Novosib          2526.594
       163   02 Jun 2027 14:26:09.652   02 Jun 2027 14:27:41.628            91.976                Norilsk          2874.250
       164   02 Jun 2027 15:56:56.028   02 Jun 2027 16:00:14.968           198.940                 Moscow          6216.875
       165   02 Jun 2027 16:00:24.193   02 Jun 2027 16:02:22.737           118.544              Murmansk1          3704.500
       166   02 Jun 2027 16:04:45.863   02 Jun 2027 16:07:42.218           176.355                Norilsk          5511.094
       167   02 Jun 2027 16:09:01.809   02 Jun 2027 16:09:42.206            40.397                Norilsk          1262.406
       168   02 Jun 2027 17:17:00.025   02 Jun 2027 17:17:51.008            50.983               CapeTown          1593.219
       169   02 Jun 2027 17:34:32.896   02 Jun 2027 17:35:08.919            36.023                 Moscow          1125.719
       170   02 Jun 2027 17:37:35.880   02 Jun 2027 17:38:23.712            47.832              Murmansk2          1494.750
       171   02 Jun 2027 17:38:50.845   02 Jun 2027 17:39:43.155            52.310              Murmansk1          1634.687
       172   02 Jun 2027 17:47:10.496   02 Jun 2027 17:47:17.321             6.825              Murmansk1           213.281
       173   02 Jun 2027 17:51:22.442   02 Jun 2027 17:52:07.825            45.383                Anadyr1          1418.219
       174   02 Jun 2027 17:52:07.825   02 Jun 2027 17:52:44.722            36.897                Anadyr2          1153.031
       175   02 Jun 2027 17:53:53.977   02 Jun 2027 17:54:00.891             6.914                Anadyr1           216.063
       176   02 Jun 2027 17:54:27.649   02 Jun 2027 17:54:30.508             2.859                Anadyr2            89.344
       177   02 Jun 2027 17:54:30.822   02 Jun 2027 17:54:58.413            27.591                Anadyr1           862.219
       178   02 Jun 2027 18:46:29.627   02 Jun 2027 18:47:39.102            69.475               CapeTown          2171.094
       179   02 Jun 2027 18:50:23.402   02 Jun 2027 18:50:39.624            16.222               CapeTown           506.938
       180   02 Jun 2027 18:51:25.534   02 Jun 2027 18:52:10.502            44.968               CapeTown          1405.250
       181   02 Jun 2027 19:17:06.691   02 Jun 2027 19:21:20.589           253.898              Murmansk2          7934.313
       182   02 Jun 2027 19:21:21.999   02 Jun 2027 19:22:00.876            38.877              Murmansk2          1214.906
       183   02 Jun 2027 19:30:13.431   02 Jun 2027 19:31:19.218            65.787               Magadan2          2055.844
       184   02 Jun 2027 19:33:19.876   02 Jun 2027 19:33:26.833             6.957               Magadan2           217.406
       185   02 Jun 2027 19:33:56.322   02 Jun 2027 19:34:11.206            14.884               Magadan2           465.125
       186   02 Jun 2027 21:02:55.274   02 Jun 2027 21:07:11.964           256.690                Anadyr2          8021.562
       187   02 Jun 2027 21:07:21.456   02 Jun 2027 21:08:06.035            44.579                Anadyr2          1393.094
       188   02 Jun 2027 21:08:19.641   02 Jun 2027 21:10:05.591           105.950               Magadan1          3310.938
       189   02 Jun 2027 21:13:46.859   02 Jun 2027 21:13:57.672            10.813               Magadan1           337.906
       190   02 Jun 2027 21:14:08.028   02 Jun 2027 21:15:23.495            75.467               Magadan1          2358.344
       191   02 Jun 2027 21:59:41.988   02 Jun 2027 22:01:48.545           126.557            RioGallegos          3954.906
       192   02 Jun 2027 22:38:46.077   02 Jun 2027 22:40:01.714            75.637                Anadyr1          2363.656
       193   02 Jun 2027 22:40:09.205   02 Jun 2027 22:40:46.848            37.643                Anadyr2          1176.344
       194   02 Jun 2027 22:40:54.397   02 Jun 2027 22:42:33.730            99.333                Norilsk          3104.156
       195   02 Jun 2027 22:42:36.399   02 Jun 2027 22:42:54.938            18.539               Magadan1           579.344
       196   02 Jun 2027 22:43:30.937   02 Jun 2027 22:43:50.073            19.136                Norilsk           598.000
       197   02 Jun 2027 22:44:22.352   02 Jun 2027 22:44:44.277            21.925               Magadan1           685.156
       198   02 Jun 2027 22:46:01.348   02 Jun 2027 22:46:25.568            24.220                Irkutsk           756.875
       199   02 Jun 2027 22:47:24.891   02 Jun 2027 22:48:34.729            69.838                Irkutsk          2182.438
       200   02 Jun 2027 23:01:22.988   02 Jun 2027 23:03:12.600           109.612                Sumatra          3425.375
       201   02 Jun 2027 23:04:16.629   02 Jun 2027 23:06:11.557           114.928                Sumatra          3591.500
       202   03 Jun 2027 00:14:06.671   03 Jun 2027 00:14:18.610            11.939                Anadyr2           373.094
       203   03 Jun 2027 00:14:56.672   03 Jun 2027 00:15:49.553            52.881                Anadyr1          1652.531
       204   03 Jun 2027 00:16:38.257   03 Jun 2027 00:17:12.491            34.234                Norilsk          1069.813
       205   03 Jun 2027 00:17:15.462   03 Jun 2027 00:18:31.986            76.524               Magadan1          2391.375
       206   03 Jun 2027 00:19:38.257   03 Jun 2027 00:20:09.444            31.187               Magadan1           974.594
       207   03 Jun 2027 00:20:35.254   03 Jun 2027 00:21:42.781            67.527                Irkutsk          2110.219
       208   03 Jun 2027 00:21:59.752   03 Jun 2027 00:22:15.344            15.592                Novosib           487.250
       209   03 Jun 2027 00:24:26.164   03 Jun 2027 00:24:46.597            20.433                Novosib           638.531
       210   03 Jun 2027 00:25:07.112   03 Jun 2027 00:25:17.598            10.486                Novosib           327.688
       211   03 Jun 2027 00:26:19.834   03 Jun 2027 00:26:45.264            25.430                Novosib           794.687
       212   03 Jun 2027 00:30:33.958   03 Jun 2027 00:30:58.728            24.770                Novosib           774.063
       213   03 Jun 2027 00:32:23.717   03 Jun 2027 00:33:18.149            54.432                  Delhi          1701.000
       214   03 Jun 2027 00:33:56.435   03 Jun 2027 00:35:30.210            93.775                  Delhi          2930.469
       215   03 Jun 2027 01:14:21.470   03 Jun 2027 01:14:27.698             6.228            RioGallegos           194.625
       216   03 Jun 2027 01:14:41.921   03 Jun 2027 01:14:57.418            15.497            RioGallegos           484.281
       217   03 Jun 2027 01:17:32.461   03 Jun 2027 01:17:33.925             1.464            RioGallegos            45.750
       218   03 Jun 2027 01:18:15.889   03 Jun 2027 01:19:03.335            47.446            RioGallegos          1482.687
       219   03 Jun 2027 01:48:19.791   03 Jun 2027 01:48:46.146            26.355                Anadyr2           823.594
       220   03 Jun 2027 01:49:40.000   03 Jun 2027 01:50:07.533            27.533                Anadyr2           860.406
       221   03 Jun 2027 01:50:47.618   03 Jun 2027 01:50:54.167             6.549                Anadyr2           204.656
       222   03 Jun 2027 01:51:00.733   03 Jun 2027 01:51:06.924             6.191                Anadyr1           193.469
       223   03 Jun 2027 01:52:38.949   03 Jun 2027 01:54:32.025           113.076                Norilsk          3533.625
       224   03 Jun 2027 01:55:42.679   03 Jun 2027 01:56:36.952            54.273              Murmansk1          1696.031
       225   03 Jun 2027 01:56:38.855   03 Jun 2027 01:57:55.373            76.518                Irkutsk          2391.187
       226   03 Jun 2027 02:01:39.805   03 Jun 2027 02:01:55.548            15.743                Irkutsk           491.969
       227   03 Jun 2027 02:02:00.138   03 Jun 2027 02:02:26.895            26.757                Irkutsk           836.156
       228   03 Jun 2027 02:03:49.454   03 Jun 2027 02:04:18.280            28.826                  Delhi           900.813
       229   03 Jun 2027 02:07:26.671   03 Jun 2027 02:07:27.374             0.703                  Delhi            21.969
       230   03 Jun 2027 02:09:45.670   03 Jun 2027 02:09:48.570             2.900                  Delhi            90.625
       231   03 Jun 2027 02:11:05.343   03 Jun 2027 02:11:36.742            31.399                  Delhi           981.219
       232   03 Jun 2027 02:13:55.432   03 Jun 2027 02:15:56.715           121.283                  Delhi          3790.094
       233   03 Jun 2027 02:45:34.041   03 Jun 2027 02:46:28.167            54.126            RioGallegos          1691.438
       234   03 Jun 2027 02:47:10.286   03 Jun 2027 02:48:13.126            62.840            RioGallegos          1963.750
       235   03 Jun 2027 03:38:05.266   03 Jun 2027 03:38:12.906             7.640              Murmansk1           238.750
       236   03 Jun 2027 03:38:41.944   03 Jun 2027 03:39:10.790            28.846                Norilsk           901.437
       237   03 Jun 2027 03:39:17.018   03 Jun 2027 03:39:36.389            19.371              Murmansk1           605.344
       238   03 Jun 2027 03:39:36.389   03 Jun 2027 03:41:23.035           106.646              Murmansk2          3332.687
       239   03 Jun 2027 03:41:46.313   03 Jun 2027 03:44:30.928           164.615                  Delhi          5144.219
       240   03 Jun 2027 03:44:53.431   03 Jun 2027 03:44:57.725             4.294                 Moscow           134.187
       241   03 Jun 2027 04:02:12.647   03 Jun 2027 04:02:43.617            30.970               CapeTown           967.812
       242   03 Jun 2027 04:03:16.823   03 Jun 2027 04:04:02.428            45.605               CapeTown          1425.156
       243   03 Jun 2027 04:04:57.458   03 Jun 2027 04:06:00.940            63.482               CapeTown          1983.812
       244   03 Jun 2027 05:14:17.371   03 Jun 2027 05:14:19.529             2.158              Murmansk1            67.438
       245   03 Jun 2027 05:15:12.611   03 Jun 2027 05:15:20.503             7.892              Murmansk1           246.625
       246   03 Jun 2027 05:15:27.535   03 Jun 2027 05:15:49.754            22.219              Murmansk2           694.344
       247   03 Jun 2027 05:16:03.660   03 Jun 2027 05:16:31.642            27.982              Murmansk1           874.438
       248   03 Jun 2027 05:17:01.484   03 Jun 2027 05:18:13.202            71.718                 Moscow          2241.187
       249   03 Jun 2027 05:18:15.014   03 Jun 2027 05:19:25.272            70.258              Murmansk2          2195.563
       250   03 Jun 2027 05:33:52.034   03 Jun 2027 05:34:40.683            48.649               CapeTown          1520.281
       251   03 Jun 2027 06:36:56.696   03 Jun 2027 06:37:40.469            43.773                Anadyr2          1367.906
       252   03 Jun 2027 06:37:44.056   03 Jun 2027 06:38:33.444            49.388                Anadyr1          1543.375
       253   03 Jun 2027 06:38:39.140   03 Jun 2027 06:40:13.976            94.836                Anadyr1          2963.625
       254   03 Jun 2027 06:41:11.340   03 Jun 2027 06:41:37.908            26.568               Magadan1           830.250
       255   03 Jun 2027 07:12:58.312   03 Jun 2027 07:14:38.322           100.010               CapeTown          3125.312
       256   03 Jun 2027 08:12:41.143   03 Jun 2027 08:12:55.640            14.497                Anadyr2           453.031
       257   03 Jun 2027 08:13:06.682   03 Jun 2027 08:13:19.358            12.676               Magadan2           396.125
       258   03 Jun 2027 08:13:25.325   03 Jun 2027 08:13:57.387            32.062                Anadyr2          1001.937
       259   03 Jun 2027 08:14:01.240   03 Jun 2027 08:15:19.560            78.320               Magadan1          2447.500
       260   03 Jun 2027 08:15:36.969   03 Jun 2027 08:16:57.093            80.124                Anadyr2          2503.875
       261   03 Jun 2027 08:24:06.626   03 Jun 2027 08:24:21.258            14.632                 Moscow           457.250
       262   03 Jun 2027 08:27:21.148   03 Jun 2027 08:27:26.480             5.332                 Moscow           166.625
       263   03 Jun 2027 08:59:14.889   03 Jun 2027 08:59:39.238            24.349            RioGallegos           760.906
       264   03 Jun 2027 09:47:24.580   03 Jun 2027 09:47:57.565            32.985               Magadan2          1030.781
       265   03 Jun 2027 09:48:04.454   03 Jun 2027 09:48:16.205            11.751                Norilsk           367.219
       266   03 Jun 2027 09:48:25.653   03 Jun 2027 09:48:29.413             3.760               Magadan1           117.500
       267   03 Jun 2027 09:48:33.866   03 Jun 2027 09:48:52.216            18.350               Magadan1           573.437
       268   03 Jun 2027 09:48:52.216   03 Jun 2027 09:49:47.254            55.038               Magadan2          1719.937
       269   03 Jun 2027 09:50:15.162   03 Jun 2027 09:50:16.504             1.342                Irkutsk            41.938
       270   03 Jun 2027 09:50:44.983   03 Jun 2027 09:51:01.452            16.469                Irkutsk           514.656
       271   03 Jun 2027 09:51:11.631   03 Jun 2027 09:52:14.796            63.165               Magadan2          1973.906
       272   03 Jun 2027 09:52:19.416   03 Jun 2027 09:54:01.787           102.371                Anadyr2          3199.094
       273   03 Jun 2027 09:54:32.179   03 Jun 2027 09:54:34.907             2.728                Norilsk            85.250
       274   03 Jun 2027 09:54:49.346   03 Jun 2027 09:55:04.739            15.393                Norilsk           481.031
       275   03 Jun 2027 09:55:18.608   03 Jun 2027 09:55:26.557             7.949              Murmansk1           248.406
       276   03 Jun 2027 09:55:56.410   03 Jun 2027 09:56:06.306             9.896              Murmansk1           309.250
       277   03 Jun 2027 09:56:46.464   03 Jun 2027 09:57:34.664            48.200              Murmansk2          1506.250
       278   03 Jun 2027 10:29:52.412   03 Jun 2027 10:30:25.568            33.156            RioGallegos          1036.125
       279   03 Jun 2027 11:06:51.859   03 Jun 2027 11:08:48.928           117.069                Sumatra          3658.406
       280   03 Jun 2027 11:23:52.206   03 Jun 2027 11:23:58.609             6.403                Novosib           200.094
       281   03 Jun 2027 11:24:00.117   03 Jun 2027 11:24:56.158            56.041                Irkutsk          1751.281
       282   03 Jun 2027 11:25:01.600   03 Jun 2027 11:25:46.115            44.515                Irkutsk          1391.094
       283   03 Jun 2027 11:26:02.451   03 Jun 2027 11:28:23.539           141.088               Magadan2          4409.000
       284   03 Jun 2027 11:28:37.699   03 Jun 2027 11:28:52.021            14.322              Murmansk2           447.562
       285   03 Jun 2027 11:28:56.621   03 Jun 2027 11:29:29.850            33.229                Novosib          1038.406
       286   03 Jun 2027 11:29:32.130   03 Jun 2027 11:30:27.737            55.607              Murmansk1          1737.719
       287   03 Jun 2027 11:30:46.068   03 Jun 2027 11:31:57.772            71.704                Novosib          2240.750
       288   03 Jun 2027 12:06:01.163   03 Jun 2027 12:06:43.661            42.498            RioGallegos          1328.062
       289   03 Jun 2027 12:40:27.678   03 Jun 2027 12:41:01.835            34.157                Sumatra          1067.406
       290   03 Jun 2027 12:43:24.111   03 Jun 2027 12:44:51.783            87.672                Sumatra          2739.750
       291   03 Jun 2027 12:55:10.256   03 Jun 2027 12:55:59.587            49.331                Irkutsk          1541.594
       292   03 Jun 2027 12:56:34.124   03 Jun 2027 12:57:44.878            70.754                Novosib          2211.063
       293   03 Jun 2027 12:59:07.200   03 Jun 2027 13:00:44.094            96.894                Norilsk          3027.937
       294   03 Jun 2027 14:25:01.721   03 Jun 2027 14:25:25.275            23.554                  Delhi           736.062
       295   03 Jun 2027 14:26:32.400   03 Jun 2027 14:27:27.291            54.891                  Delhi          1715.344
       296   03 Jun 2027 14:29:41.719   03 Jun 2027 14:29:54.701            12.982                  Delhi           405.687
       297   03 Jun 2027 14:32:30.239   03 Jun 2027 14:34:54.523           144.284                  Delhi          4508.875
       298   03 Jun 2027 14:36:31.605   03 Jun 2027 14:38:14.880           103.275                Novosib          3227.344
       299   03 Jun 2027 14:38:28.424   03 Jun 2027 14:40:52.232           143.808                Norilsk          4494.000
       300   03 Jun 2027 16:08:58.705   03 Jun 2027 16:11:58.594           179.889                 Moscow          5621.531
       301   03 Jun 2027 16:12:29.189   03 Jun 2027 16:13:22.680            53.491              Murmansk2          1671.594
       302   03 Jun 2027 16:13:42.780   03 Jun 2027 16:14:26.075            43.295              Murmansk1          1352.969
       303   03 Jun 2027 16:17:34.370   03 Jun 2027 16:22:08.701           274.331                Norilsk          8572.844
       304   03 Jun 2027 17:47:06.022   03 Jun 2027 17:48:28.494            82.472                 Moscow          2577.250
       305   03 Jun 2027 17:49:55.911   03 Jun 2027 17:51:44.781           108.870              Murmansk1          3402.187
       306   03 Jun 2027 17:53:40.243   03 Jun 2027 17:54:25.039            44.796              Murmansk2          1399.875
       307   03 Jun 2027 18:03:19.022   03 Jun 2027 18:03:47.923            28.901                Anadyr2           903.156
       308   03 Jun 2027 18:07:32.954   03 Jun 2027 18:07:36.179             3.225                Anadyr2           100.781
       309   03 Jun 2027 18:07:45.781   03 Jun 2027 18:08:06.099            20.318                Anadyr2           634.937
       310   03 Jun 2027 18:09:15.010   03 Jun 2027 18:09:38.688            23.678                Anadyr2           739.937
       311   03 Jun 2027 18:58:39.261   03 Jun 2027 19:00:21.097           101.836               CapeTown          3182.375
       312   03 Jun 2027 19:07:16.770   03 Jun 2027 19:07:50.407            33.637               CapeTown          1051.156
       313   03 Jun 2027 19:29:49.499   03 Jun 2027 19:35:35.380           345.881              Murmansk1         10808.781
       314   03 Jun 2027 19:49:49.621   03 Jun 2027 19:49:55.816             6.195               Magadan1           193.594
       315   03 Jun 2027 19:51:02.548   03 Jun 2027 19:51:19.940            17.392               Magadan1           543.500
       316   03 Jun 2027 21:14:56.958   03 Jun 2027 21:18:42.308           225.350                Anadyr1          7042.187
       317   03 Jun 2027 21:18:59.691   03 Jun 2027 21:21:42.041           162.350               Magadan1          5073.438
       318   03 Jun 2027 21:23:15.602   03 Jun 2027 21:23:55.553            39.951               Magadan1          1248.469
       319   03 Jun 2027 21:25:55.976   03 Jun 2027 21:26:52.406            56.430               Magadan1          1763.437
       320   03 Jun 2027 22:10:46.970   03 Jun 2027 22:13:28.735           161.765            RioGallegos          5055.156
       321   03 Jun 2027 22:50:45.631   03 Jun 2027 22:51:56.564            70.933                Anadyr1          2216.656
       322   03 Jun 2027 22:52:12.687   03 Jun 2027 22:53:19.942            67.255                Anadyr2          2101.719
       323   03 Jun 2027 22:53:21.815   03 Jun 2027 22:54:22.202            60.387               Magadan2          1887.094
       324   03 Jun 2027 22:54:53.903   03 Jun 2027 22:55:02.032             8.129               Magadan2           254.031
       325   03 Jun 2027 22:55:31.680   03 Jun 2027 22:56:02.118            30.438               Magadan1           951.188
       326   03 Jun 2027 22:56:27.475   03 Jun 2027 22:57:22.449            54.974               Magadan2          1717.938
       327   03 Jun 2027 22:59:32.216   03 Jun 2027 23:00:08.108            35.892                Irkutsk          1121.625
       328   03 Jun 2027 23:04:06.100   03 Jun 2027 23:04:20.818            14.718                Irkutsk           459.938
       329   03 Jun 2027 23:12:26.247   03 Jun 2027 23:12:26.818             0.571                Sumatra            17.844
       330   03 Jun 2027 23:14:20.507   03 Jun 2027 23:14:52.361            31.854                Sumatra           995.438
       331   03 Jun 2027 23:15:15.536   03 Jun 2027 23:16:10.278            54.742                Sumatra          1710.688
       332   03 Jun 2027 23:16:45.878   03 Jun 2027 23:16:49.342             3.464                Sumatra           108.250
       333   03 Jun 2027 23:18:39.804   03 Jun 2027 23:20:01.913            82.109                Sumatra          2565.906
       334   04 Jun 2027 00:25:59.756   04 Jun 2027 00:26:16.876            17.120                Anadyr1           535.000
       335   04 Jun 2027 00:26:18.161   04 Jun 2027 00:26:57.709            39.548                Anadyr2          1235.875
       336   04 Jun 2027 00:27:59.936   04 Jun 2027 00:29:02.261            62.325                Anadyr1          1947.656
       337   04 Jun 2027 00:29:18.317   04 Jun 2027 00:30:23.846            65.529                Norilsk          2047.781
       338   04 Jun 2027 00:30:35.308   04 Jun 2027 00:31:01.673            26.365               Magadan1           823.906
       339   04 Jun 2027 00:31:41.044   04 Jun 2027 00:32:06.187            25.143               Magadan2           785.719
       340   04 Jun 2027 00:32:34.851   04 Jun 2027 00:33:38.821            63.970                Irkutsk          1999.063
       341   04 Jun 2027 00:33:42.283   04 Jun 2027 00:34:33.605            51.322                Novosib          1603.813
       342   04 Jun 2027 00:35:26.028   04 Jun 2027 00:36:07.004            40.976                Novosib          1280.500
       343   04 Jun 2027 00:38:13.500   04 Jun 2027 00:38:52.054            38.554                Novosib          1204.812
       344   04 Jun 2027 00:42:42.178   04 Jun 2027 00:43:52.894            70.716                  Delhi          2209.875
       345   04 Jun 2027 00:54:19.743   04 Jun 2027 00:54:44.889            25.146                Sumatra           785.812
       346   04 Jun 2027 00:56:20.181   04 Jun 2027 00:56:25.674             5.493                Sumatra           171.656
       347   04 Jun 2027 00:56:49.556   04 Jun 2027 00:57:59.680            70.124                Sumatra          2191.375
       348   04 Jun 2027 01:29:26.462   04 Jun 2027 01:30:21.680            55.218            RioGallegos          1725.563
       349   04 Jun 2027 02:00:25.780   04 Jun 2027 02:00:42.984            17.204                Anadyr2           537.625
       350   04 Jun 2027 02:01:13.667   04 Jun 2027 02:01:40.027            26.360                Anadyr1           823.750
       351   04 Jun 2027 02:01:40.027   04 Jun 2027 02:02:06.671            26.644                Anadyr2           832.625
       352   04 Jun 2027 02:04:41.188   04 Jun 2027 02:06:34.476           113.288                Norilsk          3540.250
       353   04 Jun 2027 02:07:28.573   04 Jun 2027 02:08:21.772            53.199              Murmansk2          1662.469
       354   04 Jun 2027 02:08:28.460   04 Jun 2027 02:08:47.940            19.480                Novosib           608.750
       355   04 Jun 2027 02:09:16.302   04 Jun 2027 02:10:21.097            64.795                Irkutsk          2024.844
       356   04 Jun 2027 02:15:48.460   04 Jun 2027 02:16:17.211            28.751                  Delhi           898.469
       357   04 Jun 2027 02:18:54.260   04 Jun 2027 02:19:01.077             6.817                  Delhi           213.031
       358   04 Jun 2027 02:20:05.537   04 Jun 2027 02:20:36.416            30.879                  Delhi           964.969
       359   04 Jun 2027 02:25:34.071   04 Jun 2027 02:27:42.498           128.427                  Delhi          4013.344
       360   04 Jun 2027 02:57:53.217   04 Jun 2027 02:59:51.402           118.185            RioGallegos          3693.281
       361   04 Jun 2027 03:00:12.619   04 Jun 2027 03:01:28.753            76.134            RioGallegos          2379.187
       362   04 Jun 2027 03:49:12.970   04 Jun 2027 03:49:13.567             0.597                Irkutsk            18.656
       363   04 Jun 2027 03:50:56.529   04 Jun 2027 03:51:28.984            32.455                 Moscow          1014.219
       364   04 Jun 2027 03:52:00.791   04 Jun 2027 03:52:50.983            50.192                Novosib          1568.500
       365   04 Jun 2027 03:52:52.444   04 Jun 2027 03:53:48.190            55.746              Murmansk1          1742.062
       366   04 Jun 2027 03:53:59.059   04 Jun 2027 03:58:52.618           293.559                  Delhi          9173.719
       367   04 Jun 2027 04:14:49.225   04 Jun 2027 04:15:25.612            36.387               CapeTown          1137.094
       368   04 Jun 2027 04:16:14.464   04 Jun 2027 04:17:46.190            91.726               CapeTown          2866.437
       369   04 Jun 2027 04:21:28.170   04 Jun 2027 04:21:40.882            12.712               CapeTown           397.250
       370   04 Jun 2027 05:17:32.218   04 Jun 2027 05:17:43.933            11.715                Anadyr1           366.094
       371   04 Jun 2027 05:25:24.038   04 Jun 2027 05:25:57.272            33.234                Novosib          1038.562
       372   04 Jun 2027 05:26:46.339   04 Jun 2027 05:27:34.095            47.756                 Moscow          1492.375
       373   04 Jun 2027 05:27:42.429   04 Jun 2027 05:28:58.518            76.089                 Moscow          2377.781
       374   04 Jun 2027 05:29:08.855   04 Jun 2027 05:29:20.992            12.137                 Moscow           379.281
       375   04 Jun 2027 05:29:40.719   04 Jun 2027 05:30:07.608            26.889              Murmansk1           840.281
       376   04 Jun 2027 05:30:25.427   04 Jun 2027 05:31:54.507            89.080                 Moscow          2783.750
       377   04 Jun 2027 05:45:53.992   04 Jun 2027 05:46:28.645            34.653               CapeTown          1082.906
       378   04 Jun 2027 05:49:19.694   04 Jun 2027 05:49:57.564            37.870               CapeTown          1183.437
       379   04 Jun 2027 06:48:49.660   04 Jun 2027 06:50:06.134            76.474                Anadyr1          2389.812
       380   04 Jun 2027 06:50:25.989   04 Jun 2027 06:51:12.052            46.063                Anadyr2          1439.469
       381   04 Jun 2027 06:51:31.531   04 Jun 2027 06:51:48.621            17.090                Norilsk           534.062
       382   04 Jun 2027 06:53:26.166   04 Jun 2027 06:53:33.538             7.372                Anadyr2           230.375
       383   04 Jun 2027 06:54:48.101   04 Jun 2027 06:55:05.825            17.724                Anadyr1           553.875
       384   04 Jun 2027 06:59:45.074   04 Jun 2027 06:59:52.571             7.497                 Moscow           234.281
       385   04 Jun 2027 07:01:50.862   04 Jun 2027 07:01:56.849             5.987                 Moscow           187.094
       386   04 Jun 2027 07:26:36.012   04 Jun 2027 07:29:20.095           164.083               CapeTown          5127.594
       387   04 Jun 2027 08:25:12.889   04 Jun 2027 08:25:22.402             9.513                Anadyr2           297.281
       388   04 Jun 2027 08:25:22.402   04 Jun 2027 08:25:34.798            12.396                Anadyr1           387.375
       389   04 Jun 2027 08:25:54.870   04 Jun 2027 08:26:13.861            18.991               Magadan1           593.469
       390   04 Jun 2027 08:26:25.910   04 Jun 2027 08:27:37.109            71.199                Anadyr1          2224.969
       391   04 Jun 2027 08:27:37.109   04 Jun 2027 08:28:50.380            73.271                Anadyr2          2289.719
       392   04 Jun 2027 09:57:16.163   04 Jun 2027 09:59:25.035           128.872               Magadan2          4027.250
       393   04 Jun 2027 10:00:31.041   04 Jun 2027 10:00:45.948            14.907               Magadan2           465.844
       394   04 Jun 2027 10:00:45.948   04 Jun 2027 10:01:36.356            50.408               Magadan1          1575.250
       395   04 Jun 2027 10:01:52.836   04 Jun 2027 10:03:10.411            77.575               Magadan2          2424.219
       396   04 Jun 2027 10:03:16.958   04 Jun 2027 10:03:58.796            41.838                Norilsk          1307.438
       397   04 Jun 2027 10:04:02.010   04 Jun 2027 10:05:07.158            65.148               Magadan2          2035.875
       398   04 Jun 2027 10:05:10.727   04 Jun 2027 10:05:25.371            14.644                Anadyr1           457.625
       399   04 Jun 2027 10:05:33.211   04 Jun 2027 10:05:53.174            19.963               Magadan2           623.844
       400   04 Jun 2027 10:06:02.597   04 Jun 2027 10:06:21.733            19.136              Murmansk2           598.000
       401   04 Jun 2027 10:06:26.496   04 Jun 2027 10:06:47.233            20.737              Murmansk2           648.031
       402   04 Jun 2027 10:07:09.122   04 Jun 2027 10:07:17.308             8.186              Murmansk1           255.812
       403   04 Jun 2027 10:07:57.794   04 Jun 2027 10:08:04.404             6.610              Murmansk2           206.563
       404   04 Jun 2027 10:08:47.213   04 Jun 2027 10:09:41.570            54.357              Murmansk1          1698.656
       405   04 Jun 2027 10:41:43.994   04 Jun 2027 10:42:11.822            27.828            RioGallegos           869.625
       406   04 Jun 2027 10:54:01.042   04 Jun 2027 10:54:25.303            24.261            RioGallegos           758.156
       407   04 Jun 2027 11:18:04.765   04 Jun 2027 11:18:08.285             3.520                Sumatra           110.000
       408   04 Jun 2027 11:19:45.439   04 Jun 2027 11:20:42.680            57.241                Sumatra          1788.781
       409   04 Jun 2027 11:36:10.148   04 Jun 2027 11:36:22.139            11.991                Norilsk           374.719
       410   04 Jun 2027 11:36:24.477   04 Jun 2027 11:37:00.499            36.022                Novosib          1125.688
       411   04 Jun 2027 11:37:01.862   04 Jun 2027 11:37:29.694            27.832                Irkutsk           869.750
       412   04 Jun 2027 11:38:01.424   04 Jun 2027 11:38:38.415            36.991                Irkutsk          1155.969
       413   04 Jun 2027 11:39:03.610   04 Jun 2027 11:39:35.281            31.671                Irkutsk           989.719
       414   04 Jun 2027 11:39:47.065   04 Jun 2027 11:41:53.354           126.289                Irkutsk          3946.531
       415   04 Jun 2027 11:42:03.632   04 Jun 2027 11:42:29.546            25.914                Norilsk           809.813
       416   04 Jun 2027 11:42:32.578   04 Jun 2027 11:42:53.306            20.728                Irkutsk           647.750
       417   04 Jun 2027 11:42:57.784   04 Jun 2027 11:43:27.332            29.548              Murmansk2           923.375
       418   04 Jun 2027 12:18:21.330   04 Jun 2027 12:18:21.582             0.252            RioGallegos             7.875
       419   04 Jun 2027 12:18:47.026   04 Jun 2027 12:19:27.860            40.834            RioGallegos          1276.063
       420   04 Jun 2027 12:22:42.352   04 Jun 2027 12:23:10.836            28.484            RioGallegos           890.125
       421   04 Jun 2027 12:52:40.783   04 Jun 2027 12:54:27.452           106.669                Sumatra          3333.406
       422   04 Jun 2027 13:00:34.259   04 Jun 2027 13:01:17.822            43.563                Sumatra          1361.344
       423   04 Jun 2027 13:07:29.087   04 Jun 2027 13:08:32.120            63.033                Novosib          1969.781
       424   04 Jun 2027 13:08:40.563   04 Jun 2027 13:08:46.759             6.196                Irkutsk           193.625
       425   04 Jun 2027 13:11:04.343   04 Jun 2027 13:12:44.824           100.481                Irkutsk          3140.031
       426   04 Jun 2027 13:13:50.017   04 Jun 2027 13:14:13.756            23.739                Norilsk           741.844
       427   04 Jun 2027 13:21:46.790   04 Jun 2027 13:21:53.075             6.285                Norilsk           196.406
       428   04 Jun 2027 13:23:24.109   04 Jun 2027 13:23:49.912            25.803                Norilsk           806.344
       429   04 Jun 2027 14:37:25.907   04 Jun 2027 14:39:01.484            95.577                  Delhi          2986.781
       430   04 Jun 2027 14:41:44.353   04 Jun 2027 14:42:40.821            56.468                  Delhi          1764.625
       431   04 Jun 2027 14:45:23.117   04 Jun 2027 14:47:20.608           117.491                  Delhi          3671.594
       432   04 Jun 2027 14:48:29.848   04 Jun 2027 14:49:11.947            42.099                Novosib          1315.594
       433   04 Jun 2027 14:49:31.519   04 Jun 2027 14:50:14.896            43.377                Norilsk          1355.531
       434   04 Jun 2027 14:51:35.453   04 Jun 2027 14:52:08.667            33.214                Norilsk          1037.938
       435   04 Jun 2027 14:53:30.638   04 Jun 2027 14:54:25.027            54.389                Norilsk          1699.656
       436   04 Jun 2027 14:57:11.917   04 Jun 2027 14:57:34.575            22.658                Norilsk           708.062
       437   04 Jun 2027 16:21:04.408   04 Jun 2027 16:24:27.632           203.224                 Moscow          6350.750
       438   04 Jun 2027 16:24:35.857   04 Jun 2027 16:25:19.182            43.325              Murmansk1          1353.906
       439   04 Jun 2027 16:26:21.852   04 Jun 2027 16:26:53.494            31.642              Murmansk1           988.812
       440   04 Jun 2027 16:30:29.591   04 Jun 2027 16:34:54.177           264.586                Norilsk          8268.313
       441   04 Jun 2027 17:46:02.283   04 Jun 2027 17:46:50.517            48.234               CapeTown          1507.312
       442   04 Jun 2027 17:59:45.430   04 Jun 2027 18:02:23.760           158.330                 Moscow          4947.813
       443   04 Jun 2027 18:05:11.359   04 Jun 2027 18:05:42.388            31.029              Murmansk2           969.656
       444   04 Jun 2027 18:05:53.279   04 Jun 2027 18:07:04.798            71.519              Murmansk2          2234.969
       445   04 Jun 2027 18:16:36.292   04 Jun 2027 18:16:46.249             9.957                Anadyr1           311.156
       446   04 Jun 2027 18:22:13.304   04 Jun 2027 18:22:38.316            25.012                Anadyr2           781.625
       447   04 Jun 2027 19:10:52.307   04 Jun 2027 19:12:22.016            89.709               CapeTown          2803.406
       448   04 Jun 2027 19:15:21.445   04 Jun 2027 19:15:22.905             1.460               CapeTown            45.625
       449   04 Jun 2027 19:18:05.559   04 Jun 2027 19:19:06.567            61.008               CapeTown          1906.500
       450   04 Jun 2027 19:42:37.210   04 Jun 2027 19:48:45.381           368.171              Murmansk2         11505.344
       451   04 Jun 2027 21:26:58.534   04 Jun 2027 21:30:55.733           237.199                Anadyr1          7412.469
       452   04 Jun 2027 21:31:04.734   04 Jun 2027 21:33:57.637           172.903               Magadan1          5403.219
       453   04 Jun 2027 21:34:13.359   04 Jun 2027 21:35:17.026            63.667               Magadan1          1989.594
       454   04 Jun 2027 22:22:14.672   04 Jun 2027 22:24:12.758           118.086            RioGallegos          3690.188
       455   04 Jun 2027 22:25:09.234   04 Jun 2027 22:25:14.209             4.975            RioGallegos           155.469
       456   04 Jun 2027 22:27:28.059   04 Jun 2027 22:27:59.375            31.316            RioGallegos           978.625
       457   04 Jun 2027 23:02:44.666   04 Jun 2027 23:03:50.363            65.697                Anadyr2          2053.031
       458   04 Jun 2027 23:03:55.908   04 Jun 2027 23:04:48.822            52.914                Anadyr1          1653.563
       459   04 Jun 2027 23:04:50.422   04 Jun 2027 23:06:25.615            95.193                Norilsk          2974.781
       460   04 Jun 2027 23:06:28.534   04 Jun 2027 23:06:41.553            13.019               Magadan1           406.844
       461   04 Jun 2027 23:06:53.912   04 Jun 2027 23:07:00.919             7.007               Magadan2           218.969
       462   04 Jun 2027 23:07:36.555   04 Jun 2027 23:08:17.001            40.446                Norilsk          1263.938
       463   04 Jun 2027 23:09:25.960   04 Jun 2027 23:10:21.526            55.566                Irkutsk          1736.438
       464   04 Jun 2027 23:14:59.211   04 Jun 2027 23:15:22.036            22.825                Irkutsk           713.281
       465   04 Jun 2027 23:17:51.328   04 Jun 2027 23:17:53.398             2.070                Irkutsk            64.688
       466   04 Jun 2027 23:18:11.453   04 Jun 2027 23:18:51.209            39.756                Irkutsk          1242.375
       467   04 Jun 2027 23:23:46.583   04 Jun 2027 23:24:59.590            73.007                Sumatra          2281.469
       468   04 Jun 2027 23:29:06.260   04 Jun 2027 23:29:59.252            52.992                Sumatra          1656.000
       469   05 Jun 2027 00:04:01.722   05 Jun 2027 00:04:12.316            10.594            RioGallegos           331.063
       470   05 Jun 2027 00:07:08.363   05 Jun 2027 00:07:20.695            12.332            RioGallegos           385.375
       471   05 Jun 2027 00:08:03.264   05 Jun 2027 00:08:31.176            27.912            RioGallegos           872.250
       472   05 Jun 2027 00:37:51.621   05 Jun 2027 00:38:19.359            27.738                Anadyr1           866.813
       473   05 Jun 2027 00:38:19.359   05 Jun 2027 00:38:58.872            39.513                Anadyr2          1234.781
       474   05 Jun 2027 00:40:02.773   05 Jun 2027 00:40:20.910            18.137                Anadyr2           566.781
       475   05 Jun 2027 00:40:30.818   05 Jun 2027 00:40:44.338            13.520                Anadyr1           422.500
       476   05 Jun 2027 00:40:53.896   05 Jun 2027 00:42:25.974            92.078                Norilsk          2877.437
       477   05 Jun 2027 00:42:34.313   05 Jun 2027 00:43:02.114            27.801               Magadan1           868.781
       478   05 Jun 2027 00:43:42.611   05 Jun 2027 00:44:05.271            22.660               Magadan2           708.125
       479   05 Jun 2027 00:44:35.441   05 Jun 2027 00:46:42.581           127.140                Irkutsk          3973.125
       480   05 Jun 2027 00:50:48.500   05 Jun 2027 00:50:58.181             9.681                Novosib           302.531
       481   05 Jun 2027 00:53:49.505   05 Jun 2027 00:56:13.882           144.377                  Delhi          4511.781
       482   05 Jun 2027 01:08:42.705   05 Jun 2027 01:09:56.543            73.838                Sumatra          2307.437
