uniorb/output/strategy_2/Drop/Drop_KinoSat_111201.txt

KinoSat_111201
-------------------------
    Access    *     Start Time (UTCG)     *     Stop Time (UTCG)  *   Duration (s)        *       Station  *  Data (Mbytes)
         1   01 Jun 2027 03:58:58.603   01 Jun 2027 03:59:55.499            56.896               Magadan2          1778.000
         2   01 Jun 2027 03:59:58.555   01 Jun 2027 04:00:14.362            15.807               Magadan1           493.969
         3   01 Jun 2027 04:00:17.940   01 Jun 2027 04:00:32.962            15.022                Anadyr2           469.437
         4   01 Jun 2027 04:13:04.118   01 Jun 2027 04:13:34.203            30.085              Murmansk2           940.156
         5   01 Jun 2027 04:14:42.673   01 Jun 2027 04:15:35.489            52.816              Murmansk1          1650.500
         6   01 Jun 2027 04:16:14.671   01 Jun 2027 04:16:16.470             1.799              Murmansk1            56.219
         7   01 Jun 2027 05:35:37.692   01 Jun 2027 05:35:37.974             0.282               Magadan2             8.813
         8   01 Jun 2027 05:36:31.718   01 Jun 2027 05:36:37.306             5.588                Norilsk           174.625
         9   01 Jun 2027 05:36:40.137   01 Jun 2027 05:37:17.567            37.430               Magadan2          1169.688
        10   01 Jun 2027 05:37:17.567   01 Jun 2027 05:40:23.503           185.936               Magadan1          5810.500
        11   01 Jun 2027 05:40:30.946   01 Jun 2027 05:40:40.724             9.778                Anadyr2           305.563
        12   01 Jun 2027 05:40:56.792   01 Jun 2027 05:41:33.219            36.427              Murmansk2          1138.344
        13   01 Jun 2027 05:44:04.547   01 Jun 2027 05:44:43.805            39.258                Norilsk          1226.813
        14   01 Jun 2027 05:51:29.643   01 Jun 2027 05:51:46.143            16.500              Murmansk1           515.625
        15   01 Jun 2027 06:21:04.132   01 Jun 2027 06:24:13.987           189.855            RioGallegos          5932.969
        16   01 Jun 2027 06:24:47.892   01 Jun 2027 06:25:51.506            63.614            RioGallegos          1987.938
        17   01 Jun 2027 07:10:43.073   01 Jun 2027 07:12:26.159           103.086                Irkutsk          3221.438
        18   01 Jun 2027 07:12:47.405   01 Jun 2027 07:13:32.795            45.390                Irkutsk          1418.438
        19   01 Jun 2027 07:13:42.414   01 Jun 2027 07:14:21.725            39.311                Novosib          1228.469
        20   01 Jun 2027 07:14:24.998   01 Jun 2027 07:15:14.136            49.138                Irkutsk          1535.563
        21   01 Jun 2027 08:46:46.867   01 Jun 2027 08:50:25.590           218.723               Magadan2          6835.094
        22   01 Jun 2027 08:50:51.310   01 Jun 2027 08:51:49.945            58.635                Irkutsk          1832.344
        23   01 Jun 2027 10:24:13.785   01 Jun 2027 10:25:12.480            58.695                Irkutsk          1834.219
        24   01 Jun 2027 10:25:17.499   01 Jun 2027 10:25:24.640             7.141                Irkutsk           223.156
        25   01 Jun 2027 10:25:37.600   01 Jun 2027 10:25:53.629            16.029                Norilsk           500.906
        26   01 Jun 2027 10:25:54.008   01 Jun 2027 10:26:12.190            18.182                Novosib           568.188
        27   01 Jun 2027 10:26:19.789   01 Jun 2027 10:27:53.346            93.557                Irkutsk          2923.656
        28   01 Jun 2027 10:28:03.485   01 Jun 2027 10:29:12.674            69.189                Norilsk          2162.156
        29   01 Jun 2027 10:29:25.814   01 Jun 2027 10:29:28.749             2.935                 Moscow            91.719
        30   01 Jun 2027 11:05:41.750   01 Jun 2027 11:07:22.917           101.167            RioGallegos          3161.469
        31   01 Jun 2027 11:08:58.768   01 Jun 2027 11:10:04.338            65.570            RioGallegos          2049.062
        32   01 Jun 2027 11:40:13.212   01 Jun 2027 11:41:47.801            94.589                Sumatra          2955.906
        33   01 Jun 2027 11:44:02.923   01 Jun 2027 11:44:36.952            34.029                Sumatra          1063.406
        34   01 Jun 2027 12:01:12.475   01 Jun 2027 12:02:23.671            71.196                 Moscow          2224.875
        35   01 Jun 2027 12:03:49.752   01 Jun 2027 12:04:20.750            30.998                Novosib           968.687
        36   01 Jun 2027 12:04:52.717   01 Jun 2027 12:06:07.860            75.143                 Moscow          2348.219
        37   01 Jun 2027 12:06:36.481   01 Jun 2027 12:06:50.168            13.687                 Moscow           427.719
        38   01 Jun 2027 12:08:50.753   01 Jun 2027 12:10:05.071            74.318              Murmansk1          2322.437
        39   01 Jun 2027 12:10:30.784   01 Jun 2027 12:10:45.572            14.788              Murmansk1           462.125
        40   01 Jun 2027 13:39:19.824   01 Jun 2027 13:39:26.788             6.964                 Moscow           217.625
        41   01 Jun 2027 13:41:10.665   01 Jun 2027 13:43:07.414           116.749                 Moscow          3648.406
        42   01 Jun 2027 13:43:15.988   01 Jun 2027 13:44:47.939            91.951                Norilsk          2873.469
        43   01 Jun 2027 13:44:56.824   01 Jun 2027 13:46:36.655            99.831              Murmansk1          3119.719
        44   01 Jun 2027 15:16:05.250   01 Jun 2027 15:18:45.314           160.064                 Moscow          5002.000
        45   01 Jun 2027 15:20:43.077   01 Jun 2027 15:22:35.140           112.063              Murmansk1          3501.969
        46   01 Jun 2027 15:28:44.150   01 Jun 2027 15:32:13.841           209.691                Anadyr2          6552.844
        47   01 Jun 2027 16:29:36.032   01 Jun 2027 16:31:29.405           113.373               CapeTown          3542.906
        48   01 Jun 2027 16:56:01.116   01 Jun 2027 16:58:22.674           141.558              Murmansk2          4423.687
        49   01 Jun 2027 17:06:40.323   01 Jun 2027 17:07:00.919            20.596               Magadan2           643.625
        50   01 Jun 2027 17:08:09.052   01 Jun 2027 17:08:27.001            17.949                Anadyr1           560.906
        51   01 Jun 2027 17:08:36.929   01 Jun 2027 17:09:53.535            76.606                Anadyr1          2393.937
        52   01 Jun 2027 17:09:53.535   01 Jun 2027 17:10:40.547            47.012                Anadyr2          1469.125
        53   01 Jun 2027 17:11:05.692   01 Jun 2027 17:12:00.647            54.955                Anadyr1          1717.344
        54   01 Jun 2027 17:12:24.964   01 Jun 2027 17:12:35.041            10.077                Anadyr1           314.906
        55   01 Jun 2027 18:42:32.006   01 Jun 2027 18:43:01.567            29.561                Anadyr1           923.781
        56   01 Jun 2027 18:43:11.426   01 Jun 2027 18:43:37.878            26.452                Anadyr1           826.625
        57   01 Jun 2027 18:43:37.878   01 Jun 2027 18:43:56.652            18.774                Anadyr2           586.687
        58   01 Jun 2027 18:44:33.259   01 Jun 2027 18:45:16.247            42.988               Magadan1          1343.375
        59   01 Jun 2027 18:45:16.247   01 Jun 2027 18:48:48.328           212.081               Magadan2          6627.531
        60   01 Jun 2027 18:48:53.378   01 Jun 2027 18:49:04.972            11.594                Anadyr2           362.312
        61   01 Jun 2027 18:50:12.478   01 Jun 2027 18:50:38.592            26.114               Magadan2           816.063
        62   01 Jun 2027 20:13:39.292   01 Jun 2027 20:13:54.146            14.854                Anadyr2           464.187
        63   01 Jun 2027 20:14:10.672   01 Jun 2027 20:14:45.136            34.464                Anadyr1          1077.000
        64   01 Jun 2027 20:14:50.864   01 Jun 2027 20:16:29.716            98.852                Norilsk          3089.125
        65   01 Jun 2027 20:16:55.886   01 Jun 2027 20:18:18.812            82.926                Norilsk          2591.437
        66   01 Jun 2027 20:19:10.196   01 Jun 2027 20:20:11.355            61.159                Norilsk          1911.219
        67   01 Jun 2027 20:21:40.109   01 Jun 2027 20:22:13.505            33.396               Magadan2          1043.625
        68   01 Jun 2027 20:22:23.479   01 Jun 2027 20:23:02.125            38.646                Irkutsk          1207.688
        69   01 Jun 2027 20:23:51.638   01 Jun 2027 20:25:15.639            84.001                Irkutsk          2625.031
        70   01 Jun 2027 20:26:32.582   01 Jun 2027 20:27:09.105            36.523               Magadan2          1141.344
        71   01 Jun 2027 21:12:11.580   01 Jun 2027 21:12:21.856            10.276            RioGallegos           321.125
        72   01 Jun 2027 21:12:33.813   01 Jun 2027 21:12:39.026             5.213            RioGallegos           162.906
        73   01 Jun 2027 21:12:50.687   01 Jun 2027 21:13:40.276            49.589            RioGallegos          1549.656
        74   01 Jun 2027 21:14:53.868   01 Jun 2027 21:15:49.064            55.196            RioGallegos          1724.875
        75   01 Jun 2027 21:16:17.290   01 Jun 2027 21:16:33.588            16.298            RioGallegos           509.312
        76   01 Jun 2027 21:16:53.349   01 Jun 2027 21:17:32.961            39.612            RioGallegos          1237.875
        77   01 Jun 2027 21:53:36.126   01 Jun 2027 21:53:53.462            17.336                Anadyr2           541.750
        78   01 Jun 2027 21:54:01.582   01 Jun 2027 21:54:22.504            20.922               Magadan2           653.812
        79   01 Jun 2027 21:54:46.280   01 Jun 2027 21:55:11.343            25.063                Anadyr2           783.219
        80   01 Jun 2027 21:55:41.690   01 Jun 2027 21:55:45.591             3.901                Norilsk           121.906
        81   01 Jun 2027 21:55:49.468   01 Jun 2027 21:55:57.692             8.224                Norilsk           257.000
        82   01 Jun 2027 21:56:14.307   01 Jun 2027 21:57:19.998            65.691                Norilsk          2052.844
        83   01 Jun 2027 21:57:56.002   01 Jun 2027 21:58:18.586            22.584                Novosib           705.750
        84   01 Jun 2027 21:59:45.531   01 Jun 2027 22:00:03.538            18.007                Novosib           562.719
        85   01 Jun 2027 22:00:19.164   01 Jun 2027 22:00:38.014            18.850               Magadan1           589.062
        86   01 Jun 2027 22:01:15.452   01 Jun 2027 22:01:19.675             4.223               Magadan1           131.969
        87   01 Jun 2027 22:01:38.271   01 Jun 2027 22:01:45.921             7.650                Irkutsk           239.062
        88   01 Jun 2027 22:02:01.013   01 Jun 2027 22:02:12.839            11.826                Novosib           369.563
        89   01 Jun 2027 22:02:39.594   01 Jun 2027 22:02:46.079             6.485                Novosib           202.656
        90   01 Jun 2027 22:02:56.893   01 Jun 2027 22:03:32.372            35.479                Irkutsk          1108.719
        91   01 Jun 2027 22:04:52.221   01 Jun 2027 22:05:35.902            43.681                Irkutsk          1365.031
        92   01 Jun 2027 22:16:07.141   01 Jun 2027 22:17:14.057            66.916                Sumatra          2091.125
        93   01 Jun 2027 22:17:58.129   01 Jun 2027 22:19:44.721           106.592                Sumatra          3331.000
        94   01 Jun 2027 23:24:25.327   01 Jun 2027 23:24:31.244             5.917                Anadyr2           184.906
        95   01 Jun 2027 23:24:36.565   01 Jun 2027 23:24:45.142             8.577                Anadyr2           268.031
        96   01 Jun 2027 23:25:55.237   01 Jun 2027 23:26:43.613            48.376                Norilsk          1511.750
        97   01 Jun 2027 23:26:51.162   01 Jun 2027 23:27:31.146            39.984               Magadan2          1249.500
        98   01 Jun 2027 23:28:49.324   01 Jun 2027 23:28:53.504             4.180                Norilsk           130.625
        99   01 Jun 2027 23:28:59.411   01 Jun 2027 23:29:20.956            21.545               Magadan1           673.281
       100   01 Jun 2027 23:30:27.334   01 Jun 2027 23:30:53.667            26.333                Novosib           822.906
       101   01 Jun 2027 23:31:12.056   01 Jun 2027 23:32:14.545            62.489                Novosib          1952.781
       102   01 Jun 2027 23:34:59.681   01 Jun 2027 23:35:20.623            20.942                Novosib           654.438
       103   01 Jun 2027 23:36:01.344   01 Jun 2027 23:36:37.653            36.309                Irkutsk          1134.656
       104   01 Jun 2027 23:37:57.105   01 Jun 2027 23:38:00.686             3.581                Novosib           111.906
       105   01 Jun 2027 23:38:18.134   01 Jun 2027 23:39:44.654            86.520                Novosib          2703.750
       106   01 Jun 2027 23:44:22.127   01 Jun 2027 23:44:39.581            17.454                  Delhi           545.438
       107   01 Jun 2027 23:44:58.536   01 Jun 2027 23:46:50.184           111.648                  Delhi          3489.000
       108   02 Jun 2027 00:27:44.141   02 Jun 2027 00:27:48.288             4.147            RioGallegos           129.594
       109   02 Jun 2027 00:55:33.773   02 Jun 2027 00:55:48.167            14.394                Anadyr1           449.813
       110   02 Jun 2027 00:56:10.935   02 Jun 2027 00:56:44.780            33.845                Anadyr2          1057.656
       111   02 Jun 2027 00:58:08.240   02 Jun 2027 00:58:59.216            50.976                Anadyr2          1593.000
       112   02 Jun 2027 01:01:15.583   02 Jun 2027 01:01:41.017            25.434                Anadyr1           794.813
       113   02 Jun 2027 01:01:43.576   02 Jun 2027 01:02:33.278            49.702               Magadan2          1553.187
       114   02 Jun 2027 01:02:33.278   02 Jun 2027 01:02:36.899             3.621               Magadan1           113.156
       115   02 Jun 2027 01:02:41.406   02 Jun 2027 01:03:05.413            24.007               Magadan1           750.219
       116   02 Jun 2027 01:04:11.669   02 Jun 2027 01:04:52.689            41.020              Murmansk2          1281.875
       117   02 Jun 2027 01:07:12.256   02 Jun 2027 01:07:15.529             3.273                Norilsk           102.281
       118   02 Jun 2027 01:07:23.358   02 Jun 2027 01:08:07.374            44.016              Murmansk2          1375.500
       119   02 Jun 2027 01:08:33.700   02 Jun 2027 01:08:46.655            12.955              Murmansk1           404.844
       120   02 Jun 2027 01:10:18.961   02 Jun 2027 01:11:38.091            79.130              Murmansk2          2472.812
       121   02 Jun 2027 01:15:43.439   02 Jun 2027 01:16:49.110            65.671                 Moscow          2052.219
       122   02 Jun 2027 01:21:31.721   02 Jun 2027 01:23:30.736           119.015                  Delhi          3719.219
       123   02 Jun 2027 02:29:05.143   02 Jun 2027 02:29:26.861            21.718                Anadyr1           678.687
       124   02 Jun 2027 02:29:38.713   02 Jun 2027 02:29:52.815            14.102                Anadyr1           440.687
       125   02 Jun 2027 02:30:00.861   02 Jun 2027 02:30:09.027             8.166                Anadyr2           255.188
       126   02 Jun 2027 02:31:07.415   02 Jun 2027 02:31:41.803            34.388                Anadyr1          1074.625
       127   02 Jun 2027 02:31:55.531   02 Jun 2027 02:32:06.290            10.759                Anadyr2           336.219
       128   02 Jun 2027 02:32:39.097   02 Jun 2027 02:32:39.888             0.791                Anadyr2            24.719
       129   02 Jun 2027 02:33:26.078   02 Jun 2027 02:33:34.820             8.742                Anadyr2           273.187
       130   02 Jun 2027 02:33:47.116   02 Jun 2027 02:34:32.595            45.479               Magadan1          1421.219
       131   02 Jun 2027 02:36:32.975   02 Jun 2027 02:36:51.324            18.349               Magadan1           573.406
       132   02 Jun 2027 02:37:26.443   02 Jun 2027 02:38:29.373            62.930               Magadan2          1966.563
       133   02 Jun 2027 02:41:34.242   02 Jun 2027 02:41:49.424            15.182                Norilsk           474.437
       134   02 Jun 2027 02:42:19.768   02 Jun 2027 02:42:37.171            17.403              Murmansk2           543.844
       135   02 Jun 2027 02:43:55.303   02 Jun 2027 02:44:02.354             7.051              Murmansk2           220.344
       136   02 Jun 2027 02:44:09.322   02 Jun 2027 02:44:23.951            14.629              Murmansk1           457.156
       137   02 Jun 2027 02:45:30.066   02 Jun 2027 02:45:48.901            18.835                Novosib           588.594
       138   02 Jun 2027 02:46:54.609   02 Jun 2027 02:47:24.701            30.092              Murmansk1           940.375
       139   02 Jun 2027 02:48:39.843   02 Jun 2027 02:49:39.332            59.489                Novosib          1859.031
       140   02 Jun 2027 02:54:02.257   02 Jun 2027 02:54:14.949            12.692                 Moscow           396.625
       141   02 Jun 2027 03:14:12.928   02 Jun 2027 03:14:49.012            36.084               CapeTown          1127.625
       142   02 Jun 2027 03:15:50.059   02 Jun 2027 03:16:20.706            30.647               CapeTown           957.719
       143   02 Jun 2027 04:11:03.810   02 Jun 2027 04:12:56.703           112.893                Anadyr1          3527.906
       144   02 Jun 2027 04:12:57.837   02 Jun 2027 04:14:03.565            65.728               Magadan2          2054.000
       145   02 Jun 2027 05:47:05.065   02 Jun 2027 05:47:21.116            16.051               Magadan2           501.594
       146   02 Jun 2027 05:47:44.093   02 Jun 2027 05:52:40.774           296.681                Anadyr2          9271.281
       147   02 Jun 2027 07:21:37.403   02 Jun 2027 07:22:04.431            27.028                Anadyr2           844.625
       148   02 Jun 2027 07:23:06.847   02 Jun 2027 07:28:15.013           308.166               Magadan1          9630.188
       149   02 Jun 2027 08:58:46.422   02 Jun 2027 09:02:23.199           216.777               Magadan2          6774.281
       150   02 Jun 2027 09:02:23.199   02 Jun 2027 09:02:55.461            32.262               Magadan1          1008.187
       151   02 Jun 2027 09:03:14.064   02 Jun 2027 09:03:58.360            44.296                Irkutsk          1384.250
       152   02 Jun 2027 09:04:02.201   02 Jun 2027 09:05:55.098           112.897              Murmansk1          3528.031
       153   02 Jun 2027 09:38:54.329   02 Jun 2027 09:40:14.142            79.813            RioGallegos          2494.156
       154   02 Jun 2027 09:47:50.077   02 Jun 2027 09:48:05.325            15.248            RioGallegos           476.500
       155   02 Jun 2027 10:13:39.887   02 Jun 2027 10:14:12.872            32.985                Sumatra          1030.781
       156   02 Jun 2027 10:17:52.890   02 Jun 2027 10:18:24.558            31.668                Sumatra           989.625
       157   02 Jun 2027 10:27:11.609   02 Jun 2027 10:28:07.581            55.972                  Delhi          1749.125
       158   02 Jun 2027 10:33:50.613   02 Jun 2027 10:34:23.501            32.888                Irkutsk          1027.750
       159   02 Jun 2027 10:34:33.931   02 Jun 2027 10:34:43.399             9.468                Irkutsk           295.875
       160   02 Jun 2027 10:34:48.308   02 Jun 2027 10:34:54.867             6.559                Novosib           204.969
       161   02 Jun 2027 10:35:01.915   02 Jun 2027 10:35:45.850            43.935                Novosib          1372.969
       162   02 Jun 2027 10:35:52.194   02 Jun 2027 10:36:38.891            46.697                Novosib          1459.281
       163   02 Jun 2027 10:36:42.869   02 Jun 2027 10:37:18.396            35.527                Novosib          1110.219
       164   02 Jun 2027 10:37:25.374   02 Jun 2027 10:37:46.737            21.363                Novosib           667.594
       165   02 Jun 2027 10:37:52.180   02 Jun 2027 10:38:20.210            28.030                Novosib           875.937
       166   02 Jun 2027 10:38:22.454   02 Jun 2027 10:38:40.867            18.413                Irkutsk           575.406
       167   02 Jun 2027 10:38:42.830   02 Jun 2027 10:38:56.049            13.219              Murmansk1           413.094
       168   02 Jun 2027 10:38:59.918   02 Jun 2027 10:39:18.889            18.971                Norilsk           592.844
       169   02 Jun 2027 10:39:26.072   02 Jun 2027 10:40:12.943            46.871              Murmansk2          1464.719
       170   02 Jun 2027 11:18:38.228   02 Jun 2027 11:19:00.260            22.032            RioGallegos           688.500
       171   02 Jun 2027 11:19:35.686   02 Jun 2027 11:20:10.648            34.962            RioGallegos          1092.562
       172   02 Jun 2027 11:22:51.475   02 Jun 2027 11:23:03.736            12.261            RioGallegos           383.156
       173   02 Jun 2027 11:54:18.354   02 Jun 2027 11:56:33.912           135.558                Sumatra          4236.187
       174   02 Jun 2027 12:09:40.961   02 Jun 2027 12:10:42.777            61.816                Norilsk          1931.750
       175   02 Jun 2027 12:14:30.666   02 Jun 2027 12:14:55.968            25.302                Novosib           790.688
       176   02 Jun 2027 12:16:25.059   02 Jun 2027 12:16:46.484            21.425              Murmansk2           669.531
       177   02 Jun 2027 12:19:09.470   02 Jun 2027 12:19:18.206             8.736                Norilsk           273.000
       178   02 Jun 2027 12:20:14.732   02 Jun 2027 12:20:51.762            37.030              Murmansk2          1157.187
       179   02 Jun 2027 13:42:16.479   02 Jun 2027 13:43:37.445            80.966                 Moscow          2530.187
       180   02 Jun 2027 13:44:10.713   02 Jun 2027 13:46:08.004           117.291                 Moscow          3665.344
       181   02 Jun 2027 13:46:32.275   02 Jun 2027 13:48:43.314           131.039              Murmansk1          4094.969
       182   02 Jun 2027 13:49:25.870   02 Jun 2027 13:49:39.263            13.393                Norilsk           418.531
       183   02 Jun 2027 13:50:46.091   02 Jun 2027 13:51:32.817            46.726                Norilsk          1460.188
       184   02 Jun 2027 13:53:41.162   02 Jun 2027 13:54:24.082            42.920                Norilsk          1341.250
       185   02 Jun 2027 14:57:03.098   02 Jun 2027 15:00:02.836           179.738               CapeTown          5616.812
       186   02 Jun 2027 15:03:03.422   02 Jun 2027 15:03:34.197            30.775               CapeTown           961.719
       187   02 Jun 2027 15:23:08.677   02 Jun 2027 15:23:17.048             8.371              Murmansk1           261.594
       188   02 Jun 2027 15:23:17.048   02 Jun 2027 15:23:27.421            10.373              Murmansk2           324.156
       189   02 Jun 2027 15:25:01.039   02 Jun 2027 15:27:02.529           121.490              Murmansk2          3796.562
       190   02 Jun 2027 15:36:49.152   02 Jun 2027 15:38:33.435           104.283                Anadyr2          3258.844
       191   02 Jun 2027 15:40:48.094   02 Jun 2027 15:41:01.889            13.795                Anadyr1           431.094
       192   02 Jun 2027 16:35:55.715   02 Jun 2027 16:36:41.656            45.941               CapeTown          1435.656
       193   02 Jun 2027 16:43:24.336   02 Jun 2027 16:43:49.026            24.690               CapeTown           771.563
       194   02 Jun 2027 17:01:50.880   02 Jun 2027 17:03:15.138            84.258              Murmansk2          2633.063
       195   02 Jun 2027 17:04:01.417   02 Jun 2027 17:05:06.454            65.037              Murmansk1          2032.406
       196   02 Jun 2027 17:07:06.618   02 Jun 2027 17:07:21.954            15.336              Murmansk1           479.250
       197   02 Jun 2027 17:12:19.216   02 Jun 2027 17:13:28.780            69.564                Anadyr2          2173.875
       198   02 Jun 2027 17:13:42.507   02 Jun 2027 17:14:44.146            61.639                Anadyr1          1926.219
       199   02 Jun 2027 17:15:53.004   02 Jun 2027 17:16:52.827            59.823               Magadan1          1869.469
       200   02 Jun 2027 17:18:39.162   02 Jun 2027 17:19:02.467            23.305               Magadan2           728.281
       201   02 Jun 2027 17:19:06.618   02 Jun 2027 17:19:40.577            33.959               Magadan2          1061.219
       202   02 Jun 2027 18:48:13.698   02 Jun 2027 18:50:19.450           125.752                Anadyr2          3929.750
       203   02 Jun 2027 18:50:29.149   02 Jun 2027 18:52:23.537           114.388                Anadyr1          3574.625
       204   02 Jun 2027 18:52:57.747   02 Jun 2027 18:54:06.150            68.403               Magadan2          2137.594
       205   02 Jun 2027 18:56:50.139   02 Jun 2027 18:57:16.149            26.010               Magadan1           812.813
       206   02 Jun 2027 18:58:26.666   02 Jun 2027 18:58:39.086            12.420               Magadan1           388.125
       207   02 Jun 2027 19:01:33.824   02 Jun 2027 19:02:27.727            53.903               Magadan2          1684.469
       208   02 Jun 2027 20:24:05.558   02 Jun 2027 20:25:34.793            89.235                Anadyr2          2788.594
       209   02 Jun 2027 20:25:34.793   02 Jun 2027 20:26:11.919            37.126                Anadyr1          1160.187
       210   02 Jun 2027 20:26:21.733   02 Jun 2027 20:28:11.496           109.763                Norilsk          3430.094
       211   02 Jun 2027 20:28:11.608   02 Jun 2027 20:28:44.530            32.922               Magadan2          1028.813
       212   02 Jun 2027 20:28:54.720   02 Jun 2027 20:29:32.369            37.649               Magadan2          1176.531
       213   02 Jun 2027 20:30:16.181   02 Jun 2027 20:30:40.222            24.041               Magadan1           751.281
       214   02 Jun 2027 20:30:54.231   02 Jun 2027 20:31:44.610            50.379               Magadan2          1574.344
       215   02 Jun 2027 20:31:52.568   02 Jun 2027 20:32:15.241            22.673                Irkutsk           708.531
       216   02 Jun 2027 20:34:01.992   02 Jun 2027 20:35:05.521            63.529                Irkutsk          1985.281
       217   02 Jun 2027 20:35:25.346   02 Jun 2027 20:36:10.299            44.953                Irkutsk          1404.781
       218   02 Jun 2027 20:37:52.718   02 Jun 2027 20:38:04.482            11.764                Irkutsk           367.625
       219   02 Jun 2027 20:48:12.997   02 Jun 2027 20:50:05.760           112.763                Sumatra          3523.844
       220   02 Jun 2027 20:52:24.358   02 Jun 2027 20:52:53.186            28.828                Sumatra           900.875
       221   02 Jun 2027 22:00:22.306   02 Jun 2027 22:00:27.653             5.347                Anadyr1           167.094
       222   02 Jun 2027 22:01:17.467   02 Jun 2027 22:01:54.618            37.151                Anadyr2          1160.969
       223   02 Jun 2027 22:01:57.855   02 Jun 2027 22:02:36.781            38.926                Norilsk          1216.437
       224   02 Jun 2027 22:02:38.477   02 Jun 2027 22:03:08.138            29.661               Magadan2           926.906
       225   02 Jun 2027 22:03:13.633   02 Jun 2027 22:03:32.581            18.948               Magadan1           592.125
       226   02 Jun 2027 22:03:39.528   02 Jun 2027 22:04:02.798            23.270               Magadan1           727.187
       227   02 Jun 2027 22:05:57.424   02 Jun 2027 22:07:17.695            80.271                Irkutsk          2508.469
       228   02 Jun 2027 22:09:25.669   02 Jun 2027 22:09:56.207            30.538                Novosib           954.313
       229   02 Jun 2027 22:10:40.902   02 Jun 2027 22:10:51.443            10.541                Novosib           329.406
       230   02 Jun 2027 22:15:33.543   02 Jun 2027 22:15:37.009             3.466                Novosib           108.312
       231   02 Jun 2027 22:17:25.879   02 Jun 2027 22:17:55.102            29.223                Irkutsk           913.219
       232   02 Jun 2027 22:19:39.731   02 Jun 2027 22:20:00.253            20.522                Sumatra           641.312
       233   02 Jun 2027 22:21:56.621   02 Jun 2027 22:22:30.034            33.413                Sumatra          1044.156
       234   02 Jun 2027 22:25:08.987   02 Jun 2027 22:25:35.641            26.654                Sumatra           832.938
       235   02 Jun 2027 23:33:53.586   02 Jun 2027 23:35:42.149           108.563                Anadyr1          3392.594
       236   02 Jun 2027 23:35:54.485   02 Jun 2027 23:36:04.399             9.914                Anadyr2           309.813
       237   02 Jun 2027 23:36:21.219   02 Jun 2027 23:36:31.869            10.650                Anadyr1           332.813
       238   02 Jun 2027 23:37:57.308   02 Jun 2027 23:38:16.475            19.167                Norilsk           598.969
       239   02 Jun 2027 23:38:34.260   02 Jun 2027 23:39:56.133            81.873               Magadan1          2558.531
       240   02 Jun 2027 23:39:56.414   02 Jun 2027 23:39:57.965             1.551               Magadan2            48.469
       241   02 Jun 2027 23:40:24.669   02 Jun 2027 23:40:36.009            11.340               Magadan2           354.375
       242   02 Jun 2027 23:41:34.384   02 Jun 2027 23:44:27.683           173.299              Murmansk1          5415.594
       243   02 Jun 2027 23:49:14.338   02 Jun 2027 23:50:14.975            60.637                  Delhi          1894.906
       244   02 Jun 2027 23:52:21.684   02 Jun 2027 23:52:26.553             4.869                  Delhi           152.156
       245   02 Jun 2027 23:52:55.864   02 Jun 2027 23:53:22.299            26.435                  Delhi           826.094
       246   02 Jun 2027 23:56:31.754   02 Jun 2027 23:57:02.732            30.978                  Delhi           968.063
       247   03 Jun 2027 00:35:54.952   03 Jun 2027 00:35:58.571             3.619            RioGallegos           113.094
       248   03 Jun 2027 00:37:51.105   03 Jun 2027 00:38:01.907            10.802            RioGallegos           337.563
       249   03 Jun 2027 01:07:14.914   03 Jun 2027 01:07:56.313            41.399                Anadyr1          1293.719
       250   03 Jun 2027 01:08:12.071   03 Jun 2027 01:08:55.582            43.511                Anadyr1          1359.719
       251   03 Jun 2027 01:09:09.624   03 Jun 2027 01:09:34.330            24.706                Anadyr1           772.062
       252   03 Jun 2027 01:09:52.525   03 Jun 2027 01:09:54.706             2.181                Anadyr2            68.156
       253   03 Jun 2027 01:09:54.706   03 Jun 2027 01:10:01.483             6.777                Anadyr1           211.781
       254   03 Jun 2027 01:10:13.259   03 Jun 2027 01:10:38.454            25.195                Anadyr1           787.344
       255   03 Jun 2027 01:13:02.669   03 Jun 2027 01:13:04.420             1.751                Anadyr1            54.719
       256   03 Jun 2027 01:13:25.525   03 Jun 2027 01:15:49.173           143.648               Magadan2          4489.000
       257   03 Jun 2027 01:16:10.884   03 Jun 2027 01:16:58.303            47.419              Murmansk1          1481.844
       258   03 Jun 2027 01:17:47.233   03 Jun 2027 01:19:15.444            88.211                Novosib          2756.594
       259   03 Jun 2027 01:23:55.939   03 Jun 2027 01:24:16.984            21.045                 Moscow           657.656
       260   03 Jun 2027 01:27:42.650   03 Jun 2027 01:28:23.008            40.358                  Delhi          1261.188
       261   03 Jun 2027 01:47:39.842   03 Jun 2027 01:48:30.115            50.273               CapeTown          1571.031
       262   03 Jun 2027 02:40:52.838   03 Jun 2027 02:42:07.615            74.777                Anadyr1          2336.781
       263   03 Jun 2027 02:43:06.343   03 Jun 2027 02:44:07.265            60.922                Anadyr1          1903.812
       264   03 Jun 2027 02:45:15.404   03 Jun 2027 02:46:33.620            78.216               Magadan2          2444.250
       265   03 Jun 2027 02:46:49.503   03 Jun 2027 02:46:57.705             8.202               Magadan2           256.312
       266   03 Jun 2027 02:49:36.253   03 Jun 2027 02:49:46.160             9.907                Norilsk           309.594
       267   03 Jun 2027 02:51:07.314   03 Jun 2027 02:51:11.677             4.363                Norilsk           136.344
       268   03 Jun 2027 02:51:49.019   03 Jun 2027 02:52:01.669            12.650                Norilsk           395.313
       269   03 Jun 2027 02:52:03.439   03 Jun 2027 02:52:34.161            30.722              Murmansk2           960.063
       270   03 Jun 2027 02:53:31.992   03 Jun 2027 02:54:50.920            78.928              Murmansk2          2466.500
       271   03 Jun 2027 02:54:56.132   03 Jun 2027 02:55:56.637            60.505                Novosib          1890.781
       272   03 Jun 2027 03:00:14.780   03 Jun 2027 03:00:18.443             3.663              Murmansk2           114.469
       273   03 Jun 2027 03:00:35.610   03 Jun 2027 03:01:12.072            36.462              Murmansk2          1139.438
       274   03 Jun 2027 03:01:44.297   03 Jun 2027 03:03:03.864            79.567                 Moscow          2486.469
       275   03 Jun 2027 03:03:10.109   03 Jun 2027 03:03:34.949            24.840              Murmansk2           776.250
       276   03 Jun 2027 03:03:40.814   03 Jun 2027 03:03:49.916             9.102              Murmansk1           284.438
       277   03 Jun 2027 03:04:01.533   03 Jun 2027 03:04:15.793            14.260                 Moscow           445.625
       278   03 Jun 2027 03:04:23.617   03 Jun 2027 03:04:34.932            11.315              Murmansk1           353.594
       279   03 Jun 2027 03:04:51.182   03 Jun 2027 03:06:06.443            75.261                 Moscow          2351.906
       280   03 Jun 2027 03:19:15.129   03 Jun 2027 03:22:26.838           191.709               CapeTown          5990.906
       281   03 Jun 2027 03:22:47.412   03 Jun 2027 03:23:03.519            16.107               CapeTown           503.344
       282   03 Jun 2027 04:23:02.973   03 Jun 2027 04:23:50.208            47.235               Magadan1          1476.094
       283   03 Jun 2027 04:23:52.644   03 Jun 2027 04:24:14.564            21.920                Anadyr2           685.000
       284   03 Jun 2027 04:24:32.059   03 Jun 2027 04:25:17.212            45.153               Magadan2          1411.031
       285   03 Jun 2027 05:58:32.765   03 Jun 2027 05:59:49.650            76.885                Anadyr1          2402.656
       286   03 Jun 2027 06:00:31.421   03 Jun 2027 06:01:09.845            38.424               Magadan2          1200.750
       287   03 Jun 2027 06:01:09.845   03 Jun 2027 06:02:35.371            85.526               Magadan1          2672.688
       288   03 Jun 2027 06:02:53.839   03 Jun 2027 06:03:04.412            10.573                Anadyr2           330.406
       289   03 Jun 2027 06:03:42.374   03 Jun 2027 06:03:56.816            14.442               Magadan2           451.313
       290   03 Jun 2027 06:43:17.158   03 Jun 2027 06:44:11.584            54.426            RioGallegos          1700.813
       291   03 Jun 2027 07:31:04.519   03 Jun 2027 07:31:07.657             3.138               Magadan1            98.063
       292   03 Jun 2027 07:31:08.570   03 Jun 2027 07:31:41.715            33.145               Magadan2          1035.781
       293   03 Jun 2027 07:31:50.450   03 Jun 2027 07:32:50.171            59.721               Magadan1          1866.281
       294   03 Jun 2027 07:32:57.831   03 Jun 2027 07:33:40.768            42.937               Magadan2          1341.781
       295   03 Jun 2027 07:34:03.930   03 Jun 2027 07:34:56.542            52.612               Magadan2          1644.125
       296   03 Jun 2027 07:35:11.589   03 Jun 2027 07:36:22.866            71.277                Anadyr2          2227.406
       297   03 Jun 2027 07:36:32.530   03 Jun 2027 07:36:53.964            21.434               Magadan2           669.813
       298   03 Jun 2027 07:37:17.033   03 Jun 2027 07:37:40.731            23.698                Anadyr1           740.562
       299   03 Jun 2027 07:37:46.222   03 Jun 2027 07:37:48.474             2.252                Norilsk            70.375
       300   03 Jun 2027 07:37:53.510   03 Jun 2027 07:38:05.205            11.695               Magadan2           365.469
       301   03 Jun 2027 07:38:13.465   03 Jun 2027 07:39:15.806            62.341                Irkutsk          1948.156
       302   03 Jun 2027 07:39:20.900   03 Jun 2027 07:39:40.991            20.091                Novosib           627.844
       303   03 Jun 2027 07:39:46.988   03 Jun 2027 07:40:26.750            39.762                Novosib          1242.563
       304   03 Jun 2027 07:40:33.209   03 Jun 2027 07:41:10.306            37.097              Murmansk1          1159.281
       305   03 Jun 2027 08:15:23.574   03 Jun 2027 08:16:17.332            53.758            RioGallegos          1679.937
       306   03 Jun 2027 08:53:20.286   03 Jun 2027 08:54:07.215            46.929                Sumatra          1466.531
       307   03 Jun 2027 09:09:25.623   03 Jun 2027 09:09:35.431             9.808                Novosib           306.500
       308   03 Jun 2027 09:09:40.305   03 Jun 2027 09:10:45.262            64.957               Magadan1          2029.906
       309   03 Jun 2027 09:10:45.262   03 Jun 2027 09:11:29.412            44.150               Magadan2          1379.688
       310   03 Jun 2027 09:11:36.533   03 Jun 2027 09:12:54.099            77.566               Magadan2          2423.937
       311   03 Jun 2027 09:12:56.529   03 Jun 2027 09:13:09.153            12.624               Magadan1           394.500
       312   03 Jun 2027 09:13:39.959   03 Jun 2027 09:13:41.128             1.169                Norilsk            36.531
       313   03 Jun 2027 09:13:44.757   03 Jun 2027 09:14:08.031            23.274              Murmansk1           727.312
       314   03 Jun 2027 09:14:15.965   03 Jun 2027 09:15:00.213            44.248                Irkutsk          1382.750
       315   03 Jun 2027 09:15:01.793   03 Jun 2027 09:16:34.534            92.741                Novosib          2898.156
       316   03 Jun 2027 09:52:23.458   03 Jun 2027 09:52:49.005            25.547            RioGallegos           798.344
       317   03 Jun 2027 10:25:40.984   03 Jun 2027 10:25:48.821             7.837                Sumatra           244.906
       318   03 Jun 2027 10:27:16.585   03 Jun 2027 10:28:19.078            62.493                Sumatra          1952.906
       319   03 Jun 2027 10:40:43.500   03 Jun 2027 10:40:55.294            11.794                  Delhi           368.563
       320   03 Jun 2027 10:45:43.524   03 Jun 2027 10:46:03.789            20.265                  Delhi           633.281
       321   03 Jun 2027 10:46:37.693   03 Jun 2027 10:47:06.045            28.352                Irkutsk           886.000
       322   03 Jun 2027 10:47:29.011   03 Jun 2027 10:47:53.359            24.348                Norilsk           760.875
       323   03 Jun 2027 10:48:11.945   03 Jun 2027 10:48:35.235            23.290              Murmansk1           727.813
       324   03 Jun 2027 10:48:37.253   03 Jun 2027 10:48:44.748             7.495              Murmansk1           234.219
       325   03 Jun 2027 10:48:55.677   03 Jun 2027 10:49:11.791            16.114                Novosib           503.562
       326   03 Jun 2027 10:49:28.736   03 Jun 2027 10:50:01.235            32.499                 Moscow          1015.594
       327   03 Jun 2027 10:50:06.117   03 Jun 2027 10:50:06.722             0.605                Irkutsk            18.906
       328   03 Jun 2027 10:50:16.005   03 Jun 2027 10:50:19.936             3.931                Novosib           122.844
       329   03 Jun 2027 10:50:24.317   03 Jun 2027 10:51:00.057            35.740                Irkutsk          1116.875
       330   03 Jun 2027 10:51:20.930   03 Jun 2027 10:51:37.156            16.226                Norilsk           507.062
       331   03 Jun 2027 10:51:41.662   03 Jun 2027 10:51:46.304             4.642                Novosib           145.062
       332   03 Jun 2027 10:52:00.553   03 Jun 2027 10:52:27.476            26.923                Norilsk           841.344
       333   03 Jun 2027 10:52:54.330   03 Jun 2027 10:52:57.756             3.426                 Moscow           107.062
       334   03 Jun 2027 10:53:32.073   03 Jun 2027 10:54:10.469            38.396                 Moscow          1199.875
       335   03 Jun 2027 11:31:54.922   03 Jun 2027 11:32:52.667            57.745            RioGallegos          1804.531
       336   03 Jun 2027 12:10:05.271   03 Jun 2027 12:10:20.019            14.748                  Delhi           460.875
       337   03 Jun 2027 12:12:03.634   03 Jun 2027 12:12:55.430            51.796                  Delhi          1618.625
       338   03 Jun 2027 12:18:01.383   03 Jun 2027 12:18:57.418            56.035                Novosib          1751.094
       339   03 Jun 2027 12:19:37.972   03 Jun 2027 12:20:19.608            41.636                Novosib          1301.125
       340   03 Jun 2027 12:21:58.479   03 Jun 2027 12:23:03.795            65.316                Novosib          2041.125
       341   03 Jun 2027 12:23:17.514   03 Jun 2027 12:23:44.729            27.215              Murmansk1           850.469
       342   03 Jun 2027 12:24:27.369   03 Jun 2027 12:24:41.070            13.701              Murmansk1           428.156
       343   03 Jun 2027 12:28:16.244   03 Jun 2027 12:28:37.766            21.522              Murmansk2           672.563
       344   03 Jun 2027 12:33:17.300   03 Jun 2027 12:33:24.122             6.822              Murmansk2           213.188
       345   03 Jun 2027 13:54:16.192   03 Jun 2027 13:58:15.044           238.852                 Moscow          7464.125
       346   03 Jun 2027 13:58:19.612   03 Jun 2027 14:00:37.661           138.049              Murmansk2          4314.031
       347   03 Jun 2027 14:02:34.490   03 Jun 2027 14:03:02.179            27.689                Norilsk           865.281
       348   03 Jun 2027 14:03:34.647   03 Jun 2027 14:04:47.169            72.522                Norilsk          2266.312
       349   03 Jun 2027 15:08:39.409   03 Jun 2027 15:11:30.085           170.676               CapeTown          5333.625
       350   03 Jun 2027 15:31:54.485   03 Jun 2027 15:32:37.911            43.426                 Moscow          1357.062
       351   03 Jun 2027 15:34:57.091   03 Jun 2027 15:35:08.808            11.717              Murmansk2           366.156
       352   03 Jun 2027 15:35:08.808   03 Jun 2027 15:35:27.478            18.670              Murmansk1           583.437
       353   03 Jun 2027 15:37:02.547   03 Jun 2027 15:37:22.961            20.414              Murmansk2           637.938
       354   03 Jun 2027 15:39:04.491   03 Jun 2027 15:39:20.142            15.651              Murmansk2           489.094
       355   03 Jun 2027 15:48:43.926   03 Jun 2027 15:50:33.707           109.781                Anadyr1          3430.656
       356   03 Jun 2027 15:51:19.907   03 Jun 2027 15:52:22.155            62.248                Anadyr2          1945.250
       357   03 Jun 2027 16:43:56.989   03 Jun 2027 16:44:35.624            38.635               CapeTown          1207.344
       358   03 Jun 2027 17:14:29.739   03 Jun 2027 17:17:08.176           158.437              Murmansk1          4951.156
       359   03 Jun 2027 17:19:08.795   03 Jun 2027 17:19:19.337            10.542              Murmansk2           329.437
       360   03 Jun 2027 17:24:19.953   03 Jun 2027 17:25:18.510            58.557                Anadyr1          1829.906
       361   03 Jun 2027 17:25:26.043   03 Jun 2027 17:25:48.968            22.925                Anadyr1           716.406
       362   03 Jun 2027 17:27:35.103   03 Jun 2027 17:29:54.263           139.160               Magadan1          4348.750
       363   03 Jun 2027 17:30:43.237   03 Jun 2027 17:30:56.159            12.922               Magadan1           403.812
       364   03 Jun 2027 17:31:05.661   03 Jun 2027 17:31:16.833            11.172               Magadan2           349.125
       365   03 Jun 2027 17:35:52.721   03 Jun 2027 17:35:57.372             4.651               Magadan2           145.344
       366   03 Jun 2027 19:00:15.186   03 Jun 2027 19:02:19.452           124.266                Anadyr1          3883.313
       367   03 Jun 2027 19:02:35.198   03 Jun 2027 19:05:58.257           203.059               Magadan1          6345.594
       368   03 Jun 2027 19:07:14.010   03 Jun 2027 19:07:47.297            33.287               Magadan1          1040.219
       369   03 Jun 2027 19:10:47.400   03 Jun 2027 19:10:54.330             6.930               Magadan1           216.563
       370   03 Jun 2027 19:11:02.224   03 Jun 2027 19:11:16.849            14.625               Magadan2           457.031
       371   03 Jun 2027 19:57:04.270   03 Jun 2027 19:59:11.497           127.227            RioGallegos          3975.844
       372   03 Jun 2027 20:36:05.284   03 Jun 2027 20:36:35.470            30.186                Anadyr1           943.312
       373   03 Jun 2027 20:37:22.292   03 Jun 2027 20:38:17.551            55.259                Anadyr1          1726.844
       374   03 Jun 2027 20:38:28.260   03 Jun 2027 20:38:32.542             4.282               Magadan1           133.813
       375   03 Jun 2027 20:38:32.542   03 Jun 2027 20:39:54.036            81.494               Magadan2          2546.688
       376   03 Jun 2027 20:39:54.419   03 Jun 2027 20:41:58.671           124.252                Norilsk          3882.875
       377   03 Jun 2027 20:43:22.731   03 Jun 2027 20:44:11.979            49.248                Irkutsk          1539.000
       378   03 Jun 2027 20:44:24.228   03 Jun 2027 20:45:09.882            45.654                Norilsk          1426.688
       379   03 Jun 2027 20:48:10.217   03 Jun 2027 20:49:06.321            56.104                Irkutsk          1753.250
       380   03 Jun 2027 20:49:50.872   03 Jun 2027 20:49:58.169             7.297                Irkutsk           228.031
       381   03 Jun 2027 20:58:41.646   03 Jun 2027 21:00:38.370           116.724                Sumatra          3647.625
       382   03 Jun 2027 21:02:20.283   03 Jun 2027 21:03:41.402            81.119                Sumatra          2534.969
       383   03 Jun 2027 22:14:34.426   03 Jun 2027 22:14:42.931             8.505               Magadan1           265.781
       384   03 Jun 2027 22:14:42.931   03 Jun 2027 22:15:07.103            24.172               Magadan2           755.375
       385   03 Jun 2027 22:15:19.420   03 Jun 2027 22:15:30.507            11.087               Magadan1           346.469
       386   03 Jun 2027 22:15:36.579   03 Jun 2027 22:15:47.243            10.664                Norilsk           333.250
       387   03 Jun 2027 22:15:56.992   03 Jun 2027 22:16:03.244             6.252                Norilsk           195.375
       388   03 Jun 2027 22:16:12.402   03 Jun 2027 22:16:31.718            19.316               Magadan1           603.625
       389   03 Jun 2027 22:17:55.634   03 Jun 2027 22:19:15.575            79.941                Irkutsk          2498.156
       390   03 Jun 2027 22:21:53.599   03 Jun 2027 22:22:38.708            45.109                Novosib          1409.656
       391   03 Jun 2027 22:27:01.318   03 Jun 2027 22:27:23.077            21.759                Novosib           679.969
       392   03 Jun 2027 22:29:42.620   03 Jun 2027 22:30:38.550            55.930                  Delhi          1747.813
       393   03 Jun 2027 22:31:50.046   03 Jun 2027 22:32:53.135            63.089                  Delhi          1971.531
       394   03 Jun 2027 23:45:37.823   03 Jun 2027 23:45:59.224            21.401                Anadyr2           668.781
       395   03 Jun 2027 23:47:43.013   03 Jun 2027 23:48:00.758            17.745                Anadyr1           554.531
       396   03 Jun 2027 23:49:59.342   03 Jun 2027 23:50:42.820            43.478                Norilsk          1358.687
       397   03 Jun 2027 23:51:28.332   03 Jun 2027 23:51:38.224             9.892               Magadan2           309.125
       398   03 Jun 2027 23:52:09.009   03 Jun 2027 23:52:16.708             7.699               Magadan2           240.594
       399   03 Jun 2027 23:52:23.439   03 Jun 2027 23:52:26.464             3.025               Magadan2            94.531
       400   03 Jun 2027 23:53:06.626   03 Jun 2027 23:54:25.797            79.171              Murmansk2          2474.094
       401   03 Jun 2027 23:54:29.806   03 Jun 2027 23:56:26.081           116.275              Murmansk1          3633.594
       402   03 Jun 2027 23:57:20.174   03 Jun 2027 23:57:44.381            24.207              Murmansk2           756.469
       403   03 Jun 2027 23:58:40.919   03 Jun 2027 23:58:44.502             3.583                Novosib           111.969
       404   04 Jun 2027 00:01:09.622   04 Jun 2027 00:04:01.501           171.879                  Delhi          5371.219
       405   04 Jun 2027 00:49:21.718   04 Jun 2027 00:49:57.429            35.711            RioGallegos          1115.969
       406   04 Jun 2027 01:18:56.361   04 Jun 2027 01:19:21.763            25.402                Anadyr2           793.813
       407   04 Jun 2027 01:19:41.188   04 Jun 2027 01:20:13.321            32.133                Anadyr1          1004.156
       408   04 Jun 2027 01:20:44.510   04 Jun 2027 01:21:08.715            24.205                Anadyr2           756.406
       409   04 Jun 2027 01:21:34.700   04 Jun 2027 01:21:49.973            15.273                Anadyr1           477.281
       410   04 Jun 2027 01:25:03.145   04 Jun 2027 01:27:40.167           157.022               Magadan2          4906.938
       411   04 Jun 2027 01:28:10.746   04 Jun 2027 01:28:59.906            49.160              Murmansk1          1536.250
       412   04 Jun 2027 01:29:51.418   04 Jun 2027 01:31:19.510            88.092                Novosib          2752.875
       413   04 Jun 2027 01:35:20.141   04 Jun 2027 01:35:55.545            35.404                Irkutsk          1106.375
       414   04 Jun 2027 01:40:07.995   04 Jun 2027 01:41:13.931            65.936                  Delhi          2060.500
       415   04 Jun 2027 02:01:30.926   04 Jun 2027 02:01:33.959             3.033               CapeTown            94.781
       416   04 Jun 2027 02:06:01.066   04 Jun 2027 02:06:25.458            24.392               CapeTown           762.250
       417   04 Jun 2027 02:52:41.892   04 Jun 2027 02:54:08.049            86.157                Anadyr2          2692.406
       418   04 Jun 2027 02:55:04.580   04 Jun 2027 02:56:07.974            63.394                Anadyr1          1981.062
       419   04 Jun 2027 02:56:44.427   04 Jun 2027 02:58:01.955            77.528               Magadan1          2422.750
       420   04 Jun 2027 03:12:53.863   04 Jun 2027 03:16:18.678           204.815              Murmansk2          6400.469
       421   04 Jun 2027 03:16:18.678   04 Jun 2027 03:16:45.309            26.631              Murmansk1           832.219
       422   04 Jun 2027 03:31:12.043   04 Jun 2027 03:34:02.585           170.542               CapeTown          5329.438
       423   04 Jun 2027 04:27:56.380   04 Jun 2027 04:28:15.947            19.567                Anadyr1           611.469
       424   04 Jun 2027 04:28:15.947   04 Jun 2027 04:29:13.881            57.934                Anadyr2          1810.437
       425   04 Jun 2027 04:34:33.352   04 Jun 2027 04:34:43.400            10.048               Magadan2           314.000
       426   04 Jun 2027 04:34:47.807   04 Jun 2027 04:35:41.328            53.521               Magadan2          1672.531
       427   04 Jun 2027 04:35:41.328   04 Jun 2027 04:35:45.907             4.579               Magadan1           143.094
       428   04 Jun 2027 04:35:48.824   04 Jun 2027 04:37:28.238            99.414               Magadan2          3106.688
       429   04 Jun 2027 06:11:34.522   04 Jun 2027 06:12:17.166            42.644               Magadan2          1332.625
       430   04 Jun 2027 06:12:17.166   04 Jun 2027 06:12:40.857            23.691               Magadan1           740.344
       431   04 Jun 2027 06:12:49.008   04 Jun 2027 06:13:09.513            20.505               Magadan1           640.781
       432   04 Jun 2027 06:13:22.466   04 Jun 2027 06:14:26.959            64.493                Anadyr1          2015.406
       433   04 Jun 2027 06:14:26.959   04 Jun 2027 06:15:05.814            38.855                Anadyr2          1214.219
       434   04 Jun 2027 06:54:35.182   04 Jun 2027 06:55:02.292            27.110            RioGallegos           847.187
       435   04 Jun 2027 06:56:13.794   04 Jun 2027 06:56:23.537             9.743            RioGallegos           304.469
       436   04 Jun 2027 07:44:50.765   04 Jun 2027 07:45:02.124            11.359               Magadan2           354.969
       437   04 Jun 2027 07:45:27.112   04 Jun 2027 07:45:55.412            28.300               Magadan2           884.375
       438   04 Jun 2027 07:46:08.557   04 Jun 2027 07:46:58.624            50.067               Magadan1          1564.594
       439   04 Jun 2027 07:47:06.629   04 Jun 2027 07:47:26.168            19.539               Magadan1           610.594
       440   04 Jun 2027 07:47:29.038   04 Jun 2027 07:47:36.186             7.148                Irkutsk           223.375
       441   04 Jun 2027 07:47:47.600   04 Jun 2027 07:48:14.208            26.608                Anadyr1           831.500
       442   04 Jun 2027 07:48:31.732   04 Jun 2027 07:49:04.598            32.866               Magadan2          1027.062
       443   04 Jun 2027 07:49:18.270   04 Jun 2027 07:50:09.401            51.131                Anadyr2          1597.844
       444   04 Jun 2027 07:50:18.454   04 Jun 2027 07:50:52.205            33.751                Irkutsk          1054.719
       445   04 Jun 2027 07:50:57.238   04 Jun 2027 07:52:10.161            72.923               Magadan2          2278.844
       446   04 Jun 2027 07:53:00.503   04 Jun 2027 07:53:04.610             4.107              Murmansk1           128.344
       447   04 Jun 2027 08:27:11.954   04 Jun 2027 08:27:48.093            36.139            RioGallegos          1129.344
       448   04 Jun 2027 08:28:35.881   04 Jun 2027 08:29:19.857            43.976            RioGallegos          1374.250
       449   04 Jun 2027 09:04:10.892   04 Jun 2027 09:04:13.765             2.873                Sumatra            89.781
       450   04 Jun 2027 09:07:03.182   04 Jun 2027 09:08:01.206            58.024                Sumatra          1813.250
       451   04 Jun 2027 09:21:20.368   04 Jun 2027 09:21:40.474            20.106                Irkutsk           628.313
       452   04 Jun 2027 09:22:23.443   04 Jun 2027 09:22:43.246            19.803               Magadan1           618.844
       453   04 Jun 2027 09:23:00.659   04 Jun 2027 09:23:10.621             9.962                Norilsk           311.313
       454   04 Jun 2027 09:23:20.014   04 Jun 2027 09:23:52.031            32.017                Novosib          1000.531
       455   04 Jun 2027 09:24:05.029   04 Jun 2027 09:24:21.024            15.995                Irkutsk           499.844
       456   04 Jun 2027 09:24:26.018   04 Jun 2027 09:24:48.097            22.079                Irkutsk           689.969
       457   04 Jun 2027 09:24:53.089   04 Jun 2027 09:25:34.134            41.045                Novosib          1282.656
       458   04 Jun 2027 09:25:39.762   04 Jun 2027 09:25:42.994             3.232                Norilsk           101.000
       459   04 Jun 2027 09:25:56.072   04 Jun 2027 09:26:10.393            14.321              Murmansk1           447.531
       460   04 Jun 2027 09:26:11.640   04 Jun 2027 09:26:14.077             2.437                Irkutsk            76.156
       461   04 Jun 2027 09:26:36.273   04 Jun 2027 09:27:02.451            26.178                Norilsk           818.062
       462   04 Jun 2027 09:27:12.431   04 Jun 2027 09:27:28.954            16.523                Irkutsk           516.344
       463   04 Jun 2027 09:27:29.020   04 Jun 2027 09:27:38.312             9.292              Murmansk1           290.375
       464   04 Jun 2027 09:27:45.477   04 Jun 2027 09:28:11.653            26.176                Irkutsk           818.000
       465   04 Jun 2027 09:28:44.473   04 Jun 2027 09:28:46.886             2.413                Norilsk            75.406
       466   04 Jun 2027 09:29:22.498   04 Jun 2027 09:29:49.401            26.903                Norilsk           840.719
       467   04 Jun 2027 10:03:21.847   04 Jun 2027 10:04:04.683            42.836            RioGallegos          1338.625
       468   04 Jun 2027 10:12:41.876   04 Jun 2027 10:12:54.840            12.964            RioGallegos           405.125
       469   04 Jun 2027 10:38:00.829   04 Jun 2027 10:40:02.616           121.787                Sumatra          3805.844
       470   04 Jun 2027 10:59:09.453   04 Jun 2027 11:00:07.248            57.795                Irkutsk          1806.094
       471   04 Jun 2027 11:00:18.190   04 Jun 2027 11:00:20.959             2.769                Norilsk            86.531
       472   04 Jun 2027 11:00:32.144   04 Jun 2027 11:01:25.405            53.261                Irkutsk          1664.406
       473   04 Jun 2027 11:01:31.928   04 Jun 2027 11:01:42.529            10.601                Norilsk           331.281
       474   04 Jun 2027 11:01:50.985   04 Jun 2027 11:01:52.356             1.371                Novosib            42.844
       475   04 Jun 2027 11:01:54.242   04 Jun 2027 11:02:25.317            31.075                Irkutsk           971.094
       476   04 Jun 2027 11:02:29.198   04 Jun 2027 11:03:11.516            42.318                Irkutsk          1322.437
       477   04 Jun 2027 11:03:18.656   04 Jun 2027 11:03:25.479             6.823              Murmansk1           213.219
       478   04 Jun 2027 11:03:38.303   04 Jun 2027 11:04:01.059            22.756                Norilsk           711.125
       479   04 Jun 2027 11:04:13.108   04 Jun 2027 11:04:58.075            44.967                 Moscow          1405.219
       480   04 Jun 2027 12:22:22.218   04 Jun 2027 12:23:29.262            67.044                  Delhi          2095.125
       481   04 Jun 2027 12:24:46.540   04 Jun 2027 12:27:02.371           135.831                  Delhi          4244.719
       482   04 Jun 2027 12:30:30.238   04 Jun 2027 12:31:10.247            40.009                Novosib          1250.281
