uniorb/output/strategy_2/Drop/Drop_KinoSat_110309.txt

KinoSat_110309
-------------------------
    Access    *     Start Time (UTCG)     *     Stop Time (UTCG)  *   Duration (s)        *       Station  *  Data (Mbytes)
         1   01 Jun 2027 03:18:29.104   01 Jun 2027 03:19:01.956            32.852                Irkutsk          2780.000
         2   01 Jun 2027 03:19:03.348   01 Jun 2027 03:19:49.921            46.573               Magadan1           696.000
         3   01 Jun 2027 03:19:50.787   01 Jun 2027 03:20:05.574            14.787                Novosib           433.000
         4   01 Jun 2027 03:20:08.182   01 Jun 2027 03:20:35.805            27.623               Magadan2          1304.000
         5   01 Jun 2027 03:20:50.389   01 Jun 2027 03:21:40.344            49.955                Norilsk          6244.375
         6   01 Jun 2027 03:21:43.014   01 Jun 2027 03:22:37.858            54.844                Novosib          2382.625
         7   01 Jun 2027 03:22:41.546   01 Jun 2027 03:22:51.670            10.124               Magadan1          1265.500
         8   01 Jun 2027 03:22:55.391   01 Jun 2027 03:23:16.805            21.414                Norilsk          2439.000
         9   01 Jun 2027 03:23:25.049   01 Jun 2027 03:23:37.882            12.833                Irkutsk          1604.125
        10   01 Jun 2027 03:23:39.214   01 Jun 2027 03:24:06.441            27.227               Magadan2          3183.875
        11   01 Jun 2027 03:24:09.348   01 Jun 2027 03:24:22.641            13.293               Magadan1          1453.500
        12   01 Jun 2027 03:24:25.654   01 Jun 2027 03:24:58.820            33.166                Norilsk          1506.500
        13   01 Jun 2027 03:25:08.315   01 Jun 2027 03:25:47.702            39.387              Murmansk2          4747.500
        14   01 Jun 2027 04:54:53.477   01 Jun 2027 04:55:35.565            42.088                Norilsk          5261.000
        15   01 Jun 2027 04:55:43.425   01 Jun 2027 04:55:55.325            11.900                Norilsk          1487.500
        16   01 Jun 2027 04:55:58.760   01 Jun 2027 04:56:57.512            58.752                Irkutsk          7344.000
        17   01 Jun 2027 04:57:00.593   01 Jun 2027 04:57:16.192            15.599                Norilsk          1949.875
        18   01 Jun 2027 04:57:23.975   01 Jun 2027 04:58:44.414            80.439                Novosib          5929.124
        19   01 Jun 2027 04:58:45.782   01 Jun 2027 04:59:10.582            24.800              Murmansk2           684.000
        20   01 Jun 2027 04:59:13.647   01 Jun 2027 04:59:15.278             1.631                Irkutsk           203.875
        21   01 Jun 2027 04:59:24.190   01 Jun 2027 04:59:57.179            32.989                Norilsk          4123.625
        22   01 Jun 2027 05:00:08.999   01 Jun 2027 05:01:39.400            90.401                Novosib          7571.000
        23   01 Jun 2027 06:32:25.195   01 Jun 2027 06:33:20.536            55.341                Irkutsk          4627.000
        24   01 Jun 2027 06:33:23.170   01 Jun 2027 06:33:42.514            19.344                 Moscow          1317.000
        25   01 Jun 2027 06:33:48.121   01 Jun 2027 06:34:13.749            25.628                Novosib          2803.500
        26   01 Jun 2027 06:34:15.166   01 Jun 2027 06:34:39.482            24.316                Irkutsk           708.500
        27   01 Jun 2027 06:34:41.467   01 Jun 2027 06:35:21.512            40.045                Novosib           992.500
        28   01 Jun 2027 06:35:24.553   01 Jun 2027 06:35:58.493            33.940                Norilsk          1520.500
        29   01 Jun 2027 06:36:01.788   01 Jun 2027 06:36:30.709            28.921              Murmansk2          1647.500
        30   01 Jun 2027 06:36:31.129   01 Jun 2027 06:37:11.084            39.955              Murmansk1           210.000
        31   01 Jun 2027 08:08:23.542   01 Jun 2027 08:09:11.290            47.748              Murmansk2          1072.500
        32   01 Jun 2027 08:09:14.863   01 Jun 2027 08:09:38.466            23.603                Norilsk          1786.500
        33   01 Jun 2027 08:09:49.376   01 Jun 2027 08:10:48.724            59.348                Novosib          5455.000
        34   01 Jun 2027 08:10:57.601   01 Jun 2027 08:12:14.243            76.642              Murmansk1          4438.500
        35   01 Jun 2027 08:12:22.613   01 Jun 2027 08:13:07.082            44.469                Novosib          4185.000
        36   02 Jun 2027 03:30:42.111   02 Jun 2027 03:31:33.310            51.199               Magadan1           558.500
        37   02 Jun 2027 03:31:35.111   02 Jun 2027 03:31:49.511            14.400               Magadan1           900.500
        38   02 Jun 2027 03:31:51.283   02 Jun 2027 03:32:10.949            19.666               Magadan2           886.000
        39   02 Jun 2027 03:32:13.646   02 Jun 2027 03:32:29.828            16.182                Novosib          1348.500
        40   02 Jun 2027 03:32:29.836   02 Jun 2027 03:32:30.789             0.953               Magadan2             4.000
        41   02 Jun 2027 03:32:31.551   02 Jun 2027 03:32:51.507            19.956                Norilsk           381.000
        42   02 Jun 2027 03:32:53.295   02 Jun 2027 03:33:29.978            36.683                Norilsk           894.000
        43   02 Jun 2027 03:33:33.702   02 Jun 2027 03:33:45.333            11.631                Norilsk          1453.875
        44   02 Jun 2027 03:33:49.509   02 Jun 2027 03:33:59.382             9.873                Novosib          1234.125
        45   02 Jun 2027 03:34:02.305   02 Jun 2027 03:34:26.280            23.975                Norilsk          2723.500
        46   02 Jun 2027 03:34:32.236   02 Jun 2027 03:35:06.281            34.045               Magadan2          2978.000
        47   02 Jun 2027 03:35:06.404   02 Jun 2027 03:35:34.939            28.535                Irkutsk            61.500
        48   02 Jun 2027 03:35:40.113   02 Jun 2027 03:36:08.687            28.574               Magadan1          2587.000
        49   02 Jun 2027 03:36:09.254   02 Jun 2027 03:36:56.203            46.949               Magadan1           283.500
        50   02 Jun 2027 03:36:58.378   02 Jun 2027 03:37:12.251            13.873              Murmansk2          1087.500
        51   02 Jun 2027 03:37:27.536   02 Jun 2027 03:38:02.304            34.768                Norilsk          2432.500
        52   02 Jun 2027 05:07:35.189   02 Jun 2027 05:10:06.132           150.943                Irkutsk         15559.000
        53   02 Jun 2027 05:10:10.308   02 Jun 2027 05:10:39.056            28.748              Murmansk2          2088.000
        54   02 Jun 2027 05:10:39.265   02 Jun 2027 05:11:03.549            24.284                Norilsk           104.500
        55   02 Jun 2027 05:11:18.727   02 Jun 2027 05:12:43.862            85.135              Murmansk1          7589.000
        56   02 Jun 2027 05:12:57.277   02 Jun 2027 05:13:19.017            21.740              Murmansk2          2717.500
        57   02 Jun 2027 05:13:19.017   02 Jun 2027 05:13:54.562            35.545              Murmansk1          3990.000
        58   02 Jun 2027 06:44:25.381   02 Jun 2027 06:45:08.517            43.136                Novosib          2076.000
        59   02 Jun 2027 06:45:12.937   02 Jun 2027 06:45:49.470            36.533                Norilsk          2210.000
        60   02 Jun 2027 06:45:50.700   02 Jun 2027 06:46:15.266            24.566                Novosib           615.000
        61   02 Jun 2027 06:46:20.459   02 Jun 2027 06:46:51.974            31.515                Irkutsk          2596.500
        62   02 Jun 2027 06:46:57.026   02 Jun 2027 06:47:29.495            32.469                Novosib          2526.000
        63   02 Jun 2027 06:47:34.740   02 Jun 2027 06:48:34.913            60.173                 Moscow          2622.500
        64   02 Jun 2027 06:48:45.102   02 Jun 2027 06:49:47.745            62.643                 Moscow          5094.500
        65   02 Jun 2027 08:20:35.455   02 Jun 2027 08:20:48.009            12.554                Novosib           625.500
        66   02 Jun 2027 08:20:53.626   02 Jun 2027 08:21:42.838            49.212                Novosib          2808.500
        67   02 Jun 2027 08:21:44.799   02 Jun 2027 08:22:11.096            26.297                 Moscow           980.500
        68   02 Jun 2027 08:22:22.356   02 Jun 2027 08:24:10.028           107.672              Murmansk1          5630.000
        69   02 Jun 2027 08:24:19.106   02 Jun 2027 08:24:58.612            39.506              Murmansk1          4539.000
        70   02 Jun 2027 08:25:00.784   02 Jun 2027 08:25:15.470            14.686                Norilsk          1086.000
        71   02 Jun 2027 08:25:26.996   02 Jun 2027 08:25:29.604             2.608                 Moscow           326.000
        72   02 Jun 2027 08:25:57.690   02 Jun 2027 08:26:56.282            58.592                 Moscow          1008.000
        73   03 Jun 2027 03:42:25.243   03 Jun 2027 03:42:38.323            13.080               Magadan2          1635.000
        74   03 Jun 2027 03:43:04.611   03 Jun 2027 03:45:40.054           155.443               Magadan1         14731.000
        75   03 Jun 2027 03:45:41.729   03 Jun 2027 03:45:51.125             9.396                Norilsk           837.500
        76   03 Jun 2027 03:45:55.354   03 Jun 2027 03:46:05.487            10.133                Novosib          1266.625
        77   03 Jun 2027 03:46:05.675   03 Jun 2027 03:46:14.090             8.415               Magadan1           941.875
        78   03 Jun 2027 03:46:14.714   03 Jun 2027 03:46:18.901             4.187               Magadan1           312.000
        79   03 Jun 2027 03:46:19.139   03 Jun 2027 03:46:50.857            31.718                Irkutsk           119.000
        80   03 Jun 2027 03:46:58.041   03 Jun 2027 03:47:39.097            41.056               Magadan2          3592.000
        81   03 Jun 2027 03:47:43.759   03 Jun 2027 03:48:16.442            32.683              Murmansk1          2331.000
        82   03 Jun 2027 03:48:36.073   03 Jun 2027 03:49:43.896            67.823                Norilsk          8477.875
        83   03 Jun 2027 03:49:49.641   03 Jun 2027 03:50:02.955            13.314                Novosib          1337.625
        84   03 Jun 2027 05:18:42.677   03 Jun 2027 05:19:14.841            32.164                Irkutsk          2189.000
        85   03 Jun 2027 05:19:33.635   03 Jun 2027 05:20:47.883            74.248                Norilsk          9281.000
        86   03 Jun 2027 05:20:47.940   03 Jun 2027 05:20:50.617             2.677                Irkutsk           144.500
        87   03 Jun 2027 05:21:02.509   03 Jun 2027 05:22:23.337            80.828                Irkutsk          5946.000
        88   03 Jun 2027 05:22:25.582   03 Jun 2027 05:22:27.759             2.177                Norilsk           272.125
        89   03 Jun 2027 05:22:31.287   03 Jun 2027 05:23:20.463            49.176              Murmansk1          2614.375
        90   03 Jun 2027 05:23:24.866   03 Jun 2027 05:23:54.947            30.081              Murmansk1          2201.500
        91   03 Jun 2027 05:24:04.327   03 Jun 2027 05:25:22.760            78.433                Norilsk          4690.000
        92   03 Jun 2027 06:57:09.293   03 Jun 2027 06:58:15.886            66.593                 Moscow          7526.500
        93   03 Jun 2027 06:58:16.849   03 Jun 2027 06:58:46.738            29.889                Norilsk           481.500
        94   03 Jun 2027 06:58:49.925   03 Jun 2027 06:59:07.777            17.852                Novosib          1593.500
        95   03 Jun 2027 06:59:08.351   03 Jun 2027 06:59:23.985            15.634                Irkutsk           287.000
        96   03 Jun 2027 06:59:28.628   03 Jun 2027 07:00:14.351            45.723                Norilsk          2321.500
        97   03 Jun 2027 07:00:15.843   03 Jun 2027 07:01:05.358            49.515              Murmansk2           746.000
        98   03 Jun 2027 08:32:21.808   03 Jun 2027 08:33:27.778            65.970                 Moscow          3481.500
        99   03 Jun 2027 08:33:33.789   03 Jun 2027 08:34:21.752            47.963              Murmansk1          3005.500
       100   03 Jun 2027 08:34:24.344   03 Jun 2027 08:34:55.653            31.309              Murmansk1          1296.000
       101   03 Jun 2027 08:35:10.748   03 Jun 2027 08:36:13.769            63.021              Murmansk2          7547.500
       102   03 Jun 2027 08:36:20.096   03 Jun 2027 08:36:46.866            26.770                Norilsk          3163.500
       103   03 Jun 2027 08:36:51.369   03 Jun 2027 08:37:02.829            11.460                Novosib          1432.500
       104   03 Jun 2027 08:37:10.783   03 Jun 2027 08:38:19.499            68.716                Norilsk          4796.000
       105   04 Jun 2027 03:53:55.065   04 Jun 2027 03:54:17.803            22.738                Norilsk          1361.500
       106   04 Jun 2027 03:54:20.246   04 Jun 2027 03:54:30.135             9.889               Magadan1          1221.500
       107   04 Jun 2027 03:54:32.579   04 Jun 2027 03:54:52.325            19.746               Magadan1          1222.000
       108   04 Jun 2027 03:55:09.261   04 Jun 2027 03:55:55.361            46.100               Magadan1          5762.500
       109   04 Jun 2027 03:55:56.201   04 Jun 2027 03:56:33.414            37.213                Novosib          3125.500
       110   04 Jun 2027 03:56:41.306   04 Jun 2027 03:58:11.577            90.271                Irkutsk          3946.000
       111   04 Jun 2027 03:58:12.230   04 Jun 2027 03:58:45.155            32.925                Novosib           326.500
       112   04 Jun 2027 03:58:48.212   04 Jun 2027 03:59:36.945            48.733               Magadan1          1528.500
       113   04 Jun 2027 03:59:40.502   04 Jun 2027 04:00:09.701            29.199               Magadan1          1778.500
       114   04 Jun 2027 04:00:10.371   04 Jun 2027 04:00:14.788             4.417               Magadan1           335.000
       115   04 Jun 2027 04:00:24.515   04 Jun 2027 04:01:04.375            39.860                Norilsk          4863.500
       116   04 Jun 2027 04:01:06.323   04 Jun 2027 04:01:40.479            34.156              Murmansk2           974.000
       117   04 Jun 2027 05:31:01.823   04 Jun 2027 05:31:23.403            21.580                Norilsk          1794.500
       118   04 Jun 2027 05:31:38.843   04 Jun 2027 05:32:44.552            65.709                Norilsk          7720.000
       119   04 Jun 2027 05:32:49.132   04 Jun 2027 05:33:17.847            28.715                Irkutsk          2290.000
       120   04 Jun 2027 05:33:25.469   04 Jun 2027 05:34:19.418            53.949                Irkutsk          3811.000
       121   04 Jun 2027 05:34:22.560   04 Jun 2027 05:34:44.821            22.261              Murmansk2          1571.000
       122   04 Jun 2027 05:34:57.446   04 Jun 2027 05:35:50.160            52.714                Novosib          6312.500
       123   04 Jun 2027 05:35:54.969   04 Jun 2027 05:37:03.357            68.388                Irkutsk          2404.500
       124   04 Jun 2027 05:37:09.283   04 Jun 2027 05:37:37.463            28.180              Murmansk1          2963.000
       125   04 Jun 2027 07:09:05.322   04 Jun 2027 07:09:41.288            35.966                Norilsk          4421.500
       126   04 Jun 2027 07:10:03.885   04 Jun 2027 07:11:28.125            84.240                Norilsk         10530.000
       127   04 Jun 2027 07:11:28.986   04 Jun 2027 07:11:52.738            23.752              Murmansk1          1199.000
       128   04 Jun 2027 07:11:54.435   04 Jun 2027 07:12:19.118            24.683                 Moscow           848.500
       129   04 Jun 2027 07:12:25.163   04 Jun 2027 07:13:13.631            48.468                Novosib          3022.500
       130   04 Jun 2027 08:42:34.583   04 Jun 2027 08:44:59.832           145.249                 Moscow         14624.000
       131   04 Jun 2027 08:45:11.712   04 Jun 2027 08:46:06.251            54.539                 Moscow          5940.000
       132   04 Jun 2027 08:46:12.076   04 Jun 2027 08:47:19.363            67.287                Norilsk          2912.500
       133   04 Jun 2027 08:47:24.272   04 Jun 2027 08:48:00.668            36.396                Norilsk          2454.500
       134   04 Jun 2027 08:48:02.050   04 Jun 2027 08:48:14.240            12.190                 Moscow           691.000
       135   04 Jun 2027 08:48:15.086   04 Jun 2027 08:48:33.158            18.072              Murmansk1           423.000
       136   04 Jun 2027 08:48:39.176   04 Jun 2027 08:49:03.547            24.371                Norilsk          3009.000
       137   04 Jun 2027 08:49:17.384   04 Jun 2027 08:49:56.307            38.923                 Moscow          4865.375
       138   04 Jun 2027 08:50:21.318   04 Jun 2027 08:51:04.329            43.011                Norilsk          4706.625
       139   05 Jun 2027 04:06:22.582   05 Jun 2027 04:07:20.514            57.932               Magadan1          5331.000
       140   05 Jun 2027 04:07:26.248   05 Jun 2027 04:08:01.606            35.358               Magadan2          2867.000
       141   05 Jun 2027 04:08:19.499   05 Jun 2027 04:09:40.256            80.757               Magadan2          8946.500
       142   05 Jun 2027 04:09:43.354   05 Jun 2027 04:10:05.381            22.027                Novosib          1549.000
       143   05 Jun 2027 04:10:05.472   05 Jun 2027 04:10:11.048             5.576               Magadan2            45.500
       144   05 Jun 2027 04:10:17.837   05 Jun 2027 04:10:46.268            28.431                Novosib          3394.500
       145   05 Jun 2027 04:10:50.032   05 Jun 2027 04:11:37.321            47.289               Magadan2          1882.000
       146   05 Jun 2027 04:11:44.400   05 Jun 2027 04:12:12.187            27.787               Magadan1          3473.375
       147   05 Jun 2027 04:12:12.187   05 Jun 2027 04:12:17.445             5.258               Magadan2            66.125
       148   05 Jun 2027 04:12:24.568   05 Jun 2027 04:12:49.712            25.144              Murmansk1          3143.000
       149   05 Jun 2027 04:12:49.712   05 Jun 2027 04:13:12.222            22.510              Murmansk2           418.500
       150   05 Jun 2027 04:13:26.263   05 Jun 2027 04:13:30.326             4.063                Irkutsk           507.875
       151   05 Jun 2027 04:13:39.790   05 Jun 2027 04:14:35.844            56.054                Norilsk          6749.125
       152   05 Jun 2027 05:43:13.678   05 Jun 2027 05:44:12.090            58.412                Norilsk          7021.000
       153   05 Jun 2027 05:44:37.787   05 Jun 2027 05:46:27.734           109.947                Novosib         12848.500
       154   05 Jun 2027 05:46:32.778   05 Jun 2027 05:47:36.171            63.393                Novosib          2522.000
       155   05 Jun 2027 05:47:45.969   05 Jun 2027 05:48:29.433            43.464                Novosib          4899.000
       156   05 Jun 2027 05:48:41.988   05 Jun 2027 05:49:15.516            33.528                Irkutsk          4191.000
       157   05 Jun 2027 05:49:19.190   05 Jun 2027 05:50:00.878            41.688              Murmansk2          3923.500
       158   05 Jun 2027 07:21:10.770   05 Jun 2027 07:22:08.958            58.188              Murmansk2          7020.000
       159   05 Jun 2027 07:22:15.234   05 Jun 2027 07:23:21.175            65.941                 Moscow          3138.000
       160   05 Jun 2027 07:23:21.815   05 Jun 2027 07:23:40.347            18.532              Murmansk2           320.000
       161   05 Jun 2027 07:23:42.827   05 Jun 2027 07:23:58.061            15.234              Murmansk2          1240.000
       162   05 Jun 2027 07:24:02.496   05 Jun 2027 07:25:08.669            66.173                Norilsk          2217.500
       163   05 Jun 2027 08:54:47.579   05 Jun 2027 08:55:09.168            21.589                 Moscow          2698.625
       164   05 Jun 2027 08:55:30.466   05 Jun 2027 08:58:16.537           166.071                 Moscow         15499.375
       165   05 Jun 2027 08:58:26.915   05 Jun 2027 08:59:50.493            83.578              Murmansk2          5189.000
       166   05 Jun 2027 08:59:50.805   05 Jun 2027 09:00:09.016            18.211                 Moscow           156.000
       167   05 Jun 2027 09:00:14.351   05 Jun 2027 09:01:15.394            61.043                 Moscow          2667.500
       168   05 Jun 2027 09:01:28.119   05 Jun 2027 09:01:45.188            17.069              Murmansk2          2133.625
       169   05 Jun 2027 09:01:45.188   05 Jun 2027 09:02:40.402            55.214              Murmansk1          4228.875
       170   06 Jun 2027 04:18:12.476   06 Jun 2027 04:18:45.478            33.002               Magadan1          3360.000
       171   06 Jun 2027 04:18:55.592   06 Jun 2027 04:20:22.321            86.729               Magadan1          5057.000
       172   06 Jun 2027 04:20:27.900   06 Jun 2027 04:21:34.215            66.315               Magadan2          2789.500
       173   06 Jun 2027 04:21:39.528   06 Jun 2027 04:22:13.932            34.404               Magadan1          2656.500
       174   06 Jun 2027 04:22:19.439   06 Jun 2027 04:22:52.969            33.530                Norilsk          2753.500
       175   06 Jun 2027 04:22:58.607   06 Jun 2027 04:24:26.438            87.831                Irkutsk          2819.000
       176   06 Jun 2027 04:24:38.121   06 Jun 2027 04:25:16.486            38.365              Murmansk2          4795.625
       177   06 Jun 2027 04:25:16.486   06 Jun 2027 04:25:43.559            27.073              Murmansk1          1045.875
       178   06 Jun 2027 05:54:59.200   06 Jun 2027 05:55:03.158             3.958                Novosib           494.750
       179   06 Jun 2027 05:55:20.615   06 Jun 2027 05:57:04.398           103.783                Novosib         12719.250
       180   06 Jun 2027 05:57:17.501   06 Jun 2027 05:57:38.993            21.492                Norilsk          2686.500
       181   06 Jun 2027 05:57:48.516   06 Jun 2027 05:59:05.517            77.001              Murmansk2          8626.500
       182   06 Jun 2027 05:59:11.482   06 Jun 2027 06:00:12.218            60.736                 Moscow          2982.500
       183   06 Jun 2027 06:00:12.708   06 Jun 2027 06:00:50.779            38.071                 Moscow           245.000
       184   06 Jun 2027 06:01:11.095   06 Jun 2027 06:02:36.625            85.530              Murmansk2         10158.000
       185   06 Jun 2027 07:33:01.535   06 Jun 2027 07:33:19.449            17.914              Murmansk1          1356.000
       186   06 Jun 2027 07:33:35.455   06 Jun 2027 07:34:39.510            64.055                Norilsk          8003.000
       187   06 Jun 2027 07:34:43.310   06 Jun 2027 07:35:04.517            21.207              Murmansk2          1900.000
       188   06 Jun 2027 07:35:08.650   06 Jun 2027 07:35:09.494             0.844                Norilsk           105.500
       189   06 Jun 2027 07:35:18.593   06 Jun 2027 07:36:45.653            87.060              Murmansk1          6510.500
       190   06 Jun 2027 07:37:01.446   06 Jun 2027 07:37:34.925            33.479                Novosib          4184.875
       191   06 Jun 2027 07:37:36.041   06 Jun 2027 07:38:10.120            34.079                Norilsk          3711.625
       192   06 Jun 2027 09:06:59.438   06 Jun 2027 09:07:39.579            40.141                 Moscow          4956.000
       193   06 Jun 2027 09:07:48.896   06 Jun 2027 09:08:32.689            43.793              Murmansk2          4658.500
       194   06 Jun 2027 09:08:41.995   06 Jun 2027 09:09:55.689            73.694                 Moscow          4653.000
       195   06 Jun 2027 09:09:59.243   06 Jun 2027 09:10:28.394            29.151              Murmansk2          1777.000
       196   06 Jun 2027 09:10:28.622   06 Jun 2027 09:11:12.145            43.523                 Moscow           114.000
       197   06 Jun 2027 09:11:19.288   06 Jun 2027 09:11:59.740            40.452                Norilsk          3571.500
       198   06 Jun 2027 09:12:05.281   06 Jun 2027 09:12:29.474            24.193              Murmansk2          2770.500
       199   06 Jun 2027 09:12:32.097   06 Jun 2027 09:12:37.299             5.202                Norilsk           650.250
       200   06 Jun 2027 09:12:45.135   06 Jun 2027 09:14:29.803           104.668                 Moscow          4579.250
       201   07 Jun 2027 03:00:06.337   07 Jun 2027 03:00:36.743            30.406                Novosib          3168.500
       202   07 Jun 2027 03:00:44.087   07 Jun 2027 03:01:31.261            47.174                Norilsk          3672.000
       203   07 Jun 2027 03:01:35.238   07 Jun 2027 03:01:53.403            18.165                Novosib          1988.500
       204   07 Jun 2027 04:30:35.353   07 Jun 2027 04:31:25.416            50.063                Novosib          6257.875
       205   07 Jun 2027 04:31:33.512   07 Jun 2027 04:33:18.824           105.312               Magadan2          9163.125
       206   07 Jun 2027 04:33:24.196   07 Jun 2027 04:33:57.000            32.804                Novosib          2686.000
       207   07 Jun 2027 04:33:59.798   07 Jun 2027 04:34:13.423            13.625                Novosib          1399.000
       208   07 Jun 2027 04:34:16.880   07 Jun 2027 04:34:34.215            17.335               Magadan1          1728.500
       209   07 Jun 2027 04:34:34.864   07 Jun 2027 04:34:52.863            17.999               Magadan2           324.500
       210   07 Jun 2027 04:35:01.717   07 Jun 2027 04:36:02.167            60.450              Murmansk1          4427.000
       211   07 Jun 2027 04:36:03.826   07 Jun 2027 04:37:01.321            57.495                Irkutsk           829.500
       212   07 Jun 2027 04:37:05.762   07 Jun 2027 04:37:48.013            42.251                Novosib          2220.500
       213   07 Jun 2027 06:07:20.316   07 Jun 2027 06:07:29.373             9.057                Norilsk          1132.125
       214   07 Jun 2027 06:07:29.521   07 Jun 2027 06:08:46.048            76.527                Irkutsk          1340.875
       215   07 Jun 2027 06:08:50.776   07 Jun 2027 06:09:18.535            27.759                Norilsk          2364.000
       216   07 Jun 2027 06:09:20.578   07 Jun 2027 06:09:37.668            17.090                Norilsk          1021.500
       217   07 Jun 2027 06:09:40.153   07 Jun 2027 06:10:27.869            47.716                 Moscow          1242.500
       218   07 Jun 2027 06:10:31.497   07 Jun 2027 06:11:14.619            43.122                Norilsk          1814.000
       219   07 Jun 2027 06:11:16.816   07 Jun 2027 06:11:45.998            29.182                Novosib          1098.500
       220   07 Jun 2027 06:11:49.812   07 Jun 2027 06:12:09.003            19.191                Norilsk          1907.000
       221   07 Jun 2027 06:12:35.471   07 Jun 2027 06:14:50.814           135.343              Murmansk2         12425.000
       222   07 Jun 2027 07:44:12.270   07 Jun 2027 07:44:23.215            10.945                 Moscow            19.000
       223   07 Jun 2027 07:44:23.219   07 Jun 2027 07:44:41.789            18.570                Norilsk             2.000
       224   07 Jun 2027 07:44:48.955   07 Jun 2027 07:45:33.339            44.384                Norilsk          3583.000
       225   07 Jun 2027 07:45:36.344   07 Jun 2027 07:46:10.934            34.590              Murmansk1          1502.500
       226   07 Jun 2027 07:46:12.279   07 Jun 2027 07:46:37.003            24.724                Novosib           672.500
       227   07 Jun 2027 07:46:51.839   07 Jun 2027 07:47:59.953            68.114              Murmansk2          7418.000
       228   07 Jun 2027 07:48:01.895   07 Jun 2027 07:48:39.353            37.458              Murmansk1           971.000
       229   07 Jun 2027 07:48:56.164   07 Jun 2027 07:50:05.039            68.875              Murmansk1          8405.500
       230   07 Jun 2027 09:19:18.248   07 Jun 2027 09:19:47.549            29.301                 Moscow           805.500
       231   07 Jun 2027 09:20:57.172   07 Jun 2027 09:22:43.428           106.256                 Moscow           469.500
       232   07 Jun 2027 09:22:50.041   07 Jun 2027 09:23:38.893            48.852                 Moscow          3306.500
       233   07 Jun 2027 09:23:41.087   07 Jun 2027 09:23:55.198            14.111              Murmansk1          1097.000
       234   07 Jun 2027 09:23:57.713   07 Jun 2027 09:24:20.348            22.635              Murmansk1          1257.500
       235   08 Jun 2027 03:04:00.416   08 Jun 2027 03:05:09.973            69.557               Magadan1          7346.500
       236   08 Jun 2027 03:05:15.717   08 Jun 2027 03:05:52.476            36.759               Magadan2          2872.000
       237   08 Jun 2027 03:06:02.134   08 Jun 2027 03:06:45.313            43.179               Magadan2          4829.000
       238   08 Jun 2027 03:06:59.497   08 Jun 2027 03:08:07.117            67.620                Irkutsk          7092.000
       239   08 Jun 2027 03:08:09.950   08 Jun 2027 03:09:04.477            54.527                Norilsk          1416.500
       240   08 Jun 2027 03:09:07.079   08 Jun 2027 03:09:46.174            39.095               Magadan1          1301.000
       241   08 Jun 2027 03:09:50.706   08 Jun 2027 03:11:02.613            71.907                Novosib          2266.000
       242   08 Jun 2027 03:11:14.130   08 Jun 2027 03:12:48.646            94.516                Norilsk          5758.500
       243   08 Jun 2027 03:12:55.007   08 Jun 2027 03:13:17.849            22.842                Irkutsk          2855.250
       244   08 Jun 2027 03:13:25.097   08 Jun 2027 03:14:05.139            40.042                Norilsk          3949.250
       245   08 Jun 2027 04:42:43.505   08 Jun 2027 04:42:50.124             6.619                Novosib           827.375
       246   08 Jun 2027 04:42:50.826   08 Jun 2027 04:43:16.599            25.773                Norilsk          1833.625
       247   08 Jun 2027 04:44:01.420   08 Jun 2027 04:47:04.796           183.376                Norilsk         22410.500
       248   08 Jun 2027 04:47:06.665   08 Jun 2027 04:47:18.250            11.585              Murmansk1           934.500
       249   08 Jun 2027 04:47:39.441   08 Jun 2027 04:49:07.903            88.462                Norilsk         10595.500
       250   08 Jun 2027 04:49:20.332   08 Jun 2027 04:49:35.127            14.795              Murmansk1          1849.375
       251   08 Jun 2027 04:49:35.127   08 Jun 2027 04:50:40.704            65.577              Murmansk2          4199.625
       252   08 Jun 2027 06:19:48.659   08 Jun 2027 06:19:55.201             6.542                  Delhi           817.750
       253   08 Jun 2027 06:19:59.181   08 Jun 2027 06:20:13.771            14.590                Norilsk          1823.750
       254   08 Jun 2027 06:20:34.211   08 Jun 2027 06:22:45.333           131.122                Irkutsk         16103.500
       255   08 Jun 2027 06:22:51.208   08 Jun 2027 06:23:27.430            36.222                Novosib          2937.500
       256   08 Jun 2027 06:23:31.027   08 Jun 2027 06:23:47.570            16.543                Norilsk          1798.500
       257   08 Jun 2027 06:23:50.381   08 Jun 2027 06:24:33.695            43.314                Novosib          1405.500
       258   08 Jun 2027 06:24:43.115   08 Jun 2027 06:25:46.309            63.194                Novosib          4710.000
       259   08 Jun 2027 07:56:42.124   08 Jun 2027 07:58:06.100            83.976                Norilsk          8222.500
       260   08 Jun 2027 07:58:08.803   08 Jun 2027 07:59:02.514            53.711                Novosib          1351.500
       261   08 Jun 2027 07:59:05.792   08 Jun 2027 08:00:33.778            87.986              Murmansk2          1639.000
       262   08 Jun 2027 08:00:38.183   08 Jun 2027 08:01:09.123            30.940                Novosib          2202.500
       263   08 Jun 2027 09:34:31.602   08 Jun 2027 09:34:34.349             2.747              Murmansk2            95.000
       264   08 Jun 2027 09:34:56.754   08 Jun 2027 09:36:11.963            75.209              Murmansk2          9401.125
       265   08 Jun 2027 09:36:25.971   08 Jun 2027 09:37:05.504            39.533                 Moscow          1801.375
       266   09 Jun 2027 03:18:45.448   09 Jun 2027 03:19:17.915            32.467               Magadan1          3555.000
       267   09 Jun 2027 03:19:27.055   09 Jun 2027 03:20:08.666            41.611                Novosib          4570.000
       268   09 Jun 2027 03:20:13.745   09 Jun 2027 03:20:52.377            38.632               Magadan1          2539.500
       269   09 Jun 2027 03:20:58.919   09 Jun 2027 03:21:35.269            36.350                Novosib          3271.000
       270   09 Jun 2027 03:21:40.425   09 Jun 2027 03:22:17.414            36.989               Magadan1          2578.000
       271   09 Jun 2027 03:22:25.616   09 Jun 2027 03:23:39.475            73.859                Irkutsk          4101.000
       272   09 Jun 2027 03:23:54.884   09 Jun 2027 03:24:37.788            42.904               Magadan1          5363.000
       273   09 Jun 2027 03:24:37.788   09 Jun 2027 03:25:26.597            48.809               Magadan2          2341.500
       274   09 Jun 2027 03:25:32.994   09 Jun 2027 03:26:05.468            32.474              Murmansk2          2318.000
       275   09 Jun 2027 04:54:52.733   09 Jun 2027 04:55:57.964            65.231                Novosib          2372.000
       276   09 Jun 2027 04:56:10.820   09 Jun 2027 04:57:03.331            52.511                Norilsk          6428.000
       277   09 Jun 2027 04:57:05.504   09 Jun 2027 04:57:39.757            34.253                Novosib          1086.500
       278   09 Jun 2027 04:57:47.051   09 Jun 2027 04:58:09.220            22.169                Novosib          2771.125
       279   09 Jun 2027 04:58:19.550   09 Jun 2027 04:59:56.467            96.917                Novosib          6040.875
       280   09 Jun 2027 05:00:04.365   09 Jun 2027 05:00:46.994            42.629              Murmansk1          3949.000
       281   09 Jun 2027 05:00:58.917   09 Jun 2027 05:01:57.794            58.877                Novosib          5961.500
       282   09 Jun 2027 06:32:39.771   09 Jun 2027 06:33:34.513            54.742                Irkutsk          4322.000
       283   09 Jun 2027 06:33:35.217   09 Jun 2027 06:34:30.113            54.896                Irkutsk           352.000
       284   09 Jun 2027 06:34:43.236   09 Jun 2027 06:35:55.714            72.478              Murmansk1          6561.500
       285   09 Jun 2027 06:35:57.815   09 Jun 2027 06:36:09.146            11.331                Novosib          1050.500
       286   09 Jun 2027 06:36:14.860   09 Jun 2027 06:36:44.798            29.938                Norilsk          2857.000
       287   09 Jun 2027 06:36:45.399   09 Jun 2027 06:37:26.679            41.280              Murmansk2           300.500
       288   09 Jun 2027 08:08:37.925   09 Jun 2027 08:08:53.938            16.013                 Moscow           791.500
       289   09 Jun 2027 08:08:55.491   09 Jun 2027 08:09:20.779            25.288                Norilsk           776.500
       290   09 Jun 2027 08:09:28.538   09 Jun 2027 08:09:55.243            26.705              Murmansk1          3338.125
       291   09 Jun 2027 08:09:55.243   09 Jun 2027 08:10:11.718            16.475              Murmansk2           541.375
       292   09 Jun 2027 08:10:13.193   09 Jun 2027 08:10:26.182            12.989              Murmansk2           737.500
       293   09 Jun 2027 08:10:27.224   09 Jun 2027 08:10:52.070            24.846                 Moscow           521.000
       294   09 Jun 2027 08:10:55.425   09 Jun 2027 08:11:12.203            16.778              Murmansk1          1677.500
       295   09 Jun 2027 08:11:30.330   09 Jun 2027 08:12:24.742            54.412                Norilsk          6801.500
       296   09 Jun 2027 08:12:28.905   09 Jun 2027 08:13:26.884            57.979              Murmansk2          4343.500
       297   10 Jun 2027 03:30:57.010   10 Jun 2027 03:31:47.824            50.814               Magadan1           583.500
       298   10 Jun 2027 03:31:49.787   10 Jun 2027 03:32:04.192            14.405               Magadan2           981.500
       299   10 Jun 2027 03:32:07.235   10 Jun 2027 03:32:26.504            19.269               Magadan2          1521.500
       300   10 Jun 2027 03:32:30.337   10 Jun 2027 03:32:45.940            15.603                Novosib          1916.500
       301   10 Jun 2027 03:32:46.555   10 Jun 2027 03:33:06.515            19.960                Norilsk           307.500
       302   10 Jun 2027 03:33:09.738   10 Jun 2027 03:34:04.423            54.685                Novosib          1611.500
       303   10 Jun 2027 03:34:15.209   10 Jun 2027 03:35:24.990            69.781                Novosib          5393.000
       304   10 Jun 2027 03:35:32.308   10 Jun 2027 03:36:01.890            29.582                Norilsk          3659.000
       305   10 Jun 2027 03:36:06.266   10 Jun 2027 03:36:35.477            29.211                Novosib          2188.000
       306   10 Jun 2027 03:36:39.534   10 Jun 2027 03:37:05.797            26.263              Murmansk1          2028.500
       307   10 Jun 2027 03:37:11.421   10 Jun 2027 03:37:19.666             8.245               Magadan1          1030.625
       308   10 Jun 2027 03:37:23.890   10 Jun 2027 03:37:27.922             4.032                Norilsk           504.000
       309   10 Jun 2027 03:37:42.027   10 Jun 2027 03:38:41.658            59.631                Norilsk          5326.375
       310   10 Jun 2027 05:07:49.552   10 Jun 2027 05:10:19.495           149.943                Irkutsk         15584.000
       311   10 Jun 2027 05:10:21.201   10 Jun 2027 05:11:19.315            58.114                Novosib           853.000
       312   10 Jun 2027 05:11:36.088   10 Jun 2027 05:13:02.479            86.391              Murmansk1          8386.500
       313   10 Jun 2027 05:13:11.763   10 Jun 2027 05:14:11.899            60.136              Murmansk2          4642.000
       314   10 Jun 2027 06:44:39.831   10 Jun 2027 06:45:22.686            42.855                Novosib          1972.000
       315   10 Jun 2027 06:45:30.523   10 Jun 2027 06:46:05.005            34.482                Norilsk          3918.500
       316   10 Jun 2027 06:46:08.156   10 Jun 2027 06:46:22.172            14.016                 Moscow          1575.500
       317   10 Jun 2027 06:46:29.921   10 Jun 2027 06:47:10.719            40.798                Novosib          3874.500
       318   10 Jun 2027 06:47:12.163   10 Jun 2027 06:47:30.582            18.419                Norilsk           722.000
       319   10 Jun 2027 06:47:34.859   10 Jun 2027 06:48:04.011            29.152                Norilsk          2138.500
       320   10 Jun 2027 06:48:07.028   10 Jun 2027 06:48:33.123            26.095              Murmansk1          1508.500
       321   10 Jun 2027 06:48:37.217   10 Jun 2027 06:49:10.822            33.605                Norilsk          2047.000
       322   10 Jun 2027 06:49:32.899   10 Jun 2027 06:49:43.157            10.258              Murmansk2           966.500
       323   10 Jun 2027 08:20:50.473   10 Jun 2027 08:21:02.551            12.078                Novosib           877.500
       324   10 Jun 2027 08:21:05.351   10 Jun 2027 08:21:22.555            17.204                Norilsk          1400.000
       325   10 Jun 2027 08:21:22.804   10 Jun 2027 08:22:01.787            38.983              Murmansk1           124.500
       326   10 Jun 2027 08:22:07.602   10 Jun 2027 08:23:53.143           105.541                 Moscow          2907.500
       327   10 Jun 2027 08:23:53.364   10 Jun 2027 08:24:17.019            23.655                Norilsk           110.500
       328   10 Jun 2027 08:24:20.607   10 Jun 2027 08:24:48.120            27.513                Norilsk          1794.000
       329   10 Jun 2027 08:24:51.045   10 Jun 2027 08:25:14.454            23.409              Murmansk2          1462.500
       330   10 Jun 2027 08:25:22.140   10 Jun 2027 08:26:15.911            53.771                 Moscow          3843.000
       331   11 Jun 2027 03:42:34.703   11 Jun 2027 03:42:53.389            18.686               Magadan1           874.500
       332   11 Jun 2027 03:43:19.555   11 Jun 2027 03:45:54.703           155.148               Magadan2         13083.000
       333   11 Jun 2027 03:46:06.054   11 Jun 2027 03:47:02.760            56.706                Norilsk          5675.500
       334   11 Jun 2027 03:47:05.368   11 Jun 2027 03:47:10.055             4.687                Irkutsk           585.875
       335   11 Jun 2027 03:47:12.718   11 Jun 2027 03:47:34.862            22.144               Magadan2          2049.625
       336   11 Jun 2027 03:47:53.817   11 Jun 2027 03:48:25.831            32.014               Magadan1          4001.750
       337   11 Jun 2027 03:48:25.831   11 Jun 2027 03:49:10.456            44.625               Magadan2          5475.750
       338   11 Jun 2027 03:49:14.918   11 Jun 2027 03:49:54.542            39.624              Murmansk2          2231.000
       339   11 Jun 2027 05:18:55.821   11 Jun 2027 05:19:05.822            10.001                Norilsk          1250.125
       340   11 Jun 2027 05:19:09.365   11 Jun 2027 05:19:29.243            19.878                Irkutsk          1967.875
       341   11 Jun 2027 05:19:29.389   11 Jun 2027 05:19:49.163            19.774                Norilsk            73.000
       342   11 Jun 2027 05:19:58.144   11 Jun 2027 05:20:38.952            40.808                Norilsk          4490.500
       343   11 Jun 2027 05:20:50.096   11 Jun 2027 05:21:33.833            43.737                Novosib          5467.125
       344   11 Jun 2027 05:21:50.105   11 Jun 2027 05:23:20.231            90.126                Novosib          8240.875
       345   11 Jun 2027 05:23:35.081   11 Jun 2027 05:25:00.894            85.813              Murmansk2          7425.000
       346   11 Jun 2027 05:25:15.273   11 Jun 2027 05:26:12.961            57.688              Murmansk1          7189.500
       347   11 Jun 2027 06:57:24.357   11 Jun 2027 06:58:33.364            69.007                Norilsk          7517.000
       348   11 Jun 2027 06:58:39.877   11 Jun 2027 06:59:23.191            43.314                Irkutsk          3256.500
       349   11 Jun 2027 06:59:38.682   11 Jun 2027 06:59:58.997            20.315                Irkutsk          2539.375
       350   11 Jun 2027 07:00:00.568   11 Jun 2027 07:00:11.899            11.331              Murmansk2          1416.375
       351   11 Jun 2027 07:00:11.899   11 Jun 2027 07:01:23.636            71.737              Murmansk1          4575.250
       352   11 Jun 2027 08:32:36.667   11 Jun 2027 08:33:42.221            65.554                 Moscow          3384.000
       353   11 Jun 2027 08:33:48.668   11 Jun 2027 08:34:58.383            69.715                Novosib          3223.500
       354   11 Jun 2027 08:35:03.017   11 Jun 2027 08:35:33.476            30.459                Novosib          2317.000
       355   11 Jun 2027 08:35:55.413   11 Jun 2027 08:37:36.764           101.351                 Moscow         10968.500
       356   11 Jun 2027 08:37:49.236   11 Jun 2027 08:39:38.636           109.400                 Moscow          6236.000
       357   12 Jun 2027 03:54:09.694   12 Jun 2027 03:54:32.889            23.195                Norilsk          1406.500
       358   12 Jun 2027 03:54:33.059   12 Jun 2027 03:54:46.285            13.226                Novosib            85.000
       359   12 Jun 2027 03:54:47.333   12 Jun 2027 03:54:55.910             8.577               Magadan2           524.000
       360   12 Jun 2027 03:55:07.121   12 Jun 2027 03:55:45.953            38.832               Magadan1          4854.000
       361   12 Jun 2027 03:55:45.953   12 Jun 2027 03:55:55.267             9.314               Magadan2           751.500
       362   12 Jun 2027 03:56:06.853   12 Jun 2027 03:56:26.719            19.866                Novosib          2483.250
       363   12 Jun 2027 03:56:32.192   12 Jun 2027 03:57:55.044            82.852               Magadan2          6046.250
       364   12 Jun 2027 03:57:58.385   12 Jun 2027 03:58:13.971            15.586               Magadan1          1670.500
       365   12 Jun 2027 03:58:15.531   12 Jun 2027 03:58:29.553            14.022                Novosib           780.000
       366   12 Jun 2027 03:58:31.035   12 Jun 2027 03:58:45.505            14.470               Magadan2           741.000
       367   12 Jun 2027 03:58:52.921   12 Jun 2027 03:59:39.250            46.329                Irkutsk          3708.000
       368   12 Jun 2027 03:59:48.795   12 Jun 2027 04:00:30.460            41.665              Murmansk2          4772.500
       369   12 Jun 2027 04:00:39.783   12 Jun 2027 04:01:18.867            39.084                Norilsk          4661.500
       370   12 Jun 2027 04:01:22.600   12 Jun 2027 04:01:56.243            33.643              Murmansk1          1866.500
       371   12 Jun 2027 05:31:17.942   12 Jun 2027 05:31:38.954            21.012                Norilsk          2460.500
       372   12 Jun 2027 05:31:56.074   12 Jun 2027 05:33:04.201            68.127                Norilsk          8515.875
       373   12 Jun 2027 05:33:09.143   12 Jun 2027 05:33:30.745            21.602                Norilsk          2515.125
       374   12 Jun 2027 05:33:42.909   12 Jun 2027 05:34:03.425            20.516                Irkutsk          2564.500
       375   12 Jun 2027 05:34:18.602   12 Jun 2027 05:35:47.617            89.015                Norilsk         11106.000
       376   12 Jun 2027 05:36:04.791   12 Jun 2027 05:36:37.871            33.080                Novosib          4135.000
       377   12 Jun 2027 05:36:43.482   12 Jun 2027 05:36:59.049            15.567                Novosib          1945.875
       378   12 Jun 2027 05:37:10.960   12 Jun 2027 05:38:16.134            65.174              Murmansk1          8146.750
       379   12 Jun 2027 05:38:16.134   12 Jun 2027 05:38:55.684            39.550              Murmansk2          3120.375
       380   12 Jun 2027 07:09:22.541   12 Jun 2027 07:09:47.067            24.526                Novosib          3065.750
       381   12 Jun 2027 07:09:51.307   12 Jun 2027 07:10:30.785            39.478                 Moscow          4719.250
       382   12 Jun 2027 07:10:31.068   12 Jun 2027 07:10:57.158            26.090                Novosib           141.500
       383   12 Jun 2027 07:11:08.044   12 Jun 2027 07:12:24.075            76.031                Norilsk          5443.000
       384   12 Jun 2027 07:12:24.769   12 Jun 2027 07:13:15.103            50.334              Murmansk2           347.000
       385   12 Jun 2027 08:42:50.144   12 Jun 2027 08:45:18.647           148.503                 Moscow         15036.000
       386   12 Jun 2027 08:45:26.549   12 Jun 2027 08:46:24.738            58.189                 Moscow          3951.000
       387   12 Jun 2027 08:46:28.508   12 Jun 2027 08:47:09.882            41.374              Murmansk2          1885.000
       388   12 Jun 2027 08:47:17.220   12 Jun 2027 08:48:09.202            51.982                Novosib          3669.000
       389   12 Jun 2027 08:48:11.554   12 Jun 2027 08:48:24.233            12.679              Murmansk2          1176.000
       390   12 Jun 2027 08:48:26.163   12 Jun 2027 08:48:34.700             8.537                Novosib           965.000
       391   12 Jun 2027 08:48:48.985   12 Jun 2027 08:49:49.247            60.262              Murmansk1          3763.500
       392   12 Jun 2027 08:49:49.517   12 Jun 2027 08:49:56.200             6.683                Norilsk           135.000
       393   12 Jun 2027 08:50:01.733   12 Jun 2027 08:50:35.978            34.245                Norilsk          2766.500
       394   13 Jun 2027 04:06:39.035   13 Jun 2027 04:06:57.195            18.160               Magadan2          2270.000
       395   13 Jun 2027 04:06:57.909   13 Jun 2027 04:07:41.690            43.781                Irkutsk          4259.500
       396   13 Jun 2027 04:07:45.525   13 Jun 2027 04:08:18.504            32.979                Norilsk          1917.500
       397   13 Jun 2027 04:08:35.044   13 Jun 2027 04:09:54.890            79.846               Magadan2          8270.000
       398   13 Jun 2027 04:09:58.112   13 Jun 2027 04:10:20.277            22.165                Novosib          1611.000
       399   13 Jun 2027 04:10:22.267   13 Jun 2027 04:10:58.905            36.638               Magadan2           995.000
       400   13 Jun 2027 04:11:02.966   13 Jun 2027 04:12:12.360            69.394                Novosib          2030.500
       401   13 Jun 2027 04:12:14.841   13 Jun 2027 04:12:28.364            13.523              Murmansk1          1240.500
       402   13 Jun 2027 04:12:28.944   13 Jun 2027 04:12:32.726             3.782               Magadan2           290.000
       403   13 Jun 2027 04:12:39.125   13 Jun 2027 04:13:28.432            49.307              Murmansk2          3199.500
       404   13 Jun 2027 04:13:40.996   13 Jun 2027 04:13:45.086             4.090                Irkutsk           511.250
       405   13 Jun 2027 04:13:57.844   13 Jun 2027 04:15:08.602            70.758              Murmansk2          6009.250
       406   13 Jun 2027 05:43:29.252   13 Jun 2027 05:44:27.169            57.917                Norilsk          7239.625
       407   13 Jun 2027 05:44:56.298   13 Jun 2027 05:47:02.799           126.501                Novosib         14816.875
       408   13 Jun 2027 05:47:06.409   13 Jun 2027 05:47:27.755            21.346                 Moscow          1805.000
       409   13 Jun 2027 05:47:28.428   13 Jun 2027 05:47:41.370            12.942                Norilsk           336.500
       410   13 Jun 2027 05:47:44.061   13 Jun 2027 05:48:16.743            32.682              Murmansk1          1345.500
       411   13 Jun 2027 05:48:41.111   13 Jun 2027 05:50:39.925           118.814              Murmansk2         12184.000
       412   13 Jun 2027 07:21:17.951   13 Jun 2027 07:21:27.935             9.984                Norilsk          1248.000
       413   13 Jun 2027 07:21:34.065   13 Jun 2027 07:22:18.239            44.174                Irkutsk          5074.500
       414   13 Jun 2027 07:22:19.745   13 Jun 2027 07:22:36.512            16.767                Norilsk           753.000
       415   13 Jun 2027 07:22:46.087   13 Jun 2027 07:23:35.920            49.833                 Moscow          4787.500
       416   13 Jun 2027 07:23:36.393   13 Jun 2027 07:23:55.246            18.853              Murmansk2           236.500
       417   13 Jun 2027 07:23:59.320   13 Jun 2027 07:24:16.161            16.841              Murmansk2          2037.000
       418   13 Jun 2027 07:24:18.514   13 Jun 2027 07:24:29.147            10.633                Norilsk          1176.500
       419   13 Jun 2027 07:24:48.451   13 Jun 2027 07:25:51.282            62.831                Novosib          7853.875
       420   13 Jun 2027 07:26:12.349   13 Jun 2027 07:26:27.883            15.534              Murmansk2          1798.125
       421   13 Jun 2027 08:55:02.500   13 Jun 2027 08:56:47.110           104.610                 Moscow          7556.500
       422   13 Jun 2027 08:56:52.002   13 Jun 2027 08:57:12.771            20.769                 Moscow          2446.000
       423   13 Jun 2027 08:57:16.145   13 Jun 2027 08:57:50.557            34.412                 Moscow          1687.000
       424   13 Jun 2027 08:58:00.840   13 Jun 2027 08:58:41.645            40.805              Murmansk2          5100.625
       425   13 Jun 2027 08:58:41.645   13 Jun 2027 08:58:45.058             3.413              Murmansk1            40.875
       426   13 Jun 2027 08:58:52.199   13 Jun 2027 08:59:36.051            43.852                Norilsk          3570.500
       427   13 Jun 2027 08:59:39.440   13 Jun 2027 09:00:21.263            41.823                Norilsk          1694.500
       428   13 Jun 2027 09:00:21.399   13 Jun 2027 09:00:36.188            14.789              Murmansk2            68.000
       429   13 Jun 2027 09:00:46.860   13 Jun 2027 09:01:30.095            43.235                 Moscow          5336.000
       430   13 Jun 2027 09:01:42.645   13 Jun 2027 09:02:57.613            74.968              Murmansk2          6275.000
