uniorb/output/strategy_2/Drop/Drop_KinoSat_110105.txt

KinoSat_110105
-------------------------
    Access    *     Start Time (UTCG)     *     Stop Time (UTCG)  *   Duration (s)        *       Station  *  Data (Mbytes)
         1   01 Jun 2027 04:06:57.442   01 Jun 2027 04:07:19.259            21.817                Norilsk           779.500
         2   01 Jun 2027 04:07:20.275   01 Jun 2027 04:08:18.008            57.733                Irkutsk           508.000
         3   01 Jun 2027 04:08:23.080   01 Jun 2027 04:08:48.416            25.336                Norilsk          2536.000
         4   01 Jun 2027 04:08:48.886   01 Jun 2027 04:09:08.102            19.216                Norilsk           235.000
         5   01 Jun 2027 04:09:13.399   01 Jun 2027 04:10:16.118            62.719                Irkutsk          2648.500
         6   01 Jun 2027 04:10:21.616   01 Jun 2027 04:12:41.173           139.557                Irkutsk          2749.000
         7   01 Jun 2027 04:12:45.212   01 Jun 2027 04:13:18.886            33.674                Irkutsk          2019.500
         8   01 Jun 2027 05:45:09.373   01 Jun 2027 05:46:10.783            61.410                Norilsk          6941.500
         9   01 Jun 2027 05:46:18.421   01 Jun 2027 05:47:03.203            44.782                Norilsk          3819.000
        10   01 Jun 2027 05:47:04.868   01 Jun 2027 05:47:18.707            13.839                 Moscow           832.500
        11   01 Jun 2027 05:47:24.560   01 Jun 2027 05:47:47.997            23.437              Murmansk2          2926.500
        12   01 Jun 2027 05:47:49.572   01 Jun 2027 05:48:19.342            29.770              Murmansk2           787.500
        13   01 Jun 2027 05:48:21.745   01 Jun 2027 05:48:45.013            23.268                Novosib          1201.500
        14   01 Jun 2027 05:48:52.112   01 Jun 2027 05:49:13.451            21.339                Norilsk          2667.375
        15   01 Jun 2027 05:49:15.976   01 Jun 2027 05:49:19.982             4.006                 Moscow           500.750
        16   01 Jun 2027 05:49:22.554   01 Jun 2027 05:49:56.336            33.782                Novosib           381.375
        17   01 Jun 2027 07:18:07.894   01 Jun 2027 07:18:33.011            25.117                 Moscow           589.000
        18   01 Jun 2027 07:18:54.173   01 Jun 2027 07:20:20.338            86.165                 Moscow         10581.000
        19   01 Jun 2027 07:20:22.385   01 Jun 2027 07:21:14.896            52.511                Novosib          1023.500
        20   01 Jun 2027 07:21:16.707   01 Jun 2027 07:22:08.622            51.915                Novosib           905.500
        21   01 Jun 2027 07:22:13.040   01 Jun 2027 07:22:31.324            18.284                Norilsk          2209.000
        22   01 Jun 2027 07:22:41.154   01 Jun 2027 07:23:04.434            23.280                Norilsk          2910.000
        23   01 Jun 2027 07:23:09.211   01 Jun 2027 07:23:49.007            39.796              Murmansk1          4393.500
        24   01 Jun 2027 07:23:54.480   01 Jun 2027 07:25:01.023            66.543                Norilsk          2736.500
        25   01 Jun 2027 07:25:08.526   01 Jun 2027 07:26:03.897            55.371              Murmansk1          3751.500
        26   02 Jun 2027 04:19:00.835   02 Jun 2027 04:19:32.379            31.544                Novosib           889.500
        27   02 Jun 2027 04:19:52.779   02 Jun 2027 04:21:19.122            86.343                Norilsk         10200.000
        28   02 Jun 2027 04:21:26.865   02 Jun 2027 04:22:12.016            45.151                Norilsk          3871.500
        29   02 Jun 2027 04:22:14.785   02 Jun 2027 04:22:44.116            29.331              Murmansk1          1384.500
        30   02 Jun 2027 04:22:45.643   02 Jun 2027 04:22:52.522             6.879                Norilsk           763.500
        31   02 Jun 2027 04:22:53.697   02 Jun 2027 04:23:32.029            38.332                Norilsk           587.500
        32   02 Jun 2027 04:23:33.614   02 Jun 2027 04:23:42.965             9.351              Murmansk2           792.500
        33   02 Jun 2027 04:23:45.539   02 Jun 2027 04:23:59.220            13.681                Novosib          1287.000
        34   02 Jun 2027 04:24:00.495   02 Jun 2027 04:24:07.226             6.731              Murmansk2           637.500
        35   02 Jun 2027 04:24:19.275   02 Jun 2027 04:25:12.063            52.788                Irkutsk          6024.500
        36   02 Jun 2027 05:57:00.894   02 Jun 2027 05:57:26.986            26.092                 Moscow          2815.000
        37   02 Jun 2027 05:57:29.531   02 Jun 2027 05:57:54.092            24.561                 Moscow          1272.500
        38   02 Jun 2027 05:57:55.012   02 Jun 2027 05:58:05.045            10.033              Murmansk1           460.000
        39   02 Jun 2027 05:58:09.849   02 Jun 2027 05:58:52.566            42.717                Norilsk          2402.000
        40   02 Jun 2027 05:58:56.424   02 Jun 2027 05:59:37.204            40.780                Novosib          1929.000
        41   02 Jun 2027 05:59:45.108   02 Jun 2027 06:00:40.655            55.547                Norilsk          3952.000
        42   02 Jun 2027 06:00:41.656   02 Jun 2027 06:01:17.939            36.283                 Moscow           500.500
        43   02 Jun 2027 07:30:38.813   02 Jun 2027 07:31:15.970            37.157                 Moscow          4517.000
        44   02 Jun 2027 07:31:33.494   02 Jun 2027 07:32:54.186            80.692              Murmansk2          8762.000
        45   02 Jun 2027 07:33:11.554   02 Jun 2027 07:34:25.912            74.358              Murmansk1          8684.000
        46   02 Jun 2027 07:34:28.833   02 Jun 2027 07:34:56.801            27.968              Murmansk2          1460.500
        47   02 Jun 2027 07:35:02.133   02 Jun 2027 07:35:49.537            47.404                Norilsk          2666.000
        48   02 Jun 2027 07:35:51.001   02 Jun 2027 07:36:38.337            47.336              Murmansk1           732.000
        49   02 Jun 2027 07:36:44.256   02 Jun 2027 07:37:09.622            25.366              Murmansk1          2959.500
        50   02 Jun 2027 07:37:10.277   02 Jun 2027 07:37:16.751             6.474                Norilsk           327.500
        51   02 Jun 2027 07:37:28.621   02 Jun 2027 07:38:17.530            48.909                Norilsk          5935.000
        52   03 Jun 2027 03:00:04.264   03 Jun 2027 03:00:05.728             1.464               Magadan1           183.000
        53   03 Jun 2027 03:00:14.780   03 Jun 2027 03:01:12.072            57.292              Murmansk1          6475.000
        54   03 Jun 2027 03:01:20.142   03 Jun 2027 03:02:07.225            47.083              Murmansk2          4035.000
        55   03 Jun 2027 04:31:20.048   03 Jun 2027 04:33:15.402           115.354                Novosib         14419.250
        56   03 Jun 2027 04:33:19.886   03 Jun 2027 04:34:01.269            41.383              Murmansk2          2624.250
        57   03 Jun 2027 04:34:01.930   03 Jun 2027 04:34:08.422             6.492              Murmansk1           330.500
        58   03 Jun 2027 04:34:10.301   03 Jun 2027 04:34:28.932            18.631                Novosib           939.500
        59   03 Jun 2027 04:34:41.080   03 Jun 2027 04:35:08.663            27.583                Norilsk          3447.875
        60   03 Jun 2027 04:35:12.195   03 Jun 2027 04:35:56.643            44.448                Irkutsk          4392.125
        61   03 Jun 2027 04:35:57.856   03 Jun 2027 04:36:06.565             8.709              Murmansk2           606.500
        62   03 Jun 2027 04:36:20.158   03 Jun 2027 04:37:36.997            76.839              Murmansk2          6796.500
        63   03 Jun 2027 06:09:01.897   03 Jun 2027 06:09:40.451            38.554              Murmansk2          2951.000
        64   03 Jun 2027 06:09:43.947   03 Jun 2027 06:10:07.187            23.240              Murmansk2          1748.000
        65   03 Jun 2027 06:10:14.305   03 Jun 2027 06:10:53.209            38.904                Norilsk          3559.000
        66   03 Jun 2027 06:10:54.536   03 Jun 2027 06:11:26.409            31.873              Murmansk2           663.500
        67   03 Jun 2027 06:11:27.046   03 Jun 2027 06:11:33.346             6.300                 Moscow           318.500
        68   03 Jun 2027 06:11:38.623   03 Jun 2027 06:12:48.802            70.179                Novosib          2638.500
        69   03 Jun 2027 06:12:53.988   03 Jun 2027 06:13:34.781            40.793                Norilsk          2593.000
        70   03 Jun 2027 07:42:58.448   03 Jun 2027 07:43:45.686            47.238                 Moscow          5644.000
        71   03 Jun 2027 07:43:48.902   03 Jun 2027 07:44:45.676            56.774              Murmansk2          1608.000
        72   03 Jun 2027 07:45:07.428   03 Jun 2027 07:46:44.127            96.699              Murmansk1         10876.000
        73   03 Jun 2027 07:46:58.895   03 Jun 2027 07:48:08.109            69.214                 Moscow          7384.000
        74   03 Jun 2027 07:48:13.590   03 Jun 2027 07:49:15.175            61.585                 Moscow          2740.500
        75   03 Jun 2027 07:49:28.455   03 Jun 2027 07:49:56.379            27.924                Norilsk          3490.500
        76   03 Jun 2027 07:49:57.424   03 Jun 2027 07:50:36.927            39.503              Murmansk1          2471.500
        77   04 Jun 2027 03:06:14.984   04 Jun 2027 03:06:51.106            36.122                Irkutsk          2676.500
        78   04 Jun 2027 03:06:58.849   04 Jun 2027 03:07:42.156            43.307               Magadan2          3871.500
        79   04 Jun 2027 03:07:57.860   04 Jun 2027 03:09:00.937            63.077                Novosib          7852.000
        80   04 Jun 2027 03:09:07.292   04 Jun 2027 03:09:36.145            28.853                Irkutsk          3177.500
        81   04 Jun 2027 03:09:38.688   04 Jun 2027 03:10:07.772            29.084               Magadan2          1271.500
        82   04 Jun 2027 03:10:30.737   04 Jun 2027 03:11:28.693            57.956               Magadan1          7244.500
        83   04 Jun 2027 03:11:38.780   04 Jun 2027 03:12:53.863            75.083              Murmansk2          9281.500
        84   04 Jun 2027 03:13:02.439   04 Jun 2027 03:13:44.310            41.871                Norilsk          4288.000
        85   04 Jun 2027 04:43:52.724   04 Jun 2027 04:46:37.126           164.402                Norilsk         20550.250
        86   04 Jun 2027 04:46:38.793   04 Jun 2027 04:47:20.033            41.240                 Moscow          2337.750
        87   04 Jun 2027 04:47:23.877   04 Jun 2027 04:48:25.137            61.260                 Moscow          1922.000
        88   04 Jun 2027 04:48:27.889   04 Jun 2027 04:49:09.267            41.378                 Moscow          1376.000
        89   04 Jun 2027 04:49:12.329   04 Jun 2027 04:49:27.890            15.561              Murmansk1          1531.000
        90   04 Jun 2027 06:20:11.843   04 Jun 2027 06:20:46.584            34.741                 Moscow           963.000
        91   04 Jun 2027 06:20:55.729   04 Jun 2027 06:21:40.008            44.279              Murmansk2          4572.500
        92   04 Jun 2027 06:21:54.032   04 Jun 2027 06:23:04.472            70.440                 Moscow          7012.000
        93   04 Jun 2027 06:23:07.111   04 Jun 2027 06:23:23.470            16.359                Norilsk          1319.500
        94   04 Jun 2027 06:23:25.156   04 Jun 2027 06:23:51.370            26.214              Murmansk2           843.000
        95   04 Jun 2027 06:23:55.047   04 Jun 2027 06:24:19.051            24.004              Murmansk1          1838.500
        96   04 Jun 2027 06:24:23.059   04 Jun 2027 06:24:44.627            21.568                 Moscow          2004.000
        97   04 Jun 2027 06:24:45.106   04 Jun 2027 06:24:49.036             3.930                Norilsk           239.500
        98   04 Jun 2027 06:24:51.396   04 Jun 2027 06:25:20.927            29.531              Murmansk1          1180.000
        99   04 Jun 2027 07:55:19.105   04 Jun 2027 07:55:52.919            33.814              Murmansk1          2715.000
       100   04 Jun 2027 07:56:01.749   04 Jun 2027 07:56:12.332            10.583                 Moscow          1109.000
       101   04 Jun 2027 07:57:24.396   04 Jun 2027 08:00:26.453           182.057              Murmansk1         16168.000
       102   05 Jun 2027 03:18:43.930   05 Jun 2027 03:19:17.752            33.822                Novosib          3719.500
       103   05 Jun 2027 03:19:22.270   05 Jun 2027 03:20:12.241            49.971                Irkutsk          2259.000
       104   05 Jun 2027 03:20:13.896   05 Jun 2027 03:20:50.765            36.869                Novosib           827.500
       105   05 Jun 2027 03:20:52.009   05 Jun 2027 03:21:28.082            36.073                Novosib           622.000
       106   05 Jun 2027 03:21:38.600   05 Jun 2027 03:22:18.115            39.515                Irkutsk          4939.375
       107   05 Jun 2027 03:22:21.177   05 Jun 2027 03:22:38.338            17.161                Norilsk          1850.625
       108   05 Jun 2027 03:22:45.070   05 Jun 2027 03:23:17.916            32.846                Novosib          3366.000
       109   05 Jun 2027 03:23:20.475   05 Jun 2027 03:23:53.714            33.239                Novosib          1279.500
       110   05 Jun 2027 03:23:56.648   05 Jun 2027 03:24:39.669            43.021              Murmansk2          1467.000
       111   05 Jun 2027 03:24:39.953   05 Jun 2027 03:25:17.645            37.692                Irkutsk           142.000
       112   05 Jun 2027 03:25:17.882   05 Jun 2027 03:25:25.621             7.739              Murmansk1           118.500
       113   05 Jun 2027 04:55:50.917   05 Jun 2027 04:57:31.868           100.951                Novosib         10319.000
       114   05 Jun 2027 04:57:36.139   05 Jun 2027 04:58:12.024            35.885              Murmansk1          2135.500
       115   05 Jun 2027 04:58:12.113   05 Jun 2027 04:58:53.317            41.204                Novosib            44.500
       116   05 Jun 2027 04:58:53.406   05 Jun 2027 04:58:58.306             4.900              Murmansk1            44.500
       117   05 Jun 2027 04:59:19.318   05 Jun 2027 05:01:04.117           104.799              Murmansk1         10506.000
       118   05 Jun 2027 05:01:12.055   05 Jun 2027 05:02:01.104            49.049              Murmansk1          2217.000
       119   05 Jun 2027 06:32:26.506   05 Jun 2027 06:32:53.223            26.717                 Moscow          2516.500
       120   05 Jun 2027 06:33:03.648   05 Jun 2027 06:33:13.846            10.198                Norilsk          1274.750
       121   05 Jun 2027 06:33:15.885   05 Jun 2027 06:33:24.647             8.762                Norilsk          1095.250
       122   05 Jun 2027 06:33:24.864   05 Jun 2027 06:34:11.406            46.542                 Moscow          3970.500
       123   05 Jun 2027 06:34:21.081   05 Jun 2027 06:35:29.018            67.937                Novosib          4837.500
       124   05 Jun 2027 06:35:33.017   05 Jun 2027 06:36:06.677            33.660                Norilsk          1999.500
       125   05 Jun 2027 06:36:09.558   05 Jun 2027 06:36:38.056            28.498              Murmansk1          1440.500
       126   05 Jun 2027 06:36:38.574   05 Jun 2027 06:37:18.882            40.308              Murmansk2           259.000
       127   05 Jun 2027 08:10:03.002   05 Jun 2027 08:10:29.829            26.827              Murmansk2          2623.000
       128   05 Jun 2027 08:10:30.712   05 Jun 2027 08:10:47.946            17.234              Murmansk2           441.500
       129   05 Jun 2027 08:11:04.903   05 Jun 2027 08:12:21.574            76.671              Murmansk2          8478.500
       130   06 Jun 2027 03:30:48.413   06 Jun 2027 03:31:23.711            35.298                Norilsk          2882.500
       131   06 Jun 2027 03:31:23.731   06 Jun 2027 03:31:47.737            24.006                Novosib            10.000
       132   06 Jun 2027 03:32:02.094   06 Jun 2027 03:33:13.250            71.156                Irkutsk          7178.500
       133   06 Jun 2027 03:33:37.736   06 Jun 2027 03:34:59.397            81.661                Norilsk         10207.625
       134   06 Jun 2027 03:35:16.280   06 Jun 2027 03:36:34.517            78.237                Novosib          9779.625
       135   06 Jun 2027 03:36:40.915   06 Jun 2027 03:36:52.344            11.429                Irkutsk          1428.625
       136   06 Jun 2027 03:36:55.180   06 Jun 2027 03:37:36.188            41.008                Norilsk          3885.625
       137   06 Jun 2027 05:08:34.534   06 Jun 2027 05:10:11.000            96.466                Novosib          4647.000
       138   06 Jun 2027 05:10:12.813   06 Jun 2027 05:10:20.961             8.148                Irkutsk           906.500
       139   06 Jun 2027 05:10:21.665   06 Jun 2027 05:11:07.592            45.927                Irkutsk           352.000
       140   06 Jun 2027 05:11:10.259   06 Jun 2027 05:11:46.261            36.002                Novosib          1333.500
       141   06 Jun 2027 05:11:55.992   06 Jun 2027 05:12:12.815            16.823                Novosib          2102.875
       142   06 Jun 2027 05:12:28.654   06 Jun 2027 05:13:54.249            85.595                Novosib         10682.125
       143   06 Jun 2027 06:44:24.394   06 Jun 2027 06:44:40.219            15.825              Murmansk1           410.000
       144   06 Jun 2027 06:44:46.149   06 Jun 2027 06:45:35.004            48.855                 Moscow          2965.000
       145   06 Jun 2027 06:45:37.846   06 Jun 2027 06:45:49.821            11.975              Murmansk2          1421.000
       146   06 Jun 2027 06:45:53.161   06 Jun 2027 06:46:22.594            29.433                Novosib          1670.000
       147   06 Jun 2027 06:46:33.141   06 Jun 2027 06:47:22.132            48.991                Norilsk          5273.500
       148   06 Jun 2027 06:47:27.325   06 Jun 2027 06:47:55.816            28.491                Norilsk          2596.500
       149   06 Jun 2027 06:47:59.274   06 Jun 2027 06:48:25.683            26.409              Murmansk1          1729.000
       150   06 Jun 2027 06:48:27.267   06 Jun 2027 06:50:03.806            96.539                Novosib           792.000
       151   07 Jun 2027 03:43:20.616   07 Jun 2027 03:43:26.663             6.047                Novosib           755.875
       152   07 Jun 2027 03:43:33.810   07 Jun 2027 03:44:07.924            34.114                Norilsk          3951.625
       153   07 Jun 2027 03:44:22.320   07 Jun 2027 03:45:27.423            65.103                Novosib          7198.000
       154   07 Jun 2027 03:45:57.142   07 Jun 2027 03:47:53.895           116.753                Norilsk         14594.125
       155   07 Jun 2027 03:48:01.566   07 Jun 2027 03:48:40.780            39.214                Novosib          4100.875
       156   07 Jun 2027 03:48:43.710   07 Jun 2027 03:49:17.798            34.088                Norilsk          1465.000
       157   07 Jun 2027 03:49:23.159   07 Jun 2027 03:49:45.279            22.120                Norilsk          2680.500
       158   07 Jun 2027 05:20:32.450   07 Jun 2027 05:20:42.693            10.243              Murmansk2           451.500
       159   07 Jun 2027 05:20:53.805   07 Jun 2027 05:21:42.764            48.959                Irkutsk          5556.000
       160   07 Jun 2027 05:21:46.021   07 Jun 2027 05:22:43.909            57.888                 Moscow          1628.500
       161   07 Jun 2027 05:22:53.797   07 Jun 2027 05:23:33.780            39.983              Murmansk2          4944.000
       162   07 Jun 2027 05:23:37.156   07 Jun 2027 05:24:04.363            27.207                Novosib          1688.000
       163   07 Jun 2027 05:24:11.784   07 Jun 2027 05:24:24.198            12.414                Norilsk          1551.750
       164   07 Jun 2027 05:24:26.785   07 Jun 2027 05:25:23.782            56.997                 Moscow          3452.250
       165   07 Jun 2027 06:56:54.985   07 Jun 2027 06:57:36.055            41.070              Murmansk2          2568.500
       166   07 Jun 2027 06:57:38.398   07 Jun 2027 06:57:54.195            15.797                 Moscow          1171.500
       167   07 Jun 2027 06:58:10.098   07 Jun 2027 06:59:37.797            87.699                 Moscow          7951.500
       168   07 Jun 2027 06:59:44.070   07 Jun 2027 07:00:13.100            29.030                Novosib          3136.500
       169   07 Jun 2027 07:00:15.015   07 Jun 2027 07:00:37.797            22.782                Novosib           957.500
       170   07 Jun 2027 07:00:56.995   07 Jun 2027 07:02:27.394            90.399                Norilsk          9599.000
       171   08 Jun 2027 03:55:11.236   08 Jun 2027 03:56:39.666            88.430                Irkutsk         10682.500
       172   08 Jun 2027 03:56:47.641   08 Jun 2027 03:57:34.250            46.609                Norilsk          3987.500
       173   08 Jun 2027 03:57:39.714   08 Jun 2027 03:58:27.749            48.035                Norilsk          2732.000
       174   08 Jun 2027 03:58:28.984   08 Jun 2027 03:58:39.698            10.714              Murmansk1           617.500
       175   08 Jun 2027 03:58:45.643   08 Jun 2027 03:59:13.895            28.252                Irkutsk          2972.500
       176   08 Jun 2027 03:59:19.404   08 Jun 2027 03:59:54.195            34.791                Norilsk          2754.500
       177   08 Jun 2027 03:59:54.989   08 Jun 2027 04:00:08.260            13.271                Norilsk           397.000
       178   08 Jun 2027 04:00:12.111   08 Jun 2027 04:00:58.277            46.166                Novosib          1925.500
       179   08 Jun 2027 04:01:02.666   08 Jun 2027 04:01:48.362            45.696              Murmansk2          2194.500
       180   08 Jun 2027 05:33:23.434   08 Jun 2027 05:33:49.218            25.784                Norilsk          3223.000
       181   08 Jun 2027 05:33:55.890   08 Jun 2027 05:36:02.193           126.303                Irkutsk          7317.500
       182   08 Jun 2027 05:36:05.745   08 Jun 2027 05:36:43.407            37.662              Murmansk1          1776.000
       183   08 Jun 2027 05:37:03.079   08 Jun 2027 05:38:12.009            68.930              Murmansk2          8237.000
       184   08 Jun 2027 07:08:42.127   08 Jun 2027 07:09:46.807            64.680              Murmansk1          6759.500
       185   08 Jun 2027 07:09:49.076   08 Jun 2027 07:10:11.252            22.176                Norilsk          1134.500
       186   08 Jun 2027 07:10:16.383   08 Jun 2027 07:10:38.292            21.909              Murmansk1          2565.500
       187   08 Jun 2027 07:10:44.469   08 Jun 2027 07:11:32.932            48.463              Murmansk2          3088.500
       188   08 Jun 2027 07:11:35.626   08 Jun 2027 07:12:16.083            40.457                Norilsk          1347.000
       189   08 Jun 2027 07:12:17.400   08 Jun 2027 07:13:07.798            50.398              Murmansk2           658.500
       190   08 Jun 2027 07:13:09.337   08 Jun 2027 07:13:33.281            23.944              Murmansk2           769.500
       191   08 Jun 2027 07:13:36.944   08 Jun 2027 07:13:40.816             3.872                 Moscow           484.000
       192   08 Jun 2027 07:13:42.323   08 Jun 2027 07:14:21.453            39.130                Norilsk          2101.000
       193   09 Jun 2027 04:07:13.206   09 Jun 2027 04:07:36.775            23.569                Norilsk          1102.000
       194   09 Jun 2027 04:07:43.100   09 Jun 2027 04:08:12.653            29.553                Novosib          3162.500
       195   09 Jun 2027 04:08:32.875   09 Jun 2027 04:10:30.230           117.355                Irkutsk         10111.000
       196   09 Jun 2027 04:10:36.214   09 Jun 2027 04:12:56.510           140.296                Irkutsk          2992.000
       197   09 Jun 2027 04:12:59.496   09 Jun 2027 04:13:33.628            34.132                Irkutsk          1493.000
       198   09 Jun 2027 05:45:13.770   09 Jun 2027 05:46:20.491            66.721              Murmansk1          1658.500
       199   09 Jun 2027 05:46:20.516   09 Jun 2027 05:46:51.235            30.719              Murmansk2            12.500
       200   09 Jun 2027 05:46:54.891   09 Jun 2027 05:47:20.022            25.131                Norilsk          1828.000
       201   09 Jun 2027 05:47:20.131   09 Jun 2027 05:47:35.829            15.698                 Moscow            54.500
       202   09 Jun 2027 05:47:41.599   09 Jun 2027 05:48:07.688            26.089              Murmansk1          2885.000
       203   09 Jun 2027 05:48:08.268   09 Jun 2027 05:48:28.709            20.441                Norilsk           290.000
       204   09 Jun 2027 05:48:33.854   09 Jun 2027 05:48:57.585            23.731              Murmansk1          2572.500
       205   09 Jun 2027 05:49:03.615   09 Jun 2027 05:49:36.936            33.321                Novosib          3015.000
       206   09 Jun 2027 07:18:22.707   09 Jun 2027 07:18:47.799            25.092                 Moscow           914.500
       207   09 Jun 2027 07:18:56.347   09 Jun 2027 07:20:05.992            69.645                 Moscow          4274.000
       208   09 Jun 2027 07:20:10.293   09 Jun 2027 07:20:29.264            18.971              Murmansk2          2150.500
       209   09 Jun 2027 07:20:33.380   09 Jun 2027 07:20:50.053            16.673                 Moscow          2058.000
       210   09 Jun 2027 07:20:55.226   09 Jun 2027 07:21:20.613            25.387                 Moscow          2586.500
       211   09 Jun 2027 07:21:29.533   09 Jun 2027 07:22:23.247            53.714                Novosib          4460.000
       212   09 Jun 2027 07:22:27.626   09 Jun 2027 07:23:03.818            36.192                Novosib          2189.500
       213   09 Jun 2027 07:23:19.249   09 Jun 2027 07:24:10.504            51.255                Norilsk          6406.875
       214   09 Jun 2027 07:24:11.325   09 Jun 2027 07:25:31.910            80.585                 Moscow          1719.125
       215   09 Jun 2027 07:25:43.104   09 Jun 2027 07:26:30.484            47.380                Norilsk          5597.000
       216   10 Jun 2027 04:19:18.102   10 Jun 2027 04:19:46.975            28.873                Novosib          2210.000
       217   10 Jun 2027 04:20:10.238   10 Jun 2027 04:21:35.526            85.288                Norilsk         10661.000
       218   10 Jun 2027 04:21:41.463   10 Jun 2027 04:22:26.856            45.393                Norilsk          3939.000
       219   10 Jun 2027 04:22:29.277   10 Jun 2027 04:23:01.961            32.684              Murmansk2          1210.500
       220   10 Jun 2027 04:23:08.248   10 Jun 2027 04:23:34.357            26.109                Norilsk          3143.500
       221   10 Jun 2027 04:23:40.363   10 Jun 2027 04:24:12.351            31.988                 Moscow          3003.000
       222   10 Jun 2027 04:24:18.385   10 Jun 2027 04:24:45.453            27.068              Murmansk2          3017.000
       223   10 Jun 2027 04:24:48.359   10 Jun 2027 04:25:18.168            29.809                 Moscow          1453.000
       224   10 Jun 2027 04:25:21.387   10 Jun 2027 04:25:48.482            27.095                Norilsk          1609.500
       225   10 Jun 2027 05:57:11.221   10 Jun 2027 05:58:07.962            56.741                Novosib           580.500
       226   10 Jun 2027 05:58:10.117   10 Jun 2027 05:58:22.667            12.550              Murmansk1          1077.500
       227   10 Jun 2027 05:58:24.557   10 Jun 2027 05:58:35.237            10.680                Norilsk           945.000
       228   10 Jun 2027 05:58:36.773   10 Jun 2027 05:59:07.619            30.846                Norilsk           768.000
       229   10 Jun 2027 05:59:11.551   10 Jun 2027 05:59:51.914            40.363                Novosib          1966.000
       230   10 Jun 2027 06:00:00.056   10 Jun 2027 06:00:28.106            28.050                Norilsk          3506.250
       231   10 Jun 2027 06:00:50.959   10 Jun 2027 06:02:11.526            80.567              Murmansk2         10070.875
       232   10 Jun 2027 06:02:11.526   10 Jun 2027 06:02:46.282            34.756              Murmansk1          1920.375
       233   10 Jun 2027 07:30:53.592   10 Jun 2027 07:32:13.160            79.568                 Moscow          3662.500
       234   10 Jun 2027 07:32:16.504   10 Jun 2027 07:33:08.884            52.380              Murmansk1          1672.000
       235   10 Jun 2027 07:33:27.342   10 Jun 2027 07:34:40.925            73.583              Murmansk2          9197.875
       236   10 Jun 2027 07:34:40.925   10 Jun 2027 07:34:43.539             2.614              Murmansk1            31.125
       237   10 Jun 2027 07:34:46.377   10 Jun 2027 07:35:16.854            30.477                Norilsk          1419.000
       238   10 Jun 2027 07:35:25.885   10 Jun 2027 07:36:09.094            43.209              Murmansk1          4515.500
       239   10 Jun 2027 07:36:09.406   10 Jun 2027 07:36:52.969            43.563              Murmansk1           156.000
       240   10 Jun 2027 07:37:12.355   10 Jun 2027 07:38:47.698            95.343                 Moscow          9693.000
       241   11 Jun 2027 03:00:02.626   11 Jun 2027 03:00:13.438            10.812              Murmansk2          1313.000
       242   11 Jun 2027 03:00:18.850   11 Jun 2027 03:00:20.157             1.307               Magadan2           163.375
       243   11 Jun 2027 03:00:29.545   11 Jun 2027 03:01:30.104            60.559              Murmansk2          7236.625
       244   11 Jun 2027 03:01:34.772   11 Jun 2027 03:01:55.098            20.326              Murmansk2          2334.000
       245   11 Jun 2027 04:31:30.193   11 Jun 2027 04:33:17.940           107.747                Norilsk         12528.000
       246   11 Jun 2027 04:33:21.734   11 Jun 2027 04:33:41.144            19.410                Novosib          1897.000
       247   11 Jun 2027 04:33:57.737   11 Jun 2027 04:35:27.667            89.930                Irkutsk          8296.500
       248   11 Jun 2027 04:35:31.278   11 Jun 2027 04:36:46.115            74.837                 Moscow          1805.500
       249   11 Jun 2027 04:36:59.718   11 Jun 2027 04:37:54.589            54.871                 Moscow          6801.500
       250   11 Jun 2027 06:09:17.884   11 Jun 2027 06:09:56.409            38.525              Murmansk2          3367.500
       251   11 Jun 2027 06:09:59.031   11 Jun 2027 06:10:24.802            25.771              Murmansk1          1311.000
       252   11 Jun 2027 06:10:31.116   11 Jun 2027 06:11:24.353            53.237                Novosib          3157.000
       253   11 Jun 2027 06:11:27.335   11 Jun 2027 06:11:44.222            16.887                 Moscow          1491.000
       254   11 Jun 2027 06:11:47.666   11 Jun 2027 06:12:37.189            49.523                 Moscow          1722.000
       255   11 Jun 2027 06:12:43.279   11 Jun 2027 06:13:11.352            28.073              Murmansk1          3045.000
       256   11 Jun 2027 06:13:18.929   11 Jun 2027 06:14:11.978            53.049              Murmansk1          3788.500
       257   11 Jun 2027 07:43:13.464   11 Jun 2027 07:44:00.638            47.174                 Moscow          5517.000
       258   11 Jun 2027 07:44:03.962   11 Jun 2027 07:45:00.387            56.425              Murmansk1          1662.000
       259   11 Jun 2027 07:45:23.185   11 Jun 2027 07:46:59.548            96.363              Murmansk1         11399.000
       260   11 Jun 2027 07:47:13.207   11 Jun 2027 07:48:25.710            72.503                 Moscow          6829.500
       261   11 Jun 2027 07:48:27.384   11 Jun 2027 07:49:30.199            62.815                 Moscow           837.000
       262   11 Jun 2027 07:49:43.286   11 Jun 2027 07:50:11.422            28.136                Norilsk          3517.000
       263   11 Jun 2027 07:50:12.652   11 Jun 2027 07:50:51.740            39.088              Murmansk2          2259.500
       264   12 Jun 2027 03:06:32.358   12 Jun 2027 03:07:27.510            55.152                Novosib          3401.500
       265   12 Jun 2027 03:07:43.834   12 Jun 2027 03:09:11.976            88.142                Norilsk          8162.000
       266   12 Jun 2027 03:09:14.391   12 Jun 2027 03:09:53.657            39.266               Magadan1          1207.500
       267   12 Jun 2027 03:09:58.178   12 Jun 2027 03:11:10.616            72.438                Novosib          2260.500
       268   12 Jun 2027 03:11:17.367   12 Jun 2027 03:11:53.304            35.937              Murmansk2          3375.500
       269   12 Jun 2027 03:11:55.889   12 Jun 2027 03:12:08.454            12.565                Norilsk          1292.500
       270   12 Jun 2027 03:12:14.563   12 Jun 2027 03:12:50.026            35.463              Murmansk2          3054.500
       271   12 Jun 2027 03:12:56.745   12 Jun 2027 03:13:32.744            35.999                Norilsk          3359.500
       272   12 Jun 2027 03:13:33.245   12 Jun 2027 03:13:44.966            11.721              Murmansk1           250.500
       273   12 Jun 2027 04:44:27.659   12 Jun 2027 04:48:30.384           242.725                Novosib         30067.500
       274   12 Jun 2027 04:48:38.926   12 Jun 2027 04:49:28.331            49.405              Murmansk2          4271.000
       275   12 Jun 2027 04:49:42.365   12 Jun 2027 04:50:48.205            65.840              Murmansk1          4358.000
       276   12 Jun 2027 06:20:27.984   12 Jun 2027 06:21:05.243            37.259                 Moscow          1425.000
       277   12 Jun 2027 06:21:11.656   12 Jun 2027 06:21:45.965            34.309              Murmansk2          3206.500
       278   12 Jun 2027 06:21:47.375   12 Jun 2027 06:21:55.946             8.571              Murmansk2           705.000
       279   12 Jun 2027 06:21:59.594   12 Jun 2027 06:22:32.109            32.515                 Moscow          1824.000
       280   12 Jun 2027 06:22:33.688   12 Jun 2027 06:22:58.566            24.878                Novosib           789.500
       281   12 Jun 2027 06:23:06.140   12 Jun 2027 06:23:41.900            35.760              Murmansk1          3787.000
       282   12 Jun 2027 06:23:49.157   12 Jun 2027 06:24:37.497            48.340                 Moscow          3628.500
       283   12 Jun 2027 06:24:40.913   12 Jun 2027 06:24:50.353             9.440                Novosib          1180.000
       284   12 Jun 2027 06:25:00.904   12 Jun 2027 06:25:48.430            47.526                 Moscow          5803.500
       285   12 Jun 2027 07:55:34.743   12 Jun 2027 07:56:09.691            34.948              Murmansk2          2812.000
       286   12 Jun 2027 07:57:18.345   12 Jun 2027 07:58:20.223            61.878              Murmansk2          5664.000
       287   12 Jun 2027 07:58:32.075   12 Jun 2027 07:59:13.265            41.190              Murmansk1          5148.750
       288   12 Jun 2027 07:59:13.265   12 Jun 2027 07:59:21.127             7.862              Murmansk2           777.250
       289   12 Jun 2027 07:59:36.190   12 Jun 2027 07:59:44.616             8.426                 Moscow          1053.250
       290   12 Jun 2027 07:59:45.729   12 Jun 2027 08:00:47.215            61.486              Murmansk2          7034.750
       291   13 Jun 2027 03:19:00.089   13 Jun 2027 03:19:36.348            36.259                Novosib          4150.500
       292   13 Jun 2027 03:19:41.949   13 Jun 2027 03:20:07.152            25.203                Norilsk          2800.500
       293   13 Jun 2027 03:20:17.604   13 Jun 2027 03:21:06.975            49.371                Novosib          5226.000
       294   13 Jun 2027 03:21:12.894   13 Jun 2027 03:21:59.003            46.109                Norilsk          2959.500
       295   13 Jun 2027 03:22:03.641   13 Jun 2027 03:22:36.092            32.451                Norilsk          2319.000
       296   13 Jun 2027 03:22:53.080   13 Jun 2027 03:24:09.605            76.525                Norilsk          8494.000
       297   13 Jun 2027 03:24:11.424   13 Jun 2027 03:24:32.472            21.048                Novosib           909.500
       298   13 Jun 2027 03:24:49.872   13 Jun 2027 03:26:01.561            71.689                Norilsk          8700.000
       299   13 Jun 2027 04:55:59.802   13 Jun 2027 04:56:18.563            18.761                Norilsk          2345.125
       300   13 Jun 2027 04:56:20.235   13 Jun 2027 04:57:05.187            44.952                Irkutsk          5619.000
       301   13 Jun 2027 04:57:06.507   13 Jun 2027 04:57:27.523            21.016                 Moscow           701.876
       302   13 Jun 2027 04:57:38.111   13 Jun 2027 04:58:35.965            57.854                Norilsk          5294.000
       303   13 Jun 2027 04:58:39.466   13 Jun 2027 04:59:07.318            27.852                 Moscow          1750.500
       304   13 Jun 2027 04:59:08.648   13 Jun 2027 04:59:36.789            28.141              Murmansk1           665.000
       305   13 Jun 2027 04:59:42.104   13 Jun 2027 05:00:06.367            24.263                 Moscow          2657.500
       306   13 Jun 2027 05:00:11.683   13 Jun 2027 05:00:56.376            44.693              Murmansk1          1351.000
       307   13 Jun 2027 05:01:05.969   13 Jun 2027 05:02:06.990            61.021                Novosib          4796.500
       308   13 Jun 2027 06:32:42.768   13 Jun 2027 06:33:11.591            28.823                 Moscow          2737.500
       309   13 Jun 2027 06:33:18.441   13 Jun 2027 06:34:17.779            59.338                Norilsk          3425.000
       310   13 Jun 2027 06:34:23.952   13 Jun 2027 06:34:50.640            26.688                Norilsk          3086.500
       311   13 Jun 2027 06:34:50.732   13 Jun 2027 06:35:03.658            12.926              Murmansk2            46.000
       312   13 Jun 2027 06:35:19.964   13 Jun 2027 06:35:53.297            33.333                Norilsk          4166.625
       313   13 Jun 2027 06:35:54.620   13 Jun 2027 06:37:04.855            70.235                 Moscow          4647.875
       314   13 Jun 2027 06:37:24.047   13 Jun 2027 06:37:53.160            29.113                Norilsk          1663.500
       315   13 Jun 2027 08:10:20.430   13 Jun 2027 08:10:33.890            13.460              Murmansk1          1036.500
       316   13 Jun 2027 08:10:44.548   13 Jun 2027 08:11:19.505            34.957              Murmansk2          4369.625
       317   13 Jun 2027 08:11:19.505   13 Jun 2027 08:11:42.848            23.343              Murmansk1           959.375
       318   13 Jun 2027 08:12:36.236   13 Jun 2027 08:13:34.811            58.575              Murmansk1          7183.000
