uniorb/output/strategy_2/Drop/Drop_KinoSat_111808.txt

KinoSat_111808
-------------------------
    Access    *     Start Time (UTCG)     *     Stop Time (UTCG)  *   Duration (s)        *       Station  *  Data (Mbytes)
         1   01 Jun 2027 04:14:05.286   01 Jun 2027 04:14:53.757            48.471                Irkutsk          1514.719
         2   01 Jun 2027 04:16:43.470   01 Jun 2027 04:17:09.703            26.233                Novosib           819.781
         3   01 Jun 2027 04:17:39.918   01 Jun 2027 04:17:49.612             9.694              Murmansk1           302.938
         4   01 Jun 2027 04:18:31.298   01 Jun 2027 04:19:51.895            80.597              Murmansk2          2518.656
         5   01 Jun 2027 04:20:15.365   01 Jun 2027 04:21:07.622            52.257              Murmansk2          1633.031
         6   01 Jun 2027 05:52:55.055   01 Jun 2027 05:52:58.081             3.026                Novosib            94.563
         7   01 Jun 2027 05:53:24.164   01 Jun 2027 05:54:10.985            46.821                Novosib          1463.156
         8   01 Jun 2027 05:54:39.370   01 Jun 2027 05:54:48.749             9.379              Murmansk1           293.094
         9   01 Jun 2027 05:55:14.903   01 Jun 2027 05:55:31.632            16.729              Murmansk1           522.781
        10   01 Jun 2027 05:55:31.632   01 Jun 2027 05:57:00.319            88.687              Murmansk2          2771.469
        11   01 Jun 2027 05:57:00.319   01 Jun 2027 05:57:23.424            23.105              Murmansk1           722.031
        12   01 Jun 2027 05:57:46.758   01 Jun 2027 05:58:50.997            64.239              Murmansk1          2007.469
        13   01 Jun 2027 05:58:51.742   01 Jun 2027 05:59:00.090             8.348                 Moscow           260.875
        14   01 Jun 2027 07:17:21.302   01 Jun 2027 07:17:41.779            20.477               Magadan2           639.906
        15   01 Jun 2027 07:17:41.779   01 Jun 2027 07:18:38.645            56.866               Magadan1          1777.063
        16   01 Jun 2027 07:18:38.645   01 Jun 2027 07:19:01.476            22.831               Magadan2           713.469
        17   01 Jun 2027 07:19:16.411   01 Jun 2027 07:19:37.044            20.633                Anadyr2           644.781
        18   01 Jun 2027 08:54:49.795   01 Jun 2027 08:58:34.625           224.830                Anadyr2          7025.937
        19   01 Jun 2027 09:02:28.730   01 Jun 2027 09:02:38.686             9.956                 Moscow           311.125
        20   01 Jun 2027 09:03:11.506   01 Jun 2027 09:04:11.523            60.017                 Moscow          1875.531
        21   01 Jun 2027 10:24:51.158   01 Jun 2027 10:26:33.636           102.478               Magadan2          3202.437
        22   01 Jun 2027 10:28:02.711   01 Jun 2027 10:32:53.153           290.442               Magadan1          9076.312
        23   01 Jun 2027 10:33:56.325   01 Jun 2027 10:34:02.634             6.309               Magadan1           197.156
        24   01 Jun 2027 12:51:09.483   01 Jun 2027 12:52:29.936            80.453            RioGallegos          2514.156
        25   01 Jun 2027 12:56:05.751   01 Jun 2027 12:57:14.691            68.940            RioGallegos          2154.375
        26   01 Jun 2027 13:26:44.097   01 Jun 2027 13:31:06.010           261.913                Sumatra          8184.781
        27   01 Jun 2027 13:41:27.794   01 Jun 2027 13:45:04.238           216.444                Irkutsk          6763.875
        28   01 Jun 2027 15:10:06.128   01 Jun 2027 15:10:14.755             8.627                  Delhi           269.594
        29   01 Jun 2027 15:12:35.148   01 Jun 2027 15:14:46.664           131.516                  Delhi          4109.875
        30   01 Jun 2027 15:18:31.835   01 Jun 2027 15:22:43.624           251.789                Novosib          7868.406
        31   01 Jun 2027 16:57:53.605   01 Jun 2027 16:58:42.384            48.779                Norilsk          1524.344
        32   01 Jun 2027 17:02:09.550   01 Jun 2027 17:02:16.946             7.396                Norilsk           231.125
        33   01 Jun 2027 18:29:36.416   01 Jun 2027 18:33:11.285           214.869                 Moscow          6714.656
        34   01 Jun 2027 18:38:45.345   01 Jun 2027 18:39:26.227            40.882              Murmansk2          1277.563
        35   01 Jun 2027 19:46:18.160   01 Jun 2027 19:48:30.825           132.665               CapeTown          4145.781
        36   01 Jun 2027 20:10:00.100   01 Jun 2027 20:16:00.233           360.133              Murmansk1         11254.156
        37   01 Jun 2027 21:54:36.705   01 Jun 2027 21:55:11.343            34.638                Anadyr1          1082.438
        38   01 Jun 2027 21:55:54.315   01 Jun 2027 21:56:03.068             8.753                Anadyr1           273.531
        39   01 Jun 2027 21:56:03.068   01 Jun 2027 21:57:06.645            63.577                Anadyr2          1986.781
        40   01 Jun 2027 21:58:26.156   01 Jun 2027 21:58:40.565            14.409                Anadyr1           450.281
        41   01 Jun 2027 21:59:29.402   01 Jun 2027 21:59:39.808            10.406                Anadyr1           325.187
        42   01 Jun 2027 21:59:42.327   01 Jun 2027 22:00:05.365            23.038               Magadan1           719.937
        43   01 Jun 2027 22:00:28.847   01 Jun 2027 22:00:33.574             4.727                Anadyr1           147.719
        44   01 Jun 2027 22:00:36.883   01 Jun 2027 22:01:17.122            40.239                Anadyr1          1257.469
        45   01 Jun 2027 22:02:17.075   01 Jun 2027 22:02:20.523             3.448               Magadan1           107.750
        46   01 Jun 2027 22:02:50.115   01 Jun 2027 22:03:04.571            14.456                Anadyr2           451.750
        47   01 Jun 2027 22:03:27.825   01 Jun 2027 22:03:43.182            15.357                Anadyr2           479.906
        48   01 Jun 2027 22:03:53.071   01 Jun 2027 22:04:10.970            17.899               Magadan1           559.344
        49   01 Jun 2027 22:05:12.053   01 Jun 2027 22:05:26.142            14.089               Magadan1           440.281
        50   01 Jun 2027 22:06:24.048   01 Jun 2027 22:06:38.278            14.230               Magadan2           444.687
        51   01 Jun 2027 22:06:38.278   01 Jun 2027 22:06:44.677             6.399               Magadan1           199.969
        52   01 Jun 2027 22:06:53.599   01 Jun 2027 22:07:17.447            23.848               Magadan1           745.250
        53   01 Jun 2027 22:07:56.194   01 Jun 2027 22:08:19.904            23.710               Magadan1           740.937
        54   01 Jun 2027 22:51:44.578   01 Jun 2027 22:52:29.515            44.937            RioGallegos          1404.281
        55   01 Jun 2027 22:53:29.535   01 Jun 2027 22:54:11.115            41.580            RioGallegos          1299.375
        56   01 Jun 2027 22:55:52.134   01 Jun 2027 22:56:13.002            20.868            RioGallegos           652.125
        57   01 Jun 2027 22:56:58.019   01 Jun 2027 22:57:13.554            15.535            RioGallegos           485.469
        58   01 Jun 2027 23:30:00.434   01 Jun 2027 23:31:57.262           116.828                Anadyr1          3650.875
        59   01 Jun 2027 23:31:57.262   01 Jun 2027 23:33:16.463            79.201                Anadyr2          2475.031
        60   01 Jun 2027 23:33:31.743   01 Jun 2027 23:34:15.010            43.267               Magadan2          1352.094
        61   01 Jun 2027 23:36:39.586   01 Jun 2027 23:37:40.882            61.296                Irkutsk          1915.500
        62   01 Jun 2027 23:39:19.667   01 Jun 2027 23:39:53.671            34.004               Magadan2          1062.625
        63   01 Jun 2027 23:41:56.956   01 Jun 2027 23:42:12.201            15.245                Irkutsk           476.406
        64   01 Jun 2027 23:43:15.257   01 Jun 2027 23:43:51.086            35.829               Magadan2          1119.656
        65   01 Jun 2027 23:46:24.769   01 Jun 2027 23:47:00.390            35.621                Irkutsk          1113.156
        66   01 Jun 2027 23:55:55.383   01 Jun 2027 23:56:01.723             6.340                Sumatra           198.125
        67   01 Jun 2027 23:56:27.508   01 Jun 2027 23:57:18.624            51.116                Sumatra          1597.375
        68   01 Jun 2027 23:57:35.601   01 Jun 2027 23:57:56.049            20.448                Sumatra           639.000
        69   02 Jun 2027 00:01:16.278   02 Jun 2027 00:01:43.229            26.951                Sumatra           842.219
        70   02 Jun 2027 00:31:38.252   02 Jun 2027 00:32:29.554            51.302            RioGallegos          1603.187
        71   02 Jun 2027 00:34:26.756   02 Jun 2027 00:35:24.265            57.509            RioGallegos          1797.156
        72   02 Jun 2027 01:05:06.365   02 Jun 2027 01:05:16.864            10.499                Anadyr1           328.094
        73   02 Jun 2027 01:05:46.363   02 Jun 2027 01:06:27.760            41.397                Anadyr1          1293.656
        74   02 Jun 2027 01:07:08.795   02 Jun 2027 01:07:29.788            20.993                Anadyr2           656.031
        75   02 Jun 2027 01:07:49.168   02 Jun 2027 01:07:54.737             5.569                Anadyr1           174.031
        76   02 Jun 2027 01:07:58.321   02 Jun 2027 01:08:52.365            54.044                Norilsk          1688.875
        77   02 Jun 2027 01:08:53.984   02 Jun 2027 01:09:03.268             9.284               Magadan1           290.125
        78   02 Jun 2027 01:09:21.269   02 Jun 2027 01:09:33.700            12.431                Norilsk           388.469
        79   02 Jun 2027 01:09:34.958   02 Jun 2027 01:09:42.444             7.486               Magadan2           233.937
        80   02 Jun 2027 01:10:28.077   02 Jun 2027 01:10:36.338             8.261               Magadan2           258.156
        81   02 Jun 2027 01:10:59.740   02 Jun 2027 01:11:04.014             4.274               Magadan1           133.563
        82   02 Jun 2027 01:11:39.101   02 Jun 2027 01:11:48.195             9.094                Norilsk           284.187
        83   02 Jun 2027 01:11:49.608   02 Jun 2027 01:12:13.231            23.623               Magadan2           738.219
        84   02 Jun 2027 01:12:59.927   02 Jun 2027 01:13:15.168            15.241                Novosib           476.281
        85   02 Jun 2027 01:13:27.027   02 Jun 2027 01:13:44.617            17.590                Novosib           549.687
        86   02 Jun 2027 01:15:56.726   02 Jun 2027 01:16:07.153            10.427               Magadan2           325.844
        87   02 Jun 2027 01:16:19.440   02 Jun 2027 01:16:34.669            15.229                Irkutsk           475.906
        88   02 Jun 2027 01:17:37.569   02 Jun 2027 01:18:51.804            74.235                Irkutsk          2319.844
        89   02 Jun 2027 01:22:28.670   02 Jun 2027 01:23:08.936            40.266                Novosib          1258.313
        90   02 Jun 2027 01:27:21.138   02 Jun 2027 01:28:18.754            57.616                Sumatra          1800.500
        91   02 Jun 2027 01:30:36.132   02 Jun 2027 01:30:54.073            17.941                Sumatra           560.656
        92   02 Jun 2027 01:34:27.103   02 Jun 2027 01:36:02.679            95.576                Sumatra          2986.750
        93   02 Jun 2027 02:09:45.466   02 Jun 2027 02:09:56.305            10.839            RioGallegos           338.719
        94   02 Jun 2027 02:10:52.505   02 Jun 2027 02:11:18.262            25.757            RioGallegos           804.906
        95   02 Jun 2027 02:11:22.020   02 Jun 2027 02:11:38.870            16.850            RioGallegos           526.562
        96   02 Jun 2027 02:40:41.149   02 Jun 2027 02:40:54.514            13.365                Anadyr2           417.656
        97   02 Jun 2027 02:41:04.691   02 Jun 2027 02:41:41.612            36.921                Anadyr2          1153.781
        98   02 Jun 2027 02:43:59.379   02 Jun 2027 02:44:38.144            38.765                Norilsk          1211.406
        99   02 Jun 2027 02:45:11.594   02 Jun 2027 02:45:16.728             5.134                Norilsk           160.438
       100   02 Jun 2027 02:46:15.599   02 Jun 2027 02:46:55.867            40.268                Norilsk          1258.375
       101   02 Jun 2027 02:48:01.445   02 Jun 2027 02:48:24.903            23.458              Murmansk2           733.062
       102   02 Jun 2027 02:48:52.525   02 Jun 2027 02:49:28.987            36.462                Irkutsk          1139.437
       103   02 Jun 2027 02:52:15.765   02 Jun 2027 02:52:37.779            22.014                Irkutsk           687.937
       104   02 Jun 2027 02:53:15.442   02 Jun 2027 02:53:44.686            29.244                Irkutsk           913.875
       105   02 Jun 2027 02:55:57.009   02 Jun 2027 02:56:29.393            32.384                Irkutsk          1012.000
       106   02 Jun 2027 02:57:59.098   02 Jun 2027 02:58:34.857            35.759                Irkutsk          1117.469
       107   02 Jun 2027 03:37:40.164   02 Jun 2027 03:39:56.974           136.810            RioGallegos          4275.313
       108   02 Jun 2027 03:40:53.529   02 Jun 2027 03:42:35.342           101.813            RioGallegos          3181.656
       109   02 Jun 2027 04:27:35.800   02 Jun 2027 04:27:41.696             5.896                Irkutsk           184.250
       110   02 Jun 2027 04:29:37.889   02 Jun 2027 04:30:23.228            45.339              Murmansk1          1416.844
       111   02 Jun 2027 04:30:44.515   02 Jun 2027 04:31:47.918            63.403                Novosib          1981.344
       112   02 Jun 2027 04:32:01.170   02 Jun 2027 04:33:01.803            60.633                Novosib          1894.781
       113   02 Jun 2027 04:33:17.648   02 Jun 2027 04:33:30.093            12.445              Murmansk2           388.906
       114   02 Jun 2027 04:35:02.377   02 Jun 2027 04:37:29.763           147.386                  Delhi          4605.813
       115   02 Jun 2027 06:03:48.501   02 Jun 2027 06:03:56.196             7.695                Novosib           240.469
       116   02 Jun 2027 06:06:45.536   02 Jun 2027 06:06:48.924             3.388                Norilsk           105.875
       117   02 Jun 2027 06:07:02.018   02 Jun 2027 06:08:09.241            67.223                 Moscow          2100.719
       118   02 Jun 2027 06:08:09.873   02 Jun 2027 06:08:29.453            19.580              Murmansk2           611.875
       119   02 Jun 2027 06:08:45.309   02 Jun 2027 06:10:20.005            94.696                 Moscow          2959.250
       120   02 Jun 2027 06:10:33.275   02 Jun 2027 06:10:57.819            24.544              Murmansk1           767.000
       121   02 Jun 2027 07:29:28.250   02 Jun 2027 07:31:12.545           104.295               Magadan1          3259.219
       122   02 Jun 2027 09:04:35.487   02 Jun 2027 09:05:11.241            35.754                Anadyr1          1117.312
       123   02 Jun 2027 09:06:49.429   02 Jun 2027 09:10:07.384           197.955                Anadyr2          6186.094
       124   02 Jun 2027 09:10:07.384   02 Jun 2027 09:10:32.269            24.885                Anadyr1           777.656
       125   02 Jun 2027 09:14:51.255   02 Jun 2027 09:15:42.662            51.407                 Moscow          1606.469
       126   02 Jun 2027 10:39:53.782   02 Jun 2027 10:44:23.419           269.637               Magadan1          8426.156
       127   02 Jun 2027 10:44:44.749   02 Jun 2027 10:45:06.829            22.080              Murmansk1           690.000
       128   02 Jun 2027 10:45:14.098   02 Jun 2027 10:45:48.698            34.600              Murmansk1          1081.250
       129   02 Jun 2027 10:45:53.320   02 Jun 2027 10:45:58.410             5.090                Norilsk           159.063
       130   02 Jun 2027 10:46:02.553   02 Jun 2027 10:46:06.666             4.113                Norilsk           128.531
       131   02 Jun 2027 10:46:17.753   02 Jun 2027 10:46:19.017             1.264              Murmansk2            39.500
       132   02 Jun 2027 10:46:27.286   02 Jun 2027 10:46:39.198            11.912                Novosib           372.250
       133   02 Jun 2027 10:46:42.814   02 Jun 2027 10:46:57.684            14.870              Murmansk1           464.687
       134   02 Jun 2027 10:48:26.584   02 Jun 2027 10:48:31.861             5.277              Murmansk1           164.906
       135   02 Jun 2027 10:53:51.666   02 Jun 2027 10:53:57.416             5.750              Murmansk2           179.688
       136   02 Jun 2027 11:20:54.080   02 Jun 2027 11:22:03.779            69.699            RioGallegos          2178.094
       137   02 Jun 2027 11:56:42.681   02 Jun 2027 11:57:39.086            56.405                Sumatra          1762.656
       138   02 Jun 2027 12:09:17.983   02 Jun 2027 12:11:25.928           127.945                Irkutsk          3998.281
       139   02 Jun 2027 12:13:38.415   02 Jun 2027 12:13:59.114            20.699                Novosib           646.844
       140   02 Jun 2027 12:14:59.692   02 Jun 2027 12:15:17.514            17.822                Norilsk           556.938
       141   02 Jun 2027 12:17:03.883   02 Jun 2027 12:17:44.064            40.181                Irkutsk          1255.656
       142   02 Jun 2027 12:21:21.013   02 Jun 2027 12:23:01.383           100.370                Norilsk          3136.563
       143   02 Jun 2027 12:58:08.187   02 Jun 2027 12:58:50.924            42.737            RioGallegos          1335.531
       144   02 Jun 2027 13:01:50.868   02 Jun 2027 13:02:55.767            64.899            RioGallegos          2028.094
       145   02 Jun 2027 13:32:20.554   02 Jun 2027 13:34:08.677           108.123                Sumatra          3378.844
       146   02 Jun 2027 13:36:39.083   02 Jun 2027 13:37:35.885            56.802                Sumatra          1775.063
       147   02 Jun 2027 13:47:38.374   02 Jun 2027 13:50:10.679           152.305                Irkutsk          4759.531
       148   02 Jun 2027 13:50:40.794   02 Jun 2027 13:52:26.334           105.540                Irkutsk          3298.125
       149   02 Jun 2027 15:17:20.464   02 Jun 2027 15:20:26.387           185.923                  Delhi          5810.094
       150   02 Jun 2027 15:25:46.577   02 Jun 2027 15:27:35.691           109.114                Novosib          3409.812
       151   02 Jun 2027 15:27:59.191   02 Jun 2027 15:31:58.297           239.106                Novosib          7472.062
       152   02 Jun 2027 17:11:03.783   02 Jun 2027 17:13:52.119           168.336                Norilsk          5260.500
       153   02 Jun 2027 18:13:56.491   02 Jun 2027 18:14:33.013            36.522               CapeTown          1141.313
       154   02 Jun 2027 18:16:47.179   02 Jun 2027 18:16:56.232             9.053               CapeTown           282.906
       155   02 Jun 2027 18:22:40.303   02 Jun 2027 18:23:27.212            46.909               CapeTown          1465.906
       156   02 Jun 2027 18:39:56.383   02 Jun 2027 18:43:44.560           228.177                 Moscow          7130.531
       157   02 Jun 2027 18:46:47.945   02 Jun 2027 18:46:57.053             9.108              Murmansk2           284.625
       158   02 Jun 2027 18:50:26.013   02 Jun 2027 18:51:23.907            57.894              Murmansk2          1809.187
       159   02 Jun 2027 18:52:02.512   02 Jun 2027 18:52:04.924             2.412              Murmansk1            75.375
       160   02 Jun 2027 18:59:51.140   02 Jun 2027 18:59:51.670             0.530                Anadyr2            16.562
       161   02 Jun 2027 19:01:01.930   02 Jun 2027 19:01:39.485            37.555                Anadyr2          1173.594
       162   02 Jun 2027 19:50:28.421   02 Jun 2027 19:51:21.524            53.103               CapeTown          1659.469
       163   02 Jun 2027 19:53:45.409   02 Jun 2027 19:55:23.235            97.826               CapeTown          3057.063
       164   02 Jun 2027 20:22:55.726   02 Jun 2027 20:27:46.808           291.082              Murmansk1          9096.313
       165   02 Jun 2027 20:38:58.454   02 Jun 2027 20:39:08.724            10.270               Magadan1           320.937
       166   02 Jun 2027 20:39:35.084   02 Jun 2027 20:39:55.148            20.064               Magadan2           627.000
       167   02 Jun 2027 22:06:16.029   02 Jun 2027 22:10:02.583           226.554                Anadyr1          7079.812
       168   02 Jun 2027 22:10:07.262   02 Jun 2027 22:11:27.143            79.881                Anadyr2          2496.281
       169   02 Jun 2027 22:11:48.200   02 Jun 2027 22:14:19.746           151.546               Magadan2          4735.812
       170   02 Jun 2027 23:01:05.266   02 Jun 2027 23:03:31.030           145.764            RioGallegos          4555.125
       171   02 Jun 2027 23:06:04.282   02 Jun 2027 23:06:22.659            18.377            RioGallegos           574.281
       172   02 Jun 2027 23:06:27.549   02 Jun 2027 23:07:30.778            63.229            RioGallegos          1975.906
       173   02 Jun 2027 23:41:58.827   02 Jun 2027 23:43:07.670            68.843                Anadyr1          2151.344
       174   02 Jun 2027 23:44:05.450   02 Jun 2027 23:45:44.270            98.820                Norilsk          3088.125
       175   02 Jun 2027 23:46:57.768   02 Jun 2027 23:47:28.122            30.354               Magadan2           948.563
       176   02 Jun 2027 23:48:08.574   02 Jun 2027 23:49:08.575            60.001               Magadan2          1875.031
       177   02 Jun 2027 23:49:33.037   02 Jun 2027 23:49:40.858             7.821                Irkutsk           244.406
       178   02 Jun 2027 23:53:59.282   02 Jun 2027 23:54:16.013            16.731                Irkutsk           522.844
       179   02 Jun 2027 23:54:33.641   02 Jun 2027 23:54:35.536             1.895                Irkutsk            59.219
       180   02 Jun 2027 23:54:46.559   02 Jun 2027 23:55:34.539            47.980                Irkutsk          1499.375
       181   03 Jun 2027 00:02:30.277   03 Jun 2027 00:04:14.658           104.381                Sumatra          3261.906
       182   03 Jun 2027 00:11:48.960   03 Jun 2027 00:12:26.530            37.570                Sumatra          1174.063
       183   03 Jun 2027 00:35:58.571   03 Jun 2027 00:36:09.697            11.126            RioGallegos           347.687
       184   03 Jun 2027 00:36:46.764   03 Jun 2027 00:37:02.914            16.150            RioGallegos           504.688
       185   03 Jun 2027 00:39:12.663   03 Jun 2027 00:39:46.248            33.585            RioGallegos          1049.531
       186   03 Jun 2027 00:45:33.398   03 Jun 2027 00:45:43.567            10.169            RioGallegos           317.781
       187   03 Jun 2027 00:47:30.387   03 Jun 2027 00:47:34.726             4.339            RioGallegos           135.594
       188   03 Jun 2027 01:16:56.792   03 Jun 2027 01:18:08.674            71.882                Anadyr2          2246.312
       189   03 Jun 2027 01:18:40.417   03 Jun 2027 01:19:37.502            57.085                Anadyr2          1783.906
       190   03 Jun 2027 01:20:00.632   03 Jun 2027 01:21:18.348            77.716                Norilsk          2428.625
       191   03 Jun 2027 01:21:37.636   03 Jun 2027 01:22:26.749            49.113               Magadan2          1534.781
       192   03 Jun 2027 01:23:53.032   03 Jun 2027 01:25:48.348           115.316                Irkutsk          3603.625
       193   03 Jun 2027 01:26:32.494   03 Jun 2027 01:28:53.260           140.766                Novosib          4398.937
       194   03 Jun 2027 01:38:34.543   03 Jun 2027 01:39:30.939            56.396                Sumatra          1762.375
       195   03 Jun 2027 02:12:59.833   03 Jun 2027 02:13:30.577            30.744            RioGallegos           960.750
       196   03 Jun 2027 02:13:44.840   03 Jun 2027 02:14:00.542            15.702            RioGallegos           490.688
       197   03 Jun 2027 02:17:48.456   03 Jun 2027 02:19:10.971            82.515            RioGallegos          2578.594
       198   03 Jun 2027 02:56:01.430   03 Jun 2027 02:56:56.782            55.352                Norilsk          1729.750
       199   03 Jun 2027 02:57:09.228   03 Jun 2027 02:57:42.318            33.090                Norilsk          1034.062
       200   03 Jun 2027 02:58:28.682   03 Jun 2027 02:59:03.732            35.050              Murmansk2          1095.313
       201   03 Jun 2027 02:59:47.884   03 Jun 2027 03:00:28.722            40.838                Novosib          1276.188
       202   03 Jun 2027 03:01:23.140   03 Jun 2027 03:01:28.026             4.886                Norilsk           152.687
       203   03 Jun 2027 03:01:39.318   03 Jun 2027 03:02:07.225            27.907              Murmansk1           872.094
       204   03 Jun 2027 03:02:07.225   03 Jun 2027 03:03:10.109            62.884              Murmansk2          1965.125
       205   03 Jun 2027 03:03:33.614   03 Jun 2027 03:04:20.172            46.558                Novosib          1454.938
       206   03 Jun 2027 03:04:23.617   03 Jun 2027 03:05:26.980            63.363              Murmansk2          1980.094
       207   03 Jun 2027 03:06:06.443   03 Jun 2027 03:06:08.702             2.259                 Moscow            70.594
       208   03 Jun 2027 03:06:09.892   03 Jun 2027 03:07:06.422            56.530                 Moscow          1766.562
       209   03 Jun 2027 03:07:13.537   03 Jun 2027 03:11:28.078           254.541                  Delhi          7954.406
       210   03 Jun 2027 03:50:25.698   03 Jun 2027 03:50:29.847             4.149            RioGallegos           129.656
       211   03 Jun 2027 04:38:47.828   03 Jun 2027 04:39:02.207            14.379                Novosib           449.344
       212   03 Jun 2027 04:39:49.274   03 Jun 2027 04:40:07.143            17.869                Novosib           558.406
       213   03 Jun 2027 04:41:09.246   03 Jun 2027 04:41:26.219            16.973              Murmansk2           530.406
       214   03 Jun 2027 04:41:43.944   03 Jun 2027 04:41:59.509            15.565              Murmansk2           486.406
       215   03 Jun 2027 04:42:09.514   03 Jun 2027 04:43:04.428            54.914                 Moscow          1716.063
       216   03 Jun 2027 04:43:26.138   03 Jun 2027 04:44:34.477            68.339              Murmansk1          2135.594
       217   03 Jun 2027 04:44:34.477   03 Jun 2027 04:44:41.494             7.017              Murmansk2           219.281
       218   03 Jun 2027 04:44:41.494   03 Jun 2027 04:45:50.309            68.815              Murmansk1          2150.469
       219   03 Jun 2027 04:48:14.028   03 Jun 2027 04:48:24.301            10.273                 Moscow           321.031
       220   03 Jun 2027 05:02:27.019   03 Jun 2027 05:03:26.034            59.015               CapeTown          1844.219
       221   03 Jun 2027 05:03:52.349   03 Jun 2027 05:05:24.798            92.449               CapeTown          2889.031
       222   03 Jun 2027 05:58:13.791   03 Jun 2027 05:58:20.435             6.644                Anadyr1           207.625
       223   03 Jun 2027 05:58:20.435   03 Jun 2027 05:58:32.765            12.330                Anadyr2           385.313
       224   03 Jun 2027 05:58:50.539   03 Jun 2027 05:59:19.687            29.148                Anadyr2           910.875
       225   03 Jun 2027 06:16:51.482   03 Jun 2027 06:16:54.501             3.019                Novosib            94.344
       226   03 Jun 2027 06:17:09.991   03 Jun 2027 06:17:38.081            28.090              Murmansk2           877.813
       227   03 Jun 2027 06:17:41.994   03 Jun 2027 06:18:31.458            49.464              Murmansk2          1545.750
       228   03 Jun 2027 06:19:00.055   03 Jun 2027 06:19:43.094            43.039              Murmansk1          1344.969
       229   03 Jun 2027 06:19:45.399   03 Jun 2027 06:22:04.479           139.080                 Moscow          4346.250
       230   03 Jun 2027 06:38:46.773   03 Jun 2027 06:39:07.301            20.528               CapeTown           641.500
       231   03 Jun 2027 06:42:12.575   03 Jun 2027 06:42:15.810             3.235               CapeTown           101.094
       232   03 Jun 2027 07:40:13.076   03 Jun 2027 07:40:29.149            16.073               Magadan1           502.281
       233   03 Jun 2027 07:40:29.149   03 Jun 2027 07:40:44.977            15.828               Magadan2           494.625
       234   03 Jun 2027 07:41:03.523   03 Jun 2027 07:42:24.505            80.982                Anadyr2          2530.687
       235   03 Jun 2027 07:42:33.970   03 Jun 2027 07:42:56.328            22.358                Anadyr2           698.687
       236   03 Jun 2027 07:43:26.567   03 Jun 2027 07:43:44.864            18.297               Magadan2           571.781
       237   03 Jun 2027 07:44:27.113   03 Jun 2027 07:44:32.527             5.414               Magadan1           169.188
       238   03 Jun 2027 07:44:45.658   03 Jun 2027 07:45:21.125            35.467                Anadyr1          1108.344
       239   03 Jun 2027 07:50:15.218   03 Jun 2027 07:51:12.960            57.742                 Moscow          1804.437
       240   03 Jun 2027 09:16:27.450   03 Jun 2027 09:17:21.966            54.516                Norilsk          1703.625
       241   03 Jun 2027 09:17:36.719   03 Jun 2027 09:20:54.667           197.948                Anadyr1          6185.875
       242   03 Jun 2027 10:47:57.685   03 Jun 2027 10:48:03.995             6.310               Magadan1           197.187
       243   03 Jun 2027 10:51:41.628   03 Jun 2027 10:57:49.852           368.224               Magadan2         11507.000
       244   03 Jun 2027 12:08:19.902   03 Jun 2027 12:09:55.388            95.486                Sumatra          2983.937
       245   03 Jun 2027 12:21:23.693   03 Jun 2027 12:23:18.030           114.337                Irkutsk          3573.031
       246   03 Jun 2027 12:24:35.791   03 Jun 2027 12:25:36.083            60.292                Irkutsk          1884.125
       247   03 Jun 2027 12:29:34.070   03 Jun 2027 12:31:08.944            94.874                Norilsk          2964.813
       248   03 Jun 2027 13:10:37.664   03 Jun 2027 13:12:11.720            94.056            RioGallegos          2939.250
       249   03 Jun 2027 13:44:51.176   03 Jun 2027 13:47:30.581           159.405                Sumatra          4981.406
       250   03 Jun 2027 13:48:40.684   03 Jun 2027 13:49:52.317            71.633                Sumatra          2238.531
       251   03 Jun 2027 14:00:23.944   03 Jun 2027 14:02:04.325           100.381                Irkutsk          3136.906
       252   03 Jun 2027 14:05:39.068   03 Jun 2027 14:07:04.338            85.270                Irkutsk          2664.687
       253   03 Jun 2027 15:30:07.270   03 Jun 2027 15:32:48.178           160.908                  Delhi          5028.375
       254   03 Jun 2027 15:38:37.584   03 Jun 2027 15:42:29.329           231.745                Novosib          7242.031
       255   03 Jun 2027 15:43:02.334   03 Jun 2027 15:43:04.236             1.902                Novosib            59.438
       256   03 Jun 2027 15:45:39.097   03 Jun 2027 15:46:07.168            28.071                Novosib           877.219
       257   03 Jun 2027 17:12:43.328   03 Jun 2027 17:12:45.985             2.657                 Moscow            83.031
       258   03 Jun 2027 17:13:08.071   03 Jun 2027 17:14:07.604            59.533                 Moscow          1860.406
       259   03 Jun 2027 17:16:11.926   03 Jun 2027 17:16:28.887            16.961              Murmansk2           530.031
       260   03 Jun 2027 17:17:08.176   03 Jun 2027 17:17:35.452            27.276              Murmansk1           852.375
       261   03 Jun 2027 17:18:39.707   03 Jun 2027 17:19:08.795            29.088              Murmansk1           909.000
       262   03 Jun 2027 17:22:57.773   03 Jun 2027 17:24:33.698            95.925              Murmansk1          2997.656
       263   03 Jun 2027 17:31:26.679   03 Jun 2027 17:32:04.050            37.371                Anadyr2          1167.844
       264   03 Jun 2027 18:25:52.352   03 Jun 2027 18:27:57.483           125.131               CapeTown          3910.344
       265   03 Jun 2027 18:52:57.392   03 Jun 2027 18:56:51.180           233.788                 Moscow          7305.875
       266   03 Jun 2027 18:58:39.226   03 Jun 2027 18:58:47.075             7.849              Murmansk1           245.281
       267   03 Jun 2027 18:59:18.688   03 Jun 2027 19:00:49.939            91.251              Murmansk1          2851.594
       268   03 Jun 2027 20:02:51.931   03 Jun 2027 20:03:40.733            48.802               CapeTown          1525.063
       269   03 Jun 2027 20:06:33.716   03 Jun 2027 20:08:02.997            89.281               CapeTown          2790.031
       270   03 Jun 2027 20:36:04.055   03 Jun 2027 20:39:22.756           198.701              Murmansk2          6209.406
       271   03 Jun 2027 20:44:54.940   03 Jun 2027 20:46:18.941            84.001               Magadan1          2625.031
       272   03 Jun 2027 20:49:07.111   03 Jun 2027 20:49:34.762            27.651               Magadan1           864.094
       273   03 Jun 2027 20:52:01.373   03 Jun 2027 20:52:52.004            50.631               Magadan1          1582.219
       274   03 Jun 2027 22:18:17.273   03 Jun 2027 22:23:24.136           306.863                Anadyr1          9589.469
       275   03 Jun 2027 22:23:32.095   03 Jun 2027 22:24:29.429            57.334                Norilsk          1791.688
       276   03 Jun 2027 22:24:56.148   03 Jun 2027 22:25:40.166            44.018               Magadan1          1375.563
       277   03 Jun 2027 22:27:18.532   03 Jun 2027 22:27:36.566            18.034               Magadan2           563.562
       278   03 Jun 2027 22:30:29.136   03 Jun 2027 22:30:37.365             8.229               Magadan1           257.156
       279   03 Jun 2027 22:31:01.798   03 Jun 2027 22:31:04.966             3.168               Magadan1            99.000
       280   03 Jun 2027 23:12:50.031   03 Jun 2027 23:15:35.608           165.577            RioGallegos          5174.281
       281   03 Jun 2027 23:16:57.609   03 Jun 2027 23:16:58.933             1.324            RioGallegos            41.375
       282   03 Jun 2027 23:53:56.526   03 Jun 2027 23:55:58.220           121.694                Anadyr1          3802.937
       283   03 Jun 2027 23:56:05.872   03 Jun 2027 23:57:45.635            99.763                Norilsk          3117.594
       284   03 Jun 2027 23:58:03.843   03 Jun 2027 23:58:20.004            16.161               Magadan2           505.031
       285   03 Jun 2027 23:59:02.302   03 Jun 2027 23:59:14.064            11.762                Norilsk           367.562
       286   03 Jun 2027 23:59:37.501   04 Jun 2027 00:00:39.457            61.956               Magadan1          1936.125
       287   04 Jun 2027 00:01:01.371   04 Jun 2027 00:01:41.784            40.413                Irkutsk          1262.906
       288   04 Jun 2027 00:02:44.214   04 Jun 2027 00:04:37.767           113.553                Novosib          3548.531
       289   04 Jun 2027 00:14:51.143   04 Jun 2027 00:15:19.090            27.947                Sumatra           873.344
       290   04 Jun 2027 00:16:06.332   04 Jun 2027 00:16:36.720            30.388                Sumatra           949.625
       291   04 Jun 2027 00:20:28.903   04 Jun 2027 00:20:34.617             5.714                Sumatra           178.563
       292   04 Jun 2027 00:24:19.001   04 Jun 2027 00:26:01.199           102.198                Sumatra          3193.688
       293   04 Jun 2027 01:28:45.881   04 Jun 2027 01:29:13.695            27.814                Anadyr2           869.187
       294   04 Jun 2027 01:29:13.695   04 Jun 2027 01:29:48.896            35.201                Anadyr1          1100.031
       295   04 Jun 2027 01:30:46.657   04 Jun 2027 01:31:19.697            33.040                Anadyr2          1032.500
       296   04 Jun 2027 01:32:03.009   04 Jun 2027 01:33:49.303           106.294                Norilsk          3321.688
       297   04 Jun 2027 01:33:58.529   04 Jun 2027 01:34:17.084            18.555               Magadan2           579.844
       298   04 Jun 2027 01:34:27.830   04 Jun 2027 01:34:40.349            12.519               Magadan1           391.219
       299   04 Jun 2027 01:35:55.545   04 Jun 2027 01:37:46.875           111.330                Irkutsk          3479.062
       300   04 Jun 2027 01:38:18.525   04 Jun 2027 01:39:29.524            70.999                Novosib          2218.719
       301   04 Jun 2027 01:44:22.277   04 Jun 2027 01:44:46.196            23.919                  Delhi           747.469
       302   04 Jun 2027 01:49:42.779   04 Jun 2027 01:49:51.518             8.739                  Delhi           273.094
       303   04 Jun 2027 01:51:11.023   04 Jun 2027 01:52:47.418            96.395                Sumatra          3012.344
       304   04 Jun 2027 01:54:39.355   04 Jun 2027 01:56:03.341            83.986                Sumatra          2624.562
       305   04 Jun 2027 02:27:39.558   04 Jun 2027 02:27:39.978             0.420            RioGallegos            13.125
       306   04 Jun 2027 02:30:29.558   04 Jun 2027 02:31:26.538            56.980            RioGallegos          1780.625
       307   04 Jun 2027 03:13:50.337   04 Jun 2027 03:15:28.585            98.248                Irkutsk          3070.250
       308   04 Jun 2027 03:16:18.678   04 Jun 2027 03:17:19.908            61.230              Murmansk2          1913.438
       309   04 Jun 2027 03:17:19.908   04 Jun 2027 03:17:34.701            14.793              Murmansk1           462.281
       310   04 Jun 2027 03:17:49.447   04 Jun 2027 03:18:52.271            62.824              Murmansk1          1963.250
       311   04 Jun 2027 03:19:08.080   04 Jun 2027 03:19:23.601            15.521                Novosib           485.031
       312   04 Jun 2027 03:19:57.986   04 Jun 2027 03:20:13.929            15.943                Norilsk           498.219
       313   04 Jun 2027 03:22:27.580   04 Jun 2027 03:22:37.777            10.197                Novosib           318.656
       314   04 Jun 2027 03:23:29.867   04 Jun 2027 03:23:53.094            23.227                Novosib           725.844
       315   04 Jun 2027 03:24:30.075   04 Jun 2027 03:24:31.560             1.485                Novosib            46.406
       316   04 Jun 2027 04:53:15.497   04 Jun 2027 04:55:21.827           126.330                 Moscow          3947.813
       317   04 Jun 2027 04:55:26.307   04 Jun 2027 04:57:22.362           116.055                Novosib          3626.719
       318   04 Jun 2027 04:57:31.732   04 Jun 2027 04:57:33.988             2.256              Murmansk1            70.500
       319   04 Jun 2027 04:57:35.277   04 Jun 2027 04:58:08.366            33.089              Murmansk2          1034.031
       320   04 Jun 2027 04:59:06.970   04 Jun 2027 05:00:17.960            70.990                 Moscow          2218.437
       321   04 Jun 2027 05:14:03.611   04 Jun 2027 05:15:12.344            68.733               CapeTown          2147.906
       322   04 Jun 2027 06:10:09.425   04 Jun 2027 06:10:48.167            38.742                Anadyr2          1210.688
       323   04 Jun 2027 06:11:16.041   04 Jun 2027 06:11:21.393             5.352                Anadyr1           167.250
       324   04 Jun 2027 06:17:39.790   04 Jun 2027 06:17:52.610            12.820                Anadyr1           400.625
       325   04 Jun 2027 06:18:27.033   04 Jun 2027 06:18:30.659             3.626               Magadan2           113.312
       326   04 Jun 2027 06:18:49.013   04 Jun 2027 06:20:10.399            81.386                Anadyr2          2543.312
       327   04 Jun 2027 06:20:10.399   04 Jun 2027 06:20:26.659            16.260                Anadyr1           508.125
       328   04 Jun 2027 06:29:04.090   04 Jun 2027 06:29:28.891            24.801              Murmansk2           775.031
       329   04 Jun 2027 06:29:28.891   04 Jun 2027 06:30:24.418            55.527              Murmansk1          1735.219
       330   04 Jun 2027 06:31:05.454   04 Jun 2027 06:31:05.825             0.371                 Moscow            11.594
       331   04 Jun 2027 06:31:07.714   04 Jun 2027 06:31:13.762             6.048              Murmansk2           189.000
       332   04 Jun 2027 06:31:23.532   04 Jun 2027 06:31:48.462            24.930                 Moscow           779.063
       333   04 Jun 2027 06:32:57.504   04 Jun 2027 06:33:24.249            26.745              Murmansk1           835.781
       334   04 Jun 2027 06:36:45.555   04 Jun 2027 06:37:05.768            20.213                 Moscow           631.656
       335   04 Jun 2027 06:49:51.798   04 Jun 2027 06:50:36.612            44.814               CapeTown          1400.438
       336   04 Jun 2027 06:52:05.293   04 Jun 2027 06:54:16.750           131.457               CapeTown          4108.031
       337   04 Jun 2027 07:52:41.334   04 Jun 2027 07:52:47.483             6.149               Magadan1           192.156
       338   04 Jun 2027 07:53:03.949   04 Jun 2027 07:54:19.382            75.433                Anadyr1          2357.281
       339   04 Jun 2027 07:54:25.252   04 Jun 2027 07:54:38.888            13.636               Magadan1           426.125
       340   04 Jun 2027 07:55:03.233   04 Jun 2027 07:56:10.189            66.956                Anadyr2          2092.375
       341   04 Jun 2027 08:04:02.161   04 Jun 2027 08:04:21.434            19.273                 Moscow           602.281
       342   04 Jun 2027 08:42:01.746   04 Jun 2027 08:42:46.063            44.317            RioGallegos          1384.906
       343   04 Jun 2027 09:27:05.656   04 Jun 2027 09:30:46.548           220.892                Anadyr2          6902.875
       344   04 Jun 2027 09:31:21.125   04 Jun 2027 09:34:23.692           182.567                Anadyr1          5705.219
       345   04 Jun 2027 11:02:54.097   04 Jun 2027 11:05:22.129           148.032               Magadan2          4626.000
       346   04 Jun 2027 11:05:33.029   04 Jun 2027 11:09:39.851           246.822               Magadan1          7713.187
       347   04 Jun 2027 11:09:57.278   04 Jun 2027 11:10:02.946             5.668              Murmansk2           177.125
       348   04 Jun 2027 11:10:06.228   04 Jun 2027 11:10:21.205            14.977              Murmansk2           468.031
       349   04 Jun 2027 11:10:21.205   04 Jun 2027 11:10:46.131            24.926              Murmansk1           778.938
       350   04 Jun 2027 11:11:07.707   04 Jun 2027 11:11:38.076            30.369              Murmansk1           949.031
       351   04 Jun 2027 11:44:54.595   04 Jun 2027 11:45:58.870            64.275            RioGallegos          2008.594
       352   04 Jun 2027 12:20:04.519   04 Jun 2027 12:20:47.511            42.992                Sumatra          1343.500
       353   04 Jun 2027 12:23:50.419   04 Jun 2027 12:24:08.521            18.102                Sumatra           565.687
       354   04 Jun 2027 12:32:06.506   04 Jun 2027 12:32:15.187             8.681                  Delhi           271.281
       355   04 Jun 2027 12:33:32.902   04 Jun 2027 12:35:13.258           100.356                Irkutsk          3136.125
       356   04 Jun 2027 12:36:35.355   04 Jun 2027 12:37:28.210            52.855                Irkutsk          1651.719
       357   04 Jun 2027 12:38:15.291   04 Jun 2027 12:39:18.837            63.546                Norilsk          1985.812
       358   04 Jun 2027 12:44:02.680   04 Jun 2027 12:44:54.333            51.653              Murmansk1          1614.156
       359   04 Jun 2027 13:23:15.880   04 Jun 2027 13:25:47.114           151.234            RioGallegos          4726.062
       360   04 Jun 2027 13:26:10.815   04 Jun 2027 13:28:02.794           111.979            RioGallegos          3499.344
       361   04 Jun 2027 13:57:34.940   04 Jun 2027 13:57:38.614             3.674                Sumatra           114.813
       362   04 Jun 2027 14:00:36.580   04 Jun 2027 14:02:16.529            99.949                Sumatra          3123.406
       363   04 Jun 2027 14:13:20.926   04 Jun 2027 14:14:01.379            40.453                Irkutsk          1264.156
       364   04 Jun 2027 14:17:26.716   04 Jun 2027 14:17:39.128            12.412                Irkutsk           387.875
       365   04 Jun 2027 14:18:05.652   04 Jun 2027 14:20:18.865           133.213                Irkutsk          4162.906
       366   04 Jun 2027 15:43:14.014   04 Jun 2027 15:47:21.165           247.151                  Delhi          7723.469
       367   04 Jun 2027 15:51:42.108   04 Jun 2027 15:54:49.245           187.137                Novosib          5848.031
       368   04 Jun 2027 17:24:59.592   04 Jun 2027 17:26:06.418            66.826                 Moscow          2088.312
       369   04 Jun 2027 17:29:09.700   04 Jun 2027 17:30:37.767            88.067              Murmansk1          2752.094
       370   04 Jun 2027 17:43:14.001   04 Jun 2027 17:44:05.489            51.488                Anadyr1          1609.000
       371   04 Jun 2027 17:45:23.634   04 Jun 2027 17:46:01.511            37.877                Anadyr2          1183.656
       372   04 Jun 2027 17:46:29.009   04 Jun 2027 17:46:41.253            12.244                Anadyr2           382.625
       373   04 Jun 2027 18:37:51.220   04 Jun 2027 18:40:14.615           143.395               CapeTown          4481.094
       374   04 Jun 2027 19:06:21.887   04 Jun 2027 19:10:01.440           219.553                 Moscow          6861.031
       375   04 Jun 2027 19:10:45.252   04 Jun 2027 19:11:51.534            66.282              Murmansk1          2071.313
       376   04 Jun 2027 19:12:50.947   04 Jun 2027 19:14:16.547            85.600              Murmansk2          2675.000
       377   04 Jun 2027 20:15:23.592   04 Jun 2027 20:15:50.273            26.681               CapeTown           833.781
       378   04 Jun 2027 20:18:20.861   04 Jun 2027 20:20:22.640           121.779               CapeTown          3805.594
       379   04 Jun 2027 20:55:25.401   04 Jun 2027 20:56:06.011            40.610                Anadyr2          1269.063
       380   04 Jun 2027 20:56:12.125   04 Jun 2027 20:57:32.601            80.476                Anadyr1          2514.875
       381   04 Jun 2027 20:57:34.288   04 Jun 2027 20:58:22.225            47.937               Magadan1          1498.031
       382   04 Jun 2027 20:58:44.400   04 Jun 2027 20:59:08.002            23.602               Magadan2           737.562
       383   04 Jun 2027 20:59:52.871   04 Jun 2027 20:59:59.577             6.706               Magadan2           209.562
       384   04 Jun 2027 21:00:17.556   04 Jun 2027 21:01:08.649            51.093               Magadan2          1596.656
       385   04 Jun 2027 21:03:44.080   04 Jun 2027 21:04:22.460            38.380               Magadan2          1199.375
       386   04 Jun 2027 22:30:18.276   04 Jun 2027 22:35:16.718           298.442                Anadyr2          9326.313
       387   04 Jun 2027 22:35:24.920   04 Jun 2027 22:35:36.912            11.992                Norilsk           374.750
       388   04 Jun 2027 22:35:38.027   04 Jun 2027 22:36:43.282            65.255               Magadan1          2039.219
       389   04 Jun 2027 22:36:43.282   04 Jun 2027 22:37:17.670            34.388               Magadan2          1074.625
       390   04 Jun 2027 22:37:42.248   04 Jun 2027 22:37:51.833             9.585               Magadan1           299.531
       391   04 Jun 2027 22:39:28.120   04 Jun 2027 22:39:32.279             4.159               Magadan1           129.969
       392   04 Jun 2027 22:39:46.509   04 Jun 2027 22:40:06.543            20.034               Magadan1           626.062
       393   04 Jun 2027 22:40:30.341   04 Jun 2027 22:41:07.966            37.625                Irkutsk          1175.781
       394   04 Jun 2027 23:24:38.740   04 Jun 2027 23:26:46.980           128.240            RioGallegos          4007.500
       395   04 Jun 2027 23:27:41.080   04 Jun 2027 23:28:01.031            19.951            RioGallegos           623.469
       396   04 Jun 2027 23:33:01.547   04 Jun 2027 23:33:23.343            21.796            RioGallegos           681.125
       397   05 Jun 2027 00:05:53.450   05 Jun 2027 00:07:57.954           124.504                Anadyr2          3890.750
       398   05 Jun 2027 00:08:06.803   05 Jun 2027 00:09:51.617           104.814                Norilsk          3275.438
       399   05 Jun 2027 00:10:57.274   05 Jun 2027 00:11:06.484             9.210                Norilsk           287.813
       400   05 Jun 2027 00:11:07.611   05 Jun 2027 00:11:23.063            15.452               Magadan1           482.875
       401   05 Jun 2027 00:12:09.197   05 Jun 2027 00:12:30.260            21.063               Magadan1           658.219
       402   05 Jun 2027 00:13:13.471   05 Jun 2027 00:13:43.567            30.096                Irkutsk           940.500
       403   05 Jun 2027 00:13:54.595   05 Jun 2027 00:15:51.303           116.708                Novosib          3647.125
       404   05 Jun 2027 00:25:59.265   05 Jun 2027 00:26:42.385            43.120                Sumatra          1347.500
       405   05 Jun 2027 00:28:35.035   05 Jun 2027 00:28:51.400            16.365                Sumatra           511.406
       406   05 Jun 2027 00:29:36.832   05 Jun 2027 00:29:38.422             1.590                Sumatra            49.687
       407   05 Jun 2027 00:33:48.284   05 Jun 2027 00:34:09.817            21.533                Sumatra           672.906
       408   05 Jun 2027 00:34:26.121   05 Jun 2027 00:35:28.272            62.151                Sumatra          1942.219
       409   05 Jun 2027 01:04:18.159   05 Jun 2027 01:04:45.491            27.332            RioGallegos           854.125
       410   05 Jun 2027 01:07:41.484   05 Jun 2027 01:07:47.480             5.996            RioGallegos           187.375
       411   05 Jun 2027 01:08:47.724   05 Jun 2027 01:09:01.661            13.937            RioGallegos           435.531
       412   05 Jun 2027 01:09:37.521   05 Jun 2027 01:09:55.698            18.177            RioGallegos           568.031
       413   05 Jun 2027 01:40:33.646   05 Jun 2027 01:41:50.246            76.600                Anadyr2          2393.750
       414   05 Jun 2027 01:41:50.246   05 Jun 2027 01:42:43.226            52.980                Anadyr1          1655.625
       415   05 Jun 2027 01:44:05.419   05 Jun 2027 01:45:36.348            90.929                Norilsk          2841.531
       416   05 Jun 2027 01:45:43.001   05 Jun 2027 01:46:31.396            48.395               Magadan2          1512.344
       417   05 Jun 2027 01:47:58.853   05 Jun 2027 01:49:46.526           107.673                Irkutsk          3364.781
       418   05 Jun 2027 01:52:58.673   05 Jun 2027 01:53:26.061            27.388                Irkutsk           855.875
       419   05 Jun 2027 01:57:20.151   05 Jun 2027 01:57:25.506             5.355                Irkutsk           167.344
       420   05 Jun 2027 01:57:33.025   05 Jun 2027 01:58:38.342            65.317                Irkutsk          2041.156
       421   05 Jun 2027 02:04:04.408   05 Jun 2027 02:06:32.318           147.910                Sumatra          4622.188
       422   05 Jun 2027 02:39:22.102   05 Jun 2027 02:39:41.760            19.658            RioGallegos           614.312
       423   05 Jun 2027 02:40:32.764   05 Jun 2027 02:40:39.355             6.591            RioGallegos           205.969
       424   05 Jun 2027 02:44:45.944   05 Jun 2027 02:45:16.348            30.404            RioGallegos           950.125
       425   05 Jun 2027 03:27:44.169   05 Jun 2027 03:28:14.197            30.028              Murmansk2           938.375
       426   05 Jun 2027 03:28:53.887   05 Jun 2027 03:29:11.819            17.932              Murmansk2           560.375
       427   05 Jun 2027 03:29:27.353   05 Jun 2027 03:29:50.446            23.093              Murmansk2           721.656
       428   05 Jun 2027 03:29:51.667   05 Jun 2027 03:30:04.222            12.555                 Moscow           392.344
       429   05 Jun 2027 03:30:08.210   05 Jun 2027 03:30:17.042             8.832                Irkutsk           276.000
       430   05 Jun 2027 03:30:17.995   05 Jun 2027 03:31:07.537            49.542              Murmansk2          1548.188
       431   05 Jun 2027 03:31:14.298   05 Jun 2027 03:31:16.441             2.143                Norilsk            66.969
       432   05 Jun 2027 03:31:16.972   05 Jun 2027 03:31:32.926            15.954              Murmansk2           498.562
       433   05 Jun 2027 03:31:46.542   05 Jun 2027 03:32:09.031            22.489                Norilsk           702.781
       434   05 Jun 2027 03:33:51.779   05 Jun 2027 03:34:11.872            20.093                Novosib           627.906
       435   05 Jun 2027 03:34:53.433   05 Jun 2027 03:36:23.611            90.178                Novosib          2818.062
       436   05 Jun 2027 04:53:41.264   05 Jun 2027 04:54:04.399            23.135                Anadyr2           722.969
       437   05 Jun 2027 05:03:49.621   05 Jun 2027 05:04:26.350            36.729                Novosib          1147.781
       438   05 Jun 2027 05:05:09.229   05 Jun 2027 05:05:48.441            39.212                Norilsk          1225.375
       439   05 Jun 2027 05:05:54.968   05 Jun 2027 05:06:15.289            20.321                Novosib           635.031
       440   05 Jun 2027 05:06:24.426   05 Jun 2027 05:07:44.465            80.039                Novosib          2501.219
       441   05 Jun 2027 05:07:47.866   05 Jun 2027 05:08:22.576            34.710              Murmansk2          1084.688
       442   05 Jun 2027 05:08:29.941   05 Jun 2027 05:09:00.863            30.922                 Moscow           966.313
       443   05 Jun 2027 05:09:10.080   05 Jun 2027 05:09:21.798            11.718              Murmansk1           366.188
       444   05 Jun 2027 05:09:33.643   05 Jun 2027 05:09:36.403             2.760              Murmansk2            86.250
       445   05 Jun 2027 05:09:38.647   05 Jun 2027 05:09:43.895             5.248                 Moscow           164.000
       446   05 Jun 2027 05:10:51.806   05 Jun 2027 05:11:05.859            14.053                 Moscow           439.156
       447   05 Jun 2027 05:11:44.188   05 Jun 2027 05:12:47.849            63.661                 Moscow          1989.406
       448   05 Jun 2027 05:13:36.755   05 Jun 2027 05:13:40.146             3.391                 Moscow           105.969
       449   05 Jun 2027 05:25:46.103   05 Jun 2027 05:26:30.928            44.825               CapeTown          1400.781
       450   05 Jun 2027 05:28:00.044   05 Jun 2027 05:28:20.784            20.740               CapeTown           648.125
       451   05 Jun 2027 05:29:09.759   05 Jun 2027 05:29:41.891            32.132               CapeTown          1004.125
       452   05 Jun 2027 06:29:12.743   05 Jun 2027 06:29:30.810            18.067                Anadyr2           564.594
       453   05 Jun 2027 06:29:46.372   05 Jun 2027 06:31:08.359            81.987                Anadyr2          2562.094
       454   05 Jun 2027 06:38:50.392   05 Jun 2027 06:39:11.670            21.278                 Moscow           664.938
       455   05 Jun 2027 06:40:32.279   05 Jun 2027 06:40:41.233             8.954                Norilsk           279.812
       456   05 Jun 2027 06:40:58.018   05 Jun 2027 06:41:21.584            23.566                 Moscow           736.438
       457   05 Jun 2027 06:41:44.370   05 Jun 2027 06:42:01.094            16.724              Murmansk1           522.625
       458   05 Jun 2027 06:42:15.984   05 Jun 2027 06:43:08.592            52.608                 Moscow          1644.000
       459   05 Jun 2027 06:44:49.791   05 Jun 2027 06:45:05.776            15.985                 Moscow           499.531
       460   05 Jun 2027 07:02:18.751   05 Jun 2027 07:03:05.422            46.671               CapeTown          1458.469
       461   05 Jun 2027 07:03:52.156   05 Jun 2027 07:04:28.143            35.987               CapeTown          1124.594
       462   05 Jun 2027 08:03:06.648   05 Jun 2027 08:03:09.713             3.065                Anadyr2            95.781
       463   05 Jun 2027 08:03:22.349   05 Jun 2027 08:04:04.239            41.890                Anadyr2          1309.062
       464   05 Jun 2027 08:04:49.759   05 Jun 2027 08:05:17.167            27.408               Magadan1           856.500
       465   05 Jun 2027 08:06:12.248   05 Jun 2027 08:07:54.499           102.251                Anadyr2          3195.344
       466   05 Jun 2027 08:18:03.182   05 Jun 2027 08:18:06.267             3.085                 Moscow            96.406
       467   05 Jun 2027 08:51:07.955   05 Jun 2027 08:51:24.157            16.202            RioGallegos           506.312
       468   05 Jun 2027 09:37:54.353   05 Jun 2027 09:40:07.747           133.394                Anadyr1          4168.562
       469   05 Jun 2027 09:40:36.890   05 Jun 2027 09:41:22.835            45.945               Magadan2          1435.781
       470   05 Jun 2027 09:41:22.835   05 Jun 2027 09:42:41.583            78.748               Magadan1          2460.875
       471   05 Jun 2027 09:42:43.666   05 Jun 2027 09:44:13.936            90.270                Anadyr2          2820.937
       472   05 Jun 2027 09:44:44.392   05 Jun 2027 09:45:10.387            25.995                Irkutsk           812.344
       473   05 Jun 2027 09:45:31.264   05 Jun 2027 09:45:35.810             4.546              Murmansk1           142.062
       474   05 Jun 2027 09:46:25.911   05 Jun 2027 09:46:27.907             1.996              Murmansk1            62.375
       475   05 Jun 2027 09:53:59.570   05 Jun 2027 09:54:28.178            28.608              Murmansk1           894.000
       476   05 Jun 2027 10:22:05.829   05 Jun 2027 10:22:42.711            36.882            RioGallegos          1152.562
       477   05 Jun 2027 10:25:11.242   05 Jun 2027 10:25:13.579             2.337            RioGallegos            73.031
       478   05 Jun 2027 10:29:42.402   05 Jun 2027 10:30:38.846            56.444            RioGallegos          1763.875
       479   05 Jun 2027 11:14:59.808   05 Jun 2027 11:17:52.515           172.707               Magadan1          5397.094
       480   05 Jun 2027 11:17:52.515   05 Jun 2027 11:17:56.357             3.842               Magadan2           120.063
       481   05 Jun 2027 11:18:06.678   05 Jun 2027 11:21:26.131           199.453               Magadan2          6232.906
       482   05 Jun 2027 11:21:41.811   05 Jun 2027 11:22:30.832            49.021                Novosib          1531.906
