uniorb/output/strategy_2/Drop/Drop_KinoSat_111901.txt

KinoSat_111901
-------------------------
    Access    *     Start Time (UTCG)     *     Stop Time (UTCG)  *   Duration (s)        *       Station  *  Data (Mbytes)
         1   01 Jun 2027 03:42:45.906   01 Jun 2027 03:43:02.225            16.319              Murmansk2           509.969
         2   01 Jun 2027 03:43:34.376   01 Jun 2027 03:44:11.293            36.917                 Moscow          1153.656
         3   01 Jun 2027 03:44:14.172   01 Jun 2027 03:44:28.877            14.705                Irkutsk           459.531
         4   01 Jun 2027 03:44:38.784   01 Jun 2027 03:45:07.772            28.988                Irkutsk           905.875
         5   01 Jun 2027 03:45:08.379   01 Jun 2027 03:45:36.492            28.113                Novosib           878.531
         6   01 Jun 2027 03:45:41.375   01 Jun 2027 03:46:06.668            25.293                Novosib           790.406
         7   01 Jun 2027 03:46:10.198   01 Jun 2027 03:48:35.030           144.832                Irkutsk          4526.000
         8   01 Jun 2027 03:49:46.763   01 Jun 2027 03:50:41.055            54.292                Novosib          1696.625
         9   01 Jun 2027 05:04:23.419   01 Jun 2027 05:04:51.914            28.495                Anadyr2           890.469
        10   01 Jun 2027 05:12:18.025   01 Jun 2027 05:12:20.681             2.656               Magadan1            83.000
        11   01 Jun 2027 05:13:08.934   01 Jun 2027 05:13:31.014            22.080               Magadan1           690.000
        12   01 Jun 2027 05:20:41.748   01 Jun 2027 05:21:33.872            52.124                 Moscow          1628.875
        13   01 Jun 2027 05:21:40.096   01 Jun 2027 05:23:18.417            98.321                Norilsk          3072.531
        14   01 Jun 2027 05:23:42.592   01 Jun 2027 05:24:37.148            54.556              Murmansk1          1704.875
        15   01 Jun 2027 05:24:37.148   01 Jun 2027 05:24:51.436            14.288              Murmansk2           446.500
        16   01 Jun 2027 05:24:54.166   01 Jun 2027 05:27:25.895           151.729                 Moscow          4741.531
        17   01 Jun 2027 05:28:04.877   01 Jun 2027 05:29:05.790            60.913                 Moscow          1903.531
        18   01 Jun 2027 05:41:14.720   01 Jun 2027 05:44:29.407           194.687               CapeTown          6083.969
        19   01 Jun 2027 06:56:33.827   01 Jun 2027 06:56:51.414            17.587                Norilsk           549.594
        20   01 Jun 2027 06:57:01.579   01 Jun 2027 06:58:16.106            74.527              Murmansk2          2328.969
        21   01 Jun 2027 06:58:16.106   01 Jun 2027 07:00:10.264           114.158              Murmansk1          3567.438
        22   01 Jun 2027 07:00:10.264   01 Jun 2027 07:00:46.465            36.201              Murmansk2          1131.281
        23   01 Jun 2027 07:01:25.816   01 Jun 2027 07:02:10.590            44.774              Murmansk1          1399.188
        24   01 Jun 2027 07:02:10.590   01 Jun 2027 07:02:19.230             8.640              Murmansk2           270.000
        25   01 Jun 2027 07:03:49.456   01 Jun 2027 07:03:49.642             0.186                 Moscow             5.813
        26   01 Jun 2027 07:04:15.880   01 Jun 2027 07:04:26.979            11.099                 Moscow           346.844
        27   01 Jun 2027 07:04:54.269   01 Jun 2027 07:05:07.933            13.664                 Moscow           427.000
        28   01 Jun 2027 07:17:06.035   01 Jun 2027 07:18:11.439            65.404               CapeTown          2043.875
        29   01 Jun 2027 07:19:17.139   01 Jun 2027 07:22:17.527           180.388               CapeTown          5637.125
        30   01 Jun 2027 08:21:37.826   01 Jun 2027 08:24:02.760           144.934                Anadyr2          4529.188
        31   01 Jun 2027 08:24:52.797   01 Jun 2027 08:26:06.026            73.229                Anadyr2          2288.406
        32   01 Jun 2027 09:55:34.944   01 Jun 2027 09:58:33.787           178.843                Anadyr2          5588.844
        33   01 Jun 2027 09:59:22.272   01 Jun 2027 10:01:36.113           133.841                Anadyr2          4182.531
        34   01 Jun 2027 11:30:37.819   01 Jun 2027 11:36:51.858           374.039               Magadan1         11688.719
        35   01 Jun 2027 13:56:32.441   01 Jun 2027 13:56:42.327             9.886            RioGallegos           308.938
        36   01 Jun 2027 14:30:57.448   01 Jun 2027 14:33:08.628           131.180                Sumatra          4099.375
        37   01 Jun 2027 14:41:35.938   01 Jun 2027 14:42:50.420            74.482                Irkutsk          2327.563
        38   01 Jun 2027 14:44:35.837   01 Jun 2027 14:47:29.327           173.490                Irkutsk          5421.563
        39   01 Jun 2027 16:10:32.600   01 Jun 2027 16:14:28.600           236.000                  Delhi          7375.000
        40   01 Jun 2027 16:14:57.009   01 Jun 2027 16:17:00.174           123.165                  Delhi          3848.906
        41   01 Jun 2027 16:21:58.429   01 Jun 2027 16:24:45.563           167.134                Novosib          5222.937
        42   01 Jun 2027 19:33:41.814   01 Jun 2027 19:37:32.855           231.041                 Moscow          7220.031
        43   01 Jun 2027 19:38:01.010   01 Jun 2027 19:38:41.849            40.839              Murmansk1          1276.219
        44   01 Jun 2027 20:42:39.220   01 Jun 2027 20:45:53.585           194.365               CapeTown          6073.906
        45   01 Jun 2027 20:48:21.819   01 Jun 2027 20:50:21.752           119.933               CapeTown          3747.906
        46   01 Jun 2027 23:11:44.371   01 Jun 2027 23:11:48.869             4.498               Magadan2           140.563
        47   01 Jun 2027 23:12:36.399   01 Jun 2027 23:12:40.584             4.185               Magadan1           130.781
        48   01 Jun 2027 23:51:50.423   01 Jun 2027 23:53:29.861            99.438            RioGallegos          3107.438
        49   01 Jun 2027 23:53:40.241   01 Jun 2027 23:54:03.975            23.734            RioGallegos           741.687
        50   01 Jun 2027 23:55:21.633   01 Jun 2027 23:55:59.081            37.448            RioGallegos          1170.250
        51   01 Jun 2027 23:57:55.421   01 Jun 2027 23:59:00.220            64.799            RioGallegos          2024.969
        52   02 Jun 2027 00:02:06.122   02 Jun 2027 00:02:43.318            37.196            RioGallegos          1162.375
        53   02 Jun 2027 00:02:49.260   02 Jun 2027 00:02:54.647             5.387            RioGallegos           168.344
        54   02 Jun 2027 00:33:05.999   02 Jun 2027 00:34:34.351            88.352                Anadyr1          2761.000
        55   02 Jun 2027 00:34:34.351   02 Jun 2027 00:35:08.298            33.947                Anadyr2          1060.844
        56   02 Jun 2027 00:35:50.722   02 Jun 2027 00:36:19.600            28.878                Norilsk           902.437
        57   02 Jun 2027 00:36:25.189   02 Jun 2027 00:36:48.868            23.679               Magadan1           739.969
        58   02 Jun 2027 00:37:38.080   02 Jun 2027 00:38:11.577            33.497               Magadan1          1046.781
        59   02 Jun 2027 00:39:20.984   02 Jun 2027 00:39:47.857            26.873               Magadan1           839.781
        60   02 Jun 2027 00:40:26.045   02 Jun 2027 00:40:36.863            10.818               Magadan1           338.062
        61   02 Jun 2027 00:40:38.801   02 Jun 2027 00:41:03.442            24.641                Irkutsk           770.031
        62   02 Jun 2027 00:41:04.062   02 Jun 2027 00:41:17.143            13.081                Novosib           408.781
        63   02 Jun 2027 00:42:05.665   02 Jun 2027 00:43:14.389            68.724                Novosib          2147.625
        64   02 Jun 2027 00:43:38.503   02 Jun 2027 00:43:57.276            18.773                Novosib           586.656
        65   02 Jun 2027 00:46:09.015   02 Jun 2027 00:46:17.586             8.571                Irkutsk           267.844
        66   02 Jun 2027 00:46:52.769   02 Jun 2027 00:47:07.238            14.469                Irkutsk           452.156
        67   02 Jun 2027 00:47:20.842   02 Jun 2027 00:47:47.566            26.724                Irkutsk           835.125
        68   02 Jun 2027 00:48:44.827   02 Jun 2027 00:48:58.940            14.113                Irkutsk           441.031
        69   02 Jun 2027 00:50:10.606   02 Jun 2027 00:50:39.951            29.345                Irkutsk           917.031
        70   02 Jun 2027 00:56:54.963   02 Jun 2027 00:58:36.637           101.674                Sumatra          3177.313
        71   02 Jun 2027 01:02:40.528   02 Jun 2027 01:03:19.731            39.203                Sumatra          1225.094
        72   02 Jun 2027 01:33:38.589   02 Jun 2027 01:34:06.139            27.550            RioGallegos           860.938
        73   02 Jun 2027 01:36:09.475   02 Jun 2027 01:36:50.342            40.867            RioGallegos          1277.094
        74   02 Jun 2027 01:39:51.969   02 Jun 2027 01:40:03.428            11.459            RioGallegos           358.094
        75   02 Jun 2027 02:07:45.572   02 Jun 2027 02:08:44.259            58.687                Anadyr1          1833.969
        76   02 Jun 2027 02:09:00.903   02 Jun 2027 02:09:32.601            31.698                Anadyr1           990.562
        77   02 Jun 2027 02:10:49.597   02 Jun 2027 02:10:56.659             7.062                Anadyr1           220.688
        78   02 Jun 2027 02:11:12.462   02 Jun 2027 02:11:40.867            28.405                Anadyr1           887.656
        79   02 Jun 2027 02:11:48.043   02 Jun 2027 02:12:20.555            32.512                Norilsk          1016.000
        80   02 Jun 2027 02:12:55.766   02 Jun 2027 02:13:33.371            37.605               Magadan1          1175.156
        81   02 Jun 2027 02:15:11.753   02 Jun 2027 02:17:31.907           140.154                Irkutsk          4379.812
        82   02 Jun 2027 02:23:10.758   02 Jun 2027 02:23:23.743            12.985                Irkutsk           405.781
        83   02 Jun 2027 02:24:06.267   02 Jun 2027 02:24:39.002            32.735                Irkutsk          1022.969
        84   02 Jun 2027 02:26:49.914   02 Jun 2027 02:26:57.877             7.963                Novosib           248.844
        85   02 Jun 2027 02:27:37.293   02 Jun 2027 02:27:44.517             7.224                Irkutsk           225.750
        86   02 Jun 2027 02:30:07.163   02 Jun 2027 02:32:21.137           133.974                  Delhi          4186.688
        87   02 Jun 2027 02:36:44.088   02 Jun 2027 02:37:40.936            56.848                Sumatra          1776.500
        88   02 Jun 2027 03:06:04.303   02 Jun 2027 03:07:13.222            68.919            RioGallegos          2153.719
        89   02 Jun 2027 03:07:56.474   02 Jun 2027 03:08:03.549             7.075            RioGallegos           221.094
        90   02 Jun 2027 03:10:49.934   02 Jun 2027 03:12:13.696            83.762            RioGallegos          2617.563
        91   02 Jun 2027 03:56:06.548   02 Jun 2027 03:56:09.469             2.921              Murmansk1            91.281
        92   02 Jun 2027 03:56:12.861   02 Jun 2027 03:56:38.761            25.900                 Moscow           809.375
        93   02 Jun 2027 03:56:40.391   02 Jun 2027 03:57:28.658            48.267                Novosib          1508.344
        94   02 Jun 2027 03:57:40.125   02 Jun 2027 03:58:48.238            68.113              Murmansk2          2128.531
        95   02 Jun 2027 03:58:51.219   02 Jun 2027 03:59:05.914            14.695                  Delhi           459.219
        96   02 Jun 2027 03:59:59.701   02 Jun 2027 04:00:31.489            31.788                Novosib           993.375
        97   02 Jun 2027 04:00:49.656   02 Jun 2027 04:03:20.371           150.715                  Delhi          4709.844
        98   02 Jun 2027 04:04:38.256   02 Jun 2027 04:10:04.569           326.313                  Delhi         10197.281
        99   02 Jun 2027 05:33:00.637   02 Jun 2027 05:34:24.220            83.583              Murmansk2          2611.969
       100   02 Jun 2027 05:34:27.833   02 Jun 2027 05:35:36.438            68.605                Novosib          2143.906
       101   02 Jun 2027 05:35:45.490   02 Jun 2027 05:36:19.776            34.286              Murmansk2          1071.438
       102   02 Jun 2027 05:36:25.062   02 Jun 2027 05:36:53.383            28.321              Murmansk2           885.031
       103   02 Jun 2027 05:37:30.655   02 Jun 2027 05:37:38.109             7.454              Murmansk1           232.937
       104   02 Jun 2027 05:38:11.884   02 Jun 2027 05:40:11.938           120.054                 Moscow          3751.688
       105   02 Jun 2027 05:52:57.628   02 Jun 2027 06:02:22.179           564.551               CapeTown         17642.219
       106   02 Jun 2027 06:02:52.130   02 Jun 2027 06:05:15.492           143.362               CapeTown          4480.062
       107   02 Jun 2027 06:56:29.984   02 Jun 2027 06:56:51.394            21.410               Magadan1           669.063
       108   02 Jun 2027 06:57:05.985   02 Jun 2027 06:58:09.345            63.360                Anadyr1          1980.000
       109   02 Jun 2027 07:01:11.508   02 Jun 2027 07:01:38.016            26.508               Magadan2           828.375
       110   02 Jun 2027 07:01:49.531   02 Jun 2027 07:02:12.731            23.200                Anadyr1           725.000
       111   02 Jun 2027 07:08:12.059   02 Jun 2027 07:09:33.801            81.742              Murmansk2          2554.438
       112   02 Jun 2027 07:09:37.711   02 Jun 2027 07:10:43.684            65.973                 Moscow          2061.656
       113   02 Jun 2027 07:10:52.000   02 Jun 2027 07:11:54.601            62.601              Murmansk1          1956.281
       114   02 Jun 2027 07:11:54.601   02 Jun 2027 07:12:03.743             9.142              Murmansk2           285.687
       115   02 Jun 2027 07:12:10.943   02 Jun 2027 07:12:52.237            41.294              Murmansk1          1290.438
       116   02 Jun 2027 07:13:27.458   02 Jun 2027 07:13:45.031            17.573                 Moscow           549.156
       117   02 Jun 2027 07:14:00.246   02 Jun 2027 07:14:07.979             7.733              Murmansk2           241.656
       118   02 Jun 2027 07:15:02.385   02 Jun 2027 07:15:59.499            57.114                 Moscow          1784.813
       119   02 Jun 2027 08:32:19.807   02 Jun 2027 08:34:13.266           113.459                Anadyr1          3545.594
       120   02 Jun 2027 08:34:13.266   02 Jun 2027 08:35:39.787            86.521                Anadyr2          2703.781
       121   02 Jun 2027 08:36:37.621   02 Jun 2027 08:38:06.761            89.140                Anadyr1          2785.625
       122   02 Jun 2027 10:05:09.781   02 Jun 2027 10:05:23.476            13.695                Anadyr1           427.969
       123   02 Jun 2027 10:05:25.976   02 Jun 2027 10:05:42.116            16.140               Magadan1           504.375
       124   02 Jun 2027 10:06:25.633   02 Jun 2027 10:13:28.897           423.264                Anadyr1         13227.000
       125   02 Jun 2027 11:42:11.366   02 Jun 2027 11:48:37.889           386.523               Magadan1         12078.844
       126   02 Jun 2027 11:49:28.109   02 Jun 2027 11:50:17.812            49.703              Murmansk1          1553.219
       127   02 Jun 2027 11:52:31.344   02 Jun 2027 11:52:44.400            13.056              Murmansk1           408.000
       128   02 Jun 2027 12:24:13.077   02 Jun 2027 12:25:11.094            58.017            RioGallegos          1813.031
       129   02 Jun 2027 12:27:25.132   02 Jun 2027 12:28:07.899            42.767            RioGallegos          1336.469
       130   02 Jun 2027 12:59:07.665   02 Jun 2027 13:02:09.499           181.834                Sumatra          5682.312
       131   02 Jun 2027 13:11:32.030   02 Jun 2027 13:11:48.170            16.140                Sumatra           504.375
       132   02 Jun 2027 13:13:19.698   02 Jun 2027 13:15:46.301           146.603                Irkutsk          4581.344
       133   02 Jun 2027 13:27:11.644   02 Jun 2027 13:27:24.888            13.244                Norilsk           413.875
       134   02 Jun 2027 13:28:33.654   02 Jun 2027 13:29:14.920            41.266                Norilsk          1289.562
       135   02 Jun 2027 14:03:19.049   02 Jun 2027 14:07:27.575           248.526            RioGallegos          7766.437
       136   02 Jun 2027 14:08:22.709   02 Jun 2027 14:10:36.632           133.923            RioGallegos          4185.094
       137   02 Jun 2027 14:38:01.778   02 Jun 2027 14:41:58.580           236.802                Sumatra          7400.063
       138   02 Jun 2027 14:53:56.957   02 Jun 2027 14:57:35.013           218.056                Irkutsk          6814.250
       139   02 Jun 2027 16:24:45.353   02 Jun 2027 16:27:02.782           137.429                  Delhi          4294.656
       140   02 Jun 2027 16:32:37.639   02 Jun 2027 16:35:43.973           186.334                Novosib          5822.937
       141   02 Jun 2027 16:39:38.938   02 Jun 2027 16:39:55.276            16.338                Norilsk           510.562
       142   02 Jun 2027 18:09:53.005   02 Jun 2027 18:10:25.867            32.862              Murmansk2          1026.937
       143   02 Jun 2027 18:10:56.110   02 Jun 2027 18:12:12.748            76.638              Murmansk1          2394.938
       144   02 Jun 2027 18:25:47.599   02 Jun 2027 18:25:52.372             4.773                Anadyr2           149.156
       145   02 Jun 2027 18:26:00.538   02 Jun 2027 18:26:13.786            13.248                Anadyr2           414.000
       146   02 Jun 2027 18:29:32.299   02 Jun 2027 18:29:53.605            21.306                Anadyr1           665.812
       147   02 Jun 2027 18:30:34.462   02 Jun 2027 18:31:00.730            26.268                Anadyr1           820.875
       148   02 Jun 2027 19:17:05.768   02 Jun 2027 19:19:49.036           163.268               CapeTown          5102.125
       149   02 Jun 2027 19:46:48.010   02 Jun 2027 19:47:39.646            51.636              Murmansk2          1613.625
       150   02 Jun 2027 19:49:29.058   02 Jun 2027 19:52:11.965           162.907              Murmansk2          5090.844
       151   02 Jun 2027 19:53:24.179   02 Jun 2027 19:54:16.526            52.347              Murmansk1          1635.844
       152   02 Jun 2027 20:06:25.431   02 Jun 2027 20:06:43.158            17.727               Magadan2           553.969
       153   02 Jun 2027 20:07:24.089   02 Jun 2027 20:07:25.387             1.298               Magadan1            40.563
       154   02 Jun 2027 20:55:27.111   02 Jun 2027 21:01:11.580           344.469               CapeTown         10764.656
       155   02 Jun 2027 21:36:01.783   02 Jun 2027 21:37:43.143           101.360               Magadan2          3167.500
       156   02 Jun 2027 21:38:37.925   02 Jun 2027 21:40:01.271            83.346               Magadan1          2604.563
       157   02 Jun 2027 23:09:31.752   02 Jun 2027 23:14:34.175           302.423                Anadyr1          9450.719
       158   02 Jun 2027 23:14:42.856   02 Jun 2027 23:15:19.792            36.936                Norilsk          1154.250
       159   02 Jun 2027 23:15:43.774   02 Jun 2027 23:16:06.515            22.741               Magadan1           710.656
       160   02 Jun 2027 23:16:07.607   02 Jun 2027 23:16:28.620            21.013                Norilsk           656.656
       161   02 Jun 2027 23:16:52.887   02 Jun 2027 23:17:29.572            36.685               Magadan1          1146.406
       162   02 Jun 2027 23:18:03.426   02 Jun 2027 23:18:40.249            36.823               Magadan1          1150.719
       163   02 Jun 2027 23:19:12.196   02 Jun 2027 23:19:38.019            25.823                Irkutsk           806.969
       164   02 Jun 2027 23:20:41.184   02 Jun 2027 23:20:49.437             8.253               Magadan2           257.906
       165   02 Jun 2027 23:20:59.639   02 Jun 2027 23:22:05.946            66.307                Irkutsk          2072.094
       166   03 Jun 2027 00:03:42.326   03 Jun 2027 00:05:07.896            85.570            RioGallegos          2674.063
       167   03 Jun 2027 00:05:53.897   03 Jun 2027 00:05:55.458             1.561            RioGallegos            48.781
       168   03 Jun 2027 00:06:04.530   03 Jun 2027 00:07:05.899            61.369            RioGallegos          1917.781
       169   03 Jun 2027 00:11:23.904   03 Jun 2027 00:11:47.261            23.357            RioGallegos           729.906
       170   03 Jun 2027 00:13:11.762   03 Jun 2027 00:14:13.465            61.703            RioGallegos          1928.219
       171   03 Jun 2027 00:45:02.019   03 Jun 2027 00:45:37.612            35.593                Anadyr2          1112.281
       172   03 Jun 2027 00:47:19.917   03 Jun 2027 00:47:39.858            19.941                Anadyr1           623.156
       173   03 Jun 2027 00:47:42.751   03 Jun 2027 00:48:01.755            19.004                Anadyr2           593.875
       174   03 Jun 2027 00:48:11.300   03 Jun 2027 00:49:13.614            62.314                Norilsk          1947.312
       175   03 Jun 2027 00:49:20.058   03 Jun 2027 00:50:49.537            89.479               Magadan2          2796.219
       176   03 Jun 2027 00:51:24.056   03 Jun 2027 00:52:36.906            72.850                Irkutsk          2276.563
       177   03 Jun 2027 00:54:12.951   03 Jun 2027 00:55:01.424            48.473                Novosib          1514.781
       178   03 Jun 2027 00:59:53.946   03 Jun 2027 01:00:25.554            31.608                Novosib           987.750
       179   03 Jun 2027 01:05:05.617   03 Jun 2027 01:05:41.454            35.837                Sumatra          1119.906
       180   03 Jun 2027 01:08:47.492   03 Jun 2027 01:11:02.724           135.232                Sumatra          4226.000
       181   03 Jun 2027 01:49:01.600   03 Jun 2027 01:50:05.267            63.667            RioGallegos          1989.594
       182   03 Jun 2027 02:20:27.339   03 Jun 2027 02:20:45.638            18.299                Anadyr1           571.844
       183   03 Jun 2027 02:21:50.584   03 Jun 2027 02:22:04.167            13.583                Anadyr1           424.469
       184   03 Jun 2027 02:23:20.550   03 Jun 2027 02:24:47.558            87.008                Norilsk          2719.000
       185   03 Jun 2027 02:25:45.028   03 Jun 2027 02:25:54.377             9.349               Magadan2           292.156
       186   03 Jun 2027 02:26:25.067   03 Jun 2027 02:27:04.525            39.458                Norilsk          1233.062
       187   03 Jun 2027 02:27:14.031   03 Jun 2027 02:28:09.556            55.525                Novosib          1735.156
       188   03 Jun 2027 02:28:26.194   03 Jun 2027 02:29:12.230            46.036                Novosib          1438.625
       189   03 Jun 2027 02:32:08.339   03 Jun 2027 02:32:14.965             6.626                Novosib           207.063
       190   03 Jun 2027 02:32:39.707   03 Jun 2027 02:32:52.274            12.567                Irkutsk           392.719
       191   03 Jun 2027 02:34:44.913   03 Jun 2027 02:35:41.793            56.880                  Delhi          1777.500
       192   03 Jun 2027 02:41:33.393   03 Jun 2027 02:41:35.919             2.526                  Delhi            78.938
       193   03 Jun 2027 02:43:23.519   03 Jun 2027 02:44:13.233            49.714                  Delhi          1553.562
       194   03 Jun 2027 02:45:00.403   03 Jun 2027 02:48:20.830           200.427                Sumatra          6263.344
       195   03 Jun 2027 03:19:32.837   03 Jun 2027 03:19:45.150            12.313            RioGallegos           384.781
       196   03 Jun 2027 03:24:59.213   03 Jun 2027 03:25:03.033             3.820            RioGallegos           119.375
       197   03 Jun 2027 04:04:06.392   03 Jun 2027 04:04:29.918            23.526                Irkutsk           735.188
       198   03 Jun 2027 04:07:39.415   03 Jun 2027 04:08:12.828            33.413                Irkutsk          1044.156
       199   03 Jun 2027 04:09:23.284   03 Jun 2027 04:10:15.676            52.392                 Moscow          1637.250
       200   03 Jun 2027 04:10:34.854   03 Jun 2027 04:10:45.512            10.658                Norilsk           333.063
       201   03 Jun 2027 04:10:51.616   03 Jun 2027 04:11:20.609            28.993              Murmansk1           906.031
       202   03 Jun 2027 04:11:46.789   03 Jun 2027 04:11:50.882             4.093                Norilsk           127.906
       203   03 Jun 2027 04:11:55.907   03 Jun 2027 04:12:31.961            36.054                Novosib          1126.688
       204   03 Jun 2027 04:12:38.838   03 Jun 2027 04:13:31.938            53.100                 Moscow          1659.375
       205   03 Jun 2027 04:14:30.577   03 Jun 2027 04:15:24.579            54.002                Novosib          1687.563
       206   03 Jun 2027 04:16:20.149   03 Jun 2027 04:21:33.450           313.301                  Delhi          9790.656
       207   03 Jun 2027 05:44:34.168   03 Jun 2027 05:45:20.212            46.044                 Moscow          1438.875
       208   03 Jun 2027 05:45:21.458   03 Jun 2027 05:46:47.050            85.592              Murmansk1          2674.750
       209   03 Jun 2027 05:46:48.225   03 Jun 2027 05:47:28.314            40.089              Murmansk1          1252.781
       210   03 Jun 2027 05:47:38.178   03 Jun 2027 05:48:17.938            39.760              Murmansk2          1242.500
       211   03 Jun 2027 05:48:17.938   03 Jun 2027 05:48:26.182             8.244              Murmansk1           257.625
       212   03 Jun 2027 05:48:26.182   03 Jun 2027 05:48:44.936            18.754              Murmansk2           586.062
       213   03 Jun 2027 05:48:47.588   03 Jun 2027 05:50:16.188            88.600                 Moscow          2768.750
       214   03 Jun 2027 05:52:10.454   03 Jun 2027 05:52:11.644             1.190                 Moscow            37.187
       215   03 Jun 2027 06:04:45.943   03 Jun 2027 06:05:07.446            21.503               CapeTown           671.969
       216   03 Jun 2027 06:07:15.262   03 Jun 2027 06:07:42.845            27.583               CapeTown           861.969
       217   03 Jun 2027 06:08:23.488   03 Jun 2027 06:08:26.050             2.562               CapeTown            80.062
       218   03 Jun 2027 06:12:00.751   03 Jun 2027 06:12:26.111            25.360               CapeTown           792.500
       219   03 Jun 2027 06:13:49.397   03 Jun 2027 06:14:14.579            25.182               CapeTown           786.937
       220   03 Jun 2027 07:07:30.433   03 Jun 2027 07:07:51.733            21.300                Anadyr2           665.625
       221   03 Jun 2027 07:07:51.733   03 Jun 2027 07:08:02.117            10.384                Anadyr1           324.500
       222   03 Jun 2027 07:08:10.295   03 Jun 2027 07:08:41.651            31.356               Magadan2           979.875
       223   03 Jun 2027 07:09:15.220   03 Jun 2027 07:10:09.446            54.226                Anadyr2          1694.563
       224   03 Jun 2027 07:10:53.757   03 Jun 2027 07:11:23.104            29.347                Anadyr1           917.094
       225   03 Jun 2027 07:20:04.801   03 Jun 2027 07:20:29.169            24.368              Murmansk2           761.500
       226   03 Jun 2027 07:21:03.470   03 Jun 2027 07:21:24.607            21.137              Murmansk2           660.531
       227   03 Jun 2027 07:22:26.481   03 Jun 2027 07:22:28.744             2.263              Murmansk2            70.719
       228   03 Jun 2027 07:23:01.499   03 Jun 2027 07:23:57.951            56.452              Murmansk1          1764.125
       229   03 Jun 2027 07:42:10.208   03 Jun 2027 07:45:05.154           174.946               CapeTown          5467.063
       230   03 Jun 2027 08:42:03.935   03 Jun 2027 08:43:01.606            57.671               Magadan1          1802.219
       231   03 Jun 2027 08:43:24.762   03 Jun 2027 08:44:19.203            54.441                Anadyr2          1701.281
       232   03 Jun 2027 08:44:41.787   03 Jun 2027 08:45:53.439            71.652               Magadan2          2239.125
       233   03 Jun 2027 08:46:14.520   03 Jun 2027 08:47:03.572            49.052                Anadyr1          1532.875
       234   03 Jun 2027 08:47:52.857   03 Jun 2027 08:47:55.405             2.548               Magadan2            79.625
       235   03 Jun 2027 08:47:58.404   03 Jun 2027 08:48:08.014             9.610                Anadyr1           300.312
       236   03 Jun 2027 08:55:52.142   03 Jun 2027 08:57:16.905            84.763                 Moscow          2648.844
       237   03 Jun 2027 10:16:07.393   03 Jun 2027 10:18:04.775           117.382               Magadan1          3668.188
       238   03 Jun 2027 10:18:47.533   03 Jun 2027 10:20:18.441            90.908               Magadan2          2840.875
       239   03 Jun 2027 10:20:46.100   03 Jun 2027 10:21:24.848            38.748                Irkutsk          1210.875
       240   03 Jun 2027 10:21:35.539   03 Jun 2027 10:22:03.796            28.257                Irkutsk           883.031
       241   03 Jun 2027 10:22:21.677   03 Jun 2027 10:24:15.089           113.412                Anadyr1          3544.125
       242   03 Jun 2027 10:24:53.825   03 Jun 2027 10:25:30.825            37.000              Murmansk2          1156.250
       243   03 Jun 2027 10:26:12.346   03 Jun 2027 10:26:28.771            16.425              Murmansk2           513.281
       244   03 Jun 2027 11:00:59.900   03 Jun 2027 11:01:35.592            35.692            RioGallegos          1115.375
       245   03 Jun 2027 11:05:21.329   03 Jun 2027 11:05:27.498             6.169            RioGallegos           192.781
       246   03 Jun 2027 11:09:00.069   03 Jun 2027 11:09:33.681            33.612            RioGallegos          1050.375
       247   03 Jun 2027 11:40:12.027   03 Jun 2027 11:40:42.289            30.262                Sumatra           945.688
       248   03 Jun 2027 11:53:29.257   03 Jun 2027 12:00:18.009           408.752               Magadan2         12773.500
       249   03 Jun 2027 13:30:32.132   03 Jun 2027 13:31:10.925            38.793                Irkutsk          1212.281
       250   03 Jun 2027 13:33:30.909   03 Jun 2027 13:34:29.301            58.392                Irkutsk          1824.750
       251   03 Jun 2027 13:42:16.086   03 Jun 2027 13:42:29.396            13.310                Norilsk           415.937
       252   03 Jun 2027 14:16:19.570   03 Jun 2027 14:22:57.895           398.325            RioGallegos         12447.656
       253   03 Jun 2027 15:13:02.360   03 Jun 2027 15:13:40.214            37.854                Novosib          1182.937
       254   03 Jun 2027 16:39:41.627   03 Jun 2027 16:42:19.656           158.029                 Moscow          4938.406
       255   03 Jun 2027 16:42:59.288   03 Jun 2027 16:43:35.799            36.511                 Moscow          1140.969
       256   03 Jun 2027 16:44:06.539   03 Jun 2027 16:44:34.103            27.564              Murmansk1           861.375
       257   03 Jun 2027 16:46:59.954   03 Jun 2027 16:49:53.335           173.381                Norilsk          5418.156
       258   03 Jun 2027 16:51:07.687   03 Jun 2027 16:53:45.785           158.098                Norilsk          4940.563
       259   03 Jun 2027 18:16:58.545   03 Jun 2027 18:17:36.256            37.711                 Moscow          1178.469
       260   03 Jun 2027 18:18:34.963   03 Jun 2027 18:22:00.943           205.980                 Moscow          6436.875
       261   03 Jun 2027 18:26:25.181   03 Jun 2027 18:26:55.645            30.464                 Moscow           952.000
       262   03 Jun 2027 19:29:10.517   03 Jun 2027 19:30:32.341            81.824               CapeTown          2557.000
       263   03 Jun 2027 19:31:01.212   03 Jun 2027 19:32:13.049            71.837               CapeTown          2244.906
       264   03 Jun 2027 19:41:21.694   03 Jun 2027 19:41:40.024            18.330               CapeTown           572.813
       265   03 Jun 2027 19:59:24.462   03 Jun 2027 20:00:37.526            73.064              Murmansk2          2283.250
       266   03 Jun 2027 20:01:30.123   03 Jun 2027 20:07:47.555           377.432              Murmansk1         11794.750
       267   03 Jun 2027 21:09:08.261   03 Jun 2027 21:11:04.959           116.698               CapeTown          3646.813
       268   03 Jun 2027 21:45:39.842   03 Jun 2027 21:47:18.483            98.641                Anadyr2          3082.531
       269   03 Jun 2027 21:48:00.600   03 Jun 2027 21:49:11.746            71.146               Magadan2          2223.313
       270   03 Jun 2027 21:50:12.395   03 Jun 2027 21:51:30.195            77.800               Magadan2          2431.250
       271   03 Jun 2027 21:56:42.411   03 Jun 2027 21:56:44.154             1.743               Magadan2            54.469
       272   03 Jun 2027 21:56:53.150   03 Jun 2027 21:56:59.001             5.851               Magadan2           182.844
       273   03 Jun 2027 21:58:20.837   03 Jun 2027 21:58:54.336            33.499               Magadan1          1046.844
       274   03 Jun 2027 23:21:32.132   03 Jun 2027 23:25:18.104           225.972                Anadyr2          7061.625
       275   03 Jun 2027 23:25:21.082   03 Jun 2027 23:25:59.953            38.871                Anadyr1          1214.719
       276   03 Jun 2027 23:26:00.351   03 Jun 2027 23:26:58.176            57.825                Norilsk          1807.031
       277   03 Jun 2027 23:27:02.411   03 Jun 2027 23:28:09.168            66.757               Magadan2          2086.156
       278   03 Jun 2027 23:29:05.487   03 Jun 2027 23:30:16.948            71.461                Irkutsk          2233.156
       279   03 Jun 2027 23:31:24.206   03 Jun 2027 23:31:45.076            20.870                Irkutsk           652.188
       280   03 Jun 2027 23:32:26.784   03 Jun 2027 23:32:58.133            31.349                Irkutsk           979.656
       281   03 Jun 2027 23:34:25.322   03 Jun 2027 23:35:22.648            57.326                Irkutsk          1791.438
       282   03 Jun 2027 23:45:06.621   03 Jun 2027 23:45:58.223            51.602                Sumatra          1612.563
       283   03 Jun 2027 23:47:58.563   03 Jun 2027 23:49:12.438            73.875                Sumatra          2308.594
       284   04 Jun 2027 00:19:13.639   04 Jun 2027 00:19:16.421             2.782            RioGallegos            86.937
       285   04 Jun 2027 00:20:38.496   04 Jun 2027 00:21:00.877            22.381            RioGallegos           699.406
       286   04 Jun 2027 00:23:52.999   04 Jun 2027 00:24:54.696            61.697            RioGallegos          1928.031
       287   04 Jun 2027 00:56:57.053   04 Jun 2027 00:57:03.989             6.936                Anadyr2           216.750
       288   04 Jun 2027 00:57:05.711   04 Jun 2027 00:57:18.958            13.247                Anadyr1           413.969
       289   04 Jun 2027 00:58:30.957   04 Jun 2027 00:59:13.977            43.020                Anadyr1          1344.375
       290   04 Jun 2027 00:59:22.368   04 Jun 2027 00:59:39.321            16.953                Norilsk           529.781
       291   04 Jun 2027 00:59:59.336   04 Jun 2027 01:00:03.836             4.500               Magadan2           140.625
       292   04 Jun 2027 01:00:11.046   04 Jun 2027 01:01:15.927            64.881                Norilsk          2027.531
       293   04 Jun 2027 01:01:38.766   04 Jun 2027 01:02:17.460            38.694               Magadan1          1209.188
       294   04 Jun 2027 01:02:17.460   04 Jun 2027 01:03:49.127            91.667               Magadan2          2864.594
       295   04 Jun 2027 01:04:16.904   04 Jun 2027 01:06:07.483           110.579                Novosib          3455.594
       296   04 Jun 2027 01:17:05.794   04 Jun 2027 01:19:18.015           132.221                Sumatra          4131.906
       297   04 Jun 2027 01:57:42.000   04 Jun 2027 01:57:58.025            16.025            RioGallegos           500.781
       298   04 Jun 2027 01:59:51.460   04 Jun 2027 02:00:13.803            22.343            RioGallegos           698.219
       299   04 Jun 2027 02:00:58.271   04 Jun 2027 02:02:34.705            96.434            RioGallegos          3013.562
       300   04 Jun 2027 02:35:22.981   04 Jun 2027 02:36:14.706            51.725                Norilsk          1616.406
       301   04 Jun 2027 02:36:50.617   04 Jun 2027 02:37:08.005            17.388                Norilsk           543.375
       302   04 Jun 2027 02:38:42.233   04 Jun 2027 02:39:45.322            63.089              Murmansk1          1971.531
       303   04 Jun 2027 02:40:31.263   04 Jun 2027 02:41:04.565            33.302                Novosib          1040.688
       304   04 Jun 2027 02:41:07.069   04 Jun 2027 02:41:49.164            42.095                Irkutsk          1315.469
       305   04 Jun 2027 02:43:14.759   04 Jun 2027 02:43:23.731             8.972                Irkutsk           280.375
       306   04 Jun 2027 02:46:19.347   04 Jun 2027 02:47:06.957            47.610                Novosib          1487.813
       307   04 Jun 2027 02:51:02.748   04 Jun 2027 02:51:17.051            14.303                Irkutsk           446.969
       308   04 Jun 2027 02:53:34.107   04 Jun 2027 02:53:59.511            25.404                  Delhi           793.875
       309   04 Jun 2027 02:54:47.284   04 Jun 2027 02:56:09.170            81.886                  Delhi          2558.938
       310   04 Jun 2027 03:28:09.414   04 Jun 2027 03:29:08.626            59.212            RioGallegos          1850.375
       311   04 Jun 2027 03:30:20.418   04 Jun 2027 03:30:39.695            19.277            RioGallegos           602.406
       312   04 Jun 2027 03:36:15.677   04 Jun 2027 03:36:25.993            10.316            RioGallegos           322.375
       313   04 Jun 2027 04:18:00.241   04 Jun 2027 04:19:45.542           105.301                Irkutsk          3290.656
       314   04 Jun 2027 04:21:02.206   04 Jun 2027 04:21:23.885            21.679                Irkutsk           677.469
       315   04 Jun 2027 04:21:39.977   04 Jun 2027 04:22:26.501            46.524                Norilsk          1453.875
       316   04 Jun 2027 04:23:03.654   04 Jun 2027 04:23:11.214             7.560                Irkutsk           236.250
       317   04 Jun 2027 05:54:07.253   04 Jun 2027 05:54:53.847            46.594                Novosib          1456.062
       318   04 Jun 2027 05:57:38.511   04 Jun 2027 05:58:21.864            43.353              Murmansk2          1354.781
       319   04 Jun 2027 05:58:33.973   04 Jun 2027 06:00:24.844           110.871                 Moscow          3464.719
       320   04 Jun 2027 06:00:30.924   04 Jun 2027 06:02:03.949            93.025              Murmansk1          2907.031
       321   04 Jun 2027 06:03:11.126   04 Jun 2027 06:03:25.878            14.752                 Moscow           461.000
       322   04 Jun 2027 06:16:39.403   04 Jun 2027 06:19:46.875           187.472               CapeTown          5858.500
       323   04 Jun 2027 07:19:47.796   04 Jun 2027 07:20:04.559            16.763                Anadyr1           523.844
       324   04 Jun 2027 07:20:06.917   04 Jun 2027 07:20:40.343            33.426               Magadan2          1044.562
       325   04 Jun 2027 07:20:56.293   04 Jun 2027 07:21:09.632            13.339               Magadan1           416.844
       326   04 Jun 2027 07:21:09.632   04 Jun 2027 07:21:11.046             1.414               Magadan2            44.187
       327   04 Jun 2027 07:21:20.849   04 Jun 2027 07:21:48.668            27.819               Magadan2           869.344
       328   04 Jun 2027 07:22:56.589   04 Jun 2027 07:23:14.323            17.734                Anadyr1           554.187
       329   04 Jun 2027 07:23:14.323   04 Jun 2027 07:24:19.501            65.178                Anadyr2          2036.813
       330   04 Jun 2027 07:54:59.089   04 Jun 2027 07:59:24.351           265.262               CapeTown          8289.438
       331   04 Jun 2027 08:53:52.334   04 Jun 2027 08:55:15.285            82.951                Anadyr1          2592.219
       332   04 Jun 2027 08:55:24.433   04 Jun 2027 08:55:39.570            15.137               Magadan2           473.031
       333   04 Jun 2027 08:55:39.570   04 Jun 2027 08:56:09.576            30.006               Magadan1           937.688
       334   04 Jun 2027 08:56:17.890   04 Jun 2027 08:59:54.497           216.607                Anadyr1          6768.969
       335   04 Jun 2027 10:29:03.543   04 Jun 2027 10:30:31.295            87.752               Magadan1          2742.250
       336   04 Jun 2027 10:30:47.583   04 Jun 2027 10:37:03.772           376.189                Anadyr1         11755.906
       337   04 Jun 2027 10:37:33.430   04 Jun 2027 10:37:54.080            20.650              Murmansk1           645.312
       338   04 Jun 2027 10:38:01.359   04 Jun 2027 10:38:18.340            16.981              Murmansk1           530.656
       339   04 Jun 2027 11:12:46.012   04 Jun 2027 11:13:06.074            20.062            RioGallegos           626.937
       340   04 Jun 2027 11:14:01.408   04 Jun 2027 11:14:13.588            12.180            RioGallegos           380.625
       341   04 Jun 2027 11:17:21.187   04 Jun 2027 11:18:04.260            43.073            RioGallegos          1346.031
       342   04 Jun 2027 11:50:22.697   04 Jun 2027 11:52:07.516           104.819                Sumatra          3275.594
       343   04 Jun 2027 12:06:36.555   04 Jun 2027 12:11:47.286           310.731               Magadan2          9710.344
       344   04 Jun 2027 13:27:28.788   04 Jun 2027 13:28:49.777            80.989                Sumatra          2530.906
       345   04 Jun 2027 13:37:38.179   04 Jun 2027 13:38:02.878            24.699                Irkutsk           771.844
       346   04 Jun 2027 13:39:20.029   04 Jun 2027 13:42:46.258           206.229                Irkutsk          6444.656
       347   04 Jun 2027 14:29:44.688   04 Jun 2027 14:33:14.683           209.995            RioGallegos          6562.344
       348   04 Jun 2027 15:15:33.863   04 Jun 2027 15:16:18.029            44.166                Novosib          1380.187
       349   04 Jun 2027 15:19:33.780   04 Jun 2027 15:19:50.412            16.632                Norilsk           519.750
       350   04 Jun 2027 15:20:28.697   04 Jun 2027 15:21:30.791            62.094                Novosib          1940.438
       351   04 Jun 2027 15:22:54.272   04 Jun 2027 15:25:31.825           157.553                Novosib          4923.531
       352   04 Jun 2027 16:51:42.312   04 Jun 2027 16:52:58.703            76.391                 Moscow          2387.219
       353   04 Jun 2027 16:55:11.298   04 Jun 2027 16:56:05.275            53.977              Murmansk1          1686.781
       354   04 Jun 2027 16:59:45.002   04 Jun 2027 17:05:45.306           360.304                Norilsk         11259.500
       355   04 Jun 2027 18:29:27.989   04 Jun 2027 18:30:41.068            73.079                 Moscow          2283.719
       356   04 Jun 2027 18:32:27.361   04 Jun 2027 18:33:29.362            62.001              Murmansk2          1937.531
       357   04 Jun 2027 18:33:46.199   04 Jun 2027 18:34:22.343            36.144                 Moscow          1129.500
       358   04 Jun 2027 18:37:39.067   04 Jun 2027 18:37:47.139             8.072              Murmansk2           252.250
       359   04 Jun 2027 18:42:05.213   04 Jun 2027 18:42:17.843            12.630              Murmansk2           394.688
       360   04 Jun 2027 18:54:30.572   04 Jun 2027 18:55:07.957            37.385                Anadyr2          1168.281
       361   04 Jun 2027 19:41:18.154   04 Jun 2027 19:43:59.313           161.159               CapeTown          5036.219
       362   04 Jun 2027 20:12:04.463   04 Jun 2027 20:18:16.733           372.270              Murmansk2         11633.437
       363   04 Jun 2027 21:57:41.682   04 Jun 2027 21:59:27.845           106.163                Anadyr1          3317.594
       364   04 Jun 2027 21:59:31.118   04 Jun 2027 22:00:47.618            76.500                Anadyr2          2390.625
       365   04 Jun 2027 22:01:13.652   04 Jun 2027 22:01:28.387            14.735                Anadyr2           460.469
       366   04 Jun 2027 22:01:40.985   04 Jun 2027 22:04:04.530           143.545               Magadan1          4485.781
       367   04 Jun 2027 22:04:31.758   04 Jun 2027 22:04:41.054             9.296               Magadan1           290.500
       368   04 Jun 2027 22:07:16.997   04 Jun 2027 22:07:45.681            28.684               Magadan1           896.375
       369   04 Jun 2027 22:08:54.247   04 Jun 2027 22:09:01.751             7.504               Magadan2           234.500
       370   04 Jun 2027 22:09:01.751   04 Jun 2027 22:09:37.753            36.002               Magadan1          1125.062
       371   04 Jun 2027 22:54:05.438   04 Jun 2027 22:56:22.141           136.703            RioGallegos          4271.969
       372   04 Jun 2027 22:56:29.550   04 Jun 2027 22:56:29.578             0.028            RioGallegos             0.875
       373   04 Jun 2027 23:33:32.103   04 Jun 2027 23:34:55.192            83.089                Anadyr2          2596.531
       374   04 Jun 2027 23:35:09.343   04 Jun 2027 23:35:36.769            27.426                Anadyr1           857.063
       375   04 Jun 2027 23:35:38.423   04 Jun 2027 23:37:05.049            86.626                Norilsk          2707.062
       376   04 Jun 2027 23:37:07.229   04 Jun 2027 23:38:22.609            75.380               Magadan2          2355.625
       377   04 Jun 2027 23:40:11.739   04 Jun 2027 23:40:51.697            39.958               Magadan2          1248.687
       378   04 Jun 2027 23:41:32.019   04 Jun 2027 23:41:44.373            12.354                Irkutsk           386.062
       379   04 Jun 2027 23:42:22.652   04 Jun 2027 23:42:52.792            30.140                Irkutsk           941.875
       380   04 Jun 2027 23:44:37.607   04 Jun 2027 23:44:57.725            20.118                Irkutsk           628.688
       381   04 Jun 2027 23:46:00.164   04 Jun 2027 23:47:16.997            76.833                Irkutsk          2401.031
       382   04 Jun 2027 23:55:48.799   04 Jun 2027 23:57:12.822            84.023                Sumatra          2625.719
       383   05 Jun 2027 00:03:30.645   05 Jun 2027 00:03:52.890            22.245                Sumatra           695.156
       384   05 Jun 2027 00:31:15.763   05 Jun 2027 00:31:22.624             6.861            RioGallegos           214.406
       385   05 Jun 2027 00:32:22.381   05 Jun 2027 00:33:05.916            43.535            RioGallegos          1360.469
       386   05 Jun 2027 01:08:51.016   05 Jun 2027 01:09:00.042             9.026                Anadyr2           282.062
       387   05 Jun 2027 01:09:20.148   05 Jun 2027 01:09:36.676            16.528                Anadyr1           516.500
       388   05 Jun 2027 01:09:54.446   05 Jun 2027 01:10:30.089            35.643                Anadyr1          1113.844
       389   05 Jun 2027 01:11:05.815   05 Jun 2027 01:11:31.643            25.828                Anadyr2           807.125
       390   05 Jun 2027 01:11:52.876   05 Jun 2027 01:13:18.227            85.351                Norilsk          2667.219
       391   05 Jun 2027 01:13:28.454   05 Jun 2027 01:15:22.782           114.328               Magadan1          3572.750
       392   05 Jun 2027 01:16:03.027   05 Jun 2027 01:17:51.138           108.111                Novosib          3378.469
       393   05 Jun 2027 01:26:26.090   05 Jun 2027 01:27:24.588            58.498                  Delhi          1828.062
       394   05 Jun 2027 01:29:11.709   05 Jun 2027 01:29:53.612            41.903                Sumatra          1309.469
       395   05 Jun 2027 01:32:11.323   05 Jun 2027 01:34:48.407           157.084                Sumatra          4908.875
       396   05 Jun 2027 02:15:04.489   05 Jun 2027 02:15:29.020            24.531            RioGallegos           766.594
       397   05 Jun 2027 02:45:34.630   05 Jun 2027 02:45:40.128             5.498                Anadyr2           171.813
       398   05 Jun 2027 02:47:25.364   05 Jun 2027 02:48:52.230            86.866                Norilsk          2714.562
       399   05 Jun 2027 02:49:28.930   05 Jun 2027 02:50:03.137            34.207                Norilsk          1068.969
       400   05 Jun 2027 02:50:21.996   05 Jun 2027 02:51:10.349            48.353              Murmansk2          1511.031
       401   05 Jun 2027 02:51:10.349   05 Jun 2027 02:51:10.878             0.529              Murmansk1            16.531
       402   05 Jun 2027 02:51:13.661   05 Jun 2027 02:51:48.900            35.239                Novosib          1101.219
       403   05 Jun 2027 02:52:27.630   05 Jun 2027 02:52:42.514            14.884                Novosib           465.125
       404   05 Jun 2027 02:53:19.351   05 Jun 2027 02:53:41.187            21.836                Irkutsk           682.375
       405   05 Jun 2027 02:56:40.888   05 Jun 2027 02:58:42.450           121.562                Irkutsk          3798.813
       406   05 Jun 2027 03:40:25.976   05 Jun 2027 03:41:47.217            81.241            RioGallegos          2538.781
       407   05 Jun 2027 04:33:47.037   05 Jun 2027 04:36:14.139           147.102                 Moscow          4596.937
       408   05 Jun 2027 04:36:17.192   05 Jun 2027 04:40:59.142           281.950                  Delhi          8810.937
       409   05 Jun 2027 06:06:54.129   05 Jun 2027 06:08:11.043            76.914                Novosib          2403.563
       410   05 Jun 2027 06:09:39.486   05 Jun 2027 06:10:36.297            56.811                Norilsk          1775.344
       411   05 Jun 2027 06:10:42.995   05 Jun 2027 06:11:47.008            64.013              Murmansk1          2000.406
       412   05 Jun 2027 06:11:51.519   05 Jun 2027 06:12:13.368            21.849                 Moscow           682.781
       413   05 Jun 2027 06:12:28.369   05 Jun 2027 06:12:48.283            19.914                 Moscow           622.313
       414   05 Jun 2027 06:12:58.316   05 Jun 2027 06:12:58.510             0.194              Murmansk2             6.062
       415   05 Jun 2027 06:13:10.235   05 Jun 2027 06:13:21.865            11.630                 Moscow           363.438
       416   05 Jun 2027 06:14:20.259   05 Jun 2027 06:15:01.158            40.899                 Moscow          1278.094
       417   05 Jun 2027 06:28:37.907   05 Jun 2027 06:31:51.690           193.783               CapeTown          6055.719
       418   05 Jun 2027 07:31:42.298   05 Jun 2027 07:32:33.741            51.443                Anadyr1          1607.594
       419   05 Jun 2027 07:32:43.056   05 Jun 2027 07:33:40.600            57.544                Anadyr2          1798.250
       420   05 Jun 2027 07:36:20.406   05 Jun 2027 07:37:34.819            74.413                Anadyr1          2325.406
       421   05 Jun 2027 08:08:08.019   05 Jun 2027 08:12:03.433           235.414               CapeTown          7356.687
       422   05 Jun 2027 09:07:45.039   05 Jun 2027 09:10:16.098           151.059                Anadyr2          4720.594
       423   05 Jun 2027 09:10:33.580   05 Jun 2027 09:11:48.963            75.383                Anadyr1          2355.719
       424   05 Jun 2027 09:11:56.282   05 Jun 2027 09:12:55.816            59.534               Magadan2          1860.437
       425   05 Jun 2027 10:40:04.323   05 Jun 2027 10:43:02.113           177.790               Magadan1          5555.938
       426   05 Jun 2027 10:43:41.216   05 Jun 2027 10:47:03.807           202.591               Magadan1          6330.969
       427   05 Jun 2027 10:47:03.807   05 Jun 2027 10:48:00.012            56.205               Magadan2          1756.406
       428   05 Jun 2027 10:48:11.573   05 Jun 2027 10:48:40.399            28.826                Anadyr2           900.812
       429   05 Jun 2027 10:48:48.221   05 Jun 2027 10:48:51.027             2.806                Novosib            87.687
       430   05 Jun 2027 10:48:54.998   05 Jun 2027 10:49:32.333            37.335                Novosib          1166.719
       431   05 Jun 2027 10:49:34.782   05 Jun 2027 10:50:08.577            33.795              Murmansk1          1056.094
       432   05 Jun 2027 10:51:33.809   05 Jun 2027 10:51:35.540             1.731              Murmansk2            54.094
       433   05 Jun 2027 11:24:35.378   05 Jun 2027 11:25:34.340            58.962            RioGallegos          1842.562
       434   05 Jun 2027 11:29:19.897   05 Jun 2027 11:29:57.939            38.042            RioGallegos          1188.813
       435   05 Jun 2027 12:01:21.259   05 Jun 2027 12:03:18.827           117.568                Sumatra          3674.000
       436   05 Jun 2027 12:12:46.284   05 Jun 2027 12:14:02.037            75.753                Irkutsk          2367.281
       437   05 Jun 2027 12:14:49.206   05 Jun 2027 12:15:23.055            33.849                Irkutsk          1057.781
       438   05 Jun 2027 12:19:52.924   05 Jun 2027 12:20:47.342            54.418                Irkutsk          1700.562
       439   05 Jun 2027 12:21:44.150   05 Jun 2027 12:22:44.480            60.330               Magadan2          1885.313
       440   05 Jun 2027 13:00:52.612   05 Jun 2027 13:00:52.727             0.115            RioGallegos             3.594
       441   05 Jun 2027 13:03:19.652   05 Jun 2027 13:05:42.371           142.719            RioGallegos          4459.969
       442   05 Jun 2027 13:38:07.357   05 Jun 2027 13:39:55.649           108.292                Sumatra          3384.125
       443   05 Jun 2027 13:43:13.665   05 Jun 2027 13:43:58.131            44.466                Sumatra          1389.562
       444   05 Jun 2027 13:50:04.556   05 Jun 2027 13:51:03.265            58.709                Irkutsk          1834.656
       445   05 Jun 2027 13:54:52.085   05 Jun 2027 13:55:04.442            12.357                Irkutsk           386.156
       446   05 Jun 2027 13:57:37.300   05 Jun 2027 14:01:00.113           202.813                Irkutsk          6337.906
       447   05 Jun 2027 15:19:54.161   05 Jun 2027 15:21:00.762            66.601                  Delhi          2081.281
       448   05 Jun 2027 15:28:04.416   05 Jun 2027 15:32:04.429           240.013                Novosib          7500.406
       449   05 Jun 2027 15:32:14.260   05 Jun 2027 15:32:56.949            42.689                Novosib          1334.031
       450   05 Jun 2027 15:37:15.309   05 Jun 2027 15:38:23.592            68.283                Novosib          2133.844
       451   05 Jun 2027 17:03:45.954   05 Jun 2027 17:03:49.049             3.095                 Moscow            96.719
       452   05 Jun 2027 17:07:02.624   05 Jun 2027 17:07:08.858             6.234                 Moscow           194.813
       453   05 Jun 2027 17:07:16.856   05 Jun 2027 17:08:03.027            46.171              Murmansk2          1442.844
       454   05 Jun 2027 17:08:03.027   05 Jun 2027 17:08:38.299            35.272              Murmansk1          1102.250
       455   05 Jun 2027 17:12:35.189   05 Jun 2027 17:16:52.924           257.735                Norilsk          8054.219
       456   05 Jun 2027 18:42:02.974   05 Jun 2027 18:44:16.117           133.143                 Moscow          4160.719
       457   05 Jun 2027 18:44:48.137   05 Jun 2027 18:45:17.456            29.319              Murmansk1           916.219
       458   05 Jun 2027 18:46:31.401   05 Jun 2027 18:48:09.228            97.827              Murmansk1          3057.094
       459   05 Jun 2027 19:53:28.925   05 Jun 2027 19:55:48.341           139.416               CapeTown          4356.750
       460   05 Jun 2027 20:24:48.652   05 Jun 2027 20:31:38.119           409.467              Murmansk1         12795.844
       461   05 Jun 2027 22:09:43.436   05 Jun 2027 22:13:26.789           223.353                Anadyr1          6979.781
       462   05 Jun 2027 22:13:26.789   05 Jun 2027 22:13:34.061             7.272                Anadyr2           227.250
       463   05 Jun 2027 22:13:43.486   05 Jun 2027 22:15:36.071           112.585               Magadan1          3518.281
       464   05 Jun 2027 22:16:03.183   05 Jun 2027 22:16:56.142            52.959               Magadan1          1654.969
       465   05 Jun 2027 22:21:33.480   05 Jun 2027 22:21:38.456             4.976               Magadan2           155.500
       466   05 Jun 2027 22:22:54.727   05 Jun 2027 22:23:19.056            24.329               Magadan2           760.281
       467   05 Jun 2027 23:05:20.544   05 Jun 2027 23:08:12.461           171.917            RioGallegos          5372.406
       468   05 Jun 2027 23:45:31.601   05 Jun 2027 23:47:15.661           104.060                Anadyr2          3251.875
       469   05 Jun 2027 23:47:21.361   05 Jun 2027 23:47:46.467            25.106                Anadyr1           784.563
       470   05 Jun 2027 23:47:51.228   05 Jun 2027 23:48:25.157            33.929                Norilsk          1060.281
       471   05 Jun 2027 23:48:38.437   05 Jun 2027 23:49:26.734            48.297               Magadan1          1509.281
       472   05 Jun 2027 23:49:55.576   05 Jun 2027 23:49:56.501             0.925               Magadan1            28.906
       473   05 Jun 2027 23:50:09.125   05 Jun 2027 23:50:24.278            15.153                Norilsk           473.531
       474   05 Jun 2027 23:50:45.359   05 Jun 2027 23:51:02.446            17.087                Norilsk           533.969
       475   05 Jun 2027 23:51:37.199   05 Jun 2027 23:51:40.788             3.589               Magadan1           112.156
       476   05 Jun 2027 23:51:57.063   05 Jun 2027 23:52:14.199            17.136               Magadan2           535.500
       477   05 Jun 2027 23:52:21.134   05 Jun 2027 23:53:17.495            56.361                Irkutsk          1761.281
       478   05 Jun 2027 23:54:23.658   05 Jun 2027 23:54:47.266            23.608                Irkutsk           737.750
       479   06 Jun 2027 00:01:48.280   06 Jun 2027 00:01:59.785            11.505                Irkutsk           359.531
       480   06 Jun 2027 00:06:58.312   06 Jun 2027 00:08:46.517           108.205                Sumatra          3381.406
       481   06 Jun 2027 00:11:14.766   06 Jun 2027 00:11:46.618            31.852                Sumatra           995.375
       482   06 Jun 2027 00:12:07.539   06 Jun 2027 00:12:54.443            46.904                Sumatra          1465.750
