uniorb/output/strategy_2/Drop/Drop_KinoSat_111406.txt

KinoSat_111406
-------------------------
    Access    *     Start Time (UTCG)     *     Stop Time (UTCG)  *   Duration (s)        *       Station  *  Data (Mbytes)
         1   01 Jun 2027 03:16:23.561   01 Jun 2027 03:17:31.578            68.017              Murmansk2          2125.531
         2   01 Jun 2027 03:17:31.578   01 Jun 2027 03:18:34.697            63.119              Murmansk1          1972.469
         3   01 Jun 2027 03:19:04.748   01 Jun 2027 03:19:36.527            31.779              Murmansk2           993.094
         4   01 Jun 2027 03:19:36.527   01 Jun 2027 03:19:50.757            14.230              Murmansk1           444.687
         5   01 Jun 2027 03:20:15.707   01 Jun 2027 03:20:32.304            16.597                 Moscow           518.656
         6   01 Jun 2027 03:20:35.519   01 Jun 2027 03:20:51.323            15.804                 Moscow           493.875
         7   01 Jun 2027 03:21:21.013   01 Jun 2027 03:23:03.785           102.772                 Moscow          3211.625
         8   01 Jun 2027 03:36:16.379   01 Jun 2027 03:39:26.034           189.655               CapeTown          5926.719
         9   01 Jun 2027 04:32:22.876   01 Jun 2027 04:35:01.079           158.203                Anadyr1          4943.844
        10   01 Jun 2027 04:35:24.229   01 Jun 2027 04:36:10.886            46.657               Magadan1          1458.031
        11   01 Jun 2027 04:39:47.935   01 Jun 2027 04:41:01.122            73.187                Anadyr2          2287.094
        12   01 Jun 2027 04:52:49.608   01 Jun 2027 04:52:50.778             1.170              Murmansk1            36.562
        13   01 Jun 2027 04:53:26.358   01 Jun 2027 04:55:22.892           116.534                 Moscow          3641.688
        14   01 Jun 2027 04:55:32.250   01 Jun 2027 04:55:44.599            12.349              Murmansk1           385.906
        15   01 Jun 2027 04:55:53.432   01 Jun 2027 04:56:03.629            10.197              Murmansk1           318.656
        16   01 Jun 2027 05:12:52.932   01 Jun 2027 05:13:34.234            41.302               CapeTown          1290.687
        17   01 Jun 2027 06:08:39.594   01 Jun 2027 06:08:51.840            12.246                Anadyr2           382.688
        18   01 Jun 2027 06:09:20.041   01 Jun 2027 06:11:11.103           111.062               Magadan1          3470.688
        19   01 Jun 2027 06:15:03.252   01 Jun 2027 06:15:06.552             3.300               Magadan2           103.125
        20   01 Jun 2027 06:15:14.614   01 Jun 2027 06:16:07.617            53.003                Anadyr1          1656.344
        21   01 Jun 2027 06:16:07.617   01 Jun 2027 06:16:43.561            35.944                Anadyr2          1123.250
        22   01 Jun 2027 06:16:49.682   01 Jun 2027 06:19:54.458           184.776               Magadan1          5774.250
        23   01 Jun 2027 06:19:58.025   01 Jun 2027 06:20:07.179             9.154                Anadyr1           286.063
        24   01 Jun 2027 07:52:50.104   01 Jun 2027 07:53:00.706            10.602               Magadan1           331.313
        25   01 Jun 2027 07:53:05.277   01 Jun 2027 07:56:35.775           210.498                Anadyr1          6578.063
        26   01 Jun 2027 09:26:39.292   01 Jun 2027 09:26:52.104            12.812                Irkutsk           400.375
        27   01 Jun 2027 09:27:10.010   01 Jun 2027 09:27:52.892            42.882                Novosib          1340.062
        28   01 Jun 2027 09:27:57.246   01 Jun 2027 09:28:52.342            55.096                Norilsk          1721.750
        29   01 Jun 2027 09:29:02.093   01 Jun 2027 09:30:55.302           113.209               Magadan1          3537.781
        30   01 Jun 2027 09:31:25.306   01 Jun 2027 09:32:03.362            38.056              Murmansk1          1189.250
        31   01 Jun 2027 09:32:03.362   01 Jun 2027 09:33:30.008            86.646              Murmansk2          2707.687
        32   01 Jun 2027 09:33:36.702   01 Jun 2027 09:34:16.421            39.719                Norilsk          1241.219
        33   01 Jun 2027 09:34:52.826   01 Jun 2027 09:34:57.356             4.530              Murmansk1           141.563
        34   01 Jun 2027 10:07:08.443   01 Jun 2027 10:10:25.566           197.123            RioGallegos          6160.094
        35   01 Jun 2027 10:42:17.862   01 Jun 2027 10:44:42.973           145.111                Sumatra          4534.719
        36   01 Jun 2027 11:03:33.471   01 Jun 2027 11:03:43.110             9.639                Novosib           301.219
        37   01 Jun 2027 11:03:47.594   01 Jun 2027 11:06:47.803           180.209                Irkutsk          5631.531
        38   01 Jun 2027 11:06:56.543   01 Jun 2027 11:07:57.876            61.333                Novosib          1916.656
        39   01 Jun 2027 11:07:59.115   01 Jun 2027 11:08:35.497            36.382                Novosib          1136.938
        40   01 Jun 2027 11:45:31.861   01 Jun 2027 11:45:49.783            17.922            RioGallegos           560.063
        41   01 Jun 2027 12:19:50.241   01 Jun 2027 12:20:13.551            23.310                Sumatra           728.437
        42   01 Jun 2027 12:26:51.128   01 Jun 2027 12:29:26.833           155.705                  Delhi          4865.781
        43   01 Jun 2027 12:37:33.242   01 Jun 2027 12:38:52.797            79.555                Norilsk          2486.094
        44   01 Jun 2027 12:39:02.313   01 Jun 2027 12:39:09.667             7.354              Murmansk1           229.813
        45   01 Jun 2027 12:41:15.513   01 Jun 2027 12:41:36.614            21.101              Murmansk2           659.406
        46   01 Jun 2027 14:06:18.537   01 Jun 2027 14:07:05.327            46.790                  Delhi          1462.188
        47   01 Jun 2027 14:09:30.528   01 Jun 2027 14:09:50.029            19.501                  Delhi           609.406
        48   01 Jun 2027 14:10:49.971   01 Jun 2027 14:12:45.381           115.410                 Moscow          3606.563
        49   01 Jun 2027 14:14:00.501   01 Jun 2027 14:16:17.991           137.490                Novosib          4296.562
        50   01 Jun 2027 14:16:42.628   01 Jun 2027 14:18:36.386           113.758                Norilsk          3554.937
        51   01 Jun 2027 14:21:36.733   01 Jun 2027 14:21:44.210             7.477                Norilsk           233.656
        52   01 Jun 2027 15:26:37.439   01 Jun 2027 15:28:56.401           138.962               CapeTown          4342.563
        53   01 Jun 2027 15:47:14.189   01 Jun 2027 15:47:29.027            14.838                 Moscow           463.687
        54   01 Jun 2027 15:48:12.915   01 Jun 2027 15:48:42.429            29.514                 Moscow           922.313
        55   01 Jun 2027 15:50:20.296   01 Jun 2027 15:50:52.664            32.368                 Moscow          1011.500
        56   01 Jun 2027 15:51:09.427   01 Jun 2027 15:53:15.797           126.370              Murmansk2          3949.063
        57   01 Jun 2027 15:53:24.254   01 Jun 2027 15:53:38.404            14.150              Murmansk2           442.187
        58   01 Jun 2027 15:54:08.668   01 Jun 2027 15:54:57.383            48.715              Murmansk1          1522.344
        59   01 Jun 2027 16:06:36.470   01 Jun 2027 16:06:39.945             3.475                Anadyr2           108.594
        60   01 Jun 2027 16:07:07.037   01 Jun 2027 16:07:27.616            20.579                Anadyr1           643.094
        61   01 Jun 2027 16:07:49.681   01 Jun 2027 16:08:53.734            64.053                Anadyr1          2001.656
        62   01 Jun 2027 17:00:04.923   01 Jun 2027 17:02:39.412           154.489               CapeTown          4827.781
        63   01 Jun 2027 17:28:42.829   01 Jun 2027 17:29:46.799            63.970                 Moscow          1999.063
        64   01 Jun 2027 17:30:19.860   01 Jun 2027 17:31:27.198            67.338              Murmansk2          2104.312
        65   01 Jun 2027 17:31:45.169   01 Jun 2027 17:32:00.991            15.822                 Moscow           494.438
        66   01 Jun 2027 17:32:54.919   01 Jun 2027 17:34:06.827            71.908              Murmansk2          2247.125
        67   01 Jun 2027 17:40:44.471   01 Jun 2027 17:40:47.448             2.977                Anadyr1            93.031
        68   01 Jun 2027 17:44:24.477   01 Jun 2027 17:44:51.731            27.254                Anadyr2           851.687
        69   01 Jun 2027 17:45:26.082   01 Jun 2027 17:45:57.198            31.116               Magadan2           972.375
        70   01 Jun 2027 17:46:40.058   01 Jun 2027 17:47:49.592            69.534               Magadan2          2172.937
        71   01 Jun 2027 18:37:37.424   01 Jun 2027 18:38:25.345            47.921               CapeTown          1497.531
        72   01 Jun 2027 19:16:37.020   01 Jun 2027 19:20:33.931           236.911                Anadyr2          7403.469
        73   01 Jun 2027 19:20:52.961   01 Jun 2027 19:21:39.773            46.812               Magadan2          1462.875
        74   01 Jun 2027 19:21:58.187   01 Jun 2027 19:22:48.127            49.940               Magadan2          1560.625
        75   01 Jun 2027 19:22:48.127   01 Jun 2027 19:23:59.567            71.440               Magadan1          2232.500
        76   01 Jun 2027 20:52:31.415   01 Jun 2027 20:54:39.531           128.116                Anadyr1          4003.625
        77   01 Jun 2027 20:54:48.787   01 Jun 2027 20:58:06.854           198.067               Magadan1          6189.594
        78   01 Jun 2027 20:58:06.854   01 Jun 2027 20:59:08.210            61.356               Magadan2          1917.375
        79   01 Jun 2027 20:59:18.425   01 Jun 2027 20:59:57.339            38.914                Norilsk          1216.063
        80   01 Jun 2027 21:02:42.712   01 Jun 2027 21:03:39.175            56.463                Irkutsk          1764.469
        81   01 Jun 2027 21:46:52.787   01 Jun 2027 21:50:16.729           203.942            RioGallegos          6373.188
        82   01 Jun 2027 22:28:05.896   01 Jun 2027 22:28:55.322            49.426                Anadyr1          1544.562
        83   01 Jun 2027 22:30:21.465   01 Jun 2027 22:30:31.898            10.433                Norilsk           326.031
        84   01 Jun 2027 22:30:52.733   01 Jun 2027 22:32:18.068            85.335               Magadan1          2666.719
        85   01 Jun 2027 22:33:05.348   01 Jun 2027 22:34:17.056            71.708               Magadan1          2240.875
        86   01 Jun 2027 22:34:29.639   01 Jun 2027 22:34:30.886             1.247                Irkutsk            38.969
        87   01 Jun 2027 22:35:26.363   01 Jun 2027 22:35:40.154            13.791                Irkutsk           430.969
        88   01 Jun 2027 22:36:09.081   01 Jun 2027 22:37:32.612            83.531                Novosib          2610.344
        89   01 Jun 2027 22:38:56.281   01 Jun 2027 22:39:43.039            46.758                Novosib          1461.188
        90   01 Jun 2027 22:48:12.641   01 Jun 2027 22:50:56.538           163.897                Sumatra          5121.781
        91   02 Jun 2027 00:02:45.429   02 Jun 2027 00:02:55.811            10.382                Anadyr2           324.438
        92   02 Jun 2027 00:03:41.370   02 Jun 2027 00:05:01.888            80.518                Anadyr2          2516.188
        93   02 Jun 2027 00:06:19.476   02 Jun 2027 00:06:34.962            15.486                Norilsk           483.937
        94   02 Jun 2027 00:06:58.679   02 Jun 2027 00:08:28.470            89.791               Magadan1          2805.969
        95   02 Jun 2027 00:10:12.378   02 Jun 2027 00:11:26.043            73.665                Irkutsk          2302.031
        96   02 Jun 2027 00:11:58.184   02 Jun 2027 00:12:42.680            44.496                Novosib          1390.500
        97   02 Jun 2027 00:13:26.731   02 Jun 2027 00:13:50.006            23.275                Novosib           727.344
        98   02 Jun 2027 00:17:58.326   02 Jun 2027 00:19:25.926            87.600                  Delhi          2737.500
        99   02 Jun 2027 00:58:43.823   02 Jun 2027 00:59:26.844            43.021            RioGallegos          1344.406
       100   02 Jun 2027 01:01:40.422   02 Jun 2027 01:02:18.610            38.188            RioGallegos          1193.375
       101   02 Jun 2027 01:36:14.977   02 Jun 2027 01:37:31.358            76.381                Anadyr1          2386.906
       102   02 Jun 2027 01:38:24.479   02 Jun 2027 01:38:42.675            18.196                Anadyr1           568.625
       103   02 Jun 2027 01:38:50.753   02 Jun 2027 01:38:56.370             5.617                Anadyr2           175.531
       104   02 Jun 2027 01:38:56.370   02 Jun 2027 01:39:12.712            16.342                Anadyr1           510.688
       105   02 Jun 2027 01:42:18.663   02 Jun 2027 01:42:29.618            10.955                Norilsk           342.344
       106   02 Jun 2027 01:42:31.423   02 Jun 2027 01:42:45.903            14.480               Magadan2           452.500
       107   02 Jun 2027 01:42:53.741   02 Jun 2027 01:43:49.024            55.283               Magadan1          1727.594
       108   02 Jun 2027 01:44:22.288   02 Jun 2027 01:44:24.047             1.759                Norilsk            54.969
       109   02 Jun 2027 01:44:38.209   02 Jun 2027 01:46:18.579           100.370              Murmansk2          3136.562
       110   02 Jun 2027 01:46:41.185   02 Jun 2027 01:47:16.580            35.395              Murmansk1          1106.094
       111   02 Jun 2027 01:47:29.836   02 Jun 2027 01:49:05.499            95.663                Novosib          2989.469
       112   02 Jun 2027 01:49:15.745   02 Jun 2027 01:49:44.782            29.037                 Moscow           907.406
       113   02 Jun 2027 01:52:03.044   02 Jun 2027 01:52:06.615             3.571                 Moscow           111.594
       114   02 Jun 2027 01:53:51.063   02 Jun 2027 01:54:45.535            54.472                  Delhi          1702.250
       115   02 Jun 2027 03:28:29.548   02 Jun 2027 03:28:56.284            26.736                Norilsk           835.500
       116   02 Jun 2027 03:29:03.902   02 Jun 2027 03:29:11.660             7.758                Novosib           242.438
       117   02 Jun 2027 03:29:26.954   02 Jun 2027 03:32:07.890           160.936              Murmansk2          5029.250
       118   02 Jun 2027 03:32:43.849   02 Jun 2027 03:36:19.433           215.584                 Moscow          6737.000
       119   02 Jun 2027 03:47:59.047   02 Jun 2027 03:51:04.935           185.888               CapeTown          5809.000
       120   02 Jun 2027 03:51:20.881   02 Jun 2027 03:51:36.186            15.305               CapeTown           478.281
       121   02 Jun 2027 04:51:12.421   02 Jun 2027 04:52:47.502            95.081                Anadyr2          2971.281
       122   02 Jun 2027 05:05:34.529   02 Jun 2027 05:05:52.459            17.930              Murmansk2           560.312
       123   02 Jun 2027 05:08:05.699   02 Jun 2027 05:08:09.655             3.956              Murmansk2           123.625
       124   02 Jun 2027 06:26:57.183   02 Jun 2027 06:27:00.903             3.720               Magadan2           116.250
       125   02 Jun 2027 06:27:09.802   02 Jun 2027 06:28:52.195           102.393               Magadan1          3199.781
       126   02 Jun 2027 06:28:52.235   02 Jun 2027 06:29:02.935            10.700               Magadan1           334.375
       127   02 Jun 2027 06:29:24.595   02 Jun 2027 06:30:15.533            50.938                Anadyr2          1591.812
       128   02 Jun 2027 06:30:24.085   02 Jun 2027 06:32:32.703           128.618               Magadan1          4019.312
       129   02 Jun 2027 08:03:11.961   02 Jun 2027 08:04:41.292            89.331                Irkutsk          2791.594
       130   02 Jun 2027 08:04:43.045   02 Jun 2027 08:08:28.214           225.169                Anadyr1          7036.531
       131   02 Jun 2027 09:37:37.273   02 Jun 2027 09:38:12.880            35.607                Novosib          1112.719
       132   02 Jun 2027 09:39:12.111   02 Jun 2027 09:40:24.061            71.950               Magadan1          2248.438
       133   02 Jun 2027 09:40:24.204   02 Jun 2027 09:40:43.961            19.757               Magadan2           617.406
       134   02 Jun 2027 09:41:04.130   02 Jun 2027 09:41:48.140            44.010               Magadan1          1375.313
       135   02 Jun 2027 09:41:48.140   02 Jun 2027 09:42:53.695            65.555               Magadan2          2048.594
       136   02 Jun 2027 09:43:03.958   02 Jun 2027 09:43:41.076            37.118                Norilsk          1159.937
       137   02 Jun 2027 09:43:54.895   02 Jun 2027 09:44:45.957            51.062              Murmansk2          1595.687
       138   02 Jun 2027 10:19:13.825   02 Jun 2027 10:20:06.009            52.184            RioGallegos          1630.750
       139   02 Jun 2027 10:26:03.875   02 Jun 2027 10:26:18.313            14.438            RioGallegos           451.188
       140   02 Jun 2027 10:54:08.919   02 Jun 2027 10:56:02.300           113.381                Sumatra          3543.156
       141   02 Jun 2027 11:14:18.703   02 Jun 2027 11:14:55.407            36.704                Irkutsk          1147.000
       142   02 Jun 2027 11:15:26.979   02 Jun 2027 11:15:54.427            27.448                Novosib           857.750
       143   02 Jun 2027 11:16:01.996   02 Jun 2027 11:16:13.013            11.017                Norilsk           344.281
       144   02 Jun 2027 11:16:22.450   02 Jun 2027 11:16:42.653            20.203                Irkutsk           631.344
       145   02 Jun 2027 11:16:50.147   02 Jun 2027 11:17:01.489            11.342              Murmansk1           354.437
       146   02 Jun 2027 11:17:01.489   02 Jun 2027 11:17:16.189            14.700              Murmansk2           459.375
       147   02 Jun 2027 11:17:16.736   02 Jun 2027 11:17:38.372            21.636                Novosib           676.125
       148   02 Jun 2027 11:17:40.280   02 Jun 2027 11:17:47.452             7.172                Irkutsk           224.125
       149   02 Jun 2027 11:17:52.574   02 Jun 2027 11:18:13.054            20.480                Novosib           640.000
       150   02 Jun 2027 11:18:19.690   02 Jun 2027 11:18:49.014            29.324                Irkutsk           916.375
       151   02 Jun 2027 11:19:18.513   02 Jun 2027 11:20:18.848            60.335                Irkutsk          1885.469
       152   02 Jun 2027 11:58:39.504   02 Jun 2027 11:59:18.236            38.732            RioGallegos          1210.375
       153   02 Jun 2027 12:03:30.561   02 Jun 2027 12:03:31.819             1.258            RioGallegos            39.312
       154   02 Jun 2027 12:32:58.438   02 Jun 2027 12:34:11.622            73.184                Sumatra          2287.000
       155   02 Jun 2027 12:40:54.710   02 Jun 2027 12:42:22.437            87.727                  Delhi          2741.469
       156   02 Jun 2027 12:45:47.439   02 Jun 2027 12:46:42.829            55.390                Novosib          1730.938
       157   02 Jun 2027 12:48:12.021   02 Jun 2027 12:50:14.599           122.578                Novosib          3830.563
       158   02 Jun 2027 14:19:39.357   02 Jun 2027 14:22:08.726           149.369                  Delhi          4667.781
       159   02 Jun 2027 14:23:54.470   02 Jun 2027 14:24:59.636            65.166                 Moscow          2036.438
       160   02 Jun 2027 14:25:25.152   02 Jun 2027 14:25:32.154             7.002                 Moscow           218.813
       161   02 Jun 2027 14:26:05.871   02 Jun 2027 14:27:52.514           106.643              Murmansk2          3332.594
       162   02 Jun 2027 14:28:09.165   02 Jun 2027 14:28:26.528            17.363              Murmansk1           542.594
       163   02 Jun 2027 14:29:20.050   02 Jun 2027 14:30:23.853            63.803                Norilsk          1993.844
       164   02 Jun 2027 14:30:47.147   02 Jun 2027 14:30:50.592             3.445                Norilsk           107.656
       165   02 Jun 2027 14:31:14.973   02 Jun 2027 14:31:56.707            41.734                Norilsk          1304.187
       166   02 Jun 2027 15:37:53.144   02 Jun 2027 15:40:36.768           163.624               CapeTown          5113.250
       167   02 Jun 2027 16:00:14.968   02 Jun 2027 16:00:49.172            34.204                 Moscow          1068.875
       168   02 Jun 2027 16:02:52.974   02 Jun 2027 16:03:22.835            29.861              Murmansk2           933.156
       169   02 Jun 2027 16:03:22.835   02 Jun 2027 16:05:11.097           108.262              Murmansk1          3383.187
       170   02 Jun 2027 16:17:19.875   02 Jun 2027 16:18:48.612            88.737                Anadyr2          2773.031
       171   02 Jun 2027 16:19:50.874   02 Jun 2027 16:20:00.079             9.205                Anadyr2           287.656
       172   02 Jun 2027 16:20:29.331   02 Jun 2027 16:20:57.768            28.437                Anadyr2           888.656
       173   02 Jun 2027 17:12:06.469   02 Jun 2027 17:14:28.718           142.249               CapeTown          4445.281
       174   02 Jun 2027 17:41:48.840   02 Jun 2027 17:42:58.217            69.377              Murmansk2          2168.031
       175   02 Jun 2027 17:44:51.488   02 Jun 2027 17:45:30.381            38.893              Murmansk2          1215.406
       176   02 Jun 2027 17:45:30.381   02 Jun 2027 17:47:10.496           100.115              Murmansk1          3128.594
       177   02 Jun 2027 17:53:36.780   02 Jun 2027 17:53:53.977            17.197                Anadyr1           537.406
       178   02 Jun 2027 17:56:01.651   02 Jun 2027 17:56:09.191             7.540                Anadyr1           235.625
       179   02 Jun 2027 17:56:14.661   02 Jun 2027 17:56:50.272            35.611                Anadyr1          1112.844
       180   02 Jun 2027 17:57:02.047   02 Jun 2027 17:57:27.650            25.603               Magadan2           800.094
       181   02 Jun 2027 17:57:27.650   02 Jun 2027 17:58:39.040            71.390               Magadan1          2230.937
       182   02 Jun 2027 18:55:13.144   02 Jun 2027 18:55:21.881             8.737               CapeTown           273.031
       183   02 Jun 2027 19:28:38.664   02 Jun 2027 19:32:31.309           232.645                Anadyr2          7270.156
       184   02 Jun 2027 19:32:33.754   02 Jun 2027 19:34:24.321           110.567               Magadan1          3455.219
       185   02 Jun 2027 19:34:24.321   02 Jun 2027 19:34:42.986            18.665               Magadan2           583.281
       186   02 Jun 2027 19:36:26.277   02 Jun 2027 19:37:15.855            49.578               Magadan1          1549.313
       187   02 Jun 2027 21:04:31.892   02 Jun 2027 21:06:41.000           129.108                Anadyr1          4034.625
       188   02 Jun 2027 21:06:50.678   02 Jun 2027 21:10:37.855           227.177               Magadan2          7099.281
       189   02 Jun 2027 21:10:39.964   02 Jun 2027 21:11:09.577            29.613                Norilsk           925.406
       190   02 Jun 2027 21:12:52.091   02 Jun 2027 21:14:23.159            91.068                Irkutsk          2845.875
       191   02 Jun 2027 21:14:31.187   02 Jun 2027 21:15:34.655            63.468                Irkutsk          1983.375
       192   02 Jun 2027 21:58:44.278   02 Jun 2027 21:59:26.554            42.276            RioGallegos          1321.125
       193   02 Jun 2027 22:07:04.571   02 Jun 2027 22:07:08.623             4.052            RioGallegos           126.625
       194   02 Jun 2027 22:07:31.475   02 Jun 2027 22:08:13.525            42.050            RioGallegos          1314.063
       195   02 Jun 2027 22:40:01.714   02 Jun 2027 22:42:26.034           144.320                Anadyr1          4510.000
       196   02 Jun 2027 22:42:33.730   02 Jun 2027 22:43:30.937            57.207                Norilsk          1787.719
       197   02 Jun 2027 22:44:12.909   02 Jun 2027 22:44:44.277            31.368               Magadan2           980.250
       198   02 Jun 2027 22:46:25.568   02 Jun 2027 22:47:24.891            59.323                Irkutsk          1853.844
       199   02 Jun 2027 22:47:56.415   02 Jun 2027 22:48:04.162             7.747                Novosib           242.094
       200   02 Jun 2027 22:48:40.469   02 Jun 2027 22:49:23.829            43.360                Novosib          1355.000
       201   02 Jun 2027 22:55:34.786   02 Jun 2027 22:55:57.733            22.947                Irkutsk           717.094
       202   02 Jun 2027 23:00:06.643   02 Jun 2027 23:01:22.988            76.345                Sumatra          2385.781
       203   02 Jun 2027 23:08:25.315   02 Jun 2027 23:08:52.230            26.915                Sumatra           841.094
       204   03 Jun 2027 00:14:31.755   03 Jun 2027 00:16:27.339           115.584                Anadyr2          3612.000
       205   03 Jun 2027 00:16:48.714   03 Jun 2027 00:16:50.759             2.045                Anadyr1            63.906
       206   03 Jun 2027 00:17:08.221   03 Jun 2027 00:17:30.246            22.025                Anadyr1           688.281
       207   03 Jun 2027 00:18:21.677   03 Jun 2027 00:20:12.162           110.485                Norilsk          3452.656
       208   03 Jun 2027 00:20:43.806   03 Jun 2027 00:21:16.768            32.962               Magadan1          1030.062
       209   03 Jun 2027 00:21:36.079   03 Jun 2027 00:21:45.571             9.492               Magadan2           296.625
       210   03 Jun 2027 00:22:15.344   03 Jun 2027 00:24:26.164           130.820                Novosib          4088.125
       211   03 Jun 2027 00:27:07.230   03 Jun 2027 00:27:26.505            19.275                Novosib           602.344
       212   03 Jun 2027 00:29:46.527   03 Jun 2027 00:31:37.260           110.733                  Delhi          3460.406
       213   03 Jun 2027 00:41:23.782   03 Jun 2027 00:42:07.052            43.270                  Delhi          1352.188
       214   03 Jun 2027 01:13:15.135   03 Jun 2027 01:13:46.042            30.907            RioGallegos           965.844
       215   03 Jun 2027 01:19:16.861   03 Jun 2027 01:20:04.252            47.391            RioGallegos          1480.969
       216   03 Jun 2027 01:47:56.007   03 Jun 2027 01:48:12.806            16.799                Anadyr2           524.969
       217   03 Jun 2027 01:48:46.146   03 Jun 2027 01:49:23.928            37.782                Anadyr2          1180.687
       218   03 Jun 2027 01:50:47.618   03 Jun 2027 01:50:51.944             4.326                Anadyr1           135.187
       219   03 Jun 2027 01:51:06.924   03 Jun 2027 01:51:19.433            12.509                Anadyr1           390.906
       220   03 Jun 2027 01:54:07.972   03 Jun 2027 01:55:42.332            94.360               Magadan1          2948.750
       221   03 Jun 2027 01:55:46.367   03 Jun 2027 01:55:59.731            13.364                Norilsk           417.625
       222   03 Jun 2027 01:56:36.952   03 Jun 2027 01:58:42.607           125.655              Murmansk1          3926.719
       223   03 Jun 2027 01:58:57.312   03 Jun 2027 01:59:16.743            19.431                Novosib           607.219
       224   03 Jun 2027 02:00:54.263   03 Jun 2027 02:01:18.482            24.219                 Moscow           756.844
       225   03 Jun 2027 02:05:29.942   03 Jun 2027 02:07:05.647            95.705                 Moscow          2990.781
       226   03 Jun 2027 02:30:42.634   03 Jun 2027 02:32:24.979           102.345               CapeTown          3198.281
       227   03 Jun 2027 03:39:32.284   03 Jun 2027 03:39:37.006             4.722                Norilsk           147.562
       228   03 Jun 2027 03:40:27.369   03 Jun 2027 03:41:18.225            50.856                Norilsk          1589.250
       229   03 Jun 2027 03:41:23.035   03 Jun 2027 03:42:03.846            40.811              Murmansk2          1275.344
       230   03 Jun 2027 03:43:19.051   03 Jun 2027 03:43:54.047            34.996              Murmansk1          1093.625
       231   03 Jun 2027 03:43:54.047   03 Jun 2027 03:44:51.938            57.891              Murmansk2          1809.094
       232   03 Jun 2027 03:44:57.725   03 Jun 2027 03:48:29.279           211.554                 Moscow          6611.063
       233   03 Jun 2027 05:02:59.107   03 Jun 2027 05:04:16.556            77.449               Magadan1          2420.281
       234   03 Jun 2027 05:04:16.556   03 Jun 2027 05:04:58.468            41.912               Magadan2          1309.750
       235   03 Jun 2027 05:05:03.268   03 Jun 2027 05:05:09.789             6.521               Magadan1           203.781
       236   03 Jun 2027 05:05:44.210   03 Jun 2027 05:06:04.224            20.014               Magadan1           625.438
       237   03 Jun 2027 05:08:26.345   03 Jun 2027 05:09:08.787            42.442                Anadyr1          1326.312
       238   03 Jun 2027 05:15:27.535   03 Jun 2027 05:15:49.754            22.219              Murmansk1           694.344
       239   03 Jun 2027 05:16:13.228   03 Jun 2027 05:17:01.484            48.256                 Moscow          1508.000
       240   03 Jun 2027 05:17:29.670   03 Jun 2027 05:18:08.707            39.037              Murmansk2          1219.906
       241   03 Jun 2027 05:18:11.270   03 Jun 2027 05:19:13.350            62.080              Murmansk1          1940.000
       242   03 Jun 2027 05:19:25.272   03 Jun 2027 05:19:44.528            19.256              Murmansk1           601.750
       243   03 Jun 2027 06:36:56.696   03 Jun 2027 06:37:40.469            43.773                Anadyr1          1367.906
       244   03 Jun 2027 06:37:44.056   03 Jun 2027 06:38:33.444            49.388                Anadyr2          1543.375
       245   03 Jun 2027 06:38:39.140   03 Jun 2027 06:39:13.548            34.408                Anadyr2          1075.250
       246   03 Jun 2027 06:39:35.151   03 Jun 2027 06:40:50.601            75.450               Magadan2          2357.813
       247   03 Jun 2027 06:40:50.601   03 Jun 2027 06:41:11.340            20.739               Magadan1           648.094
       248   03 Jun 2027 06:41:25.534   03 Jun 2027 06:42:31.681            66.147                Anadyr1          2067.094
       249   03 Jun 2027 06:49:51.572   03 Jun 2027 06:50:01.739            10.167                 Moscow           317.719
       250   03 Jun 2027 06:53:27.521   03 Jun 2027 06:53:30.793             3.272                 Moscow           102.250
       251   03 Jun 2027 06:53:46.049   03 Jun 2027 06:53:59.193            13.144                 Moscow           410.750
       252   03 Jun 2027 07:24:20.843   03 Jun 2027 07:25:21.331            60.488            RioGallegos          1890.250
       253   03 Jun 2027 08:12:09.971   03 Jun 2027 08:12:14.420             4.449               Magadan2           139.031
       254   03 Jun 2027 08:12:56.271   03 Jun 2027 08:13:06.682            10.411               Magadan1           325.344
       255   03 Jun 2027 08:13:15.379   03 Jun 2027 08:13:25.325             9.946                Anadyr1           310.813
       256   03 Jun 2027 08:13:31.671   03 Jun 2027 08:13:35.090             3.419                Irkutsk           106.844
       257   03 Jun 2027 08:13:57.387   03 Jun 2027 08:15:36.969            99.582                Anadyr1          3111.938
       258   03 Jun 2027 08:15:49.492   03 Jun 2027 08:17:01.854            72.362               Magadan1          2261.313
       259   03 Jun 2027 08:17:28.551   03 Jun 2027 08:17:42.214            13.663                Anadyr2           426.969
       260   03 Jun 2027 08:17:42.214   03 Jun 2027 08:17:50.795             8.581                Anadyr1           268.156
       261   03 Jun 2027 08:17:54.302   03 Jun 2027 08:19:08.838            74.536                Irkutsk          2329.250
       262   03 Jun 2027 08:19:20.335   03 Jun 2027 08:20:17.621            57.286                Anadyr1          1790.188
       263   03 Jun 2027 09:35:20.680   03 Jun 2027 09:35:49.932            29.252                Sumatra           914.125
       264   03 Jun 2027 09:49:45.039   03 Jun 2027 09:50:07.399            22.360                Irkutsk           698.750
       265   03 Jun 2027 09:50:12.234   03 Jun 2027 09:50:17.685             5.451                Novosib           170.344
       266   03 Jun 2027 09:50:23.839   03 Jun 2027 09:50:44.983            21.144                Irkutsk           660.750
       267   03 Jun 2027 09:50:49.368   03 Jun 2027 09:50:52.643             3.275                Novosib           102.344
       268   03 Jun 2027 09:50:56.316   03 Jun 2027 09:52:04.361            68.045                Novosib          2126.406
       269   03 Jun 2027 09:52:14.796   03 Jun 2027 09:53:04.938            50.142               Magadan1          1566.937
       270   03 Jun 2027 09:53:04.938   03 Jun 2027 09:53:05.836             0.898               Magadan2            28.063
       271   03 Jun 2027 09:53:26.072   03 Jun 2027 09:53:33.525             7.453                Irkutsk           232.906
       272   03 Jun 2027 09:53:50.554   03 Jun 2027 09:53:55.609             5.055                Novosib           157.969
       273   03 Jun 2027 09:53:57.952   03 Jun 2027 09:54:51.119            53.167               Magadan2          1661.469
       274   03 Jun 2027 09:54:59.796   03 Jun 2027 09:55:18.608            18.812              Murmansk2           587.875
       275   03 Jun 2027 09:55:19.606   03 Jun 2027 09:55:59.285            39.679                Novosib          1239.969
       276   03 Jun 2027 09:56:06.306   03 Jun 2027 09:56:09.230             2.924              Murmansk1            91.375
       277   03 Jun 2027 09:56:09.230   03 Jun 2027 09:56:46.464            37.234              Murmansk2          1163.563
       278   03 Jun 2027 10:02:06.252   03 Jun 2027 10:02:06.637             0.385              Murmansk2            12.031
       279   03 Jun 2027 10:03:06.738   03 Jun 2027 10:03:20.336            13.598              Murmansk2           424.938
       280   03 Jun 2027 10:31:22.786   03 Jun 2027 10:31:47.709            24.923            RioGallegos           778.844
       281   03 Jun 2027 10:32:43.890   03 Jun 2027 10:33:03.550            19.660            RioGallegos           614.375
       282   03 Jun 2027 10:34:19.021   03 Jun 2027 10:34:25.080             6.059            RioGallegos           189.344
       283   03 Jun 2027 10:35:15.994   03 Jun 2027 10:35:41.070            25.076            RioGallegos           783.625
       284   03 Jun 2027 11:06:05.785   03 Jun 2027 11:06:51.859            46.074                Sumatra          1439.813
       285   03 Jun 2027 11:18:55.388   03 Jun 2027 11:19:22.059            26.671                  Delhi           833.469
       286   03 Jun 2027 11:19:44.979   03 Jun 2027 11:20:20.126            35.147                  Delhi          1098.344
       287   03 Jun 2027 11:26:06.963   03 Jun 2027 11:27:34.118            87.155                Irkutsk          2723.594
       288   03 Jun 2027 11:28:02.889   03 Jun 2027 11:28:12.988            10.099                Norilsk           315.594
       289   03 Jun 2027 11:28:13.605   03 Jun 2027 11:28:19.686             6.081                Novosib           190.031
       290   03 Jun 2027 11:28:26.013   03 Jun 2027 11:28:37.699            11.686              Murmansk1           365.188
       291   03 Jun 2027 11:28:41.481   03 Jun 2027 11:29:25.323            43.842                Irkutsk          1370.063
       292   03 Jun 2027 11:29:29.850   03 Jun 2027 11:30:08.354            38.504                Novosib          1203.250
       293   03 Jun 2027 11:30:12.988   03 Jun 2027 11:30:51.571            38.583                Irkutsk          1205.719
       294   03 Jun 2027 11:31:24.115   03 Jun 2027 11:32:03.226            39.111                Irkutsk          1222.219
       295   03 Jun 2027 11:32:10.949   03 Jun 2027 11:33:16.956            66.007                Novosib          2062.719
       296   03 Jun 2027 12:11:18.986   03 Jun 2027 12:11:27.825             8.839            RioGallegos           276.219
       297   03 Jun 2027 12:12:03.236   03 Jun 2027 12:13:07.352            64.116            RioGallegos          2003.625
       298   03 Jun 2027 12:51:12.258   03 Jun 2027 12:52:40.118            87.860                  Delhi          2745.625
       299   03 Jun 2027 12:58:08.387   03 Jun 2027 12:59:20.406            72.019                Novosib          2250.594
       300   03 Jun 2027 13:00:08.357   03 Jun 2027 13:02:28.703           140.346                Novosib          4385.813
       301   03 Jun 2027 13:06:33.984   03 Jun 2027 13:06:58.578            24.594              Murmansk1           768.563
       302   03 Jun 2027 14:34:42.344   03 Jun 2027 14:37:19.241           156.897                 Moscow          4903.031
       303   03 Jun 2027 14:37:42.630   03 Jun 2027 14:37:59.992            17.362                 Moscow           542.562
       304   03 Jun 2027 14:38:08.008   03 Jun 2027 14:41:18.546           190.538              Murmansk2          5954.312
       305   03 Jun 2027 14:42:00.902   03 Jun 2027 14:42:47.424            46.522                Norilsk          1453.812
       306   03 Jun 2027 14:43:07.626   03 Jun 2027 14:43:13.318             5.692                Norilsk           177.875
       307   03 Jun 2027 14:45:36.166   03 Jun 2027 14:46:01.874            25.708                Norilsk           803.375
       308   03 Jun 2027 15:49:22.728   03 Jun 2027 15:52:22.602           179.874               CapeTown          5621.062
       309   03 Jun 2027 16:11:58.594   03 Jun 2027 16:12:22.078            23.484                 Moscow           733.875
       310   03 Jun 2027 16:15:09.203   03 Jun 2027 16:17:04.096           114.893              Murmansk2          3590.406
       311   03 Jun 2027 16:29:13.325   03 Jun 2027 16:31:06.332           113.007                Anadyr2          3531.469
       312   03 Jun 2027 16:32:07.915   03 Jun 2027 16:32:47.896            39.981                Anadyr2          1249.406
       313   03 Jun 2027 16:38:33.018   03 Jun 2027 16:38:36.249             3.231                Anadyr1           100.969
       314   03 Jun 2027 17:24:10.767   03 Jun 2027 17:26:04.184           113.417               CapeTown          3544.281
       315   03 Jun 2027 17:54:25.039   03 Jun 2027 17:55:24.565            59.526              Murmansk2          1860.187
       316   03 Jun 2027 17:55:29.301   03 Jun 2027 17:59:10.136           220.835              Murmansk1          6901.094
       317   03 Jun 2027 18:08:13.589   03 Jun 2027 18:08:59.222            45.633               Magadan2          1426.031
       318   03 Jun 2027 18:09:20.697   03 Jun 2027 18:09:35.944            15.247               Magadan1           476.469
       319   03 Jun 2027 18:09:36.522   03 Jun 2027 18:10:07.536            31.014               Magadan1           969.188
       320   03 Jun 2027 18:12:46.983   03 Jun 2027 18:13:17.999            31.016               Magadan1           969.250
       321   03 Jun 2027 19:06:09.835   03 Jun 2027 19:06:20.761            10.926               CapeTown           341.438
       322   03 Jun 2027 19:40:40.289   03 Jun 2027 19:42:25.509           105.220                Anadyr1          3288.125
       323   03 Jun 2027 19:42:40.041   03 Jun 2027 19:44:25.635           105.594                Anadyr2          3299.813
       324   03 Jun 2027 19:44:56.674   03 Jun 2027 19:47:27.537           150.863               Magadan1          4714.469
       325   03 Jun 2027 19:48:12.947   03 Jun 2027 19:48:46.064            33.117               Magadan1          1034.906
       326   03 Jun 2027 19:54:08.507   03 Jun 2027 19:54:42.679            34.172               Magadan2          1067.875
       327   03 Jun 2027 21:16:32.027   03 Jun 2027 21:20:12.308           220.281                Anadyr2          6883.781
       328   03 Jun 2027 21:20:15.555   03 Jun 2027 21:22:26.920           131.365               Magadan2          4105.156
       329   03 Jun 2027 21:22:26.920   03 Jun 2027 21:22:45.269            18.349               Magadan1           573.406
       330   03 Jun 2027 21:24:09.850   03 Jun 2027 21:25:45.051            95.201                Irkutsk          2975.031
       331   03 Jun 2027 21:26:44.873   03 Jun 2027 21:27:00.492            15.619                Irkutsk           488.094
       332   03 Jun 2027 21:28:06.456   03 Jun 2027 21:29:41.826            95.370                Irkutsk          2980.313
       333   03 Jun 2027 21:40:12.285   03 Jun 2027 21:41:29.159            76.874                Sumatra          2402.312
       334   03 Jun 2027 22:51:56.564   03 Jun 2027 22:52:47.976            51.412                Anadyr1          1606.625
       335   03 Jun 2027 22:53:19.942   03 Jun 2027 22:54:24.201            64.259                Anadyr2          2008.094
       336   03 Jun 2027 22:54:35.472   03 Jun 2027 22:56:05.629            90.157                Norilsk          2817.406
       337   03 Jun 2027 22:57:47.619   03 Jun 2027 22:58:08.590            20.971               Magadan2           655.344
       338   03 Jun 2027 22:58:22.928   03 Jun 2027 22:59:32.216            69.288                Irkutsk          2165.250
       339   03 Jun 2027 22:59:45.165   03 Jun 2027 23:01:15.693            90.528                Novosib          2829.000
       340   03 Jun 2027 23:12:16.472   03 Jun 2027 23:12:26.247             9.775                Sumatra           305.469
       341   03 Jun 2027 23:21:03.401   03 Jun 2027 23:21:26.507            23.106                Sumatra           722.063
       342   03 Jun 2027 23:24:12.146   03 Jun 2027 23:24:47.581            35.435                Sumatra          1107.344
       343   03 Jun 2027 23:52:30.170   03 Jun 2027 23:52:39.955             9.785            RioGallegos           305.781
       344   03 Jun 2027 23:53:07.315   03 Jun 2027 23:53:15.486             8.171            RioGallegos           255.344
       345   03 Jun 2027 23:58:01.122   03 Jun 2027 23:58:15.481            14.359            RioGallegos           448.719
       346   04 Jun 2027 00:26:16.876   04 Jun 2027 00:26:57.709            40.833                Anadyr1          1276.031
       347   04 Jun 2027 00:26:57.709   04 Jun 2027 00:27:59.936            62.227                Anadyr2          1944.594
       348   04 Jun 2027 00:30:23.846   04 Jun 2027 00:30:36.110            12.264                Norilsk           383.250
       349   04 Jun 2027 00:31:01.673   04 Jun 2027 00:33:02.146           120.473               Magadan1          3764.781
       350   04 Jun 2027 00:33:39.961   04 Jun 2027 00:34:49.762            69.801               Magadan1          2181.281
       351   04 Jun 2027 00:35:04.665   04 Jun 2027 00:36:48.855           104.190              Murmansk2          3255.938
       352   04 Jun 2027 00:40:02.211   04 Jun 2027 00:40:42.441            40.230                Irkutsk          1257.187
       353   04 Jun 2027 00:43:52.894   04 Jun 2027 00:44:35.254            42.360                  Delhi          1323.750
       354   04 Jun 2027 00:49:26.654   04 Jun 2027 00:50:03.060            36.406                  Delhi          1137.687
       355   04 Jun 2027 01:23:07.766   04 Jun 2027 01:23:19.986            12.220            RioGallegos           381.875
       356   04 Jun 2027 01:24:30.100   04 Jun 2027 01:24:47.154            17.054            RioGallegos           532.937
       357   04 Jun 2027 01:25:48.209   04 Jun 2027 01:26:01.079            12.870            RioGallegos           402.187
       358   04 Jun 2027 01:27:07.412   04 Jun 2027 01:27:33.217            25.805            RioGallegos           806.406
       359   04 Jun 2027 01:30:21.680   04 Jun 2027 01:30:52.186            30.506            RioGallegos           953.312
       360   04 Jun 2027 01:59:37.211   04 Jun 2027 01:59:44.441             7.230                Anadyr2           225.938
       361   04 Jun 2027 01:59:55.469   04 Jun 2027 02:00:09.198            13.729                Anadyr1           429.031
       362   04 Jun 2027 02:00:42.984   04 Jun 2027 02:01:13.667            30.683                Anadyr2           958.844
       363   04 Jun 2027 02:01:40.027   04 Jun 2027 02:02:06.671            26.644                Anadyr1           832.625
       364   04 Jun 2027 02:02:40.110   04 Jun 2027 02:02:50.128            10.018                Anadyr2           313.063
       365   04 Jun 2027 02:04:42.574   04 Jun 2027 02:04:51.447             8.873                Anadyr1           277.281
       366   04 Jun 2027 02:05:24.558   04 Jun 2027 02:05:40.960            16.402                Anadyr2           512.563
       367   04 Jun 2027 02:05:48.900   04 Jun 2027 02:06:51.764            62.864               Magadan2          1964.500
       368   04 Jun 2027 02:07:39.492   04 Jun 2027 02:07:54.331            14.839                Norilsk           463.719
       369   04 Jun 2027 02:08:06.394   04 Jun 2027 02:08:11.452             5.058               Magadan1           158.062
       370   04 Jun 2027 02:08:36.468   04 Jun 2027 02:08:41.319             4.851              Murmansk1           151.594
       371   04 Jun 2027 02:08:44.001   04 Jun 2027 02:10:05.340            81.339              Murmansk2          2541.844
       372   04 Jun 2027 02:10:14.561   04 Jun 2027 02:11:20.836            66.275                Novosib          2071.094
       373   04 Jun 2027 02:16:04.785   04 Jun 2027 02:16:05.935             1.150                Irkutsk            35.938
       374   04 Jun 2027 02:16:33.290   04 Jun 2027 02:16:44.815            11.525                Novosib           360.156
       375   04 Jun 2027 02:18:34.535   04 Jun 2027 02:18:54.260            19.725                  Delhi           616.406
       376   04 Jun 2027 02:22:33.350   04 Jun 2027 02:24:06.108            92.758                  Delhi          2898.687
       377   04 Jun 2027 03:52:03.497   04 Jun 2027 03:53:13.169            69.672                Norilsk          2177.250
       378   04 Jun 2027 03:53:52.666   04 Jun 2027 03:54:26.566            33.900              Murmansk2          1059.375
       379   04 Jun 2027 03:55:09.029   04 Jun 2027 03:55:24.417            15.388              Murmansk1           480.875
       380   04 Jun 2027 03:55:55.521   04 Jun 2027 03:57:03.806            68.285              Murmansk2          2133.906
       381   04 Jun 2027 03:57:04.748   04 Jun 2027 03:57:48.127            43.379                 Moscow          1355.594
       382   04 Jun 2027 03:58:24.733   04 Jun 2027 03:58:36.302            11.569                 Moscow           361.531
       383   04 Jun 2027 05:15:08.914   04 Jun 2027 05:17:04.990           116.076               Magadan1          3627.375
       384   04 Jun 2027 05:17:04.990   04 Jun 2027 05:17:36.242            31.252               Magadan2           976.625
       385   04 Jun 2027 05:17:43.933   04 Jun 2027 05:18:55.140            71.207                Anadyr1          2225.219
       386   04 Jun 2027 05:18:55.140   04 Jun 2027 05:21:16.941           141.801                Anadyr2          4431.281
       387   04 Jun 2027 06:49:01.981   04 Jun 2027 06:49:20.934            18.953               Magadan1           592.281
       388   04 Jun 2027 06:49:43.323   04 Jun 2027 06:50:25.989            42.666                Anadyr2          1333.313
       389   04 Jun 2027 06:50:38.339   04 Jun 2027 06:50:51.972            13.633               Magadan1           426.031
       390   04 Jun 2027 06:50:54.144   04 Jun 2027 06:51:12.052            17.908                Anadyr1           559.625
       391   04 Jun 2027 06:51:12.052   04 Jun 2027 06:51:45.338            33.286                Anadyr2          1040.187
       392   04 Jun 2027 06:51:48.884   04 Jun 2027 06:52:55.665            66.781               Magadan2          2086.906
       393   04 Jun 2027 06:53:08.219   04 Jun 2027 06:54:49.991           101.772               Magadan1          3180.375
       394   04 Jun 2027 07:35:33.779   04 Jun 2027 07:35:34.689             0.910            RioGallegos            28.437
       395   04 Jun 2027 07:37:13.894   04 Jun 2027 07:37:20.357             6.463            RioGallegos           201.969
       396   04 Jun 2027 07:38:48.054   04 Jun 2027 07:40:16.300            88.246            RioGallegos          2757.688
       397   04 Jun 2027 08:23:28.355   04 Jun 2027 08:24:19.242            50.887                Irkutsk          1590.219
       398   04 Jun 2027 08:24:48.143   04 Jun 2027 08:25:07.123            18.980                Irkutsk           593.125
       399   04 Jun 2027 08:25:21.908   04 Jun 2027 08:25:54.870            32.962               Magadan1          1030.062
       400   04 Jun 2027 08:26:13.861   04 Jun 2027 08:26:33.292            19.431               Magadan2           607.219
       401   04 Jun 2027 08:26:41.038   04 Jun 2027 08:26:43.402             2.364               Magadan1            73.875
       402   04 Jun 2027 08:26:43.402   04 Jun 2027 08:27:22.232            38.830               Magadan2          1213.438
       403   04 Jun 2027 08:27:37.109   04 Jun 2027 08:28:50.380            73.271                Anadyr1          2289.719
       404   04 Jun 2027 08:28:50.380   04 Jun 2027 08:30:17.219            86.839                Anadyr2          2713.719
       405   04 Jun 2027 08:30:27.475   04 Jun 2027 08:31:02.514            35.039                Irkutsk          1094.969
       406   04 Jun 2027 08:31:05.762   04 Jun 2027 08:31:09.315             3.553                Norilsk           111.031
       407   04 Jun 2027 08:31:10.882   04 Jun 2027 08:32:39.011            88.129               Magadan2          2754.031
       408   04 Jun 2027 09:07:46.928   04 Jun 2027 09:08:01.519            14.591            RioGallegos           455.969
       409   04 Jun 2027 09:08:09.812   04 Jun 2027 09:08:31.773            21.961            RioGallegos           686.281
       410   04 Jun 2027 09:45:27.270   04 Jun 2027 09:47:00.554            93.284                Sumatra          2915.125
       411   04 Jun 2027 10:01:36.356   04 Jun 2027 10:01:52.836            16.480               Magadan2           515.000
       412   04 Jun 2027 10:01:55.411   04 Jun 2027 10:02:28.830            33.419                Norilsk          1044.344
       413   04 Jun 2027 10:02:46.629   04 Jun 2027 10:03:04.531            17.902                Irkutsk           559.438
       414   04 Jun 2027 10:03:10.411   04 Jun 2027 10:04:02.010            51.599               Magadan2          1612.469
       415   04 Jun 2027 10:04:02.010   04 Jun 2027 10:05:07.158            65.148               Magadan1          2035.875
       416   04 Jun 2027 10:05:21.632   04 Jun 2027 10:06:30.681            69.049                Irkutsk          2157.781
       417   04 Jun 2027 10:06:47.233   04 Jun 2027 10:07:09.122            21.889              Murmansk2           684.031
       418   04 Jun 2027 10:07:24.233   04 Jun 2027 10:07:33.107             8.874                Novosib           277.313
       419   04 Jun 2027 10:07:39.492   04 Jun 2027 10:07:50.677            11.185                Irkutsk           349.531
       420   04 Jun 2027 10:07:52.275   04 Jun 2027 10:08:08.186            15.911                Irkutsk           497.219
       421   04 Jun 2027 10:08:10.321   04 Jun 2027 10:08:13.384             3.063                Norilsk            95.719
       422   04 Jun 2027 10:08:15.398   04 Jun 2027 10:08:41.113            25.715                Novosib           803.594
       423   04 Jun 2027 10:09:41.570   04 Jun 2027 10:09:58.771            17.201              Murmansk1           537.531
       424   04 Jun 2027 10:43:35.521   04 Jun 2027 10:44:41.683            66.162            RioGallegos          2067.562
       425   04 Jun 2027 11:18:08.285   04 Jun 2027 11:19:45.439            97.154                Sumatra          3036.062
       426   04 Jun 2027 11:38:30.735   04 Jun 2027 11:38:31.118             0.383                Novosib            11.969
       427   04 Jun 2027 11:38:38.968   04 Jun 2027 11:39:55.126            76.158                Norilsk          2379.938
       428   04 Jun 2027 11:40:03.392   04 Jun 2027 11:40:13.323             9.931                Norilsk           310.344
       429   04 Jun 2027 11:40:14.274   04 Jun 2027 11:40:18.628             4.354                Novosib           136.062
       430   04 Jun 2027 11:40:25.144   04 Jun 2027 11:40:43.447            18.303              Murmansk1           571.969
       431   04 Jun 2027 11:40:48.099   04 Jun 2027 11:41:39.317            51.218                Norilsk          1600.562
       432   04 Jun 2027 11:41:40.731   04 Jun 2027 11:41:45.062             4.331              Murmansk2           135.344
       433   04 Jun 2027 11:41:53.354   04 Jun 2027 11:42:32.578            39.224                Irkutsk          1225.750
       434   04 Jun 2027 11:42:44.293   04 Jun 2027 11:43:13.783            29.490                 Moscow           921.562
       435   04 Jun 2027 11:43:33.203   04 Jun 2027 11:44:08.342            35.139                Irkutsk          1098.094
       436   04 Jun 2027 11:44:16.046   04 Jun 2027 11:45:00.970            44.924                Novosib          1403.875
       437   04 Jun 2027 11:48:40.064   04 Jun 2027 11:49:09.341            29.277              Murmansk1           914.906
       438   04 Jun 2027 12:24:43.183   04 Jun 2027 12:26:26.891           103.708            RioGallegos          3240.875
       439   04 Jun 2027 13:05:20.108   04 Jun 2027 13:07:12.384           112.276                  Delhi          3508.625
       440   04 Jun 2027 13:10:33.635   04 Jun 2027 13:11:26.908            53.273                Novosib          1664.781
       441   04 Jun 2027 13:14:28.217   04 Jun 2027 13:15:24.339            56.122                Novosib          1753.812
       442   04 Jun 2027 13:15:31.495   04 Jun 2027 13:17:33.633           122.138                Norilsk          3816.812
       443   04 Jun 2027 14:46:42.770   04 Jun 2027 14:49:39.459           176.689                 Moscow          5521.531
       444   04 Jun 2027 14:49:50.472   04 Jun 2027 14:50:01.714            11.242                 Moscow           351.312
       445   04 Jun 2027 14:50:11.713   04 Jun 2027 14:52:03.951           112.238              Murmansk1          3507.437
       446   04 Jun 2027 14:52:03.951   04 Jun 2027 14:52:39.622            35.671              Murmansk2          1114.719
       447   04 Jun 2027 14:54:45.814   04 Jun 2027 14:56:06.673            80.859                Norilsk          2526.844
       448   04 Jun 2027 14:57:34.575   04 Jun 2027 14:59:28.345           113.770                Norilsk          3555.312
       449   04 Jun 2027 16:02:08.234   04 Jun 2027 16:02:11.292             3.058               CapeTown            95.562
       450   04 Jun 2027 16:08:34.016   04 Jun 2027 16:10:22.198           108.182               CapeTown          3380.687
       451   04 Jun 2027 16:24:27.632   04 Jun 2027 16:25:12.405            44.773                 Moscow          1399.156
       452   04 Jun 2027 16:28:53.515   04 Jun 2027 16:29:29.427            35.912              Murmansk1          1122.250
       453   04 Jun 2027 16:37:24.283   04 Jun 2027 16:38:15.228            50.945              Murmansk1          1592.031
       454   04 Jun 2027 16:41:08.630   04 Jun 2027 16:42:39.414            90.784                Anadyr1          2837.000
       455   04 Jun 2027 16:44:13.645   04 Jun 2027 16:44:29.974            16.329                Anadyr2           510.281
       456   04 Jun 2027 16:48:01.164   04 Jun 2027 16:48:14.458            13.294                Anadyr2           415.437
       457   04 Jun 2027 16:50:14.507   04 Jun 2027 16:50:31.168            16.661                Anadyr1           520.656
       458   04 Jun 2027 16:50:38.794   04 Jun 2027 16:50:40.265             1.471                Anadyr2            45.969
       459   04 Jun 2027 17:36:17.912   04 Jun 2027 17:37:02.976            45.064               CapeTown          1408.250
       460   04 Jun 2027 17:41:01.504   04 Jun 2027 17:41:26.206            24.702               CapeTown           771.937
       461   04 Jun 2027 17:46:00.141   04 Jun 2027 17:46:02.283             2.142               CapeTown            66.938
       462   04 Jun 2027 17:46:50.517   04 Jun 2027 17:47:00.202             9.685               CapeTown           302.656
       463   04 Jun 2027 18:07:04.798   04 Jun 2027 18:11:09.017           244.219              Murmansk2          7631.844
       464   04 Jun 2027 18:11:34.515   04 Jun 2027 18:11:58.704            24.189              Murmansk1           755.906
       465   04 Jun 2027 18:16:46.249   04 Jun 2027 18:16:50.866             4.617                Anadyr1           144.281
       466   04 Jun 2027 18:17:07.685   04 Jun 2027 18:17:37.033            29.348                Anadyr2           917.125
       467   04 Jun 2027 18:18:16.860   04 Jun 2027 18:18:33.471            16.611                Anadyr2           519.094
       468   04 Jun 2027 18:19:57.271   04 Jun 2027 18:20:52.837            55.566               Magadan2          1736.438
       469   04 Jun 2027 18:21:06.108   04 Jun 2027 18:21:29.033            22.925               Magadan2           716.406
       470   04 Jun 2027 18:24:34.491   04 Jun 2027 18:24:45.880            11.389               Magadan2           355.906
       471   04 Jun 2027 18:26:04.089   04 Jun 2027 18:26:17.788            13.699               Magadan1           428.094
       472   04 Jun 2027 18:27:59.734   04 Jun 2027 18:28:34.840            35.106               Magadan1          1097.063
       473   04 Jun 2027 19:52:41.869   04 Jun 2027 19:56:28.516           226.647                Anadyr1          7082.719
       474   04 Jun 2027 19:57:01.091   04 Jun 2027 19:58:35.267            94.176               Magadan1          2943.000
       475   04 Jun 2027 19:58:50.071   04 Jun 2027 19:59:53.817            63.746               Magadan2          1992.063
       476   04 Jun 2027 20:49:12.420   04 Jun 2027 20:51:29.806           137.386            RioGallegos          4293.312
       477   04 Jun 2027 20:53:52.713   04 Jun 2027 20:54:03.050            10.337            RioGallegos           323.031
       478   04 Jun 2027 21:28:31.760   04 Jun 2027 21:30:03.727            91.967                Anadyr2          2873.969
       479   04 Jun 2027 21:30:11.291   04 Jun 2027 21:30:43.400            32.109                Anadyr2          1003.406
       480   04 Jun 2027 21:30:44.494   04 Jun 2027 21:32:17.908            93.414                Norilsk          2919.187
       481   04 Jun 2027 21:32:25.319   04 Jun 2027 21:33:11.798            46.479               Magadan2          1452.469
       482   04 Jun 2027 21:33:57.637   04 Jun 2027 21:34:07.692            10.055               Magadan2           314.219
