uniorb/output/strategy_2/Drop/Drop_KinoSat_110510.txt

KinoSat_110510
-------------------------
    Access    *     Start Time (UTCG)     *     Stop Time (UTCG)  *   Duration (s)        *       Station  *  Data (Mbytes)
         1   01 Jun 2027 03:00:38.155   01 Jun 2027 03:01:13.369            35.214                Anadyr1          3511.500
         2   01 Jun 2027 03:01:15.069   01 Jun 2027 03:01:24.544             9.475                Irkutsk           850.000
         3   01 Jun 2027 03:01:28.763   01 Jun 2027 03:02:01.530            32.767                Anadyr1          2109.500
         4   01 Jun 2027 03:02:05.220   01 Jun 2027 03:02:40.007            34.787                Anadyr2          1845.000
         5   01 Jun 2027 03:02:41.562   01 Jun 2027 03:02:50.277             8.715               Magadan2           777.500
         6   01 Jun 2027 03:02:55.356   01 Jun 2027 03:03:48.677            53.321                Irkutsk          2539.500
         7   01 Jun 2027 03:03:51.803   01 Jun 2027 03:04:13.851            22.048                Anadyr2          1563.000
         8   01 Jun 2027 04:35:46.740   01 Jun 2027 04:36:48.698            61.958                Novosib          3384.000
         9   01 Jun 2027 04:36:48.963   01 Jun 2027 04:37:01.722            12.759               Magadan1           132.500
        10   01 Jun 2027 04:37:05.398   01 Jun 2027 04:37:57.811            52.413               Magadan2          1838.000
        11   01 Jun 2027 04:38:02.266   01 Jun 2027 04:38:53.158            50.892               Magadan2          2227.500
        12   01 Jun 2027 04:38:54.970   01 Jun 2027 04:40:05.360            70.390                Irkutsk           906.000
        13   01 Jun 2027 04:40:18.169   01 Jun 2027 04:41:03.636            45.467                Norilsk          5683.375
        14   01 Jun 2027 04:41:09.472   01 Jun 2027 04:41:54.980            45.508              Murmansk2          3639.125
        15   01 Jun 2027 04:42:18.909   01 Jun 2027 04:44:23.145           124.236              Murmansk1         11964.500
        16   01 Jun 2027 06:12:02.040   01 Jun 2027 06:12:08.196             6.156                Norilsk           769.500
        17   01 Jun 2027 06:12:37.228   01 Jun 2027 06:14:52.758           135.530                Norilsk         14820.000
        18   01 Jun 2027 06:14:55.040   01 Jun 2027 06:15:09.599            14.559                Norilsk          1141.000
        19   01 Jun 2027 06:15:17.918   01 Jun 2027 06:15:43.588            25.670                Irkutsk          3208.750
        20   01 Jun 2027 06:15:52.386   01 Jun 2027 06:16:32.459            40.073                Norilsk          5009.125
        21   01 Jun 2027 06:16:33.877   01 Jun 2027 06:16:43.010             9.133              Murmansk2          1049.625
        22   01 Jun 2027 06:17:07.646   01 Jun 2027 06:19:28.685           141.039              Murmansk1         12318.000
        23   01 Jun 2027 07:49:35.263   01 Jun 2027 07:50:13.894            38.631                Novosib           343.500
        24   01 Jun 2027 07:50:23.650   01 Jun 2027 07:51:32.289            68.639                 Moscow          4878.000
        25   01 Jun 2027 07:51:34.915   01 Jun 2027 07:52:25.893            50.978                Irkutsk          1313.000
        26   01 Jun 2027 07:52:26.856   01 Jun 2027 07:52:27.858             1.002                Norilsk           125.250
        27   01 Jun 2027 07:52:35.665   01 Jun 2027 07:53:13.320            37.655              Murmansk1          4259.750
        28   01 Jun 2027 07:53:25.535   01 Jun 2027 07:54:27.358            61.823                Norilsk          6107.500
        29   01 Jun 2027 09:25:43.436   01 Jun 2027 09:26:10.610            27.174                Novosib          3089.000
        30   01 Jun 2027 09:26:19.803   01 Jun 2027 09:27:41.896            82.093                Norilsk          4596.500
        31   01 Jun 2027 09:27:52.892   01 Jun 2027 09:28:38.941            46.049                Novosib          5498.000
        32   01 Jun 2027 09:28:52.342   01 Jun 2027 09:30:11.848            79.506                Norilsk          6700.500
        33   02 Jun 2027 03:12:46.370   02 Jun 2027 03:13:16.318            29.948                Anadyr2          2406.500
        34   02 Jun 2027 03:13:20.193   02 Jun 2027 03:13:36.726            16.533                Irkutsk          1937.500
        35   02 Jun 2027 03:13:40.814   02 Jun 2027 03:14:25.595            44.781                Norilsk          2044.000
        36   02 Jun 2027 03:14:28.251   02 Jun 2027 03:14:39.024            10.773               Magadan2          1328.000
        37   02 Jun 2027 03:14:39.108   02 Jun 2027 03:15:28.659            49.551                Anadyr2            42.000
        38   02 Jun 2027 03:15:41.195   02 Jun 2027 03:16:37.510            56.315               Magadan1          6268.000
        39   02 Jun 2027 04:47:58.251   02 Jun 2027 04:48:33.218            34.967               Magadan2          3343.000
        40   02 Jun 2027 04:49:04.346   02 Jun 2027 04:51:30.151           145.805               Magadan1         15564.000
        41   02 Jun 2027 04:51:36.435   02 Jun 2027 04:51:48.774            12.339                Norilsk          1542.375
        42   02 Jun 2027 04:52:10.937   02 Jun 2027 04:52:53.729            42.792                Norilsk          5349.000
        43   02 Jun 2027 04:52:53.785   02 Jun 2027 04:53:41.781            47.996               Magadan1          5999.500
        44   02 Jun 2027 04:53:41.781   02 Jun 2027 04:54:11.401            29.620               Magadan2          1360.625
        45   02 Jun 2027 04:54:13.839   02 Jun 2027 04:54:27.326            13.487                Irkutsk          1219.000
        46   02 Jun 2027 06:24:31.772   02 Jun 2027 06:25:10.545            38.773                Norilsk          4846.625
        47   02 Jun 2027 06:25:18.914   02 Jun 2027 06:26:39.133            80.219                Irkutsk          8955.875
        48   02 Jun 2027 06:26:42.809   02 Jun 2027 06:27:03.508            20.699                Novosib          1838.000
        49   02 Jun 2027 06:27:15.305   02 Jun 2027 06:28:14.032            58.727                Norilsk          5898.500
        50   02 Jun 2027 06:28:22.278   02 Jun 2027 06:28:56.435            34.157                Norilsk          4123.000
        51   02 Jun 2027 06:28:58.688   02 Jun 2027 06:29:26.874            28.186              Murmansk2          1126.500
        52   02 Jun 2027 06:29:29.539   02 Jun 2027 06:29:51.969            22.430                Norilsk          1332.500
        53   02 Jun 2027 06:30:03.486   02 Jun 2027 06:31:33.384            89.898              Murmansk1          5758.500
        54   02 Jun 2027 08:01:31.355   02 Jun 2027 08:01:55.970            24.615                Norilsk           974.500
        55   02 Jun 2027 08:01:59.668   02 Jun 2027 08:03:11.961            72.293                Irkutsk          1849.000
        56   02 Jun 2027 08:03:13.016   02 Jun 2027 08:03:33.695            20.679              Murmansk2           527.500
        57   02 Jun 2027 08:03:37.609   02 Jun 2027 08:03:49.442            11.833              Murmansk2          1479.125
        58   02 Jun 2027 08:04:04.660   02 Jun 2027 08:05:14.118            69.458                Norilsk          8086.875
        59   02 Jun 2027 08:05:20.892   02 Jun 2027 08:06:09.477            48.585              Murmansk2          3387.000
        60   02 Jun 2027 08:06:10.574   02 Jun 2027 08:06:28.912            18.338                Norilsk           408.000
        61   02 Jun 2027 09:37:48.436   02 Jun 2027 09:38:21.959            33.523              Murmansk1          3353.000
        62   02 Jun 2027 09:38:31.947   02 Jun 2027 09:39:58.915            86.968                Novosib          4994.000
        63   02 Jun 2027 09:40:03.288   02 Jun 2027 09:40:25.470            22.182                Norilsk          2186.500
        64   02 Jun 2027 09:40:32.664   02 Jun 2027 09:41:17.091            44.427              Murmansk1          3597.000
        65   02 Jun 2027 09:41:32.982   02 Jun 2027 09:42:35.898            62.916                Novosib          7864.500
        66   02 Jun 2027 09:42:38.344   02 Jun 2027 09:43:39.030            60.686                 Moscow            81.000
        67   03 Jun 2027 03:24:34.845   03 Jun 2027 03:25:00.389            25.544               Magadan1          2712.000
        68   03 Jun 2027 03:25:03.778   03 Jun 2027 03:25:12.801             9.023                Irkutsk          1127.875
        69   03 Jun 2027 03:25:13.710   03 Jun 2027 03:25:24.248            10.538                Anadyr2          1021.125
        70   03 Jun 2027 03:25:24.798   03 Jun 2027 03:25:38.520            13.722               Magadan2           275.000
        71   03 Jun 2027 03:25:41.255   03 Jun 2027 03:26:06.846            25.591               Magadan1          1367.500
        72   03 Jun 2027 03:26:25.342   03 Jun 2027 03:27:45.068            79.726                Norilsk          9248.000
        73   03 Jun 2027 03:27:48.660   03 Jun 2027 03:28:21.309            32.649               Magadan1          1796.000
        74   03 Jun 2027 03:28:32.780   03 Jun 2027 03:28:58.629            25.849               Magadan1          3231.125
        75   03 Jun 2027 03:28:58.629   03 Jun 2027 03:29:00.252             1.623               Magadan2           202.875
        76   03 Jun 2027 03:29:13.911   03 Jun 2027 03:29:45.396            31.485                Norilsk          2301.500
        77   03 Jun 2027 04:59:27.026   03 Jun 2027 05:00:10.773            43.747               Magadan2          2016.000
        78   03 Jun 2027 05:00:22.426   03 Jun 2027 05:00:34.531            12.105                Norilsk          1513.125
        79   03 Jun 2027 05:00:39.804   03 Jun 2027 05:01:51.696            71.892                Irkutsk          6949.875
        80   03 Jun 2027 05:01:58.212   03 Jun 2027 05:03:00.313            62.101                Irkutsk          3258.000
        81   03 Jun 2027 05:03:06.790   03 Jun 2027 05:03:37.347            30.557                Norilsk          3238.500
        82   03 Jun 2027 05:03:41.549   03 Jun 2027 05:04:16.556            35.007               Magadan2          2101.000
        83   03 Jun 2027 05:04:34.840   03 Jun 2027 05:06:33.268           118.428                Novosib          9142.000
        84   03 Jun 2027 05:06:34.593   03 Jun 2027 05:06:51.753            17.160                Norilsk           662.500
        85   03 Jun 2027 06:35:52.149   03 Jun 2027 06:36:30.856            38.707                Norilsk           852.000
        86   03 Jun 2027 06:36:46.093   03 Jun 2027 06:37:54.019            67.926                Irkutsk          7618.500
        87   03 Jun 2027 06:37:58.055   03 Jun 2027 06:38:06.264             8.209                Norilsk          1026.125
        88   03 Jun 2027 06:38:12.040   03 Jun 2027 06:39:08.371            56.331                Irkutsk          3879.875
        89   03 Jun 2027 06:39:19.463   03 Jun 2027 06:40:04.142            44.679              Murmansk2          5546.000
        90   03 Jun 2027 06:40:09.511   03 Jun 2027 06:40:40.162            30.651                Irkutsk          2684.500
        91   03 Jun 2027 06:40:41.797   03 Jun 2027 06:40:48.874             7.077              Murmansk1           817.500
        92   03 Jun 2027 06:40:50.105   03 Jun 2027 06:41:10.337            20.232                Irkutsk           615.500
        93   03 Jun 2027 06:41:16.953   03 Jun 2027 06:42:01.240            44.287              Murmansk2          3308.000
        94   03 Jun 2027 06:42:15.131   03 Jun 2027 06:43:33.141            78.010              Murmansk2          6874.000
        95   03 Jun 2027 08:14:19.027   03 Jun 2027 08:15:11.188            52.161                Irkutsk          5149.000
        96   03 Jun 2027 08:15:12.870   03 Jun 2027 08:15:39.825            26.955                Novosib           841.000
        97   03 Jun 2027 08:15:40.142   03 Jun 2027 08:16:12.240            32.098                Irkutsk           158.500
        98   03 Jun 2027 08:16:15.386   03 Jun 2027 08:16:33.818            18.432                Norilsk          1573.000
        99   03 Jun 2027 08:16:41.302   03 Jun 2027 08:17:19.784            38.482                Novosib          3742.000
       100   03 Jun 2027 08:17:27.229   03 Jun 2027 08:18:11.916            44.687                 Moscow          3722.500
       101   03 Jun 2027 09:49:40.256   03 Jun 2027 09:50:17.627            37.371              Murmansk2          2436.000
       102   03 Jun 2027 09:50:17.685   03 Jun 2027 09:50:38.026            20.341                Novosib            29.000
       103   03 Jun 2027 09:50:44.200   03 Jun 2027 09:52:06.519            82.319                 Moscow          3087.000
       104   03 Jun 2027 09:52:21.354   03 Jun 2027 09:53:32.258            70.904              Murmansk1          7417.500
       105   03 Jun 2027 09:53:35.137   03 Jun 2027 09:54:04.760            29.623              Murmansk2          1439.500
       106   03 Jun 2027 09:54:08.254   03 Jun 2027 09:54:32.179            23.925                Norilsk          1747.000
       107   03 Jun 2027 09:54:33.132   03 Jun 2027 09:54:59.796            26.664              Murmansk2           476.500
       108   04 Jun 2027 03:35:08.609   04 Jun 2027 03:37:03.187           114.578               Magadan1         11472.000
       109   04 Jun 2027 03:37:09.668   04 Jun 2027 03:37:38.723            29.055               Magadan2          3240.500
       110   04 Jun 2027 03:37:42.125   04 Jun 2027 03:38:16.804            34.679                Norilsk          1701.000
       111   04 Jun 2027 03:38:24.701   04 Jun 2027 03:39:15.669            50.968                Norilsk          3948.500
       112   04 Jun 2027 03:39:15.939   04 Jun 2027 03:39:22.314             6.375               Magadan1           135.000
       113   04 Jun 2027 03:39:28.922   04 Jun 2027 03:40:05.457            36.535                Anadyr2          3304.000
       114   04 Jun 2027 03:40:05.666   04 Jun 2027 03:40:06.881             1.215                Norilsk           104.500
       115   04 Jun 2027 03:40:11.530   04 Jun 2027 03:41:27.551            76.021                Anadyr1          2324.500
       116   04 Jun 2027 05:11:04.164   04 Jun 2027 05:11:15.696            11.532                Norilsk            40.000
       117   04 Jun 2027 05:11:20.492   04 Jun 2027 05:12:33.894            73.402               Magadan2          2398.000
       118   04 Jun 2027 05:12:40.917   04 Jun 2027 05:13:09.174            28.257               Magadan2          3511.500
       119   04 Jun 2027 05:13:10.432   04 Jun 2027 05:13:37.771            27.339                Irkutsk           629.000
       120   04 Jun 2027 05:13:41.821   04 Jun 2027 05:14:56.654            74.833                Novosib          2025.000
       121   04 Jun 2027 05:14:58.757   04 Jun 2027 05:16:01.199            62.442                Novosib          1051.500
       122   04 Jun 2027 05:16:05.421   04 Jun 2027 05:17:01.537            56.116               Magadan2          2111.000
       123   04 Jun 2027 05:17:04.990   04 Jun 2027 05:17:29.499            24.509               Magadan1          1726.500
       124   04 Jun 2027 05:17:36.242   04 Jun 2027 05:17:51.359            15.117               Magadan2          1889.625
       125   04 Jun 2027 05:17:52.574   04 Jun 2027 05:18:20.382            27.808              Murmansk2          2089.375
       126   04 Jun 2027 05:18:20.567   04 Jun 2027 05:18:22.297             1.730                Norilsk            92.500
       127   04 Jun 2027 05:18:24.421   04 Jun 2027 05:18:35.375            10.954                Norilsk          1062.000
       128   04 Jun 2027 05:18:40.448   04 Jun 2027 05:18:42.005             1.557                Norilsk           194.625
       129   04 Jun 2027 05:18:46.884   04 Jun 2027 05:18:55.150             8.266              Murmansk2           701.375
       130   04 Jun 2027 06:48:28.490   04 Jun 2027 06:49:34.949            66.459                Norilsk          8307.375
       131   04 Jun 2027 06:49:44.514   04 Jun 2027 06:50:34.645            50.131                Novosib          5717.125
       132   04 Jun 2027 06:50:38.745   04 Jun 2027 06:50:53.468            14.723                Norilsk          1840.375
       133   04 Jun 2027 06:50:56.552   04 Jun 2027 06:51:20.185            23.633              Murmansk2          1751.625
       134   04 Jun 2027 06:51:29.024   04 Jun 2027 06:52:14.973            45.949                Novosib          4419.500
       135   04 Jun 2027 06:52:16.311   04 Jun 2027 06:52:50.811            34.500                Irkutsk           669.000
       136   04 Jun 2027 06:52:54.943   04 Jun 2027 06:53:15.509            20.566                 Moscow          2066.000
       137   04 Jun 2027 06:53:16.453   04 Jun 2027 06:54:28.753            72.300                Irkutsk           472.000
       138   04 Jun 2027 06:54:40.952   04 Jun 2027 06:55:03.524            22.572                Novosib           824.500
       139   04 Jun 2027 08:26:15.560   04 Jun 2027 08:27:11.719            56.159                Norilsk          4335.000
       140   04 Jun 2027 08:27:14.639   04 Jun 2027 08:27:46.990            32.351              Murmansk1          1460.000
       141   04 Jun 2027 08:27:48.677   04 Jun 2027 08:28:20.752            32.075                Novosib           843.500
       142   04 Jun 2027 08:28:27.873   04 Jun 2027 08:29:16.234            48.361                Norilsk          3560.500
       143   04 Jun 2027 08:29:20.478   04 Jun 2027 08:29:45.137            24.659                 Moscow          2122.000
       144   04 Jun 2027 08:29:52.002   04 Jun 2027 08:30:04.795            12.793                Norilsk          1599.125
       145   04 Jun 2027 08:30:05.926   04 Jun 2027 08:31:34.427            88.501                Novosib          1833.375
       146   04 Jun 2027 09:59:35.575   04 Jun 2027 09:59:41.275             5.700                 Moscow           712.500
       147   04 Jun 2027 09:59:56.472   04 Jun 2027 10:02:31.036           154.564                 Moscow         18819.000
       148   04 Jun 2027 10:02:39.510   04 Jun 2027 10:03:32.229            52.719                Novosib          4237.000
       149   04 Jun 2027 10:03:33.279   04 Jun 2027 10:03:44.386            11.107              Murmansk2           525.000
       150   04 Jun 2027 10:03:51.071   04 Jun 2027 10:04:30.543            39.472              Murmansk1          3342.500
       151   04 Jun 2027 10:04:32.111   04 Jun 2027 10:04:52.369            20.258              Murmansk2           784.000
       152   04 Jun 2027 10:05:08.999   04 Jun 2027 10:05:22.053            13.054                Novosib          1631.750
       153   04 Jun 2027 10:05:24.376   04 Jun 2027 10:06:32.424            68.048                 Moscow          7844.750
       154   04 Jun 2027 10:06:41.267   04 Jun 2027 10:07:43.485            62.218                Norilsk          4421.500
       155   05 Jun 2027 03:46:04.142   05 Jun 2027 03:47:10.304            66.162               Magadan2          4787.500
       156   05 Jun 2027 03:47:18.807   05 Jun 2027 03:47:47.178            28.371               Magadan1          3546.375
       157   05 Jun 2027 03:47:47.178   05 Jun 2027 03:47:55.353             8.175               Magadan2           705.125
       158   05 Jun 2027 03:48:05.661   05 Jun 2027 03:48:43.959            38.298               Magadan2          3752.000
       159   05 Jun 2027 03:48:50.396   05 Jun 2027 03:49:15.247            24.851                Irkutsk          3106.375
       160   05 Jun 2027 03:49:18.682   05 Jun 2027 03:49:33.733            15.051                Irkutsk          1829.625
       161   05 Jun 2027 03:49:34.513   05 Jun 2027 03:49:57.362            22.849                Anadyr2           390.000
       162   05 Jun 2027 03:50:13.342   05 Jun 2027 03:51:20.857            67.515                Anadyr2          7990.000
       163   05 Jun 2027 03:51:31.227   05 Jun 2027 03:51:51.255            20.028                Novosib          2503.500
       164   05 Jun 2027 03:51:54.285   05 Jun 2027 03:53:28.845            94.560                Anadyr1          4196.500
       165   05 Jun 2027 03:53:52.973   05 Jun 2027 03:54:30.622            37.649              Murmansk2           706.500
       166   05 Jun 2027 05:23:29.200   05 Jun 2027 05:24:09.215            40.015               Magadan2          3117.000
       167   05 Jun 2027 05:24:20.594   05 Jun 2027 05:25:12.340            51.746                Norilsk          5689.500
       168   05 Jun 2027 05:25:14.659   05 Jun 2027 05:25:52.631            37.972                Novosib          1159.500
       169   05 Jun 2027 05:25:55.750   05 Jun 2027 05:26:36.333            40.583               Magadan1          1559.500
       170   05 Jun 2027 05:26:50.960   05 Jun 2027 05:28:09.156            78.196                Norilsk          7313.500
       171   05 Jun 2027 05:28:28.186   05 Jun 2027 05:29:23.884            55.698                Norilsk          6962.250
       172   05 Jun 2027 05:29:33.123   05 Jun 2027 05:30:42.125            69.002              Murmansk2          7172.250
       173   05 Jun 2027 07:00:11.988   05 Jun 2027 07:00:39.232            27.244                Irkutsk          2103.500
       174   05 Jun 2027 07:00:48.114   05 Jun 2027 07:01:19.895            31.781                Novosib          3972.625
       175   05 Jun 2027 07:01:27.146   05 Jun 2027 07:01:59.379            32.233                Norilsk          4029.125
       176   05 Jun 2027 07:02:12.712   05 Jun 2027 07:03:17.027            64.315                Irkutsk          6731.250
       177   05 Jun 2027 07:03:21.124   05 Jun 2027 07:03:54.173            33.049              Murmansk2          2048.500
       178   05 Jun 2027 07:03:54.455   05 Jun 2027 07:03:57.022             2.567                 Moscow           141.000
       179   05 Jun 2027 07:04:07.041   05 Jun 2027 07:05:35.583            88.542                Irkutsk          5009.500
       180   05 Jun 2027 07:05:40.780   05 Jun 2027 07:06:19.878            39.098                Irkutsk          2598.500
       181   05 Jun 2027 07:06:20.687   05 Jun 2027 07:06:52.155            31.468                Novosib           404.500
       182   05 Jun 2027 08:38:06.148   05 Jun 2027 08:38:14.426             8.278                Novosib            23.000
       183   05 Jun 2027 08:38:20.133   05 Jun 2027 08:38:44.804            24.671              Murmansk1          2853.500
       184   05 Jun 2027 08:38:51.741   05 Jun 2027 08:40:09.440            77.699                Norilsk          3468.500
       185   05 Jun 2027 08:40:16.379   05 Jun 2027 08:41:00.205            43.826                Norilsk          3469.500
       186   05 Jun 2027 08:41:02.886   05 Jun 2027 08:41:32.010            29.124              Murmansk1          1340.500
       187   05 Jun 2027 08:41:35.115   05 Jun 2027 08:41:52.519            17.404                Norilsk          1552.500
       188   05 Jun 2027 08:41:59.211   05 Jun 2027 08:42:32.190            32.979                Norilsk          3346.000
       189   05 Jun 2027 10:11:53.788   05 Jun 2027 10:12:49.923            56.135                 Moscow          4906.000
       190   05 Jun 2027 10:12:53.954   05 Jun 2027 10:13:27.539            33.585                 Moscow          2015.500
       191   05 Jun 2027 10:13:45.162   05 Jun 2027 10:15:16.315            91.153                 Moscow          8811.500
       192   05 Jun 2027 10:15:18.976   05 Jun 2027 10:15:52.332            33.356                 Moscow          1330.500
       193   05 Jun 2027 10:15:52.704   05 Jun 2027 10:15:59.861             7.157                Norilsk           186.000
       194   05 Jun 2027 10:16:09.122   05 Jun 2027 10:17:48.582            99.460                Norilsk          4630.500
       195   05 Jun 2027 10:17:50.815   05 Jun 2027 10:18:09.553            18.738                Norilsk          1116.500
       196   05 Jun 2027 10:18:09.831   05 Jun 2027 10:18:34.948            25.117              Murmansk1           139.000
       197   05 Jun 2027 10:18:39.858   05 Jun 2027 10:19:04.960            25.102                Norilsk          2455.000
       198   05 Jun 2027 10:19:06.230   05 Jun 2027 10:19:26.726            20.496                 Moscow           635.000
       199   06 Jun 2027 03:57:26.115   06 Jun 2027 03:58:09.883            43.768                Irkutsk          1798.000
       200   06 Jun 2027 03:58:15.396   06 Jun 2027 03:59:46.330            90.934                Irkutsk          2756.500
       201   06 Jun 2027 03:59:48.431   06 Jun 2027 04:00:01.021            12.590                Anadyr2          1050.500
       202   06 Jun 2027 04:00:09.248   06 Jun 2027 04:00:52.087            42.839                Norilsk          4113.500
       203   06 Jun 2027 04:01:05.549   06 Jun 2027 04:02:42.607            97.058                Irkutsk          6731.000
       204   06 Jun 2027 04:02:44.477   06 Jun 2027 04:03:00.599            16.122               Magadan1           935.000
       205   06 Jun 2027 04:03:02.378   06 Jun 2027 04:03:11.217             8.839               Magadan1           889.500
       206   06 Jun 2027 04:03:24.357   06 Jun 2027 04:05:09.651           105.294                Irkutsk          6570.000
       207   06 Jun 2027 04:05:28.403   06 Jun 2027 04:06:45.996            77.593               Magadan1          7932.000
       208   06 Jun 2027 05:35:19.035   06 Jun 2027 05:35:36.704            17.669               Magadan2          1510.000
       209   06 Jun 2027 05:35:42.489   06 Jun 2027 05:36:43.154            60.665                Irkutsk          2892.500
       210   06 Jun 2027 05:36:43.265   06 Jun 2027 05:37:03.529            20.264               Magadan2            55.500
       211   06 Jun 2027 05:37:06.375   06 Jun 2027 05:37:41.088            34.713                Norilsk          1423.000
       212   06 Jun 2027 05:37:45.866   06 Jun 2027 05:38:07.239            21.373                Norilsk          2389.000
       213   06 Jun 2027 05:38:10.885   06 Jun 2027 05:38:41.778            30.893                Irkutsk          1823.000
       214   06 Jun 2027 05:38:43.997   06 Jun 2027 05:38:57.206            13.209                Irkutsk          1109.500
       215   06 Jun 2027 05:39:01.284   06 Jun 2027 05:39:19.256            17.972                Novosib          2039.000
       216   06 Jun 2027 05:39:25.812   06 Jun 2027 05:40:39.081            73.269                Novosib          3278.000
       217   06 Jun 2027 05:40:49.071   06 Jun 2027 05:41:44.299            55.228              Murmansk1          4995.000
       218   06 Jun 2027 05:41:58.376   06 Jun 2027 05:43:00.942            62.566                Norilsk          7038.500
       219   06 Jun 2027 07:12:08.043   06 Jun 2027 07:12:45.718            37.675                Irkutsk          4059.500
       220   06 Jun 2027 07:12:47.766   06 Jun 2027 07:13:22.708            34.942                Irkutsk          1024.000
       221   06 Jun 2027 07:13:30.865   06 Jun 2027 07:14:31.060            60.195                Norilsk          4078.500
       222   06 Jun 2027 07:14:54.741   06 Jun 2027 07:16:29.504            94.763                Irkutsk         11840.500
       223   06 Jun 2027 07:16:33.935   06 Jun 2027 07:17:05.980            32.045                 Moscow          2215.500
       224   06 Jun 2027 07:17:14.074   06 Jun 2027 07:17:51.204            37.130                Novosib          4047.000
       225   06 Jun 2027 07:18:06.003   06 Jun 2027 07:18:19.135            13.132                Irkutsk          1641.500
       226   06 Jun 2027 07:18:25.628   06 Jun 2027 07:19:44.263            78.635                 Moscow          6225.500
       227   06 Jun 2027 08:50:07.709   06 Jun 2027 08:50:19.551            11.842              Murmansk1           692.000
       228   06 Jun 2027 08:50:37.179   06 Jun 2027 08:52:11.013            93.834                Norilsk          8814.000
       229   06 Jun 2027 08:52:15.036   06 Jun 2027 08:52:58.334            43.298                Norilsk          2011.500
       230   06 Jun 2027 08:52:59.261   06 Jun 2027 08:53:19.201            19.940              Murmansk2           463.500
       231   06 Jun 2027 08:53:27.714   06 Jun 2027 08:54:25.544            57.830                Norilsk          4256.500
       232   06 Jun 2027 10:25:52.826   06 Jun 2027 10:26:11.181            18.355                 Moscow          1210.500
       233   06 Jun 2027 10:26:12.675   06 Jun 2027 10:26:55.250            42.575                 Moscow           747.000
       234   06 Jun 2027 10:27:04.057   06 Jun 2027 10:28:19.579            75.522              Murmansk1          4403.500
       235   06 Jun 2027 10:28:27.490   06 Jun 2027 10:29:18.725            51.235                 Moscow          3955.500
       236   06 Jun 2027 10:29:28.503   06 Jun 2027 10:30:23.041            54.538              Murmansk2          4889.000
       237   07 Jun 2027 04:10:16.914   07 Jun 2027 04:11:14.888            57.974               Magadan1          1098.000
       238   07 Jun 2027 04:11:17.777   07 Jun 2027 04:11:35.172            17.395               Magadan1          1444.500
       239   07 Jun 2027 04:11:59.053   07 Jun 2027 04:12:52.751            53.698                Norilsk          6712.250
       240   07 Jun 2027 04:13:06.230   07 Jun 2027 04:14:46.088            99.858               Magadan2         11967.751
       241   07 Jun 2027 04:14:52.287   07 Jun 2027 04:15:31.085            38.798               Magadan2          3099.500
       242   07 Jun 2027 04:15:35.088   07 Jun 2027 04:15:53.374            18.286                Anadyr1          2001.500
       243   07 Jun 2027 04:15:55.807   07 Jun 2027 04:16:36.864            41.057                Norilsk          1216.500
       244   07 Jun 2027 04:16:37.640   07 Jun 2027 04:16:57.201            19.561               Magadan1           388.000
       245   07 Jun 2027 04:16:59.435   07 Jun 2027 04:17:47.507            48.072                Norilsk          1117.000
       246   07 Jun 2027 04:17:52.575   07 Jun 2027 04:17:55.562             2.987                Anadyr1           373.375
       247   07 Jun 2027 04:18:03.804   07 Jun 2027 04:18:45.009            41.205               Magadan2          5150.625
       248   07 Jun 2027 04:18:48.907   07 Jun 2027 04:19:24.168            35.261                Norilsk          1252.500
       249   07 Jun 2027 05:47:29.571   07 Jun 2027 05:48:00.954            31.383                Irkutsk          3031.000
       250   07 Jun 2027 05:48:01.064   07 Jun 2027 05:48:23.338            22.274                Norilsk            55.000
       251   07 Jun 2027 05:48:26.062   07 Jun 2027 05:48:37.554            11.492                Novosib          1362.000
       252   07 Jun 2027 05:48:45.598   07 Jun 2027 05:49:40.232            54.634                Irkutsk          4022.000
       253   07 Jun 2027 05:49:42.825   07 Jun 2027 05:49:47.659             4.834                Norilsk           604.250
       254   07 Jun 2027 05:49:55.718   07 Jun 2027 05:51:04.109            68.391               Magadan1          4721.750
       255   07 Jun 2027 05:51:07.492   07 Jun 2027 05:51:26.537            19.045                Novosib          1691.500
       256   07 Jun 2027 05:51:28.885   07 Jun 2027 05:51:53.477            24.592                Irkutsk          1174.000
       257   07 Jun 2027 05:51:53.958   07 Jun 2027 05:53:25.218            91.260                Irkutsk           240.500
       258   07 Jun 2027 05:53:38.359   07 Jun 2027 05:54:53.150            74.791              Murmansk2          6570.500
       259   07 Jun 2027 07:24:44.125   07 Jun 2027 07:25:14.285            30.160                Norilsk          3080.000
       260   07 Jun 2027 07:25:24.017   07 Jun 2027 07:26:04.970            40.953                Norilsk          4866.000
       261   07 Jun 2027 07:26:08.197   07 Jun 2027 07:26:32.109            23.912                Novosib          1613.500
       262   07 Jun 2027 07:26:35.650   07 Jun 2027 07:27:23.648            47.998                Irkutsk          1770.500
       263   07 Jun 2027 07:27:27.258   07 Jun 2027 07:28:03.095            35.837              Murmansk2          1805.000
       264   07 Jun 2027 07:28:05.243   07 Jun 2027 07:28:08.697             3.454                Norilsk           431.750
       265   07 Jun 2027 07:28:11.371   07 Jun 2027 07:28:33.675            22.304              Murmansk1          1979.250
       266   07 Jun 2027 07:28:41.797   07 Jun 2027 07:29:47.364            65.567                Novosib          4061.000
       267   07 Jun 2027 07:29:55.181   07 Jun 2027 07:30:11.513            16.332                Irkutsk          2041.500
       268   07 Jun 2027 07:30:12.075   07 Jun 2027 07:30:46.786            34.711              Murmansk2          2148.000
       269   07 Jun 2027 09:01:29.946   07 Jun 2027 09:02:32.744            62.798              Murmansk1          4877.500
       270   07 Jun 2027 09:02:35.252   07 Jun 2027 09:02:55.549            20.297                Norilsk          1254.000
       271   07 Jun 2027 09:02:57.580   07 Jun 2027 09:04:12.716            75.136                Norilsk          1015.500
       272   07 Jun 2027 09:04:17.554   07 Jun 2027 09:04:43.065            25.511                 Moscow          2419.000
       273   07 Jun 2027 09:04:51.168   07 Jun 2027 09:05:26.363            35.195              Murmansk1          4051.500
       274   07 Jun 2027 09:05:28.467   07 Jun 2027 09:06:06.330            37.863                 Moscow          1052.000
       275   07 Jun 2027 09:06:15.537   07 Jun 2027 09:07:28.748            73.211              Murmansk1          2771.500
       276   07 Jun 2027 10:36:42.932   07 Jun 2027 10:37:49.056            66.124              Murmansk1          5573.000
       277   07 Jun 2027 10:38:07.534   07 Jun 2027 10:39:08.659            61.125                 Moscow           545.000
       278   07 Jun 2027 10:39:11.526   07 Jun 2027 10:39:36.035            24.509              Murmansk2          1433.500
       279   07 Jun 2027 10:39:40.091   07 Jun 2027 10:40:15.149            35.058              Murmansk1          2028.000
       280   07 Jun 2027 10:40:18.869   07 Jun 2027 10:40:35.930            17.061                 Moscow          1860.000
       281   07 Jun 2027 10:40:39.621   07 Jun 2027 10:41:21.168            41.547                 Moscow          1845.500
       282   08 Jun 2027 04:22:51.014   08 Jun 2027 04:23:17.579            26.565               Magadan2          3320.625
       283   08 Jun 2027 04:23:17.579   08 Jun 2027 04:23:37.324            19.745               Magadan1          2468.125
       284   08 Jun 2027 04:23:38.706   08 Jun 2027 04:23:52.581            13.875               Magadan1          1275.250
       285   08 Jun 2027 04:23:53.737   08 Jun 2027 04:24:23.283            29.546               Magadan1           578.000
       286   08 Jun 2027 04:24:33.140   08 Jun 2027 04:25:34.613            61.473                Irkutsk          4928.500
       287   08 Jun 2027 04:25:38.044   08 Jun 2027 04:26:21.264            43.220                Irkutsk          1715.500
       288   08 Jun 2027 04:26:23.775   08 Jun 2027 04:27:11.746            47.971                Irkutsk          1255.500
       289   08 Jun 2027 04:27:19.188   08 Jun 2027 04:28:41.741            82.553                Novosib          3721.000
       290   08 Jun 2027 04:28:42.964   08 Jun 2027 04:29:02.192            19.228                Novosib           611.500
       291   08 Jun 2027 04:29:06.779   08 Jun 2027 04:29:28.913            22.134               Magadan2          2293.500
       292   08 Jun 2027 04:29:31.448   08 Jun 2027 04:30:08.967            37.519              Murmansk2          1267.500
       293   08 Jun 2027 04:30:14.615   08 Jun 2027 04:30:40.988            26.373               Magadan1          2824.000
       294   08 Jun 2027 04:30:45.905   08 Jun 2027 04:31:00.613            14.708              Murmansk2          1420.500
       295   08 Jun 2027 05:59:52.143   08 Jun 2027 06:00:15.513            23.370                Norilsk          1635.500
       296   08 Jun 2027 06:00:23.126   08 Jun 2027 06:00:56.395            33.269                Norilsk          3806.500
       297   08 Jun 2027 06:01:07.340   08 Jun 2027 06:02:00.646            53.306                Irkutsk          5472.500
       298   08 Jun 2027 06:02:08.819   08 Jun 2027 06:02:41.106            32.287                Norilsk          4035.875
       299   08 Jun 2027 06:02:41.656   08 Jun 2027 06:03:01.138            19.482                Novosib           325.625
       300   08 Jun 2027 06:03:03.183   08 Jun 2027 06:03:29.124            25.941                Irkutsk          1022.500
       301   08 Jun 2027 06:03:33.050   08 Jun 2027 06:04:00.471            27.421                Novosib          1963.000
       302   08 Jun 2027 06:04:10.683   08 Jun 2027 06:04:42.402            31.719                Norilsk          3964.875
       303   08 Jun 2027 06:04:49.475   08 Jun 2027 06:05:31.313            41.838              Murmansk2          4677.625
       304   08 Jun 2027 06:05:35.499   08 Jun 2027 06:05:58.657            23.158                Norilsk          2093.000
       305   08 Jun 2027 06:06:00.940   08 Jun 2027 06:06:15.825            14.885                Norilsk          1141.500
       306   08 Jun 2027 06:06:17.248   08 Jun 2027 06:06:47.285            30.037                Irkutsk           711.500
       307   08 Jun 2027 07:36:58.991   08 Jun 2027 07:37:50.282            51.291                Novosib          5189.500
       308   08 Jun 2027 07:37:52.946   08 Jun 2027 07:38:44.465            51.519                Novosib          1332.000
       309   08 Jun 2027 07:38:57.846   08 Jun 2027 07:39:56.569            58.723                Norilsk          6690.500
       310   08 Jun 2027 07:40:00.056   08 Jun 2027 07:40:22.908            22.852                 Moscow          1743.500
       311   08 Jun 2027 07:40:24.744   08 Jun 2027 07:40:46.988            22.244                Norilsk           918.000
       312   08 Jun 2027 07:40:47.735   08 Jun 2027 07:41:30.164            42.429                Irkutsk           373.500
       313   08 Jun 2027 07:41:33.972   08 Jun 2027 07:41:52.609            18.637              Murmansk2          1904.000
       314   08 Jun 2027 07:41:55.766   08 Jun 2027 07:42:11.783            16.017                Novosib          1578.500
       315   08 Jun 2027 07:42:13.549   08 Jun 2027 07:43:04.195            50.646                Novosib           331.500
       316   08 Jun 2027 09:13:36.960   08 Jun 2027 09:14:21.951            44.991                Novosib           982.500
       317   08 Jun 2027 09:14:22.065   08 Jun 2027 09:14:47.766            25.701              Murmansk2            57.000
       318   08 Jun 2027 09:14:54.138   08 Jun 2027 09:16:07.814            73.676                Norilsk          3186.000
       319   08 Jun 2027 09:16:13.654   08 Jun 2027 09:16:48.845            35.191                Norilsk          2920.000
       320   08 Jun 2027 09:16:49.460   08 Jun 2027 09:16:53.814             4.354              Murmansk1           307.500
       321   08 Jun 2027 09:17:07.553   08 Jun 2027 09:18:07.472            59.919              Murmansk2          6869.500
       322   08 Jun 2027 10:52:02.330   08 Jun 2027 10:53:23.083            80.753                 Moscow          8612.000
       323   09 Jun 2027 03:00:55.285   09 Jun 2027 03:01:44.250            48.965                Anadyr2          4735.000
       324   09 Jun 2027 03:01:46.295   09 Jun 2027 03:01:58.171            11.876               Magadan2          1022.500
       325   09 Jun 2027 03:01:58.493   09 Jun 2027 03:02:41.309            42.816               Magadan2           161.000
       326   09 Jun 2027 03:02:42.066   09 Jun 2027 03:02:49.550             7.484                Norilsk           378.500
       327   09 Jun 2027 03:02:54.635   09 Jun 2027 03:03:43.963            49.328                Anadyr2          2542.500
       328   09 Jun 2027 03:03:46.289   09 Jun 2027 03:04:06.894            20.605                Norilsk          1163.000
       329   09 Jun 2027 03:04:24.285   09 Jun 2027 03:05:43.535            79.250                Norilsk          5884.500
       330   09 Jun 2027 04:36:09.861   09 Jun 2027 04:37:17.260            67.399               Magadan1          7605.500
       331   09 Jun 2027 04:37:22.476   09 Jun 2027 04:38:00.916            38.440               Magadan1          2608.000
       332   09 Jun 2027 04:38:12.818   09 Jun 2027 04:39:09.299            56.481               Magadan1          5951.000
       333   09 Jun 2027 04:39:12.970   09 Jun 2027 04:39:44.244            31.274               Magadan2          1835.500
       334   09 Jun 2027 04:39:45.225   09 Jun 2027 04:40:55.513            70.288               Magadan1           490.500
       335   09 Jun 2027 04:40:59.690   09 Jun 2027 04:41:45.095            45.405               Magadan2          2088.500
       336   09 Jun 2027 04:41:45.319   09 Jun 2027 04:42:01.323            16.004                Norilsk           112.000
       337   09 Jun 2027 04:42:06.143   09 Jun 2027 04:42:27.371            21.228                Irkutsk          2410.000
       338   09 Jun 2027 04:42:33.381   09 Jun 2027 04:42:57.940            24.559              Murmansk2          3005.000
       339   09 Jun 2027 06:12:23.637   09 Jun 2027 06:13:37.274            73.637                Norilsk          4457.000
       340   09 Jun 2027 06:13:37.468   09 Jun 2027 06:13:59.522            22.054                Irkutsk            97.000
       341   09 Jun 2027 06:14:07.331   09 Jun 2027 06:15:07.479            60.148                Norilsk          3904.500
       342   09 Jun 2027 06:15:10.516   09 Jun 2027 06:15:24.300            13.784                Norilsk          1518.500
       343   09 Jun 2027 06:15:32.594   09 Jun 2027 06:15:45.258            12.664                Irkutsk          1583.000
       344   09 Jun 2027 06:15:45.553   09 Jun 2027 06:16:12.220            26.667              Murmansk1          2711.500
       345   09 Jun 2027 06:16:12.287   09 Jun 2027 06:16:38.343            26.056                Novosib            33.500
       346   09 Jun 2027 06:16:39.849   09 Jun 2027 06:16:49.455             9.606                Norilsk           753.000
       347   09 Jun 2027 06:16:50.502   09 Jun 2027 06:16:55.401             4.899              Murmansk2           523.500
       348   09 Jun 2027 06:16:57.539   09 Jun 2027 06:17:23.252            25.713              Murmansk1          1069.000
       349   09 Jun 2027 06:17:35.616   09 Jun 2027 06:18:47.816            72.200                Irkutsk          6182.000
       350   09 Jun 2027 07:49:50.985   09 Jun 2027 07:50:26.674            35.689              Murmansk1           930.500
       351   09 Jun 2027 07:50:28.471   09 Jun 2027 07:50:47.968            19.497                Novosib           898.500
       352   09 Jun 2027 07:50:59.370   09 Jun 2027 07:51:48.537            49.167                Norilsk          5701.000
       353   09 Jun 2027 07:51:50.780   09 Jun 2027 07:52:40.814            50.034                Irkutsk          1121.500
       354   09 Jun 2027 07:52:42.735   09 Jun 2027 07:53:02.383            19.648                Norilsk           960.500
       355   09 Jun 2027 07:53:09.003   09 Jun 2027 07:53:44.925            35.922                Novosib          3310.000
       356   09 Jun 2027 07:53:51.126   09 Jun 2027 07:54:14.718            23.592                 Moscow          2949.000
       357   09 Jun 2027 07:54:37.158   09 Jun 2027 07:54:46.919             9.761              Murmansk1           151.500
       358   09 Jun 2027 09:25:52.471   09 Jun 2027 09:27:32.820           100.349                 Moscow           226.500
       359   09 Jun 2027 09:27:42.328   09 Jun 2027 09:28:28.909            46.581                 Moscow          4754.000
       360   09 Jun 2027 09:28:34.564   09 Jun 2027 09:29:07.985            33.421              Murmansk1          2827.500
       361   09 Jun 2027 09:29:09.612   09 Jun 2027 09:29:38.028            28.416                Norilsk           813.500
       362   09 Jun 2027 09:29:49.774   09 Jun 2027 09:30:57.306            67.532                Novosib          5873.000
       363   10 Jun 2027 03:13:03.192   10 Jun 2027 03:13:48.004            44.812               Magadan1          3524.500
       364   10 Jun 2027 03:13:52.878   10 Jun 2027 03:14:51.238            58.360                Irkutsk          2437.000
       365   10 Jun 2027 03:14:53.531   10 Jun 2027 03:15:07.618            14.087               Magadan1          1146.500
       366   10 Jun 2027 03:15:16.556   10 Jun 2027 03:16:30.045            73.489                Irkutsk          4469.000
       367   10 Jun 2027 04:48:13.001   10 Jun 2027 04:48:47.628            34.627               Magadan2          3347.000
       368   10 Jun 2027 04:49:08.660   10 Jun 2027 04:49:27.270            18.610                Norilsk          2326.250
       369   10 Jun 2027 04:49:32.367   10 Jun 2027 04:49:46.757            14.390                Irkutsk          1798.750
       370   10 Jun 2027 04:49:49.254   10 Jun 2027 04:51:16.608            87.354                Norilsk         10188.000
       371   10 Jun 2027 04:51:21.801   10 Jun 2027 04:51:44.997            23.196               Magadan1          2596.500
       372   10 Jun 2027 04:51:45.387   10 Jun 2027 04:52:44.685            59.298                Novosib           195.000
       373   10 Jun 2027 04:52:44.932   10 Jun 2027 04:53:08.716            23.784               Magadan2           123.500
       374   10 Jun 2027 04:53:12.286   10 Jun 2027 04:53:34.234            21.948               Magadan2          1785.000
       375   10 Jun 2027 04:53:40.077   10 Jun 2027 04:54:35.718            55.641                Norilsk          2921.500
       376   10 Jun 2027 04:54:40.500   10 Jun 2027 04:54:57.664            17.164                Norilsk          2145.500
       377   10 Jun 2027 04:54:59.982   10 Jun 2027 04:55:28.469            28.487              Murmansk1           245.500
       378   10 Jun 2027 06:24:47.258   10 Jun 2027 06:25:25.782            38.524                Norilsk          4815.500
       379   10 Jun 2027 06:25:33.500   10 Jun 2027 06:26:52.979            79.479                Irkutsk          9106.500
       380   10 Jun 2027 06:26:57.592   10 Jun 2027 06:27:18.177            20.585                Novosib          2306.500
       381   10 Jun 2027 06:27:30.026   10 Jun 2027 06:28:29.160            59.134                Norilsk          5924.500
       382   10 Jun 2027 06:28:37.801   10 Jun 2027 06:29:12.791            34.990                Norilsk          4320.500
       383   10 Jun 2027 06:29:14.253   10 Jun 2027 06:29:41.550            27.297              Murmansk2           731.000
       384   10 Jun 2027 06:29:44.241   10 Jun 2027 06:30:09.300            25.059                Norilsk          1345.500
       385   10 Jun 2027 06:30:19.093   10 Jun 2027 06:30:58.631            39.538              Murmansk1          3713.500
       386   10 Jun 2027 08:01:46.082   10 Jun 2027 08:02:10.608            24.526                Norilsk          1109.000
       387   10 Jun 2027 08:02:14.279   10 Jun 2027 08:03:26.792            72.513                Irkutsk          1835.500
       388   10 Jun 2027 08:03:27.732   10 Jun 2027 08:03:48.218            20.486              Murmansk1           470.000
       389   10 Jun 2027 08:03:52.557   10 Jun 2027 08:04:55.802            63.245              Murmansk2          2169.500
       390   10 Jun 2027 08:04:56.413   10 Jun 2027 08:05:29.810            33.397                Irkutsk           305.500
       391   10 Jun 2027 08:05:35.436   10 Jun 2027 08:06:25.346            49.910              Murmansk2          2813.000
       392   10 Jun 2027 09:38:03.024   10 Jun 2027 09:38:33.589            30.565              Murmansk2          3338.500
       393   10 Jun 2027 09:38:37.057   10 Jun 2027 09:39:23.215            46.158              Murmansk1          1734.000
       394   10 Jun 2027 09:39:25.807   10 Jun 2027 09:39:48.046            22.239              Murmansk1          1296.000
       395   10 Jun 2027 09:39:51.863   10 Jun 2027 09:40:15.097            23.234              Murmansk1          1908.500
       396   10 Jun 2027 09:40:15.180   10 Jun 2027 09:40:53.169            37.989                Novosib            41.500
       397   10 Jun 2027 09:40:59.904   10 Jun 2027 09:41:32.154            32.250              Murmansk1          3367.500
       398   10 Jun 2027 09:41:48.111   10 Jun 2027 09:42:50.234            62.123                Novosib          7765.375
       399   10 Jun 2027 09:42:52.860   10 Jun 2027 09:43:51.459            58.599                 Moscow           213.125
       400   11 Jun 2027 03:24:49.417   11 Jun 2027 03:25:07.607            18.190               Magadan2          2273.750
       401   11 Jun 2027 03:25:07.607   11 Jun 2027 03:25:15.943             8.336               Magadan1           628.250
       402   11 Jun 2027 03:25:28.175   11 Jun 2027 03:26:20.655            52.480                Anadyr1          6116.000
       403   11 Jun 2027 03:26:21.379   11 Jun 2027 03:26:44.239            22.860               Magadan2           362.000
       404   11 Jun 2027 03:26:52.174   11 Jun 2027 03:27:45.669            53.495                Anadyr2          3967.500
       405   11 Jun 2027 03:27:48.381   11 Jun 2027 03:28:03.846            15.465               Magadan1          1356.000
       406   11 Jun 2027 03:28:05.120   11 Jun 2027 03:28:37.133            32.013               Magadan1           637.000
       407   11 Jun 2027 03:28:40.374   11 Jun 2027 03:29:41.400            61.026                Anadyr1          1620.500
       408   11 Jun 2027 04:59:38.903   11 Jun 2027 05:00:25.072            46.169               Magadan1           992.500
       409   11 Jun 2027 05:00:31.576   11 Jun 2027 05:01:18.876            47.300                Novosib          3252.000
       410   11 Jun 2027 05:01:22.365   11 Jun 2027 05:02:02.703            40.338               Magadan2          1744.500
       411   11 Jun 2027 05:02:06.446   11 Jun 2027 05:02:13.463             7.017                Irkutsk           877.125
       412   11 Jun 2027 05:02:13.525   11 Jun 2027 05:02:21.850             8.325                Novosib          1025.375
       413   11 Jun 2027 05:02:21.969   11 Jun 2027 05:03:15.244            53.275               Magadan2            59.500
       414   11 Jun 2027 05:03:26.663   11 Jun 2027 05:04:31.779            65.116               Magadan1          5709.500
       415   11 Jun 2027 05:04:49.963   11 Jun 2027 05:06:51.681           121.718                Novosib          9092.000
       416   11 Jun 2027 06:36:09.104   11 Jun 2027 06:36:46.005            36.901                Norilsk          1726.000
       417   11 Jun 2027 06:37:00.658   11 Jun 2027 06:38:08.072            67.414                Irkutsk          7326.500
       418   11 Jun 2027 06:38:11.434   11 Jun 2027 06:38:23.888            12.454                Norilsk          1556.750
       419   11 Jun 2027 06:38:26.699   11 Jun 2027 06:39:23.310            56.611                Irkutsk          1529.750
       420   11 Jun 2027 06:39:34.454   11 Jun 2027 06:40:20.767            46.313              Murmansk1          5572.000
       421   11 Jun 2027 06:40:25.025   11 Jun 2027 06:40:57.871            32.846                Irkutsk          2129.000
       422   11 Jun 2027 06:40:59.927   11 Jun 2027 06:41:31.834            31.907              Murmansk2          1028.000
       423   11 Jun 2027 06:41:32.865   11 Jun 2027 06:41:37.166             4.301                Norilsk           515.500
       424   11 Jun 2027 06:42:03.463   11 Jun 2027 06:42:45.957            42.494                Irkutsk          5311.750
       425   11 Jun 2027 06:43:00.157   11 Jun 2027 06:44:08.845            68.688              Murmansk2          7836.750
       426   11 Jun 2027 08:14:35.447   11 Jun 2027 08:15:25.998            50.551                Irkutsk          5986.500
       427   11 Jun 2027 08:15:28.441   11 Jun 2027 08:15:42.454            14.013              Murmansk1          1221.500
       428   11 Jun 2027 08:15:54.470   11 Jun 2027 08:16:55.921            61.451                Novosib          6008.000
       429   11 Jun 2027 08:16:58.675   11 Jun 2027 08:17:34.598            35.923                Novosib          1377.000
       430   11 Jun 2027 08:17:45.426   11 Jun 2027 08:18:27.091            41.665                 Moscow          5208.125
       431   11 Jun 2027 08:18:44.299   11 Jun 2027 08:19:03.408            19.109                Norilsk           205.875
       432   11 Jun 2027 09:49:54.858   11 Jun 2027 09:50:32.738            37.880              Murmansk1          2182.000
       433   11 Jun 2027 09:50:33.062   11 Jun 2027 09:50:58.658            25.596                 Moscow           162.000
       434   11 Jun 2027 09:50:59.021   11 Jun 2027 09:51:04.513             5.492                Novosib           181.500
       435   11 Jun 2027 09:51:07.132   11 Jun 2027 09:51:44.686            37.554                Novosib          1309.500
       436   11 Jun 2027 09:51:49.102   11 Jun 2027 09:52:17.990            28.888              Murmansk1          2208.000
       437   11 Jun 2027 09:52:20.282   11 Jun 2027 09:52:39.367            19.085                Norilsk          1146.000
       438   11 Jun 2027 09:52:46.896   11 Jun 2027 09:53:23.164            36.268                 Moscow          3764.500
       439   11 Jun 2027 09:53:23.221   11 Jun 2027 09:54:05.925            42.704                 Moscow            28.500
       440   11 Jun 2027 09:54:19.721   11 Jun 2027 09:54:50.015            30.294              Murmansk2          3581.000
       441   11 Jun 2027 09:54:54.346   11 Jun 2027 09:55:16.040            21.694              Murmansk2          2165.500
       442   12 Jun 2027 03:35:12.022   12 Jun 2027 03:36:22.300            70.278                Irkutsk          6036.000
       443   12 Jun 2027 03:36:30.211   12 Jun 2027 03:36:31.620             1.409               Magadan1           176.125
       444   12 Jun 2027 03:36:37.804   12 Jun 2027 03:37:10.765            32.961                Anadyr2          3614.875
       445   12 Jun 2027 03:37:18.740   12 Jun 2027 03:37:53.325            34.585               Magadan1          3987.500
       446   12 Jun 2027 03:37:58.023   12 Jun 2027 03:38:32.309            34.286                Norilsk          2349.000
       447   12 Jun 2027 03:38:41.213   12 Jun 2027 03:39:30.433            49.220                Norilsk          4452.000
       448   12 Jun 2027 03:39:30.663   12 Jun 2027 03:39:37.261             6.598               Magadan2           115.000
       449   12 Jun 2027 03:39:44.688   12 Jun 2027 03:40:21.002            36.314                Anadyr1          3713.500
       450   12 Jun 2027 03:40:24.163   12 Jun 2027 03:40:53.604            29.441                Norilsk          1580.500
       451   12 Jun 2027 03:40:59.436   12 Jun 2027 03:41:27.491            28.055                Novosib          2916.000
       452   12 Jun 2027 05:11:21.046   12 Jun 2027 05:12:31.923            70.877                Irkutsk           992.500
       453   12 Jun 2027 05:12:46.604   12 Jun 2027 05:13:05.847            19.243                Norilsk          2405.375
       454   12 Jun 2027 05:13:07.091   12 Jun 2027 05:14:01.115            54.024               Magadan1          5557.125
       455   12 Jun 2027 05:14:13.767   12 Jun 2027 05:14:32.134            18.367                Irkutsk          2295.875
       456   12 Jun 2027 05:14:42.893   12 Jun 2027 05:16:01.281            78.388                Irkutsk          9409.625
       457   12 Jun 2027 05:16:06.091   12 Jun 2027 05:16:29.172            23.081                Norilsk          2405.000
       458   12 Jun 2027 05:16:31.931   12 Jun 2027 05:17:18.330            46.399               Magadan2          1379.500
       459   12 Jun 2027 05:17:20.234   12 Jun 2027 05:17:44.529            24.295               Magadan2           952.000
       460   12 Jun 2027 05:17:51.072   12 Jun 2027 05:18:05.788            14.716               Magadan1          1839.500
       461   12 Jun 2027 05:18:08.426   12 Jun 2027 05:18:40.402            31.976              Murmansk2          2751.000
       462   12 Jun 2027 05:18:49.538   12 Jun 2027 05:18:51.719             2.181                Irkutsk           272.625
       463   12 Jun 2027 05:18:56.156   12 Jun 2027 05:19:36.764            40.608                Norilsk          4363.375
       464   12 Jun 2027 06:48:43.648   12 Jun 2027 06:49:49.766            66.118                Norilsk          8264.750
       465   12 Jun 2027 06:49:58.706   12 Jun 2027 06:50:49.383            50.677                Novosib          5089.250
       466   12 Jun 2027 06:50:54.291   12 Jun 2027 06:51:29.584            35.293                Norilsk          2454.000
       467   12 Jun 2027 06:51:35.183   12 Jun 2027 06:52:16.302            41.119              Murmansk2          2799.500
       468   12 Jun 2027 06:52:17.513   12 Jun 2027 06:52:35.102            17.589                Norilsk           605.500
       469   12 Jun 2027 06:52:38.613   12 Jun 2027 06:52:53.802            15.189              Murmansk1          1755.500
       470   12 Jun 2027 06:53:02.183   12 Jun 2027 06:54:13.997            71.814              Murmansk2          4190.500
       471   12 Jun 2027 06:54:20.028   12 Jun 2027 06:55:01.489            41.461              Murmansk1          3015.500
       472   12 Jun 2027 08:26:32.572   12 Jun 2027 08:27:28.482            55.910                Norilsk          5629.000
       473   12 Jun 2027 08:27:28.721   12 Jun 2027 08:28:14.266            45.545                Irkutsk           119.500
       474   12 Jun 2027 08:28:20.393   12 Jun 2027 08:28:26.735             6.342                Irkutsk           792.750
       475   12 Jun 2027 08:28:27.706   12 Jun 2027 08:28:54.741            27.035                 Moscow          2756.250
       476   12 Jun 2027 08:28:58.348   12 Jun 2027 08:29:14.135            15.787              Murmansk2          1803.500
       477   12 Jun 2027 08:29:22.316   12 Jun 2027 08:30:00.574            38.258              Murmansk2          4090.500
       478   12 Jun 2027 08:30:07.452   12 Jun 2027 08:30:19.567            12.115                Norilsk          1514.375
       479   12 Jun 2027 08:30:21.279   12 Jun 2027 08:31:48.929            87.650                Novosib          1924.625
       480   12 Jun 2027 09:59:50.261   12 Jun 2027 10:01:36.111           105.850                 Moscow         11959.000
       481   12 Jun 2027 10:01:47.694   12 Jun 2027 10:03:26.573            98.879              Murmansk1          5791.500
       482   12 Jun 2027 10:03:27.408   12 Jun 2027 10:03:49.697            22.289              Murmansk2           417.500
