uniorb/output/strategy_2/Drop/Drop_KinoSat_110803.txt

KinoSat_110803
-------------------------
    Access    *     Start Time (UTCG)     *     Stop Time (UTCG)  *   Duration (s)        *       Station  *  Data (Mbytes)
         1   01 Jun 2027 03:53:30.972   01 Jun 2027 03:54:12.533            41.561                Anadyr1          1298.781
         2   01 Jun 2027 03:56:36.886   01 Jun 2027 03:56:38.112             1.226               Magadan1            38.312
         3   01 Jun 2027 03:56:38.112   01 Jun 2027 03:56:59.315            21.203               Magadan2           662.594
         4   01 Jun 2027 03:56:59.315   01 Jun 2027 03:57:22.045            22.730               Magadan1           710.313
         5   01 Jun 2027 03:57:31.173   01 Jun 2027 03:59:45.577           134.404                Anadyr2          4200.125
         6   01 Jun 2027 03:59:45.577   01 Jun 2027 04:00:32.962            47.385                Anadyr1          1480.781
         7   01 Jun 2027 04:00:32.962   01 Jun 2027 04:01:21.256            48.294                Anadyr2          1509.188
         8   01 Jun 2027 04:05:28.537   01 Jun 2027 04:05:33.103             4.566                Norilsk           142.688
         9   01 Jun 2027 04:40:46.232   01 Jun 2027 04:45:04.359           258.127            RioGallegos          8066.469
        10   01 Jun 2027 05:30:33.435   01 Jun 2027 05:31:02.602            29.167                Irkutsk           911.469
        11   01 Jun 2027 05:31:05.799   01 Jun 2027 05:32:54.284           108.485                Anadyr1          3390.156
        12   01 Jun 2027 05:32:56.463   01 Jun 2027 05:34:14.751            78.288               Magadan1          2446.500
        13   01 Jun 2027 05:34:19.890   01 Jun 2027 05:34:25.355             5.465                Irkutsk           170.781
        14   01 Jun 2027 05:34:26.917   01 Jun 2027 05:34:44.484            17.567               Magadan1           548.969
        15   01 Jun 2027 05:34:52.929   01 Jun 2027 05:36:33.096           100.167                Anadyr2          3130.219
        16   01 Jun 2027 05:36:33.405   01 Jun 2027 05:36:40.137             6.732               Magadan2           210.375
        17   01 Jun 2027 05:36:40.137   01 Jun 2027 05:36:55.582            15.445               Magadan1           482.656
        18   01 Jun 2027 06:14:34.960   01 Jun 2027 06:15:02.630            27.670            RioGallegos           864.688
        19   01 Jun 2027 06:15:30.365   01 Jun 2027 06:15:42.887            12.522            RioGallegos           391.313
        20   01 Jun 2027 07:08:15.495   01 Jun 2027 07:09:20.270            64.775               Magadan2          2024.219
        21   01 Jun 2027 07:09:52.352   01 Jun 2027 07:09:53.893             1.541                Norilsk            48.156
        22   01 Jun 2027 07:10:11.416   01 Jun 2027 07:10:33.658            22.242                Novosib           695.062
        23   01 Jun 2027 07:10:36.234   01 Jun 2027 07:10:50.011            13.777              Murmansk2           430.531
        24   01 Jun 2027 07:10:51.679   01 Jun 2027 07:11:35.295            43.616               Magadan2          1363.000
        25   01 Jun 2027 07:11:36.794   01 Jun 2027 07:11:55.072            18.278              Murmansk2           571.188
        26   01 Jun 2027 07:12:22.200   01 Jun 2027 07:12:47.818            25.618                Norilsk           800.563
        27   01 Jun 2027 07:12:49.018   01 Jun 2027 07:13:43.001            53.983              Murmansk1          1686.969
        28   01 Jun 2027 07:13:43.001   01 Jun 2027 07:13:44.428             1.427              Murmansk2            44.594
        29   01 Jun 2027 07:13:46.067   01 Jun 2027 07:14:35.020            48.953                Norilsk          1529.781
        30   01 Jun 2027 07:15:04.808   01 Jun 2027 07:16:28.153            83.345                Norilsk          2604.531
        31   01 Jun 2027 07:16:37.185   01 Jun 2027 07:17:59.757            82.572              Murmansk2          2580.375
        32   01 Jun 2027 07:17:59.757   01 Jun 2027 07:21:03.425           183.668              Murmansk1          5739.625
        33   01 Jun 2027 07:47:35.122   01 Jun 2027 07:48:12.760            37.638            RioGallegos          1176.187
        34   01 Jun 2027 07:48:56.697   01 Jun 2027 07:49:41.857            45.160            RioGallegos          1411.250
        35   01 Jun 2027 07:50:39.836   01 Jun 2027 07:51:56.499            76.663            RioGallegos          2395.719
        36   01 Jun 2027 07:52:56.115   01 Jun 2027 07:53:44.669            48.554            RioGallegos          1517.313
        37   01 Jun 2027 07:54:36.940   01 Jun 2027 07:55:04.575            27.635            RioGallegos           863.594
        38   01 Jun 2027 07:57:48.984   01 Jun 2027 07:58:17.577            28.593            RioGallegos           893.531
        39   01 Jun 2027 08:22:20.822   01 Jun 2027 08:23:08.228            47.406                Sumatra          1481.438
        40   01 Jun 2027 08:23:53.902   01 Jun 2027 08:25:18.291            84.389                Sumatra          2637.156
        41   01 Jun 2027 08:30:44.069   01 Jun 2027 08:31:55.555            71.486                Sumatra          2233.938
        42   01 Jun 2027 08:32:51.026   01 Jun 2027 08:35:27.239           156.213                  Delhi          4881.656
        43   01 Jun 2027 08:43:41.774   01 Jun 2027 08:44:53.295            71.521                Novosib          2235.031
        44   01 Jun 2027 08:46:44.587   01 Jun 2027 08:48:24.789           100.202                 Moscow          3131.313
        45   01 Jun 2027 08:48:43.928   01 Jun 2027 08:50:21.069            97.141              Murmansk1          3035.656
        46   01 Jun 2027 08:50:22.034   01 Jun 2027 08:50:54.889            32.855                Norilsk          1026.719
        47   01 Jun 2027 08:51:19.791   01 Jun 2027 08:52:39.807            80.016                Norilsk          2500.500
        48   01 Jun 2027 08:53:03.165   01 Jun 2027 08:53:26.125            22.960              Murmansk1           717.500
        49   01 Jun 2027 08:54:29.085   01 Jun 2027 08:55:23.077            53.992              Murmansk1          1687.250
        50   01 Jun 2027 08:55:41.038   01 Jun 2027 08:55:55.323            14.285              Murmansk1           446.406
        51   01 Jun 2027 09:27:18.887   01 Jun 2027 09:29:48.715           149.828            RioGallegos          4682.125
        52   01 Jun 2027 09:30:45.553   01 Jun 2027 09:31:00.041            14.488            RioGallegos           452.750
        53   01 Jun 2027 09:31:20.853   01 Jun 2027 09:31:58.582            37.729            RioGallegos          1179.031
        54   01 Jun 2027 10:02:54.174   01 Jun 2027 10:04:42.253           108.079                Sumatra          3377.469
        55   01 Jun 2027 10:15:02.890   01 Jun 2027 10:16:08.878            65.988                  Delhi          2062.125
        56   01 Jun 2027 10:16:09.511   01 Jun 2027 10:16:17.709             8.198                  Delhi           256.188
        57   01 Jun 2027 10:17:58.970   01 Jun 2027 10:18:11.372            12.402                  Delhi           387.563
        58   01 Jun 2027 10:22:50.172   01 Jun 2027 10:23:35.729            45.557              Murmansk1          1423.656
        59   01 Jun 2027 10:23:38.311   01 Jun 2027 10:27:37.421           239.110                 Moscow          7472.187
        60   01 Jun 2027 11:55:23.657   01 Jun 2027 11:55:28.969             5.312              Murmansk1           166.000
        61   01 Jun 2027 11:55:37.420   01 Jun 2027 11:57:07.876            90.456                 Moscow          2826.750
        62   01 Jun 2027 11:57:10.552   01 Jun 2027 11:59:23.143           132.591                 Moscow          4143.469
        63   01 Jun 2027 11:59:40.418   01 Jun 2027 12:02:23.185           162.767                Norilsk          5086.469
        64   01 Jun 2027 12:02:23.671   01 Jun 2027 12:03:50.104            86.433                 Moscow          2701.031
        65   01 Jun 2027 12:04:08.507   01 Jun 2027 12:05:12.837            64.330                Norilsk          2010.313
        66   01 Jun 2027 12:05:50.268   01 Jun 2027 12:06:13.997            23.729              Murmansk1           741.531
        67   01 Jun 2027 12:06:48.902   01 Jun 2027 12:07:19.094            30.192              Murmansk2           943.500
        68   01 Jun 2027 13:07:20.335   01 Jun 2027 13:15:39.946           499.611               CapeTown         15612.844
        69   01 Jun 2027 13:34:45.017   01 Jun 2027 13:35:06.961            21.944              Murmansk2           685.750
        70   01 Jun 2027 13:35:11.504   01 Jun 2027 13:35:22.207            10.703              Murmansk2           334.469
        71   01 Jun 2027 13:35:22.207   01 Jun 2027 13:35:55.017            32.810              Murmansk1          1025.312
        72   01 Jun 2027 13:36:25.820   01 Jun 2027 13:36:47.118            21.298              Murmansk1           665.563
        73   01 Jun 2027 13:37:14.975   01 Jun 2027 13:39:19.824           124.849                 Moscow          3901.531
        74   01 Jun 2027 13:39:30.232   01 Jun 2027 13:39:47.078            16.846              Murmansk2           526.438
        75   01 Jun 2027 13:40:51.402   01 Jun 2027 13:43:17.088           145.686              Murmansk1          4552.688
        76   01 Jun 2027 13:45:31.084   01 Jun 2027 13:47:54.340           143.256                Anadyr1          4476.750
        77   01 Jun 2027 13:48:21.929   01 Jun 2027 13:48:28.927             6.998                Anadyr2           218.688
        78   01 Jun 2027 13:48:36.686   01 Jun 2027 13:49:26.087            49.401                Anadyr1          1543.781
        79   01 Jun 2027 13:50:22.657   01 Jun 2027 13:54:40.957           258.300                Anadyr1          8071.875
        80   01 Jun 2027 15:14:53.291   01 Jun 2027 15:18:47.012           233.721              Murmansk1          7303.781
        81   01 Jun 2027 15:18:47.012   01 Jun 2027 15:18:59.991            12.979              Murmansk2           405.594
        82   01 Jun 2027 15:24:35.612   01 Jun 2027 15:31:47.009           431.397               Magadan1         13481.156
        83   01 Jun 2027 15:32:13.841   01 Jun 2027 15:33:28.772            74.931                Anadyr2          2341.594
        84   01 Jun 2027 17:01:23.127   01 Jun 2027 17:01:48.029            24.902               Magadan2           778.188
        85   01 Jun 2027 17:02:10.678   01 Jun 2027 17:02:19.643             8.965               Magadan2           280.156
        86   01 Jun 2027 17:02:29.074   01 Jun 2027 17:03:47.660            78.586               Magadan2          2455.813
        87   01 Jun 2027 17:04:07.397   01 Jun 2027 17:04:29.359            21.962                Anadyr2           686.312
        88   01 Jun 2027 17:04:58.157   01 Jun 2027 17:05:21.168            23.011                Anadyr1           719.094
        89   01 Jun 2027 17:05:45.852   01 Jun 2027 17:06:09.207            23.355                Anadyr2           729.844
        90   01 Jun 2027 17:06:30.017   01 Jun 2027 17:06:46.339            16.322                Anadyr2           510.063
        91   01 Jun 2027 17:07:00.919   01 Jun 2027 17:11:35.061           274.142               Magadan2          8566.938
        92   01 Jun 2027 18:35:04.312   01 Jun 2027 18:41:37.961           393.649                Norilsk         12301.531
        93   01 Jun 2027 18:41:58.521   01 Jun 2027 18:43:36.012            97.491                Irkutsk          3046.594
        94   01 Jun 2027 18:43:39.534   01 Jun 2027 18:44:55.709            76.175                Irkutsk          2380.469
        95   01 Jun 2027 18:46:25.028   01 Jun 2027 18:47:14.780            49.752                Irkutsk          1554.750
        96   01 Jun 2027 18:56:56.329   01 Jun 2027 19:01:01.833           245.504                Sumatra          7672.000
        97   01 Jun 2027 20:18:08.997   01 Jun 2027 20:19:11.151            62.154                Novosib          1942.312
        98   01 Jun 2027 20:20:11.342   01 Jun 2027 20:20:57.644            46.302                Novosib          1446.937
        99   01 Jun 2027 20:23:08.721   01 Jun 2027 20:24:09.201            60.480                Novosib          1890.000
       100   01 Jun 2027 20:26:09.377   01 Jun 2027 20:26:33.395            24.018                Irkutsk           750.562
       101   01 Jun 2027 20:27:10.365   01 Jun 2027 20:27:11.561             1.196                Irkutsk            37.375
       102   01 Jun 2027 20:35:13.373   01 Jun 2027 20:36:08.964            55.591                Sumatra          1737.219
       103   01 Jun 2027 20:37:50.506   01 Jun 2027 20:39:00.733            70.227                Sumatra          2194.594
       104   01 Jun 2027 20:40:14.384   01 Jun 2027 20:41:03.271            48.887                Sumatra          1527.719
       105   01 Jun 2027 21:50:20.120   01 Jun 2027 21:53:08.269           168.149              Murmansk1          5254.656
       106   01 Jun 2027 21:59:13.425   01 Jun 2027 21:59:45.531            32.106                Novosib          1003.313
       107   01 Jun 2027 22:00:50.241   01 Jun 2027 22:01:29.372            39.131                Irkutsk          1222.844
       108   01 Jun 2027 22:01:57.821   01 Jun 2027 22:05:08.019           190.198                  Delhi          5943.688
       109   01 Jun 2027 23:21:26.777   01 Jun 2027 23:21:39.476            12.699                Anadyr2           396.844
       110   01 Jun 2027 23:22:03.896   01 Jun 2027 23:22:42.420            38.524               Magadan2          1203.875
       111   01 Jun 2027 23:23:20.682   01 Jun 2027 23:23:46.031            25.349               Magadan2           792.156
       112   01 Jun 2027 23:24:31.244   01 Jun 2027 23:24:36.565             5.321                Anadyr2           166.281
       113   01 Jun 2027 23:24:36.800   01 Jun 2027 23:24:38.912             2.112                Norilsk            66.000
       114   01 Jun 2027 23:24:39.110   01 Jun 2027 23:24:45.604             6.494               Magadan2           202.938
       115   01 Jun 2027 23:24:52.507   01 Jun 2027 23:27:42.949           170.442              Murmansk2          5326.313
       116   01 Jun 2027 23:28:06.726   01 Jun 2027 23:29:00.063            53.337              Murmansk2          1666.781
       117   01 Jun 2027 23:30:23.814   01 Jun 2027 23:30:32.577             8.763              Murmansk1           273.844
       118   01 Jun 2027 23:31:28.017   01 Jun 2027 23:32:36.307            68.290                 Moscow          2134.062
       119   01 Jun 2027 23:33:44.514   01 Jun 2027 23:34:34.460            49.946                 Moscow          1560.812
       120   01 Jun 2027 23:35:52.018   01 Jun 2027 23:36:37.527            45.509                 Moscow          1422.156
       121   01 Jun 2027 23:56:21.299   01 Jun 2027 23:58:19.885           118.586               CapeTown          3705.812
       122   01 Jun 2027 23:58:26.259   01 Jun 2027 23:59:11.480            45.221               CapeTown          1413.156
       123   02 Jun 2027 00:56:52.581   02 Jun 2027 00:57:39.403            46.822               Magadan1          1463.187
       124   02 Jun 2027 00:59:58.324   02 Jun 2027 01:00:33.492            35.168               Magadan1          1099.000
       125   02 Jun 2027 01:02:07.736   02 Jun 2027 01:02:59.636            51.900              Murmansk2          1621.875
       126   02 Jun 2027 01:04:04.131   02 Jun 2027 01:04:11.669             7.538              Murmansk2           235.562
       127   02 Jun 2027 01:05:57.295   02 Jun 2027 01:06:09.400            12.105                 Moscow           378.281
       128   02 Jun 2027 01:06:42.062   02 Jun 2027 01:07:09.037            26.975                 Moscow           842.969
       129   02 Jun 2027 01:07:30.360   02 Jun 2027 01:08:08.944            38.584                 Moscow          1205.750
       130   02 Jun 2027 01:09:15.190   02 Jun 2027 01:10:18.961            63.771              Murmansk2          1992.844
       131   02 Jun 2027 01:13:34.274   02 Jun 2027 01:15:06.214            91.940                 Moscow          2873.125
       132   02 Jun 2027 01:37:55.604   02 Jun 2027 01:38:56.461            60.857               CapeTown          1901.781
       133   02 Jun 2027 02:25:10.111   02 Jun 2027 02:25:33.300            23.189                Anadyr1           724.656
       134   02 Jun 2027 02:25:55.572   02 Jun 2027 02:25:55.731             0.159                Anadyr1             4.969
       135   02 Jun 2027 02:26:09.780   02 Jun 2027 02:26:47.952            38.172               Magadan1          1192.875
       136   02 Jun 2027 02:27:27.805   02 Jun 2027 02:27:37.716             9.911               Magadan1           309.719
       137   02 Jun 2027 02:28:52.984   02 Jun 2027 02:29:41.562            48.578               Magadan1          1518.062
       138   02 Jun 2027 02:30:53.997   02 Jun 2027 02:31:11.565            17.568               Magadan1           549.000
       139   02 Jun 2027 02:32:11.693   02 Jun 2027 02:32:27.611            15.918               Magadan2           497.437
       140   02 Jun 2027 02:32:58.752   02 Jun 2027 02:33:04.413             5.661               Magadan2           176.906
       141   02 Jun 2027 02:33:27.137   02 Jun 2027 02:33:36.206             9.069                Norilsk           283.406
       142   02 Jun 2027 02:34:32.595   02 Jun 2027 02:34:54.912            22.317               Magadan1           697.406
       143   02 Jun 2027 02:36:16.709   02 Jun 2027 02:36:32.975            16.266               Magadan1           508.313
       144   02 Jun 2027 02:36:42.267   02 Jun 2027 02:37:03.512            21.245              Murmansk1           663.906
       145   02 Jun 2027 02:38:12.016   02 Jun 2027 02:38:21.392             9.376              Murmansk1           293.000
       146   02 Jun 2027 02:38:57.335   02 Jun 2027 02:39:49.842            52.507              Murmansk1          1640.844
       147   02 Jun 2027 02:42:14.225   02 Jun 2027 02:42:18.244             4.019                 Moscow           125.594
       148   02 Jun 2027 02:43:13.972   02 Jun 2027 02:43:23.210             9.238              Murmansk1           288.687
       149   02 Jun 2027 02:43:23.210   02 Jun 2027 02:43:31.160             7.950              Murmansk2           248.437
       150   02 Jun 2027 02:44:02.354   02 Jun 2027 02:44:09.322             6.968              Murmansk2           217.750
       151   02 Jun 2027 02:44:23.951   02 Jun 2027 02:45:34.091            70.140              Murmansk1          2191.875
       152   02 Jun 2027 02:50:24.163   02 Jun 2027 02:50:56.365            32.202                 Moscow          1006.312
       153   02 Jun 2027 03:10:57.822   02 Jun 2027 03:11:25.420            27.598               CapeTown           862.437
       154   02 Jun 2027 03:13:37.438   02 Jun 2027 03:14:12.928            35.490               CapeTown          1109.062
       155   02 Jun 2027 04:05:31.823   02 Jun 2027 04:05:59.441            27.618                Anadyr1           863.062
       156   02 Jun 2027 04:06:38.208   02 Jun 2027 04:09:08.282           150.074                Anadyr2          4689.812
       157   02 Jun 2027 04:09:15.668   02 Jun 2027 04:09:20.101             4.433                Anadyr1           138.531
       158   02 Jun 2027 04:09:34.756   02 Jun 2027 04:09:38.674             3.918               Magadan1           122.437
       159   02 Jun 2027 04:09:46.700   02 Jun 2027 04:12:56.703           190.003                Anadyr2          5937.594
       160   02 Jun 2027 04:12:56.703   02 Jun 2027 04:13:01.143             4.440                Anadyr1           138.750
       161   02 Jun 2027 04:51:57.856   02 Jun 2027 04:57:11.005           313.149            RioGallegos          9785.906
       162   02 Jun 2027 05:42:30.126   02 Jun 2027 05:43:05.994            35.868               Magadan2          1120.875
       163   02 Jun 2027 05:43:06.336   02 Jun 2027 05:45:11.698           125.362                Anadyr2          3917.562
       164   02 Jun 2027 05:45:15.075   02 Jun 2027 05:45:45.530            30.455                Novosib           951.719
       165   02 Jun 2027 05:45:49.333   02 Jun 2027 05:46:06.246            16.913                Anadyr1           528.531
       166   02 Jun 2027 05:46:29.018   02 Jun 2027 05:47:09.627            40.609                Norilsk          1269.031
       167   02 Jun 2027 05:47:17.939   02 Jun 2027 05:48:18.540            60.601                Anadyr1          1893.781
       168   02 Jun 2027 05:48:21.354   02 Jun 2027 05:48:53.480            32.126               Magadan1          1003.938
       169   02 Jun 2027 06:27:16.456   02 Jun 2027 06:27:42.153            25.697            RioGallegos           803.031
       170   02 Jun 2027 06:28:15.030   02 Jun 2027 06:29:57.245           102.215            RioGallegos          3194.219
       171   02 Jun 2027 06:31:44.852   02 Jun 2027 06:32:03.343            18.491            RioGallegos           577.844
       172   02 Jun 2027 07:02:02.984   02 Jun 2027 07:03:40.250            97.266                Sumatra          3039.563
       173   02 Jun 2027 07:04:46.000   02 Jun 2027 07:07:00.356           134.356                Sumatra          4198.625
       174   02 Jun 2027 07:19:12.434   02 Jun 2027 07:19:26.213            13.779                Novosib           430.594
       175   02 Jun 2027 07:19:26.276   02 Jun 2027 07:20:39.119            72.843                Irkutsk          2276.344
       176   02 Jun 2027 07:21:12.972   02 Jun 2027 07:21:33.356            20.384                Irkutsk           637.000
       177   02 Jun 2027 07:22:23.565   02 Jun 2027 07:22:54.213            30.648               Magadan2           957.750
       178   02 Jun 2027 07:22:54.213   02 Jun 2027 07:23:06.847            12.634               Magadan1           394.812
       179   02 Jun 2027 07:23:31.813   02 Jun 2027 07:24:14.442            42.629                Norilsk          1332.156
       180   02 Jun 2027 07:24:50.289   02 Jun 2027 07:25:32.303            42.014              Murmansk2          1312.937
       181   02 Jun 2027 07:25:32.303   02 Jun 2027 07:25:39.291             6.988              Murmansk1           218.375
       182   02 Jun 2027 07:25:45.987   02 Jun 2027 07:27:32.228           106.241                Norilsk          3320.031
       183   02 Jun 2027 07:27:38.511   02 Jun 2027 07:28:20.383            41.872              Murmansk2          1308.500
       184   02 Jun 2027 07:28:41.621   02 Jun 2027 07:28:55.688            14.067                Norilsk           439.594
       185   02 Jun 2027 07:29:20.776   02 Jun 2027 07:31:33.494           132.718              Murmansk2          4147.437
       186   02 Jun 2027 07:59:46.719   02 Jun 2027 08:04:15.407           268.688            RioGallegos          8396.500
       187   02 Jun 2027 08:08:29.867   02 Jun 2027 08:09:04.144            34.277            RioGallegos          1071.156
       188   02 Jun 2027 08:11:22.062   02 Jun 2027 08:11:32.751            10.689            RioGallegos           334.031
       189   02 Jun 2027 08:12:04.605   02 Jun 2027 08:12:09.849             5.244            RioGallegos           163.875
       190   02 Jun 2027 08:34:21.657   02 Jun 2027 08:34:42.560            20.903                Sumatra           653.219
       191   02 Jun 2027 08:37:29.702   02 Jun 2027 08:38:11.190            41.488                Sumatra          1296.500
       192   02 Jun 2027 08:41:03.874   02 Jun 2027 08:42:41.356            97.482                Sumatra          3046.312
       193   02 Jun 2027 08:44:51.731   02 Jun 2027 08:46:15.838            84.107                  Delhi          2628.344
       194   02 Jun 2027 08:52:16.117   02 Jun 2027 08:52:31.749            15.632                  Delhi           488.500
       195   02 Jun 2027 08:54:18.376   02 Jun 2027 08:54:44.587            26.211                  Delhi           819.094
       196   02 Jun 2027 08:56:35.412   02 Jun 2027 08:56:38.976             3.564                Irkutsk           111.375
       197   02 Jun 2027 08:56:51.030   02 Jun 2027 08:57:37.173            46.143                Norilsk          1441.969
       198   02 Jun 2027 08:57:40.268   02 Jun 2027 08:57:47.640             7.372                Irkutsk           230.375
       199   02 Jun 2027 08:58:02.421   02 Jun 2027 08:58:18.252            15.831                Norilsk           494.719
       200   02 Jun 2027 08:58:20.041   02 Jun 2027 08:58:57.716            37.675              Murmansk2          1177.344
       201   02 Jun 2027 08:59:00.678   02 Jun 2027 09:01:02.159           121.481                Novosib          3796.281
       202   02 Jun 2027 09:01:19.755   02 Jun 2027 09:01:35.094            15.339                Novosib           479.344
       203   02 Jun 2027 09:02:09.604   02 Jun 2027 09:02:17.622             8.018                 Moscow           250.562
       204   02 Jun 2027 09:40:35.336   02 Jun 2027 09:40:50.950            15.614            RioGallegos           487.938
       205   02 Jun 2027 09:41:58.524   02 Jun 2027 09:43:04.896            66.372            RioGallegos          2074.125
       206   02 Jun 2027 10:18:45.780   02 Jun 2027 10:20:21.874            96.094                  Delhi          3002.938
       207   02 Jun 2027 10:32:26.420   02 Jun 2027 10:32:30.860             4.440                Novosib           138.750
       208   02 Jun 2027 10:32:33.883   02 Jun 2027 10:33:55.492            81.609                Novosib          2550.281
       209   02 Jun 2027 10:34:00.562   02 Jun 2027 10:34:48.308            47.746                Novosib          1492.062
       210   02 Jun 2027 10:34:54.867   02 Jun 2027 10:35:01.915             7.048                Novosib           220.250
       211   02 Jun 2027 10:35:06.293   02 Jun 2027 10:35:27.018            20.725                Norilsk           647.656
       212   02 Jun 2027 10:35:33.652   02 Jun 2027 10:36:24.093            50.441              Murmansk1          1576.281
       213   02 Jun 2027 10:36:57.730   02 Jun 2027 10:37:29.320            31.590                 Moscow           987.187
       214   02 Jun 2027 12:02:56.920   02 Jun 2027 12:03:18.165            21.245                 Moscow           663.906
       215   02 Jun 2027 12:03:39.069   02 Jun 2027 12:04:58.420            79.351                 Moscow          2479.719
       216   02 Jun 2027 12:06:41.629   02 Jun 2027 12:06:58.294            16.665              Murmansk1           520.781
       217   02 Jun 2027 12:07:03.258   02 Jun 2027 12:07:19.351            16.093              Murmansk1           502.906
       218   02 Jun 2027 12:07:59.082   02 Jun 2027 12:08:39.781            40.699              Murmansk1          1271.844
       219   02 Jun 2027 12:09:44.893   02 Jun 2027 12:09:53.405             8.512              Murmansk1           266.000
       220   02 Jun 2027 12:10:51.051   02 Jun 2027 12:11:24.970            33.919                Norilsk          1059.969
       221   02 Jun 2027 12:13:04.600   02 Jun 2027 12:13:11.102             6.502              Murmansk2           203.187
       222   02 Jun 2027 12:13:28.449   02 Jun 2027 12:13:51.723            23.274              Murmansk2           727.312
       223   02 Jun 2027 12:15:23.026   02 Jun 2027 12:15:41.619            18.593              Murmansk1           581.031
       224   02 Jun 2027 12:16:50.651   02 Jun 2027 12:16:58.654             8.003              Murmansk1           250.094
       225   02 Jun 2027 12:19:02.176   02 Jun 2027 12:19:04.389             2.213              Murmansk1            69.156
       226   02 Jun 2027 12:19:18.193   02 Jun 2027 12:19:20.694             2.501              Murmansk1            78.156
       227   02 Jun 2027 13:17:21.053   02 Jun 2027 13:19:56.054           155.001               CapeTown          4843.781
       228   02 Jun 2027 13:22:00.940   02 Jun 2027 13:23:52.604           111.664               CapeTown          3489.500
       229   02 Jun 2027 13:43:37.780   02 Jun 2027 13:44:31.067            53.287              Murmansk1          1665.219
       230   02 Jun 2027 13:45:42.829   02 Jun 2027 13:45:52.898            10.069              Murmansk1           314.656
       231   02 Jun 2027 13:47:22.588   02 Jun 2027 13:48:02.234            39.646              Murmansk2          1238.937
       232   02 Jun 2027 13:51:05.511   02 Jun 2027 13:51:13.402             7.891              Murmansk2           246.594
       233   02 Jun 2027 13:52:35.438   02 Jun 2027 13:52:53.749            18.311              Murmansk1           572.219
       234   02 Jun 2027 13:53:09.663   02 Jun 2027 13:53:15.339             5.676              Murmansk1           177.375
       235   02 Jun 2027 13:57:25.598   02 Jun 2027 13:59:55.592           149.994                Anadyr1          4687.313
       236   02 Jun 2027 13:59:56.392   02 Jun 2027 14:01:24.117            87.725                Anadyr2          2741.406
       237   02 Jun 2027 14:02:48.998   02 Jun 2027 14:03:13.599            24.601                Anadyr1           768.781
       238   02 Jun 2027 14:05:24.317   02 Jun 2027 14:06:56.832            92.515                Anadyr1          2891.094
       239   02 Jun 2027 15:29:41.649   02 Jun 2027 15:30:48.863            67.214              Murmansk2          2100.437
       240   02 Jun 2027 15:33:00.920   02 Jun 2027 15:33:27.109            26.189                Anadyr2           818.406
       241   02 Jun 2027 15:33:58.961   02 Jun 2027 15:34:25.796            26.835                Anadyr1           838.594
       242   02 Jun 2027 15:35:26.508   02 Jun 2027 15:35:43.711            17.203                Anadyr2           537.594
       243   02 Jun 2027 15:36:17.269   02 Jun 2027 15:39:54.257           216.988               Magadan2          6780.875
       244   02 Jun 2027 15:39:56.329   02 Jun 2027 15:40:32.747            36.418               Magadan1          1138.062
       245   02 Jun 2027 15:41:22.167   02 Jun 2027 15:42:36.527            74.360               Magadan1          2323.750
       246   02 Jun 2027 17:08:55.761   02 Jun 2027 17:09:08.930            13.169                Anadyr2           411.531
       247   02 Jun 2027 17:10:01.257   02 Jun 2027 17:10:27.068            25.811                Anadyr2           806.594
       248   02 Jun 2027 17:11:16.222   02 Jun 2027 17:11:55.578            39.356               Magadan1          1229.875
       249   02 Jun 2027 17:11:55.578   02 Jun 2027 17:12:46.331            50.753               Magadan2          1586.031
       250   02 Jun 2027 17:17:31.083   02 Jun 2027 17:18:38.959            67.876               Magadan2          2121.125
       251   02 Jun 2027 18:05:49.167   02 Jun 2027 18:08:03.168           134.001            RioGallegos          4187.531
       252   02 Jun 2027 18:46:09.301   02 Jun 2027 18:46:22.361            13.060                Anadyr2           408.125
       253   02 Jun 2027 18:46:30.333   02 Jun 2027 18:47:46.844            76.511                Anadyr1          2390.969
       254   02 Jun 2027 18:47:56.202   02 Jun 2027 18:48:33.172            36.970               Magadan2          1155.312
       255   02 Jun 2027 18:48:40.204   02 Jun 2027 18:48:48.129             7.925                Anadyr1           247.656
       256   02 Jun 2027 18:49:35.263   02 Jun 2027 18:49:47.841            12.578                Anadyr1           393.063
       257   02 Jun 2027 18:50:02.720   02 Jun 2027 18:51:46.268           103.548                Norilsk          3235.875
       258   02 Jun 2027 18:52:05.058   02 Jun 2027 18:55:24.209           199.151                Irkutsk          6223.469
       259   02 Jun 2027 18:56:16.411   02 Jun 2027 18:57:05.794            49.383                Irkutsk          1543.219
       260   02 Jun 2027 18:58:26.834   02 Jun 2027 18:59:00.012            33.178                Irkutsk          1036.812
       261   02 Jun 2027 19:07:24.002   02 Jun 2027 19:09:26.852           122.850                Sumatra          3839.063
       262   02 Jun 2027 19:10:45.056   02 Jun 2027 19:11:01.010            15.954                Sumatra           498.563
       263   02 Jun 2027 19:12:57.538   02 Jun 2027 19:14:57.935           120.397                Sumatra          3762.406
       264   02 Jun 2027 20:28:02.357   02 Jun 2027 20:29:29.248            86.891                Novosib          2715.344
       265   02 Jun 2027 20:33:04.929   02 Jun 2027 20:34:21.690            76.761                Novosib          2398.781
       266   02 Jun 2027 20:38:29.033   02 Jun 2027 20:40:21.459           112.426                  Delhi          3513.313
       267   02 Jun 2027 22:01:50.276   02 Jun 2027 22:05:25.133           214.857              Murmansk1          6714.281
       268   02 Jun 2027 22:09:50.495   02 Jun 2027 22:10:38.769            48.274                  Delhi          1508.562
       269   02 Jun 2027 22:18:03.344   02 Jun 2027 22:19:21.631            78.287                  Delhi          2446.469
       270   02 Jun 2027 23:32:24.172   02 Jun 2027 23:32:34.964            10.792                Anadyr1           337.250
       271   02 Jun 2027 23:33:01.141   02 Jun 2027 23:33:08.092             6.951                Anadyr1           217.219
       272   02 Jun 2027 23:33:31.026   02 Jun 2027 23:33:32.818             1.792                Anadyr1            56.000
       273   02 Jun 2027 23:33:41.686   02 Jun 2027 23:34:46.957            65.271               Magadan1          2039.719
       274   02 Jun 2027 23:35:19.748   02 Jun 2027 23:35:50.889            31.141               Magadan1           973.156
       275   02 Jun 2027 23:35:50.889   02 Jun 2027 23:36:24.885            33.996               Magadan2          1062.375
       276   02 Jun 2027 23:36:52.159   02 Jun 2027 23:41:00.928           248.769              Murmansk1          7774.031
       277   02 Jun 2027 23:41:30.723   02 Jun 2027 23:42:46.287            75.564                 Moscow          2361.375
       278   03 Jun 2027 00:07:15.288   03 Jun 2027 00:09:23.314           128.026               CapeTown          4000.812
       279   03 Jun 2027 00:12:20.340   03 Jun 2027 00:14:37.852           137.512               CapeTown          4297.250
       280   03 Jun 2027 01:12:46.167   03 Jun 2027 01:13:59.332            73.165              Murmansk1          2286.406
       281   03 Jun 2027 01:15:02.381   03 Jun 2027 01:15:05.002             2.621              Murmansk2            81.906
       282   03 Jun 2027 01:15:10.800   03 Jun 2027 01:15:47.578            36.778                Novosib          1149.312
       283   03 Jun 2027 01:15:59.818   03 Jun 2027 01:17:24.607            84.789                 Moscow          2649.656
       284   03 Jun 2027 01:39:52.741   03 Jun 2027 01:40:11.301            18.560               CapeTown           580.000
       285   03 Jun 2027 01:43:06.054   03 Jun 2027 01:44:01.191            55.137               CapeTown          1723.031
       286   03 Jun 2027 02:36:37.027   03 Jun 2027 02:37:40.595            63.568                Anadyr1          1986.500
       287   03 Jun 2027 02:37:41.087   03 Jun 2027 02:38:15.910            34.823                Anadyr2          1088.219
       288   03 Jun 2027 02:38:24.165   03 Jun 2027 02:39:55.356            91.191               Magadan2          2849.719
       289   03 Jun 2027 02:40:55.401   03 Jun 2027 02:41:14.401            19.000               Magadan2           593.750
       290   03 Jun 2027 02:42:23.126   03 Jun 2027 02:42:43.091            19.965               Magadan2           623.906
       291   03 Jun 2027 02:46:47.429   03 Jun 2027 02:47:01.287            13.858                Norilsk           433.063
       292   03 Jun 2027 02:48:43.397   03 Jun 2027 02:49:48.078            64.681              Murmansk2          2021.281
       293   03 Jun 2027 02:49:48.078   03 Jun 2027 02:50:14.508            26.430              Murmansk1           825.938
       294   03 Jun 2027 02:52:01.470   03 Jun 2027 02:52:03.439             1.969              Murmansk2            61.531
       295   03 Jun 2027 02:52:05.938   03 Jun 2027 02:52:50.396            44.458                 Moscow          1389.312
       296   03 Jun 2027 02:56:19.323   03 Jun 2027 02:56:28.971             9.648                 Moscow           301.500
       297   03 Jun 2027 02:59:45.190   03 Jun 2027 03:00:00.849            15.659                 Moscow           489.344
       298   03 Jun 2027 04:20:24.376   03 Jun 2027 04:20:26.114             1.738               Magadan2            54.313
       299   03 Jun 2027 04:20:43.148   03 Jun 2027 04:21:03.877            20.729               Magadan1           647.781
       300   03 Jun 2027 04:21:03.877   03 Jun 2027 04:22:40.660            96.783               Magadan2          3024.469
       301   03 Jun 2027 04:22:40.660   03 Jun 2027 04:23:02.973            22.313               Magadan1           697.281
       302   03 Jun 2027 05:03:15.970   03 Jun 2027 05:05:46.306           150.336            RioGallegos          4698.000
       303   03 Jun 2027 05:54:38.581   03 Jun 2027 05:56:48.708           130.127                Irkutsk          4066.469
       304   03 Jun 2027 05:56:50.387   03 Jun 2027 05:56:55.639             5.252               Magadan1           164.125
       305   03 Jun 2027 05:57:12.954   03 Jun 2027 05:58:13.791            60.837                Anadyr1          1901.156
       306   03 Jun 2027 05:58:20.435   03 Jun 2027 05:58:32.765            12.330                Anadyr1           385.313
       307   03 Jun 2027 05:58:32.765   03 Jun 2027 05:58:50.539            17.774                Anadyr2           555.438
       308   03 Jun 2027 05:58:50.829   03 Jun 2027 05:59:29.006            38.177               Magadan1          1193.031
       309   03 Jun 2027 05:59:49.650   03 Jun 2027 05:59:56.429             6.779                Anadyr2           211.844
       310   03 Jun 2027 06:00:14.014   03 Jun 2027 06:00:27.205            13.191                Novosib           412.219
       311   03 Jun 2027 06:00:31.235   03 Jun 2027 06:01:22.876            51.641              Murmansk2          1613.781
       312   03 Jun 2027 06:01:22.876   03 Jun 2027 06:01:43.467            20.591              Murmansk1           643.469
       313   03 Jun 2027 06:02:15.248   03 Jun 2027 06:02:17.886             2.638              Murmansk2            82.438
       314   03 Jun 2027 06:03:03.995   03 Jun 2027 06:03:41.873            37.878                Norilsk          1183.688
       315   03 Jun 2027 06:05:52.299   03 Jun 2027 06:06:04.899            12.600                Norilsk           393.750
       316   03 Jun 2027 06:08:11.398   03 Jun 2027 06:09:01.897            50.499              Murmansk2          1578.094
       317   03 Jun 2027 06:35:52.726   03 Jun 2027 06:37:41.433           108.707            RioGallegos          3397.094
       318   03 Jun 2027 06:38:45.186   03 Jun 2027 06:38:54.136             8.950            RioGallegos           279.687
       319   03 Jun 2027 06:39:34.416   03 Jun 2027 06:39:43.729             9.313            RioGallegos           291.031
       320   03 Jun 2027 07:12:53.008   03 Jun 2027 07:15:15.538           142.530                Sumatra          4454.062
       321   03 Jun 2027 07:30:15.328   03 Jun 2027 07:30:35.264            19.936                Novosib           623.000
       322   03 Jun 2027 07:31:19.806   03 Jun 2027 07:32:14.106            54.300                Norilsk          1696.875
       323   03 Jun 2027 07:32:35.179   03 Jun 2027 07:32:43.332             8.153                Norilsk           254.781
       324   03 Jun 2027 07:32:43.369   03 Jun 2027 07:32:48.083             4.714                Irkutsk           147.313
       325   03 Jun 2027 07:32:50.171   03 Jun 2027 07:32:57.831             7.660               Magadan2           239.375
       326   03 Jun 2027 07:32:58.842   03 Jun 2027 07:33:40.768            41.926               Magadan1          1310.188
       327   03 Jun 2027 07:33:45.785   03 Jun 2027 07:33:55.872            10.087                Novosib           315.219
       328   03 Jun 2027 07:34:03.930   03 Jun 2027 07:34:14.776            10.846               Magadan1           338.938
       329   03 Jun 2027 07:34:20.158   03 Jun 2027 07:34:24.423             4.265              Murmansk2           133.281
       330   03 Jun 2027 07:35:01.871   03 Jun 2027 07:35:23.865            21.994                Irkutsk           687.312
       331   03 Jun 2027 07:35:33.826   03 Jun 2027 07:35:45.427            11.601                Irkutsk           362.531
       332   03 Jun 2027 07:35:49.748   03 Jun 2027 07:36:52.303            62.555                Irkutsk          1954.844
       333   03 Jun 2027 07:41:56.638   03 Jun 2027 07:42:59.233            62.595              Murmansk1          1956.094
       334   03 Jun 2027 08:46:28.162   03 Jun 2027 08:48:18.627           110.465                Sumatra          3452.031
       335   03 Jun 2027 08:55:42.366   03 Jun 2027 08:56:43.706            61.340                  Delhi          1916.875
       336   03 Jun 2027 09:00:41.091   03 Jun 2027 09:01:38.129            57.038                  Delhi          1782.438
       337   03 Jun 2027 09:08:11.465   03 Jun 2027 09:08:19.039             7.574                Norilsk           236.688
       338   03 Jun 2027 09:08:21.941   03 Jun 2027 09:08:50.379            28.438                Irkutsk           888.688
       339   03 Jun 2027 09:08:52.870   03 Jun 2027 09:09:25.623            32.753                Novosib          1023.531
       340   03 Jun 2027 09:09:26.820   03 Jun 2027 09:09:43.237            16.417              Murmansk2           513.031
       341   03 Jun 2027 09:09:43.237   03 Jun 2027 09:10:06.042            22.805              Murmansk1           712.656
       342   03 Jun 2027 09:10:10.106   03 Jun 2027 09:10:25.146            15.040                Irkutsk           470.000
       343   03 Jun 2027 09:10:36.936   03 Jun 2027 09:11:02.348            25.412                 Moscow           794.125
       344   03 Jun 2027 09:11:07.913   03 Jun 2027 09:11:31.817            23.904                Norilsk           747.000
       345   03 Jun 2027 09:11:38.374   03 Jun 2027 09:12:01.368            22.994                Norilsk           718.562
       346   03 Jun 2027 09:12:03.707   03 Jun 2027 09:13:25.771            82.064                 Moscow          2564.500
       347   03 Jun 2027 10:31:02.447   03 Jun 2027 10:33:27.178           144.731                  Delhi          4522.844
       348   03 Jun 2027 10:43:53.175   03 Jun 2027 10:44:05.552            12.377              Murmansk1           386.781
       349   03 Jun 2027 10:44:10.239   03 Jun 2027 10:44:18.946             8.707                Norilsk           272.094
       350   03 Jun 2027 10:44:43.292   03 Jun 2027 10:44:55.142            11.850              Murmansk2           370.313
       351   03 Jun 2027 10:45:04.115   03 Jun 2027 10:45:21.145            17.030              Murmansk2           532.187
       352   03 Jun 2027 10:45:38.240   03 Jun 2027 10:46:26.617            48.377                 Moscow          1511.781
       353   03 Jun 2027 10:46:37.056   03 Jun 2027 10:47:32.068            55.012              Murmansk1          1719.125
       354   03 Jun 2027 10:47:37.283   03 Jun 2027 10:48:11.945            34.662              Murmansk2          1083.188
       355   03 Jun 2027 10:48:23.434   03 Jun 2027 10:48:30.515             7.081                Norilsk           221.281
       356   03 Jun 2027 10:49:08.605   03 Jun 2027 10:49:30.384            21.779              Murmansk2           680.594
       357   03 Jun 2027 10:50:01.443   03 Jun 2027 10:50:54.557            53.114              Murmansk1          1659.813
       358   03 Jun 2027 12:14:59.385   03 Jun 2027 12:18:02.075           182.690                 Moscow          5709.062
       359   03 Jun 2027 12:18:16.835   03 Jun 2027 12:18:58.013            41.178                 Moscow          1286.812
       360   03 Jun 2027 12:19:10.463   03 Jun 2027 12:19:59.122            48.659              Murmansk1          1520.594
       361   03 Jun 2027 12:20:10.837   03 Jun 2027 12:20:41.314            30.477              Murmansk1           952.406
       362   03 Jun 2027 12:25:42.627   03 Jun 2027 12:26:12.341            29.714                Norilsk           928.563
       363   03 Jun 2027 13:29:03.556   03 Jun 2027 13:32:06.906           183.350               CapeTown          5729.688
       364   03 Jun 2027 13:53:07.850   03 Jun 2027 13:53:25.344            17.494                 Moscow           546.687
       365   03 Jun 2027 13:53:46.056   03 Jun 2027 13:54:12.182            26.126                 Moscow           816.437
       366   03 Jun 2027 13:55:57.512   03 Jun 2027 13:58:19.612           142.100              Murmansk2          4440.625
       367   03 Jun 2027 13:59:15.035   03 Jun 2027 13:59:58.024            42.989              Murmansk1          1343.406
       368   03 Jun 2027 14:09:21.615   03 Jun 2027 14:11:36.013           134.398                Anadyr2          4199.937
       369   03 Jun 2027 14:11:54.841   03 Jun 2027 14:13:57.918           123.077                Anadyr1          3846.156
       370   03 Jun 2027 15:35:53.508   03 Jun 2027 15:36:55.684            62.176              Murmansk2          1943.000
       371   03 Jun 2027 15:37:02.547   03 Jun 2027 15:37:22.961            20.414              Murmansk1           637.938
       372   03 Jun 2027 15:39:01.348   03 Jun 2027 15:39:04.491             3.143              Murmansk2            98.219
       373   03 Jun 2027 15:45:01.743   03 Jun 2027 15:47:21.679           139.936                Anadyr1          4373.000
       374   03 Jun 2027 15:47:39.375   03 Jun 2027 15:47:47.741             8.366                Anadyr1           261.438
       375   03 Jun 2027 15:48:04.036   03 Jun 2027 15:53:42.731           338.695               Magadan1         10584.219
       376   03 Jun 2027 15:54:59.713   03 Jun 2027 15:55:52.829            53.116               Magadan1          1659.875
       377   03 Jun 2027 17:23:15.662   03 Jun 2027 17:24:49.573            93.911               Magadan1          2934.719
       378   03 Jun 2027 17:31:16.833   03 Jun 2027 17:31:21.138             4.305               Magadan2           134.531
       379   03 Jun 2027 17:35:57.372   03 Jun 2027 17:35:58.087             0.715               Magadan2            22.344
       380   03 Jun 2027 18:16:51.660   03 Jun 2027 18:19:46.196           174.536            RioGallegos          5454.250
       381   03 Jun 2027 18:20:35.919   03 Jun 2027 18:21:03.658            27.739            RioGallegos           866.844
       382   03 Jun 2027 18:22:32.412   03 Jun 2027 18:23:16.595            44.183            RioGallegos          1380.719
       383   03 Jun 2027 18:58:55.644   03 Jun 2027 19:01:42.061           166.417                Norilsk          5200.531
       384   03 Jun 2027 19:02:04.287   03 Jun 2027 19:02:47.967            43.680                Norilsk          1365.000
       385   03 Jun 2027 19:03:43.861   03 Jun 2027 19:05:02.094            78.233                Irkutsk          2444.781
       386   03 Jun 2027 19:05:56.813   03 Jun 2027 19:08:07.605           130.792                Irkutsk          4087.250
       387   03 Jun 2027 19:09:12.373   03 Jun 2027 19:10:09.429            57.056                Irkutsk          1783.000
       388   03 Jun 2027 19:18:27.420   03 Jun 2027 19:21:06.097           158.677                Sumatra          4958.656
       389   03 Jun 2027 19:23:24.084   03 Jun 2027 19:24:56.107            92.023                Sumatra          2875.719
       390   03 Jun 2027 20:39:31.447   03 Jun 2027 20:39:59.027            27.580                Novosib           861.875
       391   03 Jun 2027 20:41:33.136   03 Jun 2027 20:42:07.249            34.113                Novosib          1066.031
       392   03 Jun 2027 20:48:45.463   03 Jun 2027 20:51:56.196           190.733                  Delhi          5960.406
       393   03 Jun 2027 22:13:34.362   03 Jun 2027 22:17:20.533           226.171              Murmansk1          7067.844
       394   03 Jun 2027 22:17:28.645   03 Jun 2027 22:19:18.775           110.130              Murmansk2          3441.562
       395   03 Jun 2027 23:44:23.349   03 Jun 2027 23:44:38.475            15.126                Anadyr2           472.687
       396   03 Jun 2027 23:45:13.246   03 Jun 2027 23:45:29.376            16.130                Anadyr2           504.063
       397   03 Jun 2027 23:46:00.614   03 Jun 2027 23:46:55.631            55.017               Magadan2          1719.281
       398   03 Jun 2027 23:47:19.013   03 Jun 2027 23:47:22.257             3.244               Magadan1           101.375
       399   03 Jun 2027 23:47:22.257   03 Jun 2027 23:47:25.642             3.385               Magadan2           105.781
       400   03 Jun 2027 23:47:53.431   03 Jun 2027 23:48:50.152            56.721               Magadan1          1772.531
       401   03 Jun 2027 23:48:50.152   03 Jun 2027 23:48:59.955             9.803               Magadan2           306.344
       402   03 Jun 2027 23:49:00.147   03 Jun 2027 23:52:10.038           189.891              Murmansk2          5934.094
       403   03 Jun 2027 23:52:36.095   03 Jun 2027 23:54:03.424            87.329                 Moscow          2729.031
       404   03 Jun 2027 23:55:07.330   03 Jun 2027 23:55:40.590            33.260                 Moscow          1039.375
       405   04 Jun 2027 00:18:25.550   04 Jun 2027 00:19:18.881            53.331               CapeTown          1666.594
       406   04 Jun 2027 00:20:14.956   04 Jun 2027 00:20:58.606            43.650               CapeTown          1364.063
       407   04 Jun 2027 00:22:57.442   04 Jun 2027 00:24:30.921            93.479               CapeTown          2921.219
       408   04 Jun 2027 01:20:32.391   04 Jun 2027 01:20:58.442            26.051               Magadan1           814.094
       409   04 Jun 2027 01:24:47.867   04 Jun 2027 01:25:55.888            68.021              Murmansk1          2125.656
       410   04 Jun 2027 01:27:22.677   04 Jun 2027 01:28:12.318            49.641                Novosib          1551.281
       411   04 Jun 2027 01:28:41.626   04 Jun 2027 01:29:58.031            76.405              Murmansk2          2387.656
       412   04 Jun 2027 01:38:13.881   04 Jun 2027 01:38:26.265            12.384                 Moscow           387.000
       413   04 Jun 2027 01:51:54.437   04 Jun 2027 01:52:27.766            33.329               CapeTown          1041.531
       414   04 Jun 2027 01:52:59.173   04 Jun 2027 01:54:08.000            68.827               CapeTown          2150.844
       415   04 Jun 2027 02:48:41.385   04 Jun 2027 02:49:26.576            45.191                Anadyr2          1412.219
       416   04 Jun 2027 02:49:33.286   04 Jun 2027 02:52:14.402           161.116               Magadan2          5034.875
       417   04 Jun 2027 02:57:45.914   04 Jun 2027 02:57:54.680             8.766                Norilsk           273.937
       418   04 Jun 2027 02:58:49.687   04 Jun 2027 02:59:21.290            31.603                Norilsk           987.594
       419   04 Jun 2027 04:33:52.153   04 Jun 2027 04:34:33.352            41.199               Magadan2          1287.469
       420   04 Jun 2027 04:34:43.400   04 Jun 2027 04:34:47.807             4.407               Magadan2           137.719
       421   04 Jun 2027 04:35:06.312   04 Jun 2027 04:35:25.561            19.249                Anadyr1           601.531
       422   04 Jun 2027 04:36:35.017   04 Jun 2027 04:36:51.636            16.619               Magadan1           519.344
       423   04 Jun 2027 05:14:39.190   04 Jun 2027 05:17:21.320           162.130            RioGallegos          5066.563
       424   04 Jun 2027 06:06:53.544   04 Jun 2027 06:07:19.603            26.059               Magadan1           814.344
       425   04 Jun 2027 06:07:22.773   04 Jun 2027 06:08:41.245            78.472                Irkutsk          2452.250
       426   04 Jun 2027 06:08:42.937   04 Jun 2027 06:09:12.075            29.138                Norilsk           910.562
       427   04 Jun 2027 06:09:12.494   04 Jun 2027 06:11:34.522           142.028               Magadan1          4438.375
       428   04 Jun 2027 06:11:50.314   04 Jun 2027 06:12:27.301            36.987                Novosib          1155.844
       429   04 Jun 2027 06:12:33.370   04 Jun 2027 06:13:19.343            45.973              Murmansk2          1436.656
       430   04 Jun 2027 06:13:39.949   04 Jun 2027 06:13:51.949            12.000              Murmansk1           375.000
       431   04 Jun 2027 06:14:51.574   04 Jun 2027 06:15:20.147            28.573              Murmansk2           892.906
       432   04 Jun 2027 06:16:20.587   04 Jun 2027 06:17:09.773            49.186              Murmansk2          1537.063
       433   04 Jun 2027 06:47:44.170   04 Jun 2027 06:48:16.300            32.130            RioGallegos          1004.063
       434   04 Jun 2027 06:48:25.530   04 Jun 2027 06:49:40.260            74.730            RioGallegos          2335.312
       435   04 Jun 2027 07:24:05.896   04 Jun 2027 07:24:30.909            25.013                Sumatra           781.656
       436   04 Jun 2027 07:26:12.185   04 Jun 2027 07:26:58.375            46.190                Sumatra          1443.437
       437   04 Jun 2027 07:29:32.693   04 Jun 2027 07:30:54.446            81.753                Sumatra          2554.781
       438   04 Jun 2027 07:43:14.825   04 Jun 2027 07:44:07.486            52.661                Novosib          1645.656
       439   04 Jun 2027 07:44:12.377   04 Jun 2027 07:44:15.101             2.724                Norilsk            85.125
       440   04 Jun 2027 07:44:26.483   04 Jun 2027 07:44:46.080            19.597                Irkutsk           612.406
       441   04 Jun 2027 07:44:46.402   04 Jun 2027 07:45:22.450            36.048                Norilsk          1126.500
       442   04 Jun 2027 07:45:35.661   04 Jun 2027 07:46:11.864            36.203                Irkutsk          1131.344
       443   04 Jun 2027 07:47:04.735   04 Jun 2027 07:47:12.151             7.416                Norilsk           231.750
       444   04 Jun 2027 07:47:15.583   04 Jun 2027 07:47:58.719            43.136                Novosib          1348.000
       445   04 Jun 2027 07:48:13.372   04 Jun 2027 07:48:26.210            12.838                Norilsk           401.187
       446   04 Jun 2027 07:48:28.076   04 Jun 2027 07:48:49.614            21.538              Murmansk2           673.063
       447   04 Jun 2027 07:49:07.114   04 Jun 2027 07:49:32.572            25.458              Murmansk1           795.562
       448   04 Jun 2027 07:51:12.576   04 Jun 2027 07:51:29.094            16.518              Murmansk2           516.187
       449   04 Jun 2027 08:24:22.123   04 Jun 2027 08:25:01.490            39.367            RioGallegos          1230.219
       450   04 Jun 2027 08:26:29.652   04 Jun 2027 08:26:40.113            10.461            RioGallegos           326.906
       451   04 Jun 2027 08:32:11.382   04 Jun 2027 08:32:41.531            30.149            RioGallegos           942.156
       452   04 Jun 2027 08:58:40.728   04 Jun 2027 09:00:10.151            89.423                Sumatra          2794.469
       453   04 Jun 2027 09:08:15.560   04 Jun 2027 09:09:30.718            75.158                  Delhi          2348.687
       454   04 Jun 2027 09:19:10.181   04 Jun 2027 09:19:14.335             4.154                Irkutsk           129.813
       455   04 Jun 2027 09:19:16.855   04 Jun 2027 09:19:43.367            26.512                Novosib           828.500
       456   04 Jun 2027 09:19:47.649   04 Jun 2027 09:20:13.392            25.743                Norilsk           804.469
       457   04 Jun 2027 09:20:21.743   04 Jun 2027 09:20:35.661            13.918              Murmansk1           434.937
       458   04 Jun 2027 09:20:38.504   04 Jun 2027 09:21:37.255            58.751                 Moscow          1835.969
       459   04 Jun 2027 09:21:42.578   04 Jun 2027 09:21:59.775            17.197                Norilsk           537.406
       460   04 Jun 2027 09:22:01.602   04 Jun 2027 09:22:13.793            12.191              Murmansk1           380.969
       461   04 Jun 2027 09:22:17.283   04 Jun 2027 09:22:25.116             7.833                Novosib           244.781
       462   04 Jun 2027 09:22:25.917   04 Jun 2027 09:23:21.277            55.360                Irkutsk          1730.000
       463   04 Jun 2027 09:23:25.186   04 Jun 2027 09:23:44.124            18.938                Irkutsk           591.813
       464   04 Jun 2027 09:24:10.092   04 Jun 2027 09:24:48.395            38.303              Murmansk1          1196.969
       465   04 Jun 2027 10:43:26.197   04 Jun 2027 10:47:01.212           215.015                  Delhi          6719.219
       466   04 Jun 2027 10:55:53.450   04 Jun 2027 10:56:07.170            13.720              Murmansk1           428.750
       467   04 Jun 2027 10:56:11.157   04 Jun 2027 10:56:27.660            16.503                Norilsk           515.719
       468   04 Jun 2027 10:56:38.898   04 Jun 2027 10:57:38.088            59.190                 Moscow          1849.688
       469   04 Jun 2027 10:57:42.648   04 Jun 2027 10:58:08.846            26.198                Norilsk           818.688
       470   04 Jun 2027 10:58:11.047   04 Jun 2027 10:58:45.710            34.663                Norilsk          1083.219
       471   04 Jun 2027 10:58:56.419   04 Jun 2027 10:59:25.055            28.636              Murmansk2           894.875
       472   04 Jun 2027 10:59:30.943   04 Jun 2027 11:00:00.223            29.280              Murmansk1           915.000
       473   04 Jun 2027 11:00:13.495   04 Jun 2027 11:00:53.883            40.388                 Moscow          1262.125
       474   04 Jun 2027 12:27:04.829   04 Jun 2027 12:29:30.370           145.541                 Moscow          4548.156
       475   04 Jun 2027 12:30:17.147   04 Jun 2027 12:30:36.869            19.722                 Moscow           616.312
       476   04 Jun 2027 12:30:40.148   04 Jun 2027 12:34:07.371           207.223              Murmansk2          6475.719
       477   04 Jun 2027 12:37:44.253   04 Jun 2027 12:38:15.291            31.038                Norilsk           969.938
       478   04 Jun 2027 12:47:22.427   04 Jun 2027 12:50:11.379           168.952                Anadyr1          5279.750
       479   04 Jun 2027 13:42:29.374   04 Jun 2027 13:44:21.410           112.036               CapeTown          3501.125
       480   04 Jun 2027 14:08:19.470   04 Jun 2027 14:09:17.993            58.523              Murmansk2          1828.844
       481   04 Jun 2027 14:11:16.752   04 Jun 2027 14:11:47.790            31.038              Murmansk2           969.937
       482   04 Jun 2027 14:15:39.298   04 Jun 2027 14:16:33.679            54.381              Murmansk1          1699.406
