uniorb/output/strategy_2/Drop/Drop_KinoSat_110302.txt

KinoSat_110302
-------------------------
    Access    *     Start Time (UTCG)     *     Stop Time (UTCG)  *   Duration (s)        *       Station  *  Data (Mbytes)
         1   01 Jun 2027 04:25:31.957   01 Jun 2027 04:27:10.351            98.394                Novosib         11832.000
         2   01 Jun 2027 04:27:17.176   01 Jun 2027 04:27:39.347            22.171                Norilsk          2771.375
         3   01 Jun 2027 04:27:45.234   01 Jun 2027 04:28:25.631            40.397                Irkutsk          3584.625
         4   01 Jun 2027 04:28:29.907   01 Jun 2027 04:29:16.393            46.486               Magadan1          2138.000
         5   01 Jun 2027 04:29:21.817   01 Jun 2027 04:29:51.893            30.076                Norilsk          2712.000
         6   01 Jun 2027 04:29:53.992   01 Jun 2027 04:30:43.239            49.247               Magadan1          1049.500
         7   01 Jun 2027 04:30:44.770   01 Jun 2027 04:30:53.167             8.397                Novosib           765.500
         8   01 Jun 2027 04:30:59.863   01 Jun 2027 04:31:33.565            33.702              Murmansk2          3348.000
         9   01 Jun 2027 04:31:37.406   01 Jun 2027 04:31:58.620            21.214                Norilsk          1920.500
        10   01 Jun 2027 04:32:11.206   01 Jun 2027 04:32:59.301            48.095                Norilsk          6011.875
        11   01 Jun 2027 04:33:04.778   01 Jun 2027 04:33:10.756             5.978              Murmansk1           281.125
        12   01 Jun 2027 06:02:10.569   01 Jun 2027 06:03:37.559            86.990                Novosib          3911.500
        13   01 Jun 2027 06:03:54.544   01 Jun 2027 06:05:11.626            77.082                Novosib          8492.500
        14   01 Jun 2027 06:05:14.808   01 Jun 2027 06:05:40.351            25.543              Murmansk1          1591.000
        15   01 Jun 2027 06:05:44.419   01 Jun 2027 06:06:04.995            20.576              Murmansk2          2034.000
        16   01 Jun 2027 06:06:10.037   01 Jun 2027 06:06:46.818            36.781                Norilsk          2521.000
        17   01 Jun 2027 06:06:47.861   01 Jun 2027 06:07:16.182            28.321                Irkutsk           521.500
        18   01 Jun 2027 06:07:22.898   01 Jun 2027 06:07:53.337            30.439                 Moscow          1050.500
        19   01 Jun 2027 06:08:06.545   01 Jun 2027 06:08:51.614            45.069                Norilsk          5633.625
        20   01 Jun 2027 06:09:03.068   01 Jun 2027 06:09:59.453            56.385                 Moscow           970.375
        21   01 Jun 2027 07:39:27.876   01 Jun 2027 07:40:44.966            77.090                 Moscow          8173.000
        22   01 Jun 2027 07:40:51.972   01 Jun 2027 07:41:39.968            47.996                Novosib          3503.000
        23   01 Jun 2027 07:41:53.739   01 Jun 2027 07:42:58.248            64.509                Novosib          6885.500
        24   01 Jun 2027 07:43:00.520   01 Jun 2027 07:43:43.535            43.015              Murmansk1          1136.000
        25   01 Jun 2027 07:44:00.167   01 Jun 2027 07:45:07.742            67.575                Norilsk          8316.000
        26   01 Jun 2027 09:14:01.898   01 Jun 2027 09:14:18.373            16.475                 Moscow            26.500
        27   01 Jun 2027 09:14:37.529   01 Jun 2027 09:16:25.267           107.738                 Moscow          9578.000
        28   01 Jun 2027 09:16:30.901   01 Jun 2027 09:16:57.006            26.105              Murmansk1          2817.000
        29   01 Jun 2027 09:17:31.014   01 Jun 2027 09:20:16.885           165.871              Murmansk1         17004.000
        30   02 Jun 2027 03:00:19.390   02 Jun 2027 03:01:18.357            58.967               Magadan1          7370.875
        31   02 Jun 2027 03:01:19.333   02 Jun 2027 03:01:59.376            40.043                Irkutsk          1288.625
        32   02 Jun 2027 03:02:24.910   02 Jun 2027 03:04:05.684           100.774                Norilsk         12596.750
        33   02 Jun 2027 03:04:09.183   02 Jun 2027 03:04:52.448            43.265               Magadan2          1919.750
        34   02 Jun 2027 03:04:57.707   02 Jun 2027 03:05:10.586            12.879                Norilsk          1609.875
        35   02 Jun 2027 03:05:16.081   02 Jun 2027 03:05:38.710            22.629               Magadan2          2828.625
        36   02 Jun 2027 03:05:38.710   02 Jun 2027 03:05:54.467            15.757               Magadan1           938.500
        37   02 Jun 2027 03:05:55.703   02 Jun 2027 03:06:16.342            20.639                Norilsk           618.000
        38   02 Jun 2027 03:06:17.498   02 Jun 2027 03:06:36.128            18.630                Anadyr1           578.000
        39   02 Jun 2027 03:06:38.322   02 Jun 2027 03:06:51.331            13.009               Magadan2          1097.000
        40   02 Jun 2027 03:06:55.241   02 Jun 2027 03:07:19.124            23.883               Magadan1          1955.000
        41   02 Jun 2027 03:07:27.080   02 Jun 2027 03:08:11.003            43.923              Murmansk2          3978.000
        42   02 Jun 2027 03:08:14.529   02 Jun 2027 03:08:28.812            14.283              Murmansk1          1763.000
        43   02 Jun 2027 03:08:31.544   02 Jun 2027 03:08:53.423            21.879                Norilsk          1366.000
        44   02 Jun 2027 04:37:39.709   02 Jun 2027 04:38:04.690            24.981                Novosib          2713.500
        45   02 Jun 2027 04:38:18.624   02 Jun 2027 04:39:01.374            42.750                Norilsk          5343.750
        46   02 Jun 2027 04:39:15.601   02 Jun 2027 04:39:54.889            39.288                Novosib          4911.000
        47   02 Jun 2027 04:40:07.261   02 Jun 2027 04:41:34.052            86.791               Magadan1         10011.750
        48   02 Jun 2027 04:41:43.842   02 Jun 2027 04:42:53.101            69.259                Novosib          4895.000
        49   02 Jun 2027 04:42:53.722   02 Jun 2027 04:43:38.410            44.688                Irkutsk           310.500
        50   02 Jun 2027 04:43:41.003   02 Jun 2027 04:43:53.930            12.927                Norilsk          1296.500
        51   02 Jun 2027 04:43:56.828   02 Jun 2027 04:44:03.046             6.218                Novosib           777.250
        52   02 Jun 2027 04:44:08.866   02 Jun 2027 04:44:45.031            36.165                Norilsk          3581.750
        53   02 Jun 2027 06:14:41.966   02 Jun 2027 06:16:08.550            86.584                Novosib          5763.000
        54   02 Jun 2027 06:16:14.173   02 Jun 2027 06:16:38.292            24.119                Norilsk          2811.500
        55   02 Jun 2027 06:16:46.012   02 Jun 2027 06:17:16.920            30.908              Murmansk1          3860.000
        56   02 Jun 2027 06:17:18.192   02 Jun 2027 06:17:19.318             1.126                Norilsk           140.750
        57   02 Jun 2027 06:17:27.118   02 Jun 2027 06:18:24.861            57.743                Novosib          4395.250
        58   02 Jun 2027 06:18:25.664   02 Jun 2027 06:18:49.932            24.268                Norilsk           401.500
        59   02 Jun 2027 06:18:56.164   02 Jun 2027 06:19:31.092            34.928                Norilsk          3116.000
        60   02 Jun 2027 06:19:31.489   02 Jun 2027 06:19:58.281            26.792              Murmansk2           198.500
        61   02 Jun 2027 06:19:59.813   02 Jun 2027 06:20:36.279            36.466              Murmansk2           766.000
        62   02 Jun 2027 07:51:37.821   02 Jun 2027 07:52:36.460            58.639                Novosib          6709.500
        63   02 Jun 2027 07:52:52.156   02 Jun 2027 07:53:56.043            63.887                Norilsk          7848.000
        64   02 Jun 2027 07:54:03.730   02 Jun 2027 07:54:41.762            38.032                Novosib          3843.500
        65   02 Jun 2027 07:54:50.252   02 Jun 2027 07:55:23.922            33.670                 Moscow          4208.750
        66   02 Jun 2027 07:55:37.664   02 Jun 2027 07:56:44.531            66.867              Murmansk2          6907.250
        67   02 Jun 2027 09:28:51.424   02 Jun 2027 09:30:34.242           102.818              Murmansk1          8418.500
        68   02 Jun 2027 09:30:48.752   02 Jun 2027 09:32:10.051            81.299              Murmansk2          7255.000
        69   03 Jun 2027 03:10:59.863   03 Jun 2027 03:11:54.204            54.341               Magadan2          5355.500
        70   03 Jun 2027 03:12:41.863   03 Jun 2027 03:12:46.360             4.497               Magadan2            45.500
        71   03 Jun 2027 03:12:53.856   03 Jun 2027 03:13:05.518            11.662                Irkutsk          1457.750
        72   03 Jun 2027 03:13:32.848   03 Jun 2027 03:15:55.593           142.745               Magadan1         15955.250
        73   03 Jun 2027 03:16:06.497   03 Jun 2027 03:16:51.231            44.734                Norilsk          5452.000
        74   03 Jun 2027 03:16:54.006   03 Jun 2027 03:17:17.435            23.429               Magadan2          1387.500
        75   03 Jun 2027 03:17:26.968   03 Jun 2027 03:18:42.866            75.898                Irkutsk          4766.500
        76   03 Jun 2027 03:18:43.813   03 Jun 2027 03:18:44.025             0.212                Anadyr2            26.500
        77   03 Jun 2027 03:18:45.214   03 Jun 2027 03:19:00.480            15.266                Norilsk          1041.500
        78   03 Jun 2027 03:19:00.843   03 Jun 2027 03:19:14.181            13.338                Novosib           181.500
        79   03 Jun 2027 03:19:20.054   03 Jun 2027 03:19:50.153            30.099              Murmansk2          2936.500
        80   03 Jun 2027 03:19:53.144   03 Jun 2027 03:20:25.982            32.838              Murmansk1          1495.500
        81   03 Jun 2027 03:20:31.966   03 Jun 2027 03:20:56.846            24.880              Murmansk2          2446.500
        82   03 Jun 2027 04:49:41.765   03 Jun 2027 04:49:49.321             7.556                Norilsk           579.500
        83   03 Jun 2027 04:50:13.109   03 Jun 2027 04:50:56.727            43.618                Norilsk          5452.250
        84   03 Jun 2027 04:51:16.463   03 Jun 2027 04:53:28.098           131.635                Norilsk         16309.750
        85   03 Jun 2027 04:53:42.563   03 Jun 2027 04:53:44.103             1.540                Norilsk           192.500
        86   03 Jun 2027 04:53:44.271   03 Jun 2027 04:54:53.465            69.194              Murmansk1          7124.000
        87   03 Jun 2027 04:54:55.932   03 Jun 2027 04:55:25.277            29.345                Novosib          1233.500
        88   03 Jun 2027 04:55:33.395   03 Jun 2027 04:55:56.862            23.467                Irkutsk          2933.375
        89   03 Jun 2027 04:56:01.362   03 Jun 2027 04:56:29.780            28.418              Murmansk2          3375.625
        90   03 Jun 2027 06:27:14.515   03 Jun 2027 06:27:59.237            44.722                 Moscow          5255.500
        91   03 Jun 2027 06:28:00.323   03 Jun 2027 06:28:34.070            33.747              Murmansk1           543.000
        92   03 Jun 2027 06:28:36.269   03 Jun 2027 06:28:54.990            18.721                Irkutsk          1099.500
        93   03 Jun 2027 06:29:07.707   03 Jun 2027 06:30:34.525            86.818                Novosib          6358.500
        94   03 Jun 2027 06:30:42.861   03 Jun 2027 06:31:39.088            56.227                Irkutsk          4168.000
        95   03 Jun 2027 06:31:48.906   03 Jun 2027 06:32:16.925            28.019                Norilsk          3502.375
        96   03 Jun 2027 06:32:28.640   03 Jun 2027 06:32:40.134            11.494              Murmansk1           653.125
        97   03 Jun 2027 08:03:26.721   03 Jun 2027 08:03:41.195            14.474                 Moscow           120.000
        98   03 Jun 2027 08:03:42.677   03 Jun 2027 08:03:48.884             6.207              Murmansk2           741.000
        99   03 Jun 2027 08:03:56.962   03 Jun 2027 08:04:21.801            24.839                Norilsk          3104.875
       100   03 Jun 2027 08:04:23.591   03 Jun 2027 08:04:45.247            21.656                Novosib          1829.125
       101   03 Jun 2027 08:04:56.903   03 Jun 2027 08:05:57.182            60.279                 Moscow          5828.000
       102   03 Jun 2027 08:06:01.026   03 Jun 2027 08:07:32.511            91.485              Murmansk2          1922.000
       103   03 Jun 2027 08:07:37.430   03 Jun 2027 08:07:58.407            20.977                Norilsk          2459.500
       104   03 Jun 2027 08:08:02.680   03 Jun 2027 08:08:32.650            29.970              Murmansk2          2136.500
       105   03 Jun 2027 09:41:59.075   03 Jun 2027 09:42:58.016            58.941              Murmansk1          7253.000
       106   04 Jun 2027 03:26:00.423   04 Jun 2027 03:26:56.996            56.573               Magadan2          2320.500
       107   04 Jun 2027 03:27:00.910   04 Jun 2027 03:27:26.499            25.589               Magadan2          1957.000
       108   04 Jun 2027 03:27:27.822   04 Jun 2027 03:27:40.477            12.655                Irkutsk           661.500
       109   04 Jun 2027 03:27:49.477   04 Jun 2027 03:28:25.916            36.439               Magadan2          4500.000
       110   04 Jun 2027 03:28:32.713   04 Jun 2027 03:29:28.300            55.587                Irkutsk          3398.500
       111   04 Jun 2027 03:29:32.414   04 Jun 2027 03:30:25.772            53.358                Novosib          2057.000
       112   04 Jun 2027 03:30:29.823   04 Jun 2027 03:31:05.620            35.797                Irkutsk          2025.500
       113   04 Jun 2027 03:31:12.275   04 Jun 2027 03:31:42.489            30.214              Murmansk1          3327.500
       114   04 Jun 2027 03:31:49.335   04 Jun 2027 03:32:49.263            59.928                Novosib          3423.000
       115   04 Jun 2027 05:02:34.168   04 Jun 2027 05:03:54.098            79.930                Novosib          9906.500
       116   04 Jun 2027 05:04:01.323   04 Jun 2027 05:04:27.910            26.587                Irkutsk          3323.375
       117   04 Jun 2027 05:04:32.322   04 Jun 2027 05:04:57.131            24.809                Norilsk          2495.125
       118   04 Jun 2027 05:05:17.903   04 Jun 2027 05:07:01.758           103.855                Novosib         10386.000
       119   04 Jun 2027 05:07:07.597   04 Jun 2027 05:07:55.449            47.852              Murmansk2          2919.500
       120   04 Jun 2027 05:07:56.039   04 Jun 2027 05:08:39.581            43.542                Irkutsk           295.000
       121   04 Jun 2027 06:39:38.154   04 Jun 2027 06:40:11.101            32.947                Irkutsk           466.000
       122   04 Jun 2027 06:40:15.049   04 Jun 2027 06:40:42.201            27.152                 Moscow          1974.000
       123   04 Jun 2027 06:40:46.790   04 Jun 2027 06:41:20.866            34.076              Murmansk2          2294.500
       124   04 Jun 2027 06:41:31.128   04 Jun 2027 06:42:31.032            59.904                Novosib          5131.000
       125   04 Jun 2027 06:42:31.034   04 Jun 2027 06:42:37.184             6.150                Irkutsk             1.000
       126   04 Jun 2027 06:42:39.115   04 Jun 2027 06:42:49.457            10.342                 Moscow           965.500
       127   04 Jun 2027 06:42:53.918   04 Jun 2027 06:43:12.370            18.452              Murmansk2          2230.500
       128   04 Jun 2027 06:43:23.699   04 Jun 2027 06:45:18.582           114.883                Novosib          5664.500
       129   04 Jun 2027 08:15:54.459   04 Jun 2027 08:16:23.611            29.152                Norilsk          3444.000
       130   04 Jun 2027 08:16:25.207   04 Jun 2027 08:17:07.135            41.928              Murmansk2           798.000
       131   04 Jun 2027 08:17:08.666   04 Jun 2027 08:17:38.221            29.555                 Moscow           765.500
       132   04 Jun 2027 08:17:39.357   04 Jun 2027 08:17:51.044            11.687              Murmansk1           568.000
       133   04 Jun 2027 08:18:13.224   04 Jun 2027 08:19:54.766           101.542              Murmansk2         11090.000
       134   04 Jun 2027 08:20:06.068   04 Jun 2027 08:20:53.693            47.625                Novosib          5651.000
       135   05 Jun 2027 03:38:11.649   05 Jun 2027 03:39:29.307            77.658               Magadan1          7384.500
       136   05 Jun 2027 03:39:29.789   05 Jun 2027 03:39:45.992            16.203               Magadan2           241.000
       137   05 Jun 2027 03:39:50.461   05 Jun 2027 03:39:54.240             3.779                Irkutsk           472.375
       138   05 Jun 2027 03:39:54.396   05 Jun 2027 03:40:56.190            61.794               Magadan2          1840.125
       139   05 Jun 2027 03:40:59.474   05 Jun 2027 03:41:40.434            40.960                Norilsk          1642.000
       140   05 Jun 2027 03:41:42.156   05 Jun 2027 03:42:01.761            19.605               Magadan1           861.000
       141   05 Jun 2027 03:42:13.056   05 Jun 2027 03:43:36.334            83.278                Irkutsk          5647.500
       142   05 Jun 2027 03:43:43.694   05 Jun 2027 03:44:27.857            44.163                Novosib          3680.000
       143   05 Jun 2027 03:44:36.906   05 Jun 2027 03:44:39.088             2.182                Norilsk           272.750
       144   05 Jun 2027 03:44:51.060   05 Jun 2027 03:45:43.898            52.838                Novosib          4260.250
       145   05 Jun 2027 05:13:59.150   05 Jun 2027 05:14:11.954            12.804                Norilsk          1600.500
       146   05 Jun 2027 05:14:34.641   05 Jun 2027 05:14:58.722            24.081                Norilsk          3010.125
       147   05 Jun 2027 05:15:14.702   05 Jun 2027 05:17:24.551           129.849                Norilsk         16231.125
       148   05 Jun 2027 05:17:35.450   05 Jun 2027 05:18:26.586            51.136                Irkutsk          6392.000
       149   05 Jun 2027 05:18:31.747   05 Jun 2027 05:18:35.685             3.938                Novosib           492.250
       150   05 Jun 2027 05:18:37.360   05 Jun 2027 05:18:59.756            22.396                Norilsk          2799.500
       151   05 Jun 2027 05:19:09.437   05 Jun 2027 05:20:07.023            57.586              Murmansk1          5655.000
       152   05 Jun 2027 05:20:09.855   05 Jun 2027 05:20:50.912            41.057              Murmansk2          1416.000
       153   05 Jun 2027 06:51:57.299   05 Jun 2027 06:52:25.440            28.141                Norilsk          3121.500
       154   05 Jun 2027 06:52:28.180   05 Jun 2027 06:53:03.422            35.242                Norilsk          1370.000
       155   05 Jun 2027 06:53:11.280   05 Jun 2027 06:53:50.257            38.977                 Moscow          3929.000
       156   05 Jun 2027 06:53:55.124   05 Jun 2027 06:54:24.390            29.266              Murmansk1          2433.500
       157   05 Jun 2027 06:54:34.857   05 Jun 2027 06:55:18.013            43.156                Novosib          5233.500
       158   05 Jun 2027 06:55:23.816   05 Jun 2027 06:55:40.977            17.161                Novosib          2145.125
       159   05 Jun 2027 06:56:07.716   05 Jun 2027 06:56:41.508            33.792                Norilsk          4224.000
       160   05 Jun 2027 06:56:42.304   05 Jun 2027 06:58:23.392           101.088                 Moscow          9901.875
       161   05 Jun 2027 08:27:48.532   05 Jun 2027 08:28:26.619            38.087                Novosib          2959.500
       162   05 Jun 2027 08:28:30.543   05 Jun 2027 08:28:39.298             8.755                Norilsk          1094.375
       163   05 Jun 2027 08:28:50.603   05 Jun 2027 08:30:48.560           117.957                 Moscow          6520.125
       164   05 Jun 2027 08:30:56.067   05 Jun 2027 08:31:40.094            44.027                Norilsk          3753.500
       165   05 Jun 2027 08:31:45.905   05 Jun 2027 08:32:22.106            36.201              Murmansk1          2905.500
       166   05 Jun 2027 08:32:26.668   05 Jun 2027 08:32:50.892            24.224                 Moscow          2281.000
       167   05 Jun 2027 08:32:51.867   05 Jun 2027 08:32:57.040             5.173                Norilsk           487.500
       168   06 Jun 2027 03:49:30.529   06 Jun 2027 03:50:47.891            77.362                Novosib          8960.000
       169   06 Jun 2027 03:50:54.558   06 Jun 2027 03:51:04.872            10.314               Magadan1          1289.250
       170   06 Jun 2027 03:51:04.872   06 Jun 2027 03:51:23.735            18.863               Magadan2          2044.250
       171   06 Jun 2027 03:51:24.151   06 Jun 2027 03:51:34.202            10.051                Irkutsk           208.000
       172   06 Jun 2027 03:51:36.333   06 Jun 2027 03:51:46.004             9.671                Novosib          1065.500
       173   06 Jun 2027 03:51:56.914   06 Jun 2027 03:53:40.906           103.992                Irkutsk          5455.000
       174   06 Jun 2027 03:53:46.221   06 Jun 2027 03:54:42.317            56.096                Irkutsk          2657.500
       175   06 Jun 2027 03:54:46.251   06 Jun 2027 03:54:56.067             9.816               Magadan2          1227.000
       176   06 Jun 2027 03:54:56.067   06 Jun 2027 03:55:26.809            30.742               Magadan1           740.000
       177   06 Jun 2027 03:55:30.287   06 Jun 2027 03:56:05.319            35.032               Magadan2          1739.000
       178   06 Jun 2027 03:56:16.820   06 Jun 2027 03:57:17.165            60.345              Murmansk1          5750.500
       179   06 Jun 2027 05:26:20.466   06 Jun 2027 05:27:46.676            86.210                Irkutsk          9076.500
       180   06 Jun 2027 05:28:05.152   06 Jun 2027 05:29:47.446           102.294                Irkutsk          9238.000
       181   06 Jun 2027 05:29:49.034   06 Jun 2027 05:30:05.190            16.156                Norilsk           794.000
       182   06 Jun 2027 05:30:26.405   06 Jun 2027 05:31:53.395            86.990                Novosib         10607.500
       183   06 Jun 2027 05:31:56.525   06 Jun 2027 05:32:13.786            17.261              Murmansk1          1565.000
       184   06 Jun 2027 05:32:22.322   06 Jun 2027 05:33:08.098            45.776              Murmansk1           776.000
       185   06 Jun 2027 07:04:24.302   06 Jun 2027 07:05:19.907            55.605                Norilsk          5346.500
       186   06 Jun 2027 07:05:24.278   06 Jun 2027 07:05:46.838            22.560              Murmansk2          2185.500
       187   06 Jun 2027 07:05:53.901   06 Jun 2027 07:06:43.730            49.829              Murmansk2          3531.500
       188   06 Jun 2027 07:06:44.786   06 Jun 2027 07:07:27.307            42.521                Norilsk           528.000
       189   06 Jun 2027 07:07:28.638   06 Jun 2027 07:08:20.205            51.567              Murmansk2           665.500
       190   06 Jun 2027 08:38:01.149   06 Jun 2027 08:40:08.821           127.672                 Moscow         14785.000
       191   06 Jun 2027 08:40:11.435   06 Jun 2027 08:40:43.279            31.844              Murmansk2          1307.000
       192   06 Jun 2027 08:40:43.995   06 Jun 2027 08:40:47.800             3.805                Novosib           358.000
       193   06 Jun 2027 08:40:54.725   06 Jun 2027 08:41:33.210            38.485              Murmansk2          3462.500
       194   06 Jun 2027 08:41:41.472   06 Jun 2027 08:42:24.837            43.365              Murmansk1          4131.000
       195   06 Jun 2027 08:42:25.067   06 Jun 2027 08:43:15.261            50.194                Novosib           115.000
       196   06 Jun 2027 08:43:15.454   06 Jun 2027 08:43:24.655             9.201                Novosib            96.500
       197   06 Jun 2027 08:43:26.965   06 Jun 2027 08:43:59.286            32.321                Norilsk          1155.000
       198   06 Jun 2027 08:44:18.207   06 Jun 2027 08:44:50.895            32.688                Norilsk          3242.500
       199   06 Jun 2027 08:44:56.722   06 Jun 2027 08:45:33.706            36.984                 Moscow          2913.500
       200   07 Jun 2027 04:01:25.091   07 Jun 2027 04:02:33.742            68.651                Novosib          2397.500
       201   07 Jun 2027 04:02:44.308   07 Jun 2027 04:03:35.019            50.711               Magadan1          5283.000
       202   07 Jun 2027 04:03:44.243   07 Jun 2027 04:04:41.102            56.859               Magadan1          4612.000
       203   07 Jun 2027 04:04:41.727   07 Jun 2027 04:04:50.233             8.506                Irkutsk           312.500
       204   07 Jun 2027 04:04:55.913   07 Jun 2027 04:05:20.009            24.096                Novosib          2840.000
       205   07 Jun 2027 04:05:26.387   07 Jun 2027 04:06:01.605            35.218               Magadan2          3189.000
       206   07 Jun 2027 04:06:05.797   07 Jun 2027 04:06:58.972            53.175               Magadan2          2096.000
       207   07 Jun 2027 04:07:05.111   07 Jun 2027 04:07:32.978            27.867               Magadan1          3069.500
       208   07 Jun 2027 04:07:45.140   07 Jun 2027 04:08:58.186            73.046              Murmansk1          6081.000
       209   07 Jun 2027 05:38:22.457   07 Jun 2027 05:38:59.673            37.216                Irkutsk          2095.500
       210   07 Jun 2027 05:39:03.720   07 Jun 2027 05:39:28.297            24.577                Novosib          2023.500
       211   07 Jun 2027 05:39:30.767   07 Jun 2027 05:40:06.898            36.131                Norilsk          1235.000
       212   07 Jun 2027 05:40:32.815   07 Jun 2027 05:42:30.358           117.543                Norilsk         12958.500
       213   07 Jun 2027 05:42:31.816   07 Jun 2027 05:42:42.964            11.148                 Moscow           729.000
       214   07 Jun 2027 05:42:45.561   07 Jun 2027 05:43:13.875            28.314                Norilsk          1298.500
       215   07 Jun 2027 05:43:15.269   07 Jun 2027 05:43:46.689            31.420              Murmansk2           697.000
       216   07 Jun 2027 05:43:53.179   07 Jun 2027 05:44:21.738            28.559                Norilsk          3245.000
       217   07 Jun 2027 07:16:19.767   07 Jun 2027 07:16:55.977            36.210                Norilsk          2509.000
       218   07 Jun 2027 07:17:16.136   07 Jun 2027 07:17:53.421            37.285                Irkutsk          4660.625
       219   07 Jun 2027 07:18:01.388   07 Jun 2027 07:19:21.456            80.068                Norilsk          9402.375
       220   07 Jun 2027 07:19:23.531   07 Jun 2027 07:20:12.109            48.578              Murmansk2          1037.500
       221   07 Jun 2027 07:20:14.180   07 Jun 2027 07:20:36.760            22.580                Norilsk          1035.500
       222   07 Jun 2027 08:50:05.311   07 Jun 2027 08:52:07.947           122.636                 Moscow         15226.000
       223   07 Jun 2027 08:52:22.368   07 Jun 2027 08:53:29.806            67.438                 Moscow          7210.500
       224   07 Jun 2027 08:53:31.787   07 Jun 2027 08:54:02.075            30.288                Novosib           990.500
       225   07 Jun 2027 08:54:10.347   07 Jun 2027 08:54:50.841            40.494                Novosib          4136.000
       226   07 Jun 2027 08:54:52.218   07 Jun 2027 08:55:24.887            32.669                Norilsk           688.500
       227   07 Jun 2027 08:55:25.689   07 Jun 2027 08:55:42.221            16.532              Murmansk1           401.000
       228   07 Jun 2027 08:55:52.022   07 Jun 2027 08:56:13.749            21.727                Norilsk          2715.875
       229   07 Jun 2027 08:56:32.259   07 Jun 2027 08:58:09.380            97.121                 Moscow         11439.625
       230   08 Jun 2027 04:13:39.933   08 Jun 2027 04:14:06.504            26.571               Magadan1          3321.375
       231   08 Jun 2027 04:14:19.224   08 Jun 2027 04:15:51.311            92.087                Irkutsk         11510.875
       232   08 Jun 2027 04:15:59.148   08 Jun 2027 04:17:15.732            76.584                Irkutsk          4310.750
       233   08 Jun 2027 04:17:16.528   08 Jun 2027 04:17:24.462             7.934                Novosib           398.000
       234   08 Jun 2027 04:17:29.609   08 Jun 2027 04:17:55.893            26.284               Magadan2          2573.500
       235   08 Jun 2027 04:17:55.922   08 Jun 2027 04:19:10.938            75.016                Novosib            14.500
       236   08 Jun 2027 04:19:16.353   08 Jun 2027 04:19:58.573            42.220              Murmansk2          2707.500
       237   08 Jun 2027 04:20:11.304   08 Jun 2027 04:20:56.983            45.679                Norilsk          5709.875
       238   08 Jun 2027 04:20:58.780   08 Jun 2027 04:21:41.188            42.408                Novosib           655.625
       239   08 Jun 2027 05:50:16.338   08 Jun 2027 05:50:49.273            32.935                Novosib          3963.000
       240   08 Jun 2027 05:50:58.518   08 Jun 2027 05:52:05.567            67.049                Irkutsk          4622.500
       241   08 Jun 2027 05:52:08.657   08 Jun 2027 05:52:33.535            24.878                Norilsk          1545.000
       242   08 Jun 2027 05:52:38.983   08 Jun 2027 05:53:27.036            48.053                Novosib          2724.000
       243   08 Jun 2027 05:53:30.273   08 Jun 2027 05:53:59.811            29.538              Murmansk1          1618.500
       244   08 Jun 2027 05:54:07.621   08 Jun 2027 05:54:46.711            39.090                 Moscow          3905.000
       245   08 Jun 2027 05:54:51.324   08 Jun 2027 05:55:14.148            22.824              Murmansk1          2306.500
       246   08 Jun 2027 05:55:17.304   08 Jun 2027 05:55:37.561            20.257              Murmansk1          1578.000
       247   08 Jun 2027 05:55:42.014   08 Jun 2027 05:56:05.520            23.506                 Moscow          2226.500
       248   08 Jun 2027 05:56:32.011   08 Jun 2027 05:56:33.912             1.901                Norilsk           237.625
       249   08 Jun 2027 05:56:34.844   08 Jun 2027 05:57:10.722            35.878                Novosib          4061.375
       250   08 Jun 2027 07:28:21.551   08 Jun 2027 07:28:55.954            34.403              Murmansk2          4002.500
       251   08 Jun 2027 07:28:57.931   08 Jun 2027 07:29:57.516            59.585                 Moscow           988.500
       252   08 Jun 2027 07:29:59.646   08 Jun 2027 07:30:29.111            29.465                Norilsk          1065.000
       253   08 Jun 2027 07:30:36.186   08 Jun 2027 07:31:16.699            40.513              Murmansk2          3537.500
       254   08 Jun 2027 07:31:19.645   08 Jun 2027 07:32:04.770            45.125              Murmansk2          1473.000
       255   08 Jun 2027 07:32:14.680   08 Jun 2027 07:33:03.939            49.259                Novosib          4955.000
       256   08 Jun 2027 09:02:15.223   08 Jun 2027 09:03:31.598            76.375                 Moscow          6535.000
       257   08 Jun 2027 09:03:53.699   08 Jun 2027 09:05:44.213           110.514              Murmansk2         11050.500
       258   08 Jun 2027 09:05:47.497   08 Jun 2027 09:06:11.718            24.221              Murmansk2          1642.000
       259   08 Jun 2027 09:06:18.446   08 Jun 2027 09:07:18.669            60.223                Norilsk          3364.000
       260   08 Jun 2027 09:07:22.105   08 Jun 2027 09:07:49.929            27.824              Murmansk1          1718.000
       261   08 Jun 2027 09:07:56.650   08 Jun 2027 09:08:31.972            35.322                 Moscow          3360.500
       262   08 Jun 2027 09:08:39.296   08 Jun 2027 09:09:52.856            73.560              Murmansk1          3662.000
       263   09 Jun 2027 04:25:33.463   09 Jun 2027 04:26:34.768            61.305                Irkutsk          5215.000
       264   09 Jun 2027 04:26:38.073   09 Jun 2027 04:28:00.057            81.984                Irkutsk          1652.500
       265   09 Jun 2027 04:28:04.525   09 Jun 2027 04:28:39.841            35.316                Irkutsk          2234.000
       266   09 Jun 2027 04:28:44.866   09 Jun 2027 04:29:32.540            47.674               Magadan2          2512.500
       267   09 Jun 2027 04:29:36.548   09 Jun 2027 04:30:27.487            50.939                Irkutsk          2004.000
       268   09 Jun 2027 04:30:29.131   09 Jun 2027 04:31:18.374            49.243              Murmansk2           822.000
       269   09 Jun 2027 04:31:19.056   09 Jun 2027 04:31:22.475             3.419              Murmansk2           341.000
       270   09 Jun 2027 04:31:25.175   09 Jun 2027 04:31:48.225            23.050              Murmansk1          1350.000
       271   09 Jun 2027 04:31:55.470   09 Jun 2027 04:32:35.110            39.640              Murmansk2          3622.500
       272   09 Jun 2027 04:32:42.142   09 Jun 2027 04:32:49.286             7.144                Novosib           893.000
       273   09 Jun 2027 04:32:49.541   09 Jun 2027 04:32:51.313             1.772                Irkutsk           221.500
       274   09 Jun 2027 04:33:01.086   09 Jun 2027 04:33:22.110            21.024              Murmansk1          2528.999
       275   09 Jun 2027 06:02:25.577   09 Jun 2027 06:03:50.908            85.331                Novosib          3911.000
       276   09 Jun 2027 06:04:10.490   09 Jun 2027 06:05:33.246            82.756                Norilsk          9791.000
       277   09 Jun 2027 06:05:41.396   09 Jun 2027 06:06:20.817            39.421                Norilsk          4075.000
       278   09 Jun 2027 06:06:25.103   09 Jun 2027 06:07:07.344            42.241                Norilsk          2143.000
       279   09 Jun 2027 06:07:09.133   09 Jun 2027 06:07:38.807            29.674                 Moscow           894.500
       280   09 Jun 2027 06:07:55.345   09 Jun 2027 06:09:21.208            85.863              Murmansk2          8269.000
       281   09 Jun 2027 07:39:44.799   09 Jun 2027 07:41:03.113            78.314                 Moscow          9282.500
       282   09 Jun 2027 07:41:06.514   09 Jun 2027 07:41:29.716            23.202                Novosib          1700.500
       283   09 Jun 2027 07:41:35.747   09 Jun 2027 07:42:13.560            37.813              Murmansk1          3015.500
       284   09 Jun 2027 07:42:16.696   09 Jun 2027 07:43:13.177            56.481                Novosib          1568.000
       285   09 Jun 2027 07:43:17.054   09 Jun 2027 07:43:58.176            41.122              Murmansk1          1938.500
       286   09 Jun 2027 07:44:16.180   09 Jun 2027 07:46:04.667           108.487              Murmansk2          9002.000
       287   09 Jun 2027 09:14:26.757   09 Jun 2027 09:15:13.784            47.027              Murmansk2          4779.000
       288   09 Jun 2027 09:15:22.541   09 Jun 2027 09:16:04.748            42.207                 Moscow          4378.500
       289   09 Jun 2027 09:16:20.258   09 Jun 2027 09:17:12.072            51.814              Murmansk2          6064.500
       290   09 Jun 2027 09:17:45.747   09 Jun 2027 09:20:31.434           165.687              Murmansk1         16837.500
       291   10 Jun 2027 03:00:42.067   10 Jun 2027 03:02:00.728            78.661               Magadan1          9832.625
       292   10 Jun 2027 03:02:00.728   10 Jun 2027 03:02:47.548            46.820               Magadan2          2304.375
       293   10 Jun 2027 03:02:54.781   10 Jun 2027 03:03:28.672            33.891                Norilsk          3616.500
       294   10 Jun 2027 03:03:29.265   10 Jun 2027 03:03:42.293            13.028                Novosib           296.500
       295   10 Jun 2027 03:03:44.621   10 Jun 2027 03:04:10.057            25.436                Anadyr2          1164.000
       296   10 Jun 2027 03:04:12.519   10 Jun 2027 03:04:43.537            31.018                Anadyr1          1231.000
       297   10 Jun 2027 03:04:45.590   10 Jun 2027 03:05:19.961            34.371                Anadyr2          1026.500
       298   10 Jun 2027 03:05:26.159   10 Jun 2027 03:05:27.392             1.233                Norilsk           154.125
       299   10 Jun 2027 03:05:28.520   10 Jun 2027 03:06:36.729            68.209                Irkutsk          3508.875
       300   10 Jun 2027 03:06:41.748   10 Jun 2027 03:07:15.535            33.787                Novosib          2509.500
       301   10 Jun 2027 03:07:22.977   10 Jun 2027 03:08:10.847            47.870               Magadan1          3721.000
       302   10 Jun 2027 03:08:22.844   10 Jun 2027 03:08:31.121             8.277                Irkutsk          1034.625
       303   10 Jun 2027 03:08:36.542   10 Jun 2027 03:10:36.399           119.857              Murmansk1          7674.375
       304   10 Jun 2027 04:38:04.283   10 Jun 2027 04:38:35.877            31.594                Norilsk          3949.250
       305   10 Jun 2027 04:39:18.785   10 Jun 2027 04:42:39.304           200.519                Norilsk         24863.250
       306   10 Jun 2027 04:42:51.652   10 Jun 2027 04:43:08.109            16.457                Irkutsk          2057.125
       307   10 Jun 2027 04:43:08.113   10 Jun 2027 04:43:44.810            36.697                Novosib          4118.875
       308   10 Jun 2027 04:43:52.299   10 Jun 2027 04:44:30.236            37.937                Irkutsk          3744.500
       309   10 Jun 2027 04:44:36.851   10 Jun 2027 04:45:02.284            25.433              Murmansk2          2503.000
       310   10 Jun 2027 06:14:54.442   10 Jun 2027 06:16:27.556            93.114                Novosib          4368.000
       311   10 Jun 2027 06:16:35.639   10 Jun 2027 06:17:32.915            57.276                Norilsk          4041.500
       312   10 Jun 2027 06:17:34.532   10 Jun 2027 06:17:42.372             7.840              Murmansk2           808.500
       313   10 Jun 2027 06:17:53.023   10 Jun 2027 06:18:39.164            46.141                 Moscow          5325.500
       314   10 Jun 2027 06:18:40.764   10 Jun 2027 06:19:04.897            24.133                Norilsk           800.000
       315   10 Jun 2027 06:19:13.147   10 Jun 2027 06:19:47.435            34.288                Norilsk          4125.000
       316   10 Jun 2027 06:20:00.260   10 Jun 2027 06:21:04.037            63.777                 Moscow          6412.500
       317   10 Jun 2027 07:51:52.213   10 Jun 2027 07:52:51.047            58.834                Novosib          6435.500
       318   10 Jun 2027 07:52:51.754   10 Jun 2027 07:53:26.205            34.451              Murmansk2           353.500
       319   10 Jun 2027 07:53:26.724   10 Jun 2027 07:53:32.247             5.523                Novosib           259.500
       320   10 Jun 2027 07:53:42.894   10 Jun 2027 07:54:37.529            54.635                Norilsk          5323.500
       321   10 Jun 2027 07:54:45.537   10 Jun 2027 07:55:04.327            18.790                Norilsk          2348.750
       322   10 Jun 2027 07:55:06.899   10 Jun 2027 07:55:41.609            34.710                 Moscow          2941.250
       323   10 Jun 2027 07:55:52.312   10 Jun 2027 07:56:52.680            60.368              Murmansk2          5351.500
       324   10 Jun 2027 09:29:06.508   10 Jun 2027 09:30:50.695           104.187              Murmansk1          8527.500
       325   10 Jun 2027 09:30:57.550   10 Jun 2027 09:31:13.483            15.933              Murmansk2          1991.625
       326   10 Jun 2027 09:31:13.483   10 Jun 2027 09:31:31.849            18.366              Murmansk1          1435.875
       327   11 Jun 2027 03:11:14.518   11 Jun 2027 03:12:11.570            57.052               Magadan1          5493.000
       328   11 Jun 2027 03:12:57.849   11 Jun 2027 03:13:47.732            49.883               Magadan2           710.000
       329   11 Jun 2027 03:13:49.196   11 Jun 2027 03:14:03.492            14.296               Magadan1           732.000
       330   11 Jun 2027 03:14:08.504   11 Jun 2027 03:14:08.785             0.281                Irkutsk            35.125
       331   11 Jun 2027 03:14:15.008   11 Jun 2027 03:15:26.229            71.221               Magadan2          5582.375
       332   11 Jun 2027 03:15:31.334   11 Jun 2027 03:16:01.513            30.179                Irkutsk          2552.500
       333   11 Jun 2027 03:16:04.378   11 Jun 2027 03:16:20.268            15.890                Novosib          1432.500
       334   11 Jun 2027 03:16:22.735   11 Jun 2027 03:16:37.840            15.105               Magadan2          1233.500
       335   11 Jun 2027 03:16:42.403   11 Jun 2027 03:17:18.937            36.534                Anadyr1          2281.500
       336   11 Jun 2027 03:17:22.324   11 Jun 2027 03:17:49.718            27.394                Norilsk          1693.500
       337   11 Jun 2027 03:18:04.294   11 Jun 2027 03:19:17.726            73.432                Norilsk          7288.000
       338   11 Jun 2027 03:19:18.539   11 Jun 2027 03:19:29.933            11.394                Novosib           406.500
       339   11 Jun 2027 03:19:34.663   11 Jun 2027 03:20:06.708            32.045              Murmansk1          2365.000
       340   11 Jun 2027 03:20:09.919   11 Jun 2027 03:20:40.559            30.640              Murmansk1          1605.500
       341   11 Jun 2027 03:20:46.491   11 Jun 2027 03:21:06.914            20.423              Murmansk1          2510.500
       342   11 Jun 2027 04:49:59.172   11 Jun 2027 04:50:06.243             7.071                Novosib           883.875
       343   11 Jun 2027 04:50:29.625   11 Jun 2027 04:52:31.239           121.614                Novosib         12818.125
       344   11 Jun 2027 04:52:47.426   11 Jun 2027 04:53:58.782            71.356                Norilsk          8093.500
       345   11 Jun 2027 04:53:58.810   11 Jun 2027 04:54:19.998            21.188              Murmansk1            14.000
       346   11 Jun 2027 04:54:23.397   11 Jun 2027 04:54:41.608            18.211              Murmansk1          1699.500
       347   11 Jun 2027 04:54:49.682   11 Jun 2027 04:54:59.064             9.382                Norilsk          1172.750
       348   11 Jun 2027 04:55:05.157   11 Jun 2027 04:56:10.761            65.604                Irkutsk          5910.750
       349   11 Jun 2027 04:56:21.782   11 Jun 2027 04:57:26.132            64.350              Murmansk1          5510.500
       350   11 Jun 2027 06:27:28.708   11 Jun 2027 06:27:45.175            16.467                 Moscow          2058.375
       351   11 Jun 2027 06:27:51.290   11 Jun 2027 06:28:50.936            59.646                Irkutsk          5149.125
       352   11 Jun 2027 06:28:57.446   11 Jun 2027 06:29:41.637            44.191                 Moscow          3255.000
       353   11 Jun 2027 06:29:44.051   11 Jun 2027 06:30:10.665            26.614                Novosib          1207.000
       354   11 Jun 2027 06:30:11.993   11 Jun 2027 06:30:47.817            35.824                 Moscow           664.000
       355   11 Jun 2027 06:30:49.101   11 Jun 2027 06:31:14.627            25.526              Murmansk1           642.000
       356   11 Jun 2027 06:31:17.061   11 Jun 2027 06:31:37.900            20.839              Murmansk1          1217.000
       357   11 Jun 2027 06:31:49.693   11 Jun 2027 06:33:20.209            90.516                Novosib          5896.500
       358   11 Jun 2027 08:03:49.230   11 Jun 2027 08:04:36.438            47.208                Norilsk          3680.500
       359   11 Jun 2027 08:04:47.655   11 Jun 2027 08:05:16.724            29.069                Norilsk          3633.625
       360   11 Jun 2027 08:05:22.444   11 Jun 2027 08:06:19.505            57.061                Novosib          4834.875
       361   11 Jun 2027 08:06:29.177   11 Jun 2027 08:07:47.169            77.992              Murmansk1          4836.000
       362   11 Jun 2027 08:07:48.191   11 Jun 2027 08:08:22.904            34.713                Novosib           511.000
       363   11 Jun 2027 08:08:32.812   11 Jun 2027 08:09:12.629            39.817                Norilsk          4855.000
       364   11 Jun 2027 09:42:13.704   11 Jun 2027 09:43:12.731            59.027              Murmansk1          7188.500
       365   12 Jun 2027 03:26:14.976   12 Jun 2027 03:27:11.549            56.573               Magadan1          2257.500
       366   12 Jun 2027 03:27:15.562   12 Jun 2027 03:27:42.053            26.491               Magadan2          2006.500
       367   12 Jun 2027 03:27:42.591   12 Jun 2027 03:27:58.957            16.366                Irkutsk           269.000
       368   12 Jun 2027 03:28:05.691   12 Jun 2027 03:28:48.154            42.463                Irkutsk          3367.000
       369   12 Jun 2027 03:29:06.361   12 Jun 2027 03:30:25.398            79.037                Norilsk          9103.500
       370   12 Jun 2027 03:30:32.774   12 Jun 2027 03:31:09.461            36.687               Magadan2          3688.000
       371   12 Jun 2027 03:31:09.690   12 Jun 2027 03:31:18.730             9.040                Norilsk           114.500
       372   12 Jun 2027 03:31:20.221   12 Jun 2027 03:31:41.657            21.436                Irkutsk           745.500
       373   12 Jun 2027 03:31:42.422   12 Jun 2027 03:32:13.921            31.499               Magadan2           382.500
       374   12 Jun 2027 03:32:15.016   12 Jun 2027 03:32:45.335            30.319                Irkutsk           547.500
       375   12 Jun 2027 03:32:45.456   12 Jun 2027 03:33:04.205            18.749                Norilsk            60.500
       376   12 Jun 2027 05:02:38.047   12 Jun 2027 05:03:01.978            23.931                Norilsk          2991.375
       377   12 Jun 2027 05:03:14.872   12 Jun 2027 05:04:33.472            78.600                Irkutsk          7881.125
       378   12 Jun 2027 05:04:42.715   12 Jun 2027 05:05:32.611            49.896                Novosib          4621.500
       379   12 Jun 2027 05:05:33.130   12 Jun 2027 05:05:37.461             4.331                Novosib           259.500
       380   12 Jun 2027 05:05:41.859   12 Jun 2027 05:06:07.247            25.388                Irkutsk          2199.000
       381   12 Jun 2027 05:06:13.669   12 Jun 2027 05:06:50.304            36.635              Murmansk2          3211.000
       382   12 Jun 2027 05:06:56.946   12 Jun 2027 05:07:22.674            25.728                Norilsk          3216.000
       383   12 Jun 2027 05:07:22.675   12 Jun 2027 05:07:56.603            33.928                Irkutsk           105.500
       384   12 Jun 2027 05:08:10.774   12 Jun 2027 05:08:54.287            43.513                Irkutsk          5439.125
       385   12 Jun 2027 05:09:03.299   12 Jun 2027 05:09:06.102             2.803                Norilsk           350.375
       386   12 Jun 2027 05:09:11.099   12 Jun 2027 05:09:14.843             3.744                Norilsk           468.000
       387   12 Jun 2027 05:09:18.660   12 Jun 2027 05:09:44.417            25.757                Novosib           828.000
       388   12 Jun 2027 06:39:52.714   12 Jun 2027 06:40:25.189            32.475                Irkutsk           293.000
       389   12 Jun 2027 06:40:29.647   12 Jun 2027 06:41:00.142            30.495                 Moscow          2229.000
       390   12 Jun 2027 06:41:03.145   12 Jun 2027 06:41:18.165            15.020              Murmansk1          1501.500
       391   12 Jun 2027 06:41:18.811   12 Jun 2027 06:41:45.785            26.974                Novosib           323.000
       392   12 Jun 2027 06:41:47.539   12 Jun 2027 06:42:14.300            26.761                 Moscow           877.000
       393   12 Jun 2027 06:42:15.325   12 Jun 2027 06:42:44.891            29.566                Novosib           512.500
       394   12 Jun 2027 06:42:45.425   12 Jun 2027 06:42:52.688             7.263                Irkutsk           267.000
       395   12 Jun 2027 06:42:54.031   12 Jun 2027 06:43:06.716            12.685                 Moscow           671.500
       396   12 Jun 2027 06:43:08.469   12 Jun 2027 06:43:17.488             9.019              Murmansk2           876.500
       397   12 Jun 2027 06:43:17.930   12 Jun 2027 06:43:25.222             7.292                Norilsk           221.000
       398   12 Jun 2027 06:43:26.193   12 Jun 2027 06:43:52.095            25.902              Murmansk2           485.500
       399   12 Jun 2027 06:43:54.742   12 Jun 2027 06:44:53.178            58.436              Murmansk2          1323.500
       400   12 Jun 2027 08:16:09.593   12 Jun 2027 08:16:46.047            36.454                Norilsk          3737.500
       401   12 Jun 2027 08:16:46.744   12 Jun 2027 08:17:06.291            19.547                Norilsk           348.500
       402   12 Jun 2027 08:17:16.604   12 Jun 2027 08:17:58.163            41.559                Novosib          5156.500
       403   12 Jun 2027 08:17:58.901   12 Jun 2027 08:18:47.517            48.616                Norilsk           369.000
       404   12 Jun 2027 08:18:49.555   12 Jun 2027 08:19:42.704            53.149              Murmansk1          1019.000
       405   12 Jun 2027 08:19:52.492   12 Jun 2027 08:20:28.684            36.192              Murmansk2          4524.000
       406   12 Jun 2027 08:20:36.214   12 Jun 2027 08:21:10.913            34.699              Murmansk1          4135.000
       407   13 Jun 2027 03:38:26.575   13 Jun 2027 03:39:44.859            78.284               Magadan2          7612.000
       408   13 Jun 2027 03:39:45.260   13 Jun 2027 03:40:02.806            17.546               Magadan1           200.500
       409   13 Jun 2027 03:40:08.985   13 Jun 2027 03:41:10.840            61.855               Magadan2          3089.500
       410   13 Jun 2027 03:41:14.052   13 Jun 2027 03:41:26.967            12.915                Norilsk          1606.000
       411   13 Jun 2027 03:41:37.421   13 Jun 2027 03:42:39.752            62.331                Novosib          5227.000
       412   13 Jun 2027 03:42:42.660   13 Jun 2027 03:43:50.199            67.539                Irkutsk          1454.000
       413   13 Jun 2027 03:43:53.158   13 Jun 2027 03:44:22.136            28.978              Murmansk1          1479.500
       414   13 Jun 2027 03:44:26.037   13 Jun 2027 03:44:30.834             4.797               Magadan1           599.625
       415   13 Jun 2027 03:44:33.669   13 Jun 2027 03:44:51.050            17.381                Irkutsk          2172.625
       416   13 Jun 2027 03:45:09.165   13 Jun 2027 03:45:32.610            23.445                Novosib          2038.750
       417   13 Jun 2027 05:14:21.733   13 Jun 2027 05:14:28.091             6.358                Novosib           794.750
       418   13 Jun 2027 05:14:50.766   13 Jun 2027 05:17:15.522           144.756                Norilsk         17546.250
       419   13 Jun 2027 05:17:33.523   13 Jun 2027 05:18:53.935            80.412              Murmansk2          9000.500
       420   13 Jun 2027 05:18:57.262   13 Jun 2027 05:19:26.120            28.858              Murmansk1          1663.500
       421   13 Jun 2027 05:19:29.810   13 Jun 2027 05:20:21.515            51.705              Murmansk2          1845.000
       422   13 Jun 2027 05:20:28.373   13 Jun 2027 05:21:10.884            42.511              Murmansk1          3094.500
       423   13 Jun 2027 06:52:12.893   13 Jun 2027 06:52:45.733            32.840                Norilsk          3658.000
       424   13 Jun 2027 06:52:52.994   13 Jun 2027 06:53:54.654            61.660                Irkutsk          3630.500
       425   13 Jun 2027 06:54:00.856   13 Jun 2027 06:54:40.914            40.058              Murmansk2          3101.000
       426   13 Jun 2027 06:54:49.201   13 Jun 2027 06:55:32.926            43.725                Novosib          4143.500
       427   13 Jun 2027 06:55:38.377   13 Jun 2027 06:55:56.630            18.253                Novosib          2281.625
       428   13 Jun 2027 06:56:02.893   13 Jun 2027 06:57:00.106            57.213                 Moscow          3575.375
       429   13 Jun 2027 08:28:03.130   13 Jun 2027 08:28:42.294            39.164                Novosib          3029.500
       430   13 Jun 2027 08:28:53.695   13 Jun 2027 08:29:45.737            52.042              Murmansk1          5700.500
       431   13 Jun 2027 08:29:53.040   13 Jun 2027 08:30:48.811            55.771                Norilsk          3651.500
       432   13 Jun 2027 08:30:54.760   13 Jun 2027 08:31:27.723            32.963                Novosib          2974.500
       433   13 Jun 2027 08:31:36.191   13 Jun 2027 08:32:19.701            43.510                Norilsk          4234.000
       434   13 Jun 2027 08:32:23.618   13 Jun 2027 08:33:09.379            45.761              Murmansk1          1958.500
       435   13 Jun 2027 08:33:11.690   13 Jun 2027 08:33:23.772            12.082                Norilsk           135.000
