uniorb/output/strategy_2/Drop/Drop_KinoSat_110108.txt

KinoSat_110108
-------------------------
    Access    *     Start Time (UTCG)     *     Stop Time (UTCG)  *   Duration (s)        *       Station  *  Data (Mbytes)
         1   01 Jun 2027 03:38:25.129   01 Jun 2027 03:39:27.647            62.518                Novosib          6453.000
         2   01 Jun 2027 03:39:29.669   01 Jun 2027 03:39:50.379            20.710                Novosib          1011.000
         3   01 Jun 2027 03:39:57.736   01 Jun 2027 03:41:25.341            87.605                Irkutsk          3678.500
         4   01 Jun 2027 03:41:32.683   01 Jun 2027 03:42:12.838            40.155              Murmansk2          3671.000
         5   01 Jun 2027 03:42:13.844   01 Jun 2027 03:42:27.642            13.798                Novosib           503.000
         6   01 Jun 2027 03:42:38.130   01 Jun 2027 03:42:59.399            21.269                Novosib          2658.625
         7   01 Jun 2027 03:43:02.225   01 Jun 2027 03:44:00.331            58.106              Murmansk1          3998.375
         8   01 Jun 2027 03:44:00.606   01 Jun 2027 03:44:08.222             7.616                Irkutsk           137.500
         9   01 Jun 2027 03:44:11.249   01 Jun 2027 03:44:46.906            35.657              Murmansk1          1513.500
        10   01 Jun 2027 05:15:38.481   01 Jun 2027 05:16:17.794            39.313              Murmansk1           416.000
        11   01 Jun 2027 05:16:24.873   01 Jun 2027 05:17:16.218            51.345                Norilsk          3539.500
        12   01 Jun 2027 05:17:17.172   01 Jun 2027 05:17:21.668             4.496                Novosib           477.000
        13   01 Jun 2027 05:17:28.023   01 Jun 2027 05:18:02.939            34.916                Irkutsk          3177.500
        14   01 Jun 2027 05:18:06.690   01 Jun 2027 05:18:28.890            22.200                Norilsk          1875.500
        15   01 Jun 2027 05:18:31.330   01 Jun 2027 05:18:42.470            11.140              Murmansk1          1220.000
        16   01 Jun 2027 05:18:45.383   01 Jun 2027 05:19:00.779            15.396                 Moscow          1456.500
        17   01 Jun 2027 05:19:01.088   01 Jun 2027 05:19:02.696             1.608              Murmansk2           154.500
        18   01 Jun 2027 05:19:09.672   01 Jun 2027 05:19:33.625            23.953                Novosib          2994.125
        19   01 Jun 2027 05:19:46.241   01 Jun 2027 05:20:42.853            56.612                Norilsk          6801.875
        20   01 Jun 2027 06:51:55.610   01 Jun 2027 06:52:51.605            55.995                Novosib          3528.500
        21   01 Jun 2027 06:52:55.640   01 Jun 2027 06:53:51.607            55.967                Norilsk          2017.500
        22   01 Jun 2027 06:53:57.446   01 Jun 2027 06:54:27.682            30.236                Novosib          2919.500
        23   01 Jun 2027 06:54:37.276   01 Jun 2027 06:55:21.199            43.923                 Moscow          4797.000
        24   01 Jun 2027 06:55:25.861   01 Jun 2027 06:56:33.827            67.966                Norilsk          2331.000
        25   02 Jun 2027 03:50:19.711   02 Jun 2027 03:52:21.413           121.702                Norilsk         13298.500
        26   02 Jun 2027 03:52:37.656   02 Jun 2027 03:53:36.019            58.363                Novosib          7295.375
        27   02 Jun 2027 03:53:39.310   02 Jun 2027 03:54:35.313            56.003                Irkutsk          2471.625
        28   02 Jun 2027 03:54:39.143   02 Jun 2027 03:55:04.067            24.924              Murmansk1          1915.000
        29   02 Jun 2027 03:55:10.750   02 Jun 2027 03:56:19.177            68.427                Irkutsk          3341.500
        30   02 Jun 2027 05:27:51.483   02 Jun 2027 05:28:30.602            39.119              Murmansk1          3096.000
        31   02 Jun 2027 05:28:33.570   02 Jun 2027 05:29:47.328            73.758                 Moscow          1484.000
        32   02 Jun 2027 05:29:53.227   02 Jun 2027 05:30:19.290            26.063                Novosib          2949.500
        33   02 Jun 2027 05:30:25.720   02 Jun 2027 05:30:44.924            19.204                Norilsk          2400.500
        34   02 Jun 2027 05:30:46.260   02 Jun 2027 05:31:34.611            48.351                 Moscow          1482.500
        35   02 Jun 2027 05:31:44.236   02 Jun 2027 05:31:58.527            14.291                Novosib          1786.375
        36   02 Jun 2027 05:32:05.891   02 Jun 2027 05:33:00.637            54.746              Murmansk1          6708.125
        37   02 Jun 2027 07:03:43.894   02 Jun 2027 07:04:44.737            60.843                Novosib           442.000
        38   02 Jun 2027 07:04:44.772   02 Jun 2027 07:05:25.482            40.710                Novosib            17.500
        39   02 Jun 2027 07:05:39.336   02 Jun 2027 07:06:36.447            57.111              Murmansk1          6927.000
        40   02 Jun 2027 07:06:37.286   02 Jun 2027 07:06:39.754             2.468                Norilsk           308.500
        41   02 Jun 2027 07:06:42.342   02 Jun 2027 07:06:54.177            11.835                 Moscow          1405.000
        42   02 Jun 2027 07:07:03.473   02 Jun 2027 07:08:12.059            68.586              Murmansk1          4648.000
        43   02 Jun 2027 07:08:12.901   02 Jun 2027 07:08:33.826            20.925              Murmansk1           421.000
        44   02 Jun 2027 07:08:41.337   02 Jun 2027 07:09:37.711            56.374                 Moscow          3755.500
        45   03 Jun 2027 04:02:00.468   03 Jun 2027 04:02:51.803            51.335                Irkutsk           745.000
        46   03 Jun 2027 04:02:52.892   03 Jun 2027 04:03:10.371            17.479                Novosib           544.500
        47   03 Jun 2027 04:03:14.859   03 Jun 2027 04:03:49.343            34.484                Novosib          2244.000
        48   03 Jun 2027 04:03:51.378   03 Jun 2027 04:04:06.392            15.014                Irkutsk          1017.500
        49   03 Jun 2027 04:04:10.109   03 Jun 2027 04:04:29.111            19.002                Norilsk          1858.500
        50   03 Jun 2027 04:04:29.918   03 Jun 2027 04:04:35.034             5.116                Irkutsk           403.500
        51   03 Jun 2027 04:04:42.971   03 Jun 2027 04:04:59.651            16.680                Norilsk          2085.000
        52   03 Jun 2027 04:05:07.101   03 Jun 2027 04:06:00.617            53.516              Murmansk1          5608.500
        53   03 Jun 2027 04:06:09.490   03 Jun 2027 04:06:16.928             7.438                Norilsk           929.750
        54   03 Jun 2027 04:06:20.472   03 Jun 2027 04:06:54.199            33.727                Norilsk          4215.875
        55   03 Jun 2027 04:07:05.998   03 Jun 2027 04:08:18.816            72.818              Murmansk2          6962.375
        56   03 Jun 2027 04:08:48.371   03 Jun 2027 04:08:54.660             6.289                Norilsk           786.125
        57   03 Jun 2027 04:09:08.437   03 Jun 2027 04:09:23.284            14.847                 Moscow           230.875
        58   03 Jun 2027 05:40:25.502   03 Jun 2027 05:41:06.071            40.569                Norilsk          5071.125
        59   03 Jun 2027 05:41:08.400   03 Jun 2027 05:41:49.127            40.727                Irkutsk          1540.875
        60   03 Jun 2027 05:41:51.791   03 Jun 2027 05:42:38.279            46.488                Norilsk          1332.000
        61   03 Jun 2027 05:42:56.384   03 Jun 2027 05:43:31.033            34.649                Novosib          4331.125
        62   03 Jun 2027 05:43:31.980   03 Jun 2027 05:43:45.650            13.670                Norilsk          1708.750
        63   03 Jun 2027 05:43:47.150   03 Jun 2027 05:44:32.626            45.476                 Moscow          4236.125
        64   03 Jun 2027 07:13:46.954   03 Jun 2027 07:15:02.988            76.034                 Moscow          6810.500
        65   03 Jun 2027 07:15:11.800   03 Jun 2027 07:15:15.667             3.867              Murmansk1           200.500
        66   03 Jun 2027 07:15:32.487   03 Jun 2027 07:16:17.973            45.486                Novosib          1227.000
        67   03 Jun 2027 07:16:23.725   03 Jun 2027 07:16:47.071            23.346              Murmansk1          2876.000
        68   03 Jun 2027 07:16:54.661   03 Jun 2027 07:17:34.351            39.690                Norilsk          3795.000
        69   03 Jun 2027 07:17:38.125   03 Jun 2027 07:18:04.380            26.255                Novosib          1887.000
        70   03 Jun 2027 07:18:26.773   03 Jun 2027 07:20:35.175           128.402                 Moscow         11196.500
        71   03 Jun 2027 07:20:43.593   03 Jun 2027 07:21:09.940            26.347                 Moscow          3293.375
        72   03 Jun 2027 07:21:24.607   03 Jun 2027 07:22:18.315            53.708              Murmansk1          2687.125
        73   04 Jun 2027 04:14:20.550   04 Jun 2027 04:14:30.438             9.888                Novosib           585.000
        74   04 Jun 2027 04:14:35.086   04 Jun 2027 04:15:09.860            34.774                Norilsk          2324.000
        75   04 Jun 2027 04:15:14.639   04 Jun 2027 04:15:30.051            15.412                Novosib          1926.500
        76   04 Jun 2027 04:15:34.675   04 Jun 2027 04:15:58.627            23.952                Norilsk          2775.000
        77   04 Jun 2027 04:16:03.745   04 Jun 2027 04:16:57.800            54.055                Novosib          2559.000
        78   04 Jun 2027 04:17:01.408   04 Jun 2027 04:17:28.231            26.823                Norilsk          1804.000
        79   04 Jun 2027 04:17:33.161   04 Jun 2027 04:17:48.805            15.644                Novosib          1955.500
        80   04 Jun 2027 04:17:55.489   04 Jun 2027 04:18:27.821            32.332              Murmansk1          3851.500
        81   04 Jun 2027 04:18:37.937   04 Jun 2027 04:19:07.993            30.056              Murmansk1          3757.000
        82   04 Jun 2027 04:19:07.993   04 Jun 2027 04:19:27.540            19.547              Murmansk2          1301.000
        83   04 Jun 2027 04:19:29.777   04 Jun 2027 04:19:49.059            19.282                 Moscow          1118.500
        84   04 Jun 2027 04:19:51.237   04 Jun 2027 04:20:23.740            32.503              Murmansk1          1089.000
        85   04 Jun 2027 04:20:33.011   04 Jun 2027 04:21:01.354            28.343                 Moscow          1570.500
        86   04 Jun 2027 05:52:20.410   04 Jun 2027 05:53:15.786            55.376              Murmansk2          3793.500
        87   04 Jun 2027 05:53:19.628   04 Jun 2027 05:53:46.001            26.373                Novosib          1921.000
        88   04 Jun 2027 05:53:46.837   04 Jun 2027 05:54:01.285            14.448                Irkutsk           418.000
        89   04 Jun 2027 05:54:03.783   04 Jun 2027 05:54:17.517            13.734                Norilsk          1249.000
        90   04 Jun 2027 05:54:24.970   04 Jun 2027 05:55:16.045            51.075                 Moscow          3726.500
        91   04 Jun 2027 05:55:23.573   04 Jun 2027 05:56:02.145            38.572                Norilsk          3764.000
        92   04 Jun 2027 05:56:12.416   04 Jun 2027 05:57:03.146            50.730                Novosib          4828.500
        93   04 Jun 2027 07:25:30.781   04 Jun 2027 07:25:33.005             2.224                 Moscow           278.000
        94   04 Jun 2027 07:25:52.999   04 Jun 2027 07:27:41.368           108.369                 Moscow         10061.500
        95   04 Jun 2027 07:27:41.514   04 Jun 2027 07:27:48.003             6.489                Novosib            73.000
        96   04 Jun 2027 07:28:14.205   04 Jun 2027 07:30:18.436           124.231              Murmansk1         13101.000
        97   04 Jun 2027 07:30:20.846   04 Jun 2027 07:30:37.043            16.197                Norilsk          1205.000
        98   04 Jun 2027 07:30:40.043   04 Jun 2027 07:31:00.854            20.811                Novosib          1500.000
        99   04 Jun 2027 07:31:07.352   04 Jun 2027 07:32:31.115            83.763                 Moscow          3249.000
       100   04 Jun 2027 07:32:31.754   04 Jun 2027 07:32:49.496            17.742                 Moscow           319.500
       101   04 Jun 2027 07:32:57.038   04 Jun 2027 07:33:33.233            36.195                Norilsk          3771.000
       102   05 Jun 2027 04:26:09.437   05 Jun 2027 04:26:23.894            14.457                  Delhi           532.000
       103   05 Jun 2027 04:26:27.787   05 Jun 2027 04:27:52.646            84.859                Irkutsk          1946.500
       104   05 Jun 2027 04:27:57.175   05 Jun 2027 04:28:32.737            35.562                Irkutsk          2264.500
       105   05 Jun 2027 04:28:41.383   05 Jun 2027 04:29:18.437            37.054              Murmansk2          4323.000
       106   05 Jun 2027 04:29:23.434   05 Jun 2027 04:30:09.851            46.417              Murmansk1          2498.500
       107   05 Jun 2027 04:30:21.464   05 Jun 2027 04:31:09.457            47.993              Murmansk1          5806.500
       108   05 Jun 2027 04:31:10.019   05 Jun 2027 04:31:17.588             7.569              Murmansk1           281.000
       109   05 Jun 2027 04:31:17.890   05 Jun 2027 04:31:40.896            23.006              Murmansk2           151.000
       110   05 Jun 2027 04:31:44.661   05 Jun 2027 04:31:55.833            11.172                Norilsk          1396.500
       111   05 Jun 2027 04:32:06.634   05 Jun 2027 04:32:20.082            13.448                Norilsk          1681.000
       112   05 Jun 2027 04:32:20.853   05 Jun 2027 04:33:47.037            86.184                 Moscow          4591.000
       113   05 Jun 2027 06:04:20.847   05 Jun 2027 06:04:57.315            36.468              Murmansk2          4396.000
       114   05 Jun 2027 06:05:04.976   05 Jun 2027 06:05:47.671            42.695              Murmansk2          3830.500
       115   05 Jun 2027 06:05:51.902   05 Jun 2027 06:06:12.321            20.419              Murmansk1          2115.500
       116   05 Jun 2027 06:06:12.443   05 Jun 2027 06:06:17.568             5.125                Norilsk            61.000
       117   05 Jun 2027 06:06:20.988   05 Jun 2027 06:06:54.129            33.141                Novosib          1710.000
       118   05 Jun 2027 06:06:59.867   05 Jun 2027 06:07:14.430            14.563                Norilsk          1820.375
       119   05 Jun 2027 06:07:21.905   05 Jun 2027 06:08:17.208            55.303              Murmansk1          4786.125
       120   05 Jun 2027 06:08:17.262   05 Jun 2027 06:08:32.308            15.046                Norilsk            27.000
       121   05 Jun 2027 07:37:58.452   05 Jun 2027 07:38:14.268            15.816                 Moscow          1215.500
       122   05 Jun 2027 07:38:22.156   05 Jun 2027 07:38:45.739            23.583              Murmansk2          2947.875
       123   05 Jun 2027 07:38:45.739   05 Jun 2027 07:38:52.888             7.149              Murmansk1           893.625
       124   05 Jun 2027 07:38:59.722   05 Jun 2027 07:40:05.405            65.683              Murmansk1          3519.500
       125   05 Jun 2027 07:40:45.779   05 Jun 2027 07:43:50.858           185.079              Murmansk1         20187.000
       126   05 Jun 2027 07:44:08.919   05 Jun 2027 07:45:57.263           108.344              Murmansk1          9030.500
       127   06 Jun 2027 03:01:21.046   06 Jun 2027 03:01:53.762            32.716                Norilsk            84.000
       128   06 Jun 2027 03:01:56.170   06 Jun 2027 03:02:32.457            36.287                Norilsk          1204.000
       129   06 Jun 2027 03:02:40.070   06 Jun 2027 03:03:10.803            30.733               Magadan2          3806.500
       130   06 Jun 2027 03:03:14.632   06 Jun 2027 03:03:35.699            21.067                Novosib          1914.500
       131   06 Jun 2027 03:03:40.605   06 Jun 2027 03:04:13.315            32.710               Magadan2          2453.000
       132   06 Jun 2027 03:04:16.504   06 Jun 2027 03:04:59.785            43.281               Magadan2          1594.500
       133   06 Jun 2027 03:05:06.781   06 Jun 2027 03:05:18.374            11.593                Norilsk          1449.125
       134   06 Jun 2027 03:05:20.115   06 Jun 2027 03:05:53.848            33.733                Norilsk          2919.375
       135   06 Jun 2027 03:06:01.911   06 Jun 2027 03:06:45.615            43.704               Magadan1          4031.500
       136   06 Jun 2027 03:06:47.851   06 Jun 2027 03:07:06.707            18.856                Novosib          1118.000
       137   06 Jun 2027 03:07:07.866   06 Jun 2027 03:07:14.407             6.541              Murmansk2           579.500
       138   06 Jun 2027 03:07:19.925   06 Jun 2027 03:08:15.235            55.310                Irkutsk          2759.000
       139   06 Jun 2027 03:08:16.814   06 Jun 2027 03:08:38.326            21.512                Norilsk           789.500
       140   06 Jun 2027 03:08:39.659   06 Jun 2027 03:09:00.831            21.172                Norilsk           666.500
       141   06 Jun 2027 04:38:30.324   06 Jun 2027 04:40:02.112            91.788                Novosib          7455.500
       142   06 Jun 2027 04:40:07.435   06 Jun 2027 04:40:31.158            23.723                Norilsk          2661.500
       143   06 Jun 2027 04:40:40.390   06 Jun 2027 04:41:26.705            46.315              Murmansk1          4616.000
       144   06 Jun 2027 04:41:27.749   06 Jun 2027 04:42:43.886            76.137                Irkutsk           522.000
       145   06 Jun 2027 04:43:00.607   06 Jun 2027 04:44:10.767            70.160                Novosib          8360.500
       146   06 Jun 2027 04:44:17.684   06 Jun 2027 04:44:52.458            34.774                Norilsk          3458.500
       147   06 Jun 2027 06:15:52.892   06 Jun 2027 06:16:09.084            16.192                Norilsk          1682.000
       148   06 Jun 2027 06:16:15.118   06 Jun 2027 06:16:41.699            26.581              Murmansk2          3017.000
       149   06 Jun 2027 06:16:45.087   06 Jun 2027 06:17:25.556            40.469                Norilsk          1694.000
       150   06 Jun 2027 06:17:25.727   06 Jun 2027 06:17:35.056             9.329              Murmansk2            85.500
       151   06 Jun 2027 06:17:43.441   06 Jun 2027 06:18:24.550            41.109                Norilsk          4192.500
       152   06 Jun 2027 06:18:29.382   06 Jun 2027 06:19:12.598            43.216              Murmansk2          2416.000
       153   06 Jun 2027 06:19:14.257   06 Jun 2027 06:19:39.289            25.032              Murmansk1           829.500
       154   06 Jun 2027 06:19:50.834   06 Jun 2027 06:20:39.562            48.728                 Moscow          5772.500
       155   06 Jun 2027 07:50:15.802   06 Jun 2027 07:50:43.638            27.836                 Moscow          1860.500
       156   06 Jun 2027 07:50:47.494   06 Jun 2027 07:50:58.038            10.544              Murmansk1          1318.000
       157   06 Jun 2027 07:50:58.038   06 Jun 2027 07:51:10.424            12.386              Murmansk2           610.000
       158   06 Jun 2027 07:51:24.297   06 Jun 2027 07:52:59.740            95.443                 Moscow          6936.500
       159   06 Jun 2027 07:53:19.812   06 Jun 2027 07:55:11.316           111.504              Murmansk1         10036.000
       160   06 Jun 2027 07:55:20.539   06 Jun 2027 07:56:25.476            64.937                Norilsk          4611.500
       161   07 Jun 2027 03:13:48.320   07 Jun 2027 03:14:21.094            32.774                Norilsk          2694.000
       162   07 Jun 2027 03:14:22.271   07 Jun 2027 03:14:59.852            37.581                Irkutsk           588.500
       163   07 Jun 2027 03:15:12.874   07 Jun 2027 03:16:13.997            61.123                Norilsk          6511.000
       164   07 Jun 2027 03:16:15.425   07 Jun 2027 03:16:30.038            14.613               Magadan1           714.000
       165   07 Jun 2027 03:16:36.166   07 Jun 2027 03:17:01.338            25.172               Magadan2          3064.000
       166   07 Jun 2027 03:17:04.158   07 Jun 2027 03:17:17.554            13.396                Novosib          1410.000
       167   07 Jun 2027 03:17:25.494   07 Jun 2027 03:17:48.471            22.977               Magadan1          2872.125
       168   07 Jun 2027 03:17:56.929   07 Jun 2027 03:18:21.176            24.247                Norilsk          3030.875
       169   07 Jun 2027 03:18:31.406   07 Jun 2027 03:19:58.432            87.026              Murmansk2          7411.000
       170   07 Jun 2027 03:20:01.528   07 Jun 2027 03:20:33.272            31.744              Murmansk1          1548.000
       171   07 Jun 2027 03:20:39.228   07 Jun 2027 03:20:44.126             4.898              Murmansk1           364.000
       172   07 Jun 2027 04:51:04.813   07 Jun 2027 04:52:05.612            60.799                Norilsk          7599.875
       173   07 Jun 2027 04:52:11.657   07 Jun 2027 04:52:17.893             6.236                Irkutsk           779.500
       174   07 Jun 2027 04:52:27.335   07 Jun 2027 04:53:50.951            83.616                Norilsk          9371.625
       175   07 Jun 2027 04:54:02.989   07 Jun 2027 04:54:54.511            51.522                 Moscow          6019.000
       176   07 Jun 2027 04:54:58.543   07 Jun 2027 04:55:13.218            14.675                Irkutsk          1834.375
       177   07 Jun 2027 04:55:14.022   07 Jun 2027 04:55:48.461            34.439              Murmansk2           574.125
       178   07 Jun 2027 04:55:56.573   07 Jun 2027 04:56:14.087            17.514                Norilsk          2189.250
       179   07 Jun 2027 04:56:24.772   07 Jun 2027 04:57:40.755            75.983                Novosib          7209.250
       180   07 Jun 2027 06:28:06.913   07 Jun 2027 06:30:22.283           135.370                Norilsk         16380.500
       181   07 Jun 2027 06:30:40.354   07 Jun 2027 06:32:05.419            85.065                 Moscow          9035.500
       182   07 Jun 2027 06:32:23.857   07 Jun 2027 06:33:23.509            59.652                 Moscow          6330.000
       183   07 Jun 2027 08:05:06.023   07 Jun 2027 08:06:54.033           108.010                 Moscow          9281.000
       184   07 Jun 2027 08:07:39.841   07 Jun 2027 08:09:38.949           119.108              Murmansk1         11577.500
       185   08 Jun 2027 03:26:02.203   08 Jun 2027 03:26:39.322            37.119                Irkutsk          4280.500
       186   08 Jun 2027 03:26:41.480   08 Jun 2027 03:26:53.618            12.138                Norilsk          1079.000
       187   08 Jun 2027 03:27:03.042   08 Jun 2027 03:28:15.042            72.000                Norilsk          4712.000
       188   08 Jun 2027 03:28:20.810   08 Jun 2027 03:28:58.602            37.792                Norilsk          2884.000
       189   08 Jun 2027 03:28:59.168   08 Jun 2027 03:29:10.601            11.433                Norilsk           283.000
       190   08 Jun 2027 03:29:10.929   08 Jun 2027 03:29:22.891            11.962                Novosib           164.000
       191   08 Jun 2027 03:29:30.783   08 Jun 2027 03:30:17.633            46.850                Norilsk          3946.000
       192   08 Jun 2027 03:30:34.533   08 Jun 2027 03:31:42.998            68.465                Novosib          8450.000
       193   08 Jun 2027 03:31:46.043   08 Jun 2027 03:32:16.305            30.262                Norilsk          1522.500
       194   08 Jun 2027 03:32:26.854   08 Jun 2027 03:33:23.877            57.023              Murmansk1          5274.500
       195   08 Jun 2027 05:03:07.701   08 Jun 2027 05:03:46.844            39.143                Irkutsk          2658.500
       196   08 Jun 2027 05:03:57.789   08 Jun 2027 05:05:06.111            68.322                Norilsk          5472.500
       197   08 Jun 2027 05:05:06.950   08 Jun 2027 05:05:32.189            25.239                 Moscow           419.500
       198   08 Jun 2027 05:05:34.457   08 Jun 2027 05:06:00.740            26.283                Irkutsk          1134.000
       199   08 Jun 2027 05:06:03.105   08 Jun 2027 05:06:28.873            25.768                Irkutsk          1182.500
       200   08 Jun 2027 05:06:31.784   08 Jun 2027 05:06:48.463            16.679                Norilsk          1455.500
       201   08 Jun 2027 05:06:53.321   08 Jun 2027 05:07:19.370            26.049              Murmansk2          2429.000
       202   08 Jun 2027 05:07:28.356   08 Jun 2027 05:08:33.295            64.939                 Moscow          3449.500
       203   08 Jun 2027 06:39:45.099   08 Jun 2027 06:40:29.250            44.151              Murmansk2          4096.000
       204   08 Jun 2027 06:40:40.254   08 Jun 2027 06:41:25.865            45.611                Norilsk          5502.000
       205   08 Jun 2027 06:41:29.665   08 Jun 2027 06:41:52.582            22.917              Murmansk1          1900.000
       206   08 Jun 2027 06:41:53.148   08 Jun 2027 06:41:57.102             3.954                Norilsk           283.000
       207   08 Jun 2027 06:42:04.143   08 Jun 2027 06:42:37.331            33.188              Murmansk2          3520.500
       208   08 Jun 2027 06:42:39.590   08 Jun 2027 06:42:58.087            18.497                 Moscow          1129.500
       209   08 Jun 2027 06:43:01.193   08 Jun 2027 06:43:17.130            15.937              Murmansk1          1553.000
       210   08 Jun 2027 06:43:20.130   08 Jun 2027 06:43:44.824            24.694              Murmansk2          1500.000
       211   08 Jun 2027 06:43:47.304   08 Jun 2027 06:44:34.074            46.770              Murmansk1          1240.000
       212   08 Jun 2027 06:44:45.885   08 Jun 2027 06:46:05.517            79.632              Murmansk2          5806.000
       213   08 Jun 2027 08:17:58.528   08 Jun 2027 08:18:20.526            21.998              Murmansk1          1449.500
       214   08 Jun 2027 08:18:41.385   08 Jun 2027 08:20:28.293           106.908              Murmansk1         10429.500
       215   09 Jun 2027 03:38:28.052   09 Jun 2027 03:38:43.290            15.238                Novosib           227.000
       216   09 Jun 2027 03:38:44.833   09 Jun 2027 03:39:21.285            36.452                Novosib           771.500
       217   09 Jun 2027 03:39:24.689   09 Jun 2027 03:40:14.695            50.006                Norilsk          1702.000
       218   09 Jun 2027 03:40:16.282   09 Jun 2027 03:40:47.942            31.660                Norilsk           793.500
       219   09 Jun 2027 03:40:58.433   09 Jun 2027 03:41:47.818            49.385                Norilsk          5245.500
       220   09 Jun 2027 03:42:13.494   09 Jun 2027 03:44:04.897           111.403                Norilsk         12838.000
       221   09 Jun 2027 03:44:14.865   09 Jun 2027 03:45:02.683            47.818              Murmansk2          4984.000
       222   09 Jun 2027 05:15:53.242   09 Jun 2027 05:16:32.288            39.046              Murmansk1           427.000
       223   09 Jun 2027 05:16:33.217   09 Jun 2027 05:16:48.924            15.707                Irkutsk           464.500
       224   09 Jun 2027 05:17:04.094   09 Jun 2027 05:18:05.420            61.326                 Moscow          7585.000
       225   09 Jun 2027 05:18:11.010   09 Jun 2027 05:18:46.626            35.616              Murmansk2          2795.000
       226   09 Jun 2027 05:18:48.621   09 Jun 2027 05:19:17.777            29.156              Murmansk1           997.500
       227   09 Jun 2027 05:19:18.312   09 Jun 2027 05:19:24.246             5.934                Novosib           267.500
       228   09 Jun 2027 05:19:30.237   09 Jun 2027 05:20:03.579            33.342                Norilsk          2995.500
       229   09 Jun 2027 05:20:14.268   09 Jun 2027 05:21:00.903            46.635              Murmansk2          5344.500
       230   09 Jun 2027 06:52:09.823   09 Jun 2027 06:53:06.340            56.517                Novosib          3174.500
       231   09 Jun 2027 06:53:11.197   09 Jun 2027 06:54:06.373            55.176                Norilsk          2428.500
       232   09 Jun 2027 06:54:12.145   09 Jun 2027 06:54:42.030            29.885                Novosib          2886.000
       233   09 Jun 2027 06:54:52.181   09 Jun 2027 06:55:34.434            42.253                 Moscow          5075.500
       234   09 Jun 2027 06:55:41.803   09 Jun 2027 06:55:48.039             6.236                Norilsk           779.500
       235   09 Jun 2027 06:55:48.803   09 Jun 2027 06:57:10.192            81.389                Novosib          3287.000
       236   10 Jun 2027 03:50:35.510   10 Jun 2027 03:52:07.625            92.115                Norilsk         11514.375
       237   10 Jun 2027 03:52:11.462   10 Jun 2027 03:53:48.499            97.037                Irkutsk          4292.125
       238   10 Jun 2027 03:53:49.051   10 Jun 2027 03:54:19.471            30.420                Novosib           276.000
       239   10 Jun 2027 03:54:24.920   10 Jun 2027 03:55:21.651            56.731                Novosib          2724.500
       240   10 Jun 2027 03:55:28.842   10 Jun 2027 03:55:53.359            24.517                Norilsk          3064.625
       241   10 Jun 2027 03:56:03.365   10 Jun 2027 03:57:04.423            61.058              Murmansk2          5533.875
       242   10 Jun 2027 05:28:10.599   10 Jun 2027 05:29:12.228            61.629              Murmansk2          4808.500
       243   10 Jun 2027 05:29:22.895   10 Jun 2027 05:30:12.879            49.984                Norilsk          5333.500
       244   10 Jun 2027 05:30:19.689   10 Jun 2027 05:30:48.244            28.555                 Moscow          3405.000
       245   10 Jun 2027 05:30:53.955   10 Jun 2027 05:31:02.930             8.975              Murmansk2          1121.875
       246   10 Jun 2027 05:31:09.783   10 Jun 2027 05:31:53.535            43.752                 Moscow          5160.125
       247   10 Jun 2027 05:32:02.559   10 Jun 2027 05:32:12.240             9.681                Novosib          1210.125
       248   10 Jun 2027 05:32:15.246   10 Jun 2027 05:33:50.244            94.998                 Moscow          4804.875
       249   10 Jun 2027 07:03:59.244   10 Jun 2027 07:04:57.254            58.010                Novosib           706.500
       250   10 Jun 2027 07:04:58.078   10 Jun 2027 07:05:09.950            11.872                 Moscow           412.000
       251   10 Jun 2027 07:05:27.273   10 Jun 2027 07:06:52.285            85.012                Norilsk          8661.500
       252   10 Jun 2027 07:06:56.199   10 Jun 2027 07:07:35.293            39.094                Norilsk          1957.000
       253   10 Jun 2027 07:07:36.001   10 Jun 2027 07:08:27.508            51.507              Murmansk1           354.000
       254   10 Jun 2027 07:08:27.590   10 Jun 2027 07:08:51.158            23.568              Murmansk1            41.000
       255   10 Jun 2027 07:08:56.080   10 Jun 2027 07:09:54.670            58.590                 Moscow          2461.000
       256   11 Jun 2027 04:02:14.854   11 Jun 2027 04:03:06.242            51.388                Irkutsk           382.000
       257   11 Jun 2027 04:03:08.491   11 Jun 2027 04:03:24.972            16.481                Novosib          1124.500
       258   11 Jun 2027 04:03:26.736   11 Jun 2027 04:03:59.683            32.947                Norilsk           882.000
       259   11 Jun 2027 04:04:00.273   11 Jun 2027 04:04:06.229             5.956                Irkutsk           295.000
       260   11 Jun 2027 04:04:19.273   11 Jun 2027 04:04:20.535             1.262                Norilsk           157.750
       261   11 Jun 2027 04:04:25.367   11 Jun 2027 04:05:55.995            90.628                Irkutsk          8780.250
       262   11 Jun 2027 04:05:57.149   11 Jun 2027 04:06:03.306             6.157              Murmansk2           577.000
       263   11 Jun 2027 04:06:15.973   11 Jun 2027 04:07:23.926            67.953                Novosib          6333.500
       264   11 Jun 2027 04:07:26.635   11 Jun 2027 04:08:22.057            55.422                Novosib          1354.500
       265   11 Jun 2027 04:08:31.091   11 Jun 2027 04:09:25.243            54.152                 Moscow          4517.000
       266   11 Jun 2027 05:40:40.127   11 Jun 2027 05:41:06.355            26.228                Norilsk          3278.500
       267   11 Jun 2027 05:41:12.408   11 Jun 2027 05:42:04.312            51.904                Norilsk          5041.000
       268   11 Jun 2027 05:42:06.803   11 Jun 2027 05:42:38.775            31.972                Norilsk          1245.500
       269   11 Jun 2027 05:42:44.384   11 Jun 2027 05:43:19.869            35.485                 Moscow          2804.500
       270   11 Jun 2027 05:43:21.073   11 Jun 2027 05:43:53.943            32.870              Murmansk2           602.000
       271   11 Jun 2027 05:44:05.773   11 Jun 2027 05:45:35.081            89.308                 Moscow          5915.000
       272   11 Jun 2027 07:14:01.747   11 Jun 2027 07:14:24.619            22.872                 Moscow          2859.000
       273   11 Jun 2027 07:14:25.230   11 Jun 2027 07:15:04.480            39.250                Novosib          4342.500
       274   11 Jun 2027 07:15:15.549   11 Jun 2027 07:16:38.406            82.857              Murmansk2          5534.500
       275   11 Jun 2027 07:16:42.857   11 Jun 2027 07:17:02.280            19.423                 Moscow          2225.500
       276   11 Jun 2027 07:17:04.829   11 Jun 2027 07:17:55.521            50.692              Murmansk1          1274.500
       277   11 Jun 2027 07:18:00.117   11 Jun 2027 07:18:19.809            19.692              Murmansk1          2298.000
       278   11 Jun 2027 07:18:41.522   11 Jun 2027 07:20:50.060           128.538                 Moscow         10856.500
       279   11 Jun 2027 07:20:59.289   11 Jun 2027 07:21:31.760            32.471                Norilsk          4058.875
       280   11 Jun 2027 07:21:40.621   11 Jun 2027 07:22:00.029            19.408              Murmansk2           555.625
       281   12 Jun 2027 04:14:37.910   12 Jun 2027 04:15:02.498            24.588                Novosib          1787.000
       282   12 Jun 2027 04:15:27.325   12 Jun 2027 04:16:32.024            64.699                Norilsk          8087.375
       283   12 Jun 2027 04:16:42.435   12 Jun 2027 04:18:15.585            93.150                Irkutsk          9531.625
       284   12 Jun 2027 04:18:18.690   12 Jun 2027 04:19:08.991            50.301                Norilsk          1552.500
       285   12 Jun 2027 04:19:18.387   12 Jun 2027 04:19:32.135            13.748                Novosib          1718.500
       286   12 Jun 2027 04:19:36.061   12 Jun 2027 04:20:39.904            63.843              Murmansk1          4942.500
       287   12 Jun 2027 04:20:47.907   12 Jun 2027 04:21:18.330            30.423                 Moscow           834.500
       288   12 Jun 2027 05:52:39.180   12 Jun 2027 05:53:30.897            51.717              Murmansk2          5536.500
       289   12 Jun 2027 05:53:39.083   12 Jun 2027 05:54:15.112            36.029              Murmansk1          4093.000
       290   12 Jun 2027 05:54:16.032   12 Jun 2027 05:54:24.382             8.350                 Moscow           460.000
       291   12 Jun 2027 05:54:30.876   12 Jun 2027 05:54:59.808            28.932              Murmansk2          3247.000
       292   12 Jun 2027 05:55:17.797   12 Jun 2027 05:56:18.472            60.675                Norilsk          7584.375
       293   12 Jun 2027 05:56:23.693   12 Jun 2027 05:57:18.288            54.595                Novosib          4020.625
       294   12 Jun 2027 07:25:47.926   12 Jun 2027 07:26:07.785            19.859                 Moscow          1325.500
       295   12 Jun 2027 07:26:27.212   12 Jun 2027 07:27:56.603            89.391                 Moscow          9713.500
       296   12 Jun 2027 07:27:59.094   12 Jun 2027 07:28:38.261            39.167                Novosib          1245.500
       297   12 Jun 2027 07:28:45.558   12 Jun 2027 07:29:35.675            50.117              Murmansk1          3648.500
       298   12 Jun 2027 07:29:38.935   12 Jun 2027 07:30:21.804            42.869                Novosib          1630.000
       299   12 Jun 2027 07:30:29.445   12 Jun 2027 07:31:05.854            36.409                 Moscow          3820.500
       300   12 Jun 2027 07:31:07.315   12 Jun 2027 07:31:25.741            18.426              Murmansk1           730.500
       301   12 Jun 2027 07:31:27.031   12 Jun 2027 07:32:12.084            45.053              Murmansk2           645.000
       302   12 Jun 2027 07:32:33.176   12 Jun 2027 07:33:21.174            47.998              Murmansk1          5999.750
       303   12 Jun 2027 07:33:21.174   12 Jun 2027 07:34:22.263            61.089              Murmansk2          4182.250
       304   13 Jun 2027 04:26:23.648   13 Jun 2027 04:26:39.417            15.769                  Delhi           338.500
       305   13 Jun 2027 04:26:41.745   13 Jun 2027 04:28:07.469            85.724                Irkutsk          1164.000
       306   13 Jun 2027 04:28:11.876   13 Jun 2027 04:28:46.942            35.066                Irkutsk          2203.500
       307   13 Jun 2027 04:28:50.768   13 Jun 2027 04:29:21.000            30.232                Norilsk          1913.000
       308   13 Jun 2027 04:29:21.802   13 Jun 2027 04:29:33.233            11.431              Murmansk1           401.000
       309   13 Jun 2027 04:29:35.876   13 Jun 2027 04:29:49.916            14.040                Novosib          1321.500
       310   13 Jun 2027 04:29:50.428   13 Jun 2027 04:30:13.890            23.462                Norilsk           256.000
       311   13 Jun 2027 04:30:20.713   13 Jun 2027 04:30:58.310            37.597                Norilsk          3411.500
       312   13 Jun 2027 04:31:04.430   13 Jun 2027 04:32:04.192            59.762                 Moscow          3060.000
       313   13 Jun 2027 04:32:22.657   13 Jun 2027 04:33:05.785            43.128                Norilsk          5391.000
       314   13 Jun 2027 04:33:08.957   13 Jun 2027 04:34:14.763            65.806              Murmansk1          3841.500
       315   13 Jun 2027 06:04:36.855   13 Jun 2027 06:05:20.066            43.211              Murmansk2          4895.000
       316   13 Jun 2027 06:05:33.843   13 Jun 2027 06:06:36.082            62.239                Novosib          6888.500
       317   13 Jun 2027 06:06:40.606   13 Jun 2027 06:06:59.530            18.924                 Moscow          2262.000
       318   13 Jun 2027 06:07:08.863   13 Jun 2027 06:08:25.474            76.611                Novosib          4666.500
       319   13 Jun 2027 06:08:29.489   13 Jun 2027 06:08:55.278            25.789              Murmansk2          2007.500
       320   13 Jun 2027 07:38:29.289   13 Jun 2027 07:39:35.159            65.870                 Moscow          8233.750
       321   13 Jun 2027 07:39:53.247   13 Jun 2027 07:41:12.184            78.937                 Moscow          9764.250
       322   13 Jun 2027 07:41:36.621   13 Jun 2027 07:43:24.451           107.830              Murmansk2         12218.500
       323   13 Jun 2027 07:43:27.638   13 Jun 2027 07:44:05.496            37.858              Murmansk2          1593.500
       324   13 Jun 2027 07:44:23.441   13 Jun 2027 07:46:12.070           108.629              Murmansk1          8972.500
