uniorb/output/strategy_2/Drop/Drop_KinoSat_111609.txt

KinoSat_111609
-------------------------
    Access    *     Start Time (UTCG)     *     Stop Time (UTCG)  *   Duration (s)        *       Station  *  Data (Mbytes)
         1   01 Jun 2027 04:14:58.743   01 Jun 2027 04:16:28.153            89.410                Norilsk          2794.062
         2   01 Jun 2027 04:16:55.750   01 Jun 2027 04:17:24.485            28.735              Murmansk1           897.969
         3   01 Jun 2027 04:18:46.545   01 Jun 2027 04:20:15.365            88.820              Murmansk1          2775.625
         4   01 Jun 2027 04:20:48.343   01 Jun 2027 04:22:35.826           107.483                 Moscow          3358.844
         5   01 Jun 2027 04:23:17.387   01 Jun 2027 04:23:34.826            17.439                 Moscow           544.969
         6   01 Jun 2027 04:35:38.764   01 Jun 2027 04:37:14.070            95.306               CapeTown          2978.313
         7   01 Jun 2027 04:39:35.176   01 Jun 2027 04:42:01.141           145.965               CapeTown          4561.406
         8   01 Jun 2027 05:39:24.864   01 Jun 2027 05:40:30.946            66.082                Anadyr2          2065.062
         9   01 Jun 2027 05:40:40.724   01 Jun 2027 05:41:05.607            24.883                Anadyr2           777.594
        10   01 Jun 2027 05:51:06.835   01 Jun 2027 05:51:39.027            32.192                Norilsk          1006.000
        11   01 Jun 2027 05:51:46.143   01 Jun 2027 05:52:51.113            64.970              Murmansk1          2030.313
        12   01 Jun 2027 05:53:58.534   01 Jun 2027 05:54:39.370            40.836              Murmansk1          1276.125
        13   01 Jun 2027 05:55:14.903   01 Jun 2027 05:55:31.632            16.729              Murmansk2           522.781
        14   01 Jun 2027 07:15:37.272   01 Jun 2027 07:19:37.044           239.772                Anadyr1          7492.875
        15   01 Jun 2027 07:19:37.044   01 Jun 2027 07:20:45.691            68.647                Anadyr2          2145.219
        16   01 Jun 2027 08:50:57.544   01 Jun 2027 08:51:39.188            41.644                Anadyr2          1301.375
        17   01 Jun 2027 08:51:39.188   01 Jun 2027 08:54:49.795           190.607                Anadyr1          5956.469
        18   01 Jun 2027 10:26:33.636   01 Jun 2027 10:31:18.119           284.483               Magadan2          8890.094
        19   01 Jun 2027 13:25:13.291   01 Jun 2027 13:26:44.097            90.806                Sumatra          2837.688
        20   01 Jun 2027 13:39:04.987   01 Jun 2027 13:41:27.794           142.807                Irkutsk          4462.719
        21   01 Jun 2027 15:09:11.513   01 Jun 2027 15:10:06.128            54.615                  Delhi          1706.719
        22   01 Jun 2027 15:16:26.040   01 Jun 2027 15:18:31.835           125.795                Novosib          3931.094
        23   01 Jun 2027 15:22:12.022   01 Jun 2027 15:22:16.199             4.177                Norilsk           130.531
        24   01 Jun 2027 16:34:12.861   01 Jun 2027 16:34:25.647            12.786               CapeTown           399.562
        25   01 Jun 2027 16:55:15.543   01 Jun 2027 16:58:41.166           205.623                 Moscow          6425.719
        26   01 Jun 2027 17:00:33.044   01 Jun 2027 17:00:37.079             4.035              Murmansk1           126.094
        27   01 Jun 2027 17:00:47.901   01 Jun 2027 17:01:33.714            45.813              Murmansk2          1431.656
        28   01 Jun 2027 17:13:02.540   01 Jun 2027 17:13:34.195            31.655                Anadyr2           989.219
        29   01 Jun 2027 18:08:45.645   01 Jun 2027 18:11:32.019           166.374               CapeTown          5199.188
        30   01 Jun 2027 18:34:34.013   01 Jun 2027 18:36:46.960           132.947              Murmansk1          4154.594
        31   01 Jun 2027 18:49:04.972   01 Jun 2027 18:49:38.276            33.304                Anadyr1          1040.750
        32   01 Jun 2027 18:50:41.888   01 Jun 2027 18:51:07.106            25.218                Anadyr2           788.063
        33   01 Jun 2027 18:51:54.108   01 Jun 2027 18:52:38.092            43.984                Anadyr1          1374.500
        34   01 Jun 2027 19:42:31.267   01 Jun 2027 19:44:02.117            90.850               CapeTown          2839.063
        35   01 Jun 2027 20:18:18.045   01 Jun 2027 20:19:07.266            49.221                Anadyr2          1538.156
        36   01 Jun 2027 20:19:36.013   01 Jun 2027 20:20:08.783            32.770                Anadyr2          1024.062
        37   01 Jun 2027 20:20:27.397   01 Jun 2027 20:20:35.840             8.443                Anadyr2           263.844
        38   01 Jun 2027 20:20:43.552   01 Jun 2027 20:21:23.664            40.112                Anadyr2          1253.500
        39   01 Jun 2027 20:22:06.377   01 Jun 2027 20:22:32.722            26.345                Anadyr2           823.281
        40   01 Jun 2027 20:23:10.201   01 Jun 2027 20:23:46.050            35.849                Anadyr2          1120.281
        41   01 Jun 2027 20:23:59.731   01 Jun 2027 20:24:02.533             2.802                Anadyr1            87.563
        42   01 Jun 2027 20:24:08.070   01 Jun 2027 20:24:59.703            51.633                Anadyr1          1613.531
        43   01 Jun 2027 20:25:27.222   01 Jun 2027 20:25:52.658            25.436                Anadyr2           794.875
        44   01 Jun 2027 20:26:16.350   01 Jun 2027 20:26:32.582            16.232               Magadan2           507.250
        45   01 Jun 2027 20:26:35.168   01 Jun 2027 20:26:49.779            14.611                Anadyr1           456.594
        46   01 Jun 2027 20:26:50.024   01 Jun 2027 20:27:04.247            14.223                Anadyr1           444.469
        47   01 Jun 2027 20:27:52.611   01 Jun 2027 20:28:14.771            22.160               Magadan1           692.500
        48   01 Jun 2027 20:28:35.130   01 Jun 2027 20:29:17.794            42.664               Magadan1          1333.250
        49   01 Jun 2027 20:30:25.042   01 Jun 2027 20:30:35.045            10.003               Magadan2           312.594
        50   01 Jun 2027 20:30:44.442   01 Jun 2027 20:30:45.835             1.393               Magadan1            43.531
        51   01 Jun 2027 21:52:10.572   01 Jun 2027 21:54:36.705           146.133                Anadyr1          4566.656
        52   01 Jun 2027 21:54:55.818   01 Jun 2027 21:55:08.873            13.055                Norilsk           407.969
        53   01 Jun 2027 21:55:26.762   01 Jun 2027 21:56:14.527            47.765               Magadan2          1492.656
        54   01 Jun 2027 21:57:19.998   01 Jun 2027 21:57:42.829            22.831                Norilsk           713.469
        55   01 Jun 2027 21:57:59.627   01 Jun 2027 21:58:26.156            26.529                Anadyr1           829.031
        56   01 Jun 2027 21:59:22.676   01 Jun 2027 21:59:29.402             6.726                Anadyr1           210.188
        57   01 Jun 2027 21:59:31.869   01 Jun 2027 21:59:58.854            26.985                Norilsk           843.281
        58   01 Jun 2027 22:00:19.164   01 Jun 2027 22:00:38.014            18.850               Magadan2           589.062
        59   01 Jun 2027 22:01:19.675   01 Jun 2027 22:01:37.107            17.432               Magadan1           544.750
        60   01 Jun 2027 22:02:02.609   01 Jun 2027 22:02:17.075            14.466               Magadan2           452.062
        61   01 Jun 2027 22:02:40.549   01 Jun 2027 22:02:56.893            16.344                Irkutsk           510.750
        62   01 Jun 2027 22:03:38.012   01 Jun 2027 22:03:59.158            21.146               Magadan2           660.813
        63   01 Jun 2027 22:04:10.970   01 Jun 2027 22:04:32.916            21.946               Magadan2           685.813
        64   01 Jun 2027 22:06:22.451   01 Jun 2027 22:06:24.048             1.597               Magadan2            49.906
        65   01 Jun 2027 22:06:38.278   01 Jun 2027 22:07:17.447            39.169               Magadan2          1224.031
        66   01 Jun 2027 22:49:44.317   01 Jun 2027 22:49:52.258             7.941            RioGallegos           248.156
        67   01 Jun 2027 22:50:39.802   01 Jun 2027 22:50:55.864            16.062            RioGallegos           501.937
        68   01 Jun 2027 22:51:27.304   01 Jun 2027 22:51:44.578            17.274            RioGallegos           539.812
        69   01 Jun 2027 22:52:32.879   01 Jun 2027 22:53:29.535            56.656            RioGallegos          1770.500
        70   01 Jun 2027 22:54:21.005   01 Jun 2027 22:54:35.043            14.038            RioGallegos           438.688
        71   01 Jun 2027 22:55:24.927   01 Jun 2027 22:55:52.134            27.207            RioGallegos           850.219
        72   01 Jun 2027 22:57:13.554   01 Jun 2027 22:57:44.121            30.567            RioGallegos           955.219
        73   01 Jun 2027 23:27:41.097   01 Jun 2027 23:28:58.039            76.942                Anadyr1          2404.437
        74   01 Jun 2027 23:29:58.922   01 Jun 2027 23:30:07.754             8.832                Anadyr2           276.000
        75   01 Jun 2027 23:30:12.477   01 Jun 2027 23:30:53.460            40.983                Norilsk          1280.719
        76   01 Jun 2027 23:31:00.463   01 Jun 2027 23:31:21.001            20.538               Magadan2           641.813
        77   01 Jun 2027 23:32:53.746   01 Jun 2027 23:33:31.743            37.997               Magadan2          1187.406
        78   01 Jun 2027 23:34:15.010   01 Jun 2027 23:34:38.886            23.876               Magadan1           746.125
        79   01 Jun 2027 23:35:13.294   01 Jun 2027 23:36:00.000            46.705               Magadan1          1459.531
        80   01 Jun 2027 23:38:00.686   01 Jun 2027 23:38:18.134            17.448                Novosib           545.250
        81   01 Jun 2027 23:38:46.655   01 Jun 2027 23:38:59.292            12.637                Irkutsk           394.906
        82   01 Jun 2027 23:40:03.129   01 Jun 2027 23:40:35.406            32.277                Irkutsk          1008.656
        83   01 Jun 2027 23:42:05.276   01 Jun 2027 23:42:22.398            17.122                Novosib           535.062
        84   01 Jun 2027 23:43:40.644   01 Jun 2027 23:44:41.433            60.789                Irkutsk          1899.656
        85   01 Jun 2027 23:54:29.945   01 Jun 2027 23:55:55.383            85.438                Sumatra          2669.937
        86   02 Jun 2027 00:29:48.872   02 Jun 2027 00:29:58.614             9.742            RioGallegos           304.438
        87   02 Jun 2027 00:31:15.956   02 Jun 2027 00:31:32.508            16.552            RioGallegos           517.250
        88   02 Jun 2027 00:32:29.554   02 Jun 2027 00:33:25.407            55.853            RioGallegos          1745.406
        89   02 Jun 2027 01:02:12.104   02 Jun 2027 01:02:41.415            29.311                Anadyr2           915.969
        90   02 Jun 2027 01:03:13.989   02 Jun 2027 01:03:54.568            40.579                Anadyr2          1268.094
        91   02 Jun 2027 01:04:25.256   02 Jun 2027 01:04:28.930             3.674                Anadyr2           114.813
        92   02 Jun 2027 01:04:53.011   02 Jun 2027 01:05:06.365            13.354                Anadyr1           417.312
        93   02 Jun 2027 01:05:59.732   02 Jun 2027 01:07:12.256            72.524                Norilsk          2266.375
        94   02 Jun 2027 01:08:22.171   02 Jun 2027 01:08:53.984            31.813               Magadan1           994.156
        95   02 Jun 2027 01:09:15.173   02 Jun 2027 01:09:34.958            19.785               Magadan2           618.281
        96   02 Jun 2027 01:10:19.258   02 Jun 2027 01:10:57.306            38.048                Novosib          1189.000
        97   02 Jun 2027 01:12:13.231   02 Jun 2027 01:13:30.056            76.825               Magadan2          2400.781
        98   02 Jun 2027 01:17:58.467   02 Jun 2027 01:18:02.922             4.455                Novosib           139.219
        99   02 Jun 2027 01:18:10.705   02 Jun 2027 01:18:18.027             7.322                Novosib           228.812
       100   02 Jun 2027 01:19:03.053   02 Jun 2027 01:19:18.658            15.605                Novosib           487.656
       101   02 Jun 2027 01:20:01.715   02 Jun 2027 01:20:35.845            34.130                Novosib          1066.562
       102   02 Jun 2027 01:22:26.645   02 Jun 2027 01:22:28.670             2.025                Novosib            63.281
       103   02 Jun 2027 01:24:05.124   02 Jun 2027 01:24:17.683            12.559                  Delhi           392.469
       104   02 Jun 2027 01:25:10.618   02 Jun 2027 01:26:10.903            60.285                  Delhi          1883.906
       105   02 Jun 2027 01:28:18.754   02 Jun 2027 01:30:36.132           137.378                Sumatra          4293.063
       106   02 Jun 2027 02:05:20.147   02 Jun 2027 02:05:42.832            22.685            RioGallegos           708.906
       107   02 Jun 2027 02:37:31.074   02 Jun 2027 02:38:22.314            51.240                Anadyr1          1601.250
       108   02 Jun 2027 02:41:41.612   02 Jun 2027 02:41:50.330             8.718                Anadyr2           272.437
       109   02 Jun 2027 02:41:52.152   02 Jun 2027 02:42:28.900            36.748               Magadan1          1148.375
       110   02 Jun 2027 02:43:17.362   02 Jun 2027 02:43:30.268            12.906                Norilsk           403.312
       111   02 Jun 2027 02:44:14.809   02 Jun 2027 02:45:06.170            51.361              Murmansk2          1605.031
       112   02 Jun 2027 02:47:05.107   02 Jun 2027 02:47:45.799            40.692                Novosib          1271.625
       113   02 Jun 2027 02:49:37.948   02 Jun 2027 02:49:40.108             2.160                Irkutsk            67.500
       114   02 Jun 2027 02:49:51.089   02 Jun 2027 02:50:42.374            51.285                Novosib          1602.656
       115   02 Jun 2027 02:53:30.694   02 Jun 2027 02:53:33.289             2.595                Novosib            81.094
       116   02 Jun 2027 02:53:44.686   02 Jun 2027 02:54:02.578            17.892                Irkutsk           559.125
       117   02 Jun 2027 02:55:26.368   02 Jun 2027 02:56:08.605            42.237                Novosib          1319.906
       118   02 Jun 2027 02:58:15.752   02 Jun 2027 02:58:38.739            22.987                  Delhi           718.344
       119   02 Jun 2027 04:28:43.240   02 Jun 2027 04:29:25.467            42.227              Murmansk2          1319.594
       120   02 Jun 2027 04:29:25.467   02 Jun 2027 04:29:37.889            12.422              Murmansk1           388.187
       121   02 Jun 2027 04:30:23.146   02 Jun 2027 04:32:15.367           112.221                 Moscow          3506.906
       122   02 Jun 2027 04:34:05.056   02 Jun 2027 04:36:07.036           121.980                 Moscow          3811.875
       123   02 Jun 2027 04:47:26.363   02 Jun 2027 04:53:40.137           373.774               CapeTown         11680.437
       124   02 Jun 2027 04:55:58.022   02 Jun 2027 04:56:25.032            27.010               CapeTown           844.062
       125   02 Jun 2027 04:56:37.160   02 Jun 2027 04:56:54.503            17.343               CapeTown           541.969
       126   02 Jun 2027 05:50:28.510   02 Jun 2027 05:52:12.436           103.926                Anadyr1          3247.688
       127   02 Jun 2027 05:54:24.176   02 Jun 2027 05:55:09.836            45.660               Magadan1          1426.875
       128   02 Jun 2027 06:03:27.565   02 Jun 2027 06:03:32.467             4.902              Murmansk1           153.187
       129   02 Jun 2027 06:03:34.137   02 Jun 2027 06:03:56.176            22.039                Norilsk           688.719
       130   02 Jun 2027 07:27:40.859   02 Jun 2027 07:32:45.917           305.058                Anadyr1          9533.063
       131   02 Jun 2027 07:37:16.751   02 Jun 2027 07:37:28.621            11.870                Norilsk           370.938
       132   02 Jun 2027 09:00:29.177   02 Jun 2027 09:01:39.086            69.909                Anadyr2          2184.656
       133   02 Jun 2027 09:02:23.199   02 Jun 2027 09:03:17.800            54.601               Magadan2          1706.281
       134   02 Jun 2027 09:03:17.800   02 Jun 2027 09:05:52.904           155.104               Magadan1          4847.000
       135   02 Jun 2027 09:05:53.587   02 Jun 2027 09:08:19.884           146.297               Magadan2          4571.781
       136   02 Jun 2027 10:37:09.281   02 Jun 2027 10:37:29.117            19.836                Irkutsk           619.875
       137   02 Jun 2027 10:37:46.737   02 Jun 2027 10:37:52.180             5.443                Novosib           170.094
       138   02 Jun 2027 10:38:33.573   02 Jun 2027 10:42:58.831           265.258               Magadan2          8289.312
       139   02 Jun 2027 10:43:14.845   02 Jun 2027 10:43:19.721             4.876                Norilsk           152.375
       140   02 Jun 2027 10:43:26.720   02 Jun 2027 10:43:27.940             1.220              Murmansk1            38.125
       141   02 Jun 2027 10:43:32.312   02 Jun 2027 10:43:40.534             8.222                Novosib           256.938
       142   02 Jun 2027 10:43:40.592   02 Jun 2027 10:44:18.516            37.924              Murmansk2          1185.125
       143   02 Jun 2027 10:45:06.829   02 Jun 2027 10:45:14.098             7.269              Murmansk1           227.156
       144   02 Jun 2027 11:19:00.260   02 Jun 2027 11:19:35.686            35.426            RioGallegos          1107.063
       145   02 Jun 2027 11:20:10.648   02 Jun 2027 11:20:54.080            43.432            RioGallegos          1357.250
       146   02 Jun 2027 11:53:44.271   02 Jun 2027 11:54:18.354            34.083                Sumatra          1065.094
       147   02 Jun 2027 11:56:33.912   02 Jun 2027 11:56:39.460             5.548                Sumatra           173.375
       148   02 Jun 2027 12:04:27.634   02 Jun 2027 12:04:40.678            13.044                  Delhi           407.625
       149   02 Jun 2027 12:07:24.047   02 Jun 2027 12:07:37.031            12.984                  Delhi           405.750
       150   02 Jun 2027 12:07:53.592   02 Jun 2027 12:09:17.983            84.391                Irkutsk          2637.219
       151   02 Jun 2027 12:11:25.928   02 Jun 2027 12:11:48.312            22.384                Irkutsk           699.500
       152   02 Jun 2027 12:13:28.114   02 Jun 2027 12:13:41.217            13.103                Norilsk           409.469
       153   02 Jun 2027 12:14:55.968   02 Jun 2027 12:15:29.713            33.745                Novosib          1054.531
       154   02 Jun 2027 12:17:14.868   02 Jun 2027 12:17:18.571             3.703                Norilsk           115.719
       155   02 Jun 2027 12:17:32.210   02 Jun 2027 12:17:51.422            19.212                Norilsk           600.375
       156   02 Jun 2027 12:20:51.762   02 Jun 2027 12:20:55.550             3.788              Murmansk2           118.375
       157   02 Jun 2027 12:23:16.543   02 Jun 2027 12:23:46.166            29.623                Norilsk           925.719
       158   02 Jun 2027 12:58:50.924   02 Jun 2027 13:01:50.868           179.944            RioGallegos          5623.250
       159   02 Jun 2027 13:41:04.726   02 Jun 2027 13:42:18.527            73.801                  Delhi          2306.281
       160   02 Jun 2027 13:46:52.426   02 Jun 2027 13:47:47.497            55.071                Novosib          1720.969
       161   02 Jun 2027 13:48:39.908   02 Jun 2027 13:50:02.555            82.647                Novosib          2582.719
       162   02 Jun 2027 13:56:14.637   02 Jun 2027 13:56:44.621            29.984                Norilsk           937.000
       163   02 Jun 2027 13:59:00.009   02 Jun 2027 13:59:15.428            15.419                Norilsk           481.844
       164   02 Jun 2027 15:22:20.930   02 Jun 2027 15:26:06.967           226.037                 Moscow          7063.656
       165   02 Jun 2027 15:27:02.529   02 Jun 2027 15:27:14.189            11.660              Murmansk2           364.375
       166   02 Jun 2027 15:27:19.280   02 Jun 2027 15:27:54.535            35.255              Murmansk1          1101.719
       167   02 Jun 2027 15:29:34.830   02 Jun 2027 15:30:54.909            80.079                Norilsk          2502.469
       168   02 Jun 2027 15:31:19.533   02 Jun 2027 15:33:01.685           102.152                Norilsk          3192.250
       169   02 Jun 2027 15:33:47.513   02 Jun 2027 15:34:19.801            32.288                Norilsk          1009.000
       170   02 Jun 2027 16:40:28.699   02 Jun 2027 16:40:43.034            14.335               CapeTown           447.969
       171   02 Jun 2027 16:41:14.076   02 Jun 2027 16:41:22.557             8.481               CapeTown           265.031
       172   02 Jun 2027 16:45:36.969   02 Jun 2027 16:46:18.986            42.017               CapeTown          1313.031
       173   02 Jun 2027 16:59:34.588   02 Jun 2027 16:59:46.875            12.287                 Moscow           383.969
       174   02 Jun 2027 17:00:30.621   02 Jun 2027 17:00:57.820            27.199                 Moscow           849.969
       175   02 Jun 2027 17:02:08.056   02 Jun 2027 17:03:33.008            84.952                 Moscow          2654.750
       176   02 Jun 2027 17:06:40.721   02 Jun 2027 17:07:06.618            25.897              Murmansk2           809.281
       177   02 Jun 2027 17:16:51.592   02 Jun 2027 17:18:09.027            77.435                Anadyr2          2419.844
       178   02 Jun 2027 17:18:31.288   02 Jun 2027 17:19:17.781            46.493                Anadyr2          1452.906
       179   02 Jun 2027 17:19:45.758   02 Jun 2027 17:20:02.630            16.872                Anadyr2           527.250
       180   02 Jun 2027 18:11:48.840   02 Jun 2027 18:13:49.356           120.516               CapeTown          3766.125
       181   02 Jun 2027 18:41:59.622   02 Jun 2027 18:46:47.945           288.323              Murmansk2          9010.094
       182   02 Jun 2027 18:55:52.776   02 Jun 2027 18:56:46.587            53.811               Magadan1          1681.594
       183   02 Jun 2027 19:51:21.524   02 Jun 2027 19:53:45.409           143.885               CapeTown          4496.406
       184   02 Jun 2027 20:28:18.704   02 Jun 2027 20:30:12.560           113.856                Anadyr2          3558.000
       185   02 Jun 2027 20:30:40.222   02 Jun 2027 20:32:51.056           130.834               Magadan1          4088.563
       186   02 Jun 2027 20:33:15.037   02 Jun 2027 20:33:49.450            34.413               Magadan2          1075.406
       187   02 Jun 2027 20:38:36.095   02 Jun 2027 20:38:47.007            10.912               Magadan2           341.000
       188   02 Jun 2027 20:39:08.724   02 Jun 2027 20:39:35.084            26.360               Magadan1           823.750
       189   02 Jun 2027 22:04:10.851   02 Jun 2027 22:08:48.294           277.443                Anadyr2          8670.094
       190   02 Jun 2027 22:08:50.016   02 Jun 2027 22:10:22.144            92.128               Magadan2          2879.000
       191   02 Jun 2027 22:10:26.778   02 Jun 2027 22:10:41.401            14.623               Magadan1           456.969
       192   02 Jun 2027 22:11:31.638   02 Jun 2027 22:11:33.443             1.805                Norilsk            56.406
       193   02 Jun 2027 22:11:48.200   02 Jun 2027 22:12:21.342            33.142               Magadan1          1035.687
       194   02 Jun 2027 22:12:46.342   02 Jun 2027 22:14:09.112            82.770                Irkutsk          2586.562
       195   02 Jun 2027 22:14:19.181   02 Jun 2027 22:14:39.288            20.107                Irkutsk           628.344
       196   02 Jun 2027 22:17:19.632   02 Jun 2027 22:17:25.879             6.247                Irkutsk           195.219
       197   02 Jun 2027 22:27:59.972   02 Jun 2027 22:29:10.948            70.976                Sumatra          2218.000
       198   02 Jun 2027 22:30:20.761   02 Jun 2027 22:31:47.876            87.115                Sumatra          2722.344
       199   02 Jun 2027 23:39:36.135   02 Jun 2027 23:40:07.268            31.133                Anadyr2           972.906
       200   02 Jun 2027 23:40:14.137   02 Jun 2027 23:40:58.917            44.780                Anadyr1          1399.375
       201   02 Jun 2027 23:41:58.008   02 Jun 2027 23:42:13.499            15.491                Anadyr2           484.094
       202   02 Jun 2027 23:42:22.842   02 Jun 2027 23:43:44.334            81.492                Norilsk          2546.625
       203   02 Jun 2027 23:44:56.281   02 Jun 2027 23:45:34.356            38.075               Magadan1          1189.844
       204   02 Jun 2027 23:46:01.413   02 Jun 2027 23:47:07.191            65.778                Irkutsk          2055.563
       205   02 Jun 2027 23:47:28.265   02 Jun 2027 23:48:54.154            85.889                Novosib          2684.031
       206   02 Jun 2027 23:50:15.751   02 Jun 2027 23:50:19.005             3.254                Novosib           101.688
       207   02 Jun 2027 23:50:35.477   02 Jun 2027 23:50:55.386            19.909                Novosib           622.156
       208   02 Jun 2027 23:59:44.626   03 Jun 2027 00:00:10.422            25.796                Sumatra           806.125
       209   03 Jun 2027 00:02:08.497   03 Jun 2027 00:02:30.277            21.780                Sumatra           680.625
       210   03 Jun 2027 00:04:14.658   03 Jun 2027 00:05:40.322            85.664                Sumatra          2677.000
       211   03 Jun 2027 00:40:07.275   03 Jun 2027 00:40:19.169            11.894            RioGallegos           371.688
       212   03 Jun 2027 00:43:36.617   03 Jun 2027 00:44:44.091            67.474            RioGallegos          2108.562
       213   03 Jun 2027 01:14:36.145   03 Jun 2027 01:15:13.305            37.160                Anadyr1          1161.250
       214   03 Jun 2027 01:15:45.295   03 Jun 2027 01:16:08.022            22.727                Anadyr1           710.219
       215   03 Jun 2027 01:16:22.919   03 Jun 2027 01:16:44.209            21.290                Anadyr1           665.312
       216   03 Jun 2027 01:18:02.020   03 Jun 2027 01:19:43.274           101.254                Norilsk          3164.187
       217   03 Jun 2027 01:20:44.615   03 Jun 2027 01:20:54.583             9.968               Magadan1           311.500
       218   03 Jun 2027 01:21:05.583   03 Jun 2027 01:21:37.636            32.053               Magadan1          1001.656
       219   03 Jun 2027 01:21:52.812   03 Jun 2027 01:23:01.271            68.459                Novosib          2139.344
       220   03 Jun 2027 01:23:13.584   03 Jun 2027 01:23:49.051            35.467                Irkutsk          1108.344
       221   03 Jun 2027 01:29:17.879   03 Jun 2027 01:30:06.702            48.823                  Delhi          1525.719
       222   03 Jun 2027 01:32:25.546   03 Jun 2027 01:32:54.965            29.419                  Delhi           919.344
       223   03 Jun 2027 01:39:32.353   03 Jun 2027 01:41:07.463            95.110                  Delhi          2972.187
       224   03 Jun 2027 02:12:07.803   03 Jun 2027 02:12:59.833            52.030            RioGallegos          1625.938
       225   03 Jun 2027 02:14:00.542   03 Jun 2027 02:15:09.462            68.920            RioGallegos          2153.750
       226   03 Jun 2027 02:50:14.650   03 Jun 2027 02:50:40.696            26.046                Anadyr1           813.937
       227   03 Jun 2027 02:53:31.342   03 Jun 2027 02:54:25.104            53.762               Magadan2          1680.062
       228   03 Jun 2027 02:54:43.279   03 Jun 2027 02:54:43.683             0.404                Norilsk            12.625
       229   03 Jun 2027 02:54:48.194   03 Jun 2027 02:55:22.623            34.429                Norilsk          1075.906
       230   03 Jun 2027 02:56:14.409   03 Jun 2027 02:57:05.620            51.211              Murmansk2          1600.344
       231   03 Jun 2027 02:57:35.840   03 Jun 2027 02:57:55.739            19.899              Murmansk1           621.844
       232   03 Jun 2027 02:58:27.510   03 Jun 2027 02:58:37.131             9.621                Novosib           300.656
       233   03 Jun 2027 02:58:58.654   03 Jun 2027 03:00:19.113            80.459                Irkutsk          2514.344
       234   03 Jun 2027 03:01:10.519   03 Jun 2027 03:01:44.297            33.778                 Moscow          1055.563
       235   03 Jun 2027 03:02:07.225   03 Jun 2027 03:03:40.814            93.589              Murmansk1          2924.656
       236   03 Jun 2027 03:03:49.916   03 Jun 2027 03:04:23.617            33.701              Murmansk2          1053.156
       237   03 Jun 2027 03:04:27.743   03 Jun 2027 03:04:27.802             0.059                Irkutsk             1.844
       238   03 Jun 2027 03:04:34.932   03 Jun 2027 03:05:26.980            52.048              Murmansk1          1626.500
       239   03 Jun 2027 03:06:11.035   03 Jun 2027 03:07:13.537            62.502                  Delhi          1953.187
       240   03 Jun 2027 04:39:02.207   03 Jun 2027 04:39:49.274            47.067                Novosib          1470.844
       241   03 Jun 2027 04:41:26.219   03 Jun 2027 04:41:43.944            17.725              Murmansk2           553.906
       242   03 Jun 2027 04:41:59.509   03 Jun 2027 04:42:58.691            59.182              Murmansk1          1849.437
       243   03 Jun 2027 04:42:58.691   03 Jun 2027 04:43:44.014            45.323              Murmansk2          1416.344
       244   03 Jun 2027 04:44:10.434   03 Jun 2027 04:44:48.110            37.676                 Moscow          1177.375
       245   03 Jun 2027 04:59:19.106   03 Jun 2027 05:02:27.019           187.913               CapeTown          5872.281
       246   03 Jun 2027 05:55:58.828   03 Jun 2027 05:57:12.954            74.126                Anadyr1          2316.438
       247   03 Jun 2027 05:57:31.379   03 Jun 2027 05:58:35.468            64.089               Magadan1          2002.781
       248   03 Jun 2027 05:58:49.977   03 Jun 2027 05:58:50.829             0.852               Magadan2            26.625
       249   03 Jun 2027 06:02:35.371   03 Jun 2027 06:03:42.374            67.003               Magadan1          2093.844
       250   03 Jun 2027 06:03:51.804   03 Jun 2027 06:05:27.425            95.621                Anadyr2          2988.156
       251   03 Jun 2027 06:07:05.800   03 Jun 2027 06:07:46.283            40.483               Magadan2          1265.094
       252   03 Jun 2027 06:15:02.408   03 Jun 2027 06:15:25.979            23.571              Murmansk2           736.594
       253   03 Jun 2027 06:37:31.215   03 Jun 2027 06:38:46.773            75.558               CapeTown          2361.187
       254   03 Jun 2027 07:36:22.866   03 Jun 2027 07:37:17.033            54.167                Anadyr2          1692.719
       255   03 Jun 2027 07:37:23.999   03 Jun 2027 07:37:41.365            17.366               Magadan2           542.688
       256   03 Jun 2027 07:38:05.205   03 Jun 2027 07:38:13.886             8.681               Magadan1           271.281
       257   03 Jun 2027 07:38:29.325   03 Jun 2027 07:39:05.953            36.628                Anadyr2          1144.625
       258   03 Jun 2027 07:39:05.953   03 Jun 2027 07:39:39.067            33.114                Anadyr1          1034.813
       259   03 Jun 2027 07:39:46.492   03 Jun 2027 07:40:25.012            38.520                Anadyr1          1203.750
       260   03 Jun 2027 07:40:29.149   03 Jun 2027 07:41:09.423            40.274               Magadan1          1258.562
       261   03 Jun 2027 07:41:14.419   03 Jun 2027 07:42:25.055            70.636               Magadan1          2207.375
       262   03 Jun 2027 07:48:08.109   03 Jun 2027 07:48:13.590             5.481                 Moscow           171.281
       263   03 Jun 2027 07:49:38.414   03 Jun 2027 07:50:15.218            36.804                 Moscow          1150.125
       264   03 Jun 2027 09:11:29.412   03 Jun 2027 09:12:54.099            84.687               Magadan1          2646.469
       265   03 Jun 2027 09:13:09.153   03 Jun 2027 09:14:42.546            93.393               Magadan1          2918.531
       266   03 Jun 2027 09:14:53.865   03 Jun 2027 09:16:29.196            95.331                Anadyr1          2979.094
       267   03 Jun 2027 09:16:29.196   03 Jun 2027 09:17:36.719            67.523                Anadyr2          2110.094
       268   03 Jun 2027 09:17:46.222   03 Jun 2027 09:17:53.331             7.109               Magadan2           222.156
       269   03 Jun 2027 09:18:03.377   03 Jun 2027 09:18:56.460            53.083                Irkutsk          1658.844
       270   03 Jun 2027 09:19:20.613   03 Jun 2027 09:19:43.186            22.573                Irkutsk           705.406
       271   03 Jun 2027 09:19:48.833   03 Jun 2027 09:20:12.272            23.439              Murmansk1           732.469
       272   03 Jun 2027 09:20:13.903   03 Jun 2027 09:20:51.619            37.716              Murmansk2          1178.625
       273   03 Jun 2027 09:26:14.898   03 Jun 2027 09:26:26.583            11.685              Murmansk1           365.156
       274   03 Jun 2027 09:28:43.805   03 Jun 2027 09:29:08.625            24.820              Murmansk1           775.625
       275   03 Jun 2027 09:55:26.628   03 Jun 2027 09:55:39.986            13.358            RioGallegos           417.437
       276   03 Jun 2027 09:57:33.227   03 Jun 2027 09:58:04.653            31.426            RioGallegos           982.063
       277   03 Jun 2027 10:33:12.346   03 Jun 2027 10:34:35.845            83.499                Sumatra          2609.344
       278   03 Jun 2027 10:49:07.270   03 Jun 2027 10:49:33.669            26.399               Magadan1           824.969
       279   03 Jun 2027 10:49:33.669   03 Jun 2027 10:51:41.628           127.959               Magadan2          3998.719
       280   03 Jun 2027 10:51:41.628   03 Jun 2027 10:52:52.632            71.004               Magadan1          2218.875
       281   03 Jun 2027 10:53:08.541   03 Jun 2027 10:53:33.892            25.351                Novosib           792.219
       282   03 Jun 2027 10:53:43.214   03 Jun 2027 10:53:45.517             2.303                Norilsk            71.969
       283   03 Jun 2027 10:53:48.657   03 Jun 2027 10:54:18.960            30.303              Murmansk1           946.969
       284   03 Jun 2027 10:54:19.421   03 Jun 2027 10:54:30.691            11.270              Murmansk2           352.188
       285   03 Jun 2027 10:54:47.987   03 Jun 2027 10:55:27.127            39.140              Murmansk2          1223.125
       286   03 Jun 2027 10:55:34.952   03 Jun 2027 10:56:16.929            41.977              Murmansk2          1311.781
       287   03 Jun 2027 11:01:35.908   03 Jun 2027 11:01:49.449            13.541              Murmansk1           423.156
       288   03 Jun 2027 11:31:12.735   03 Jun 2027 11:31:54.922            42.187            RioGallegos          1318.344
       289   03 Jun 2027 11:34:02.015   03 Jun 2027 11:34:33.571            31.556            RioGallegos           986.125
       290   03 Jun 2027 12:05:46.403   03 Jun 2027 12:07:37.699           111.296                Sumatra          3478.000
       291   03 Jun 2027 12:20:14.428   03 Jun 2027 12:21:23.693            69.265                Irkutsk          2164.531
       292   03 Jun 2027 12:23:03.795   03 Jun 2027 12:23:10.006             6.211                Novosib           194.094
       293   03 Jun 2027 12:24:24.705   03 Jun 2027 12:25:42.627            77.922                Norilsk          2435.062
       294   03 Jun 2027 12:27:53.362   03 Jun 2027 12:27:57.344             3.982              Murmansk2           124.437
       295   03 Jun 2027 12:28:37.766   03 Jun 2027 12:28:59.349            21.583              Murmansk2           674.469
       296   03 Jun 2027 13:12:11.720   03 Jun 2027 13:14:37.110           145.390            RioGallegos          4543.437
       297   03 Jun 2027 13:52:06.275   03 Jun 2027 13:52:59.415            53.140                  Delhi          1660.625
       298   03 Jun 2027 13:58:09.644   03 Jun 2027 13:59:42.604            92.960                Novosib          2905.000
       299   03 Jun 2027 14:00:37.208   03 Jun 2027 14:03:03.978           146.770                Novosib          4586.563
       300   03 Jun 2027 14:05:34.736   03 Jun 2027 14:06:51.490            76.754                Norilsk          2398.562
       301   03 Jun 2027 15:34:21.166   03 Jun 2027 15:37:02.521           161.355                 Moscow          5042.344
       302   03 Jun 2027 15:37:49.846   03 Jun 2027 15:39:01.348            71.502              Murmansk1          2234.437
       303   03 Jun 2027 15:39:20.142   03 Jun 2027 15:39:37.380            17.238              Murmansk2           538.687
       304   03 Jun 2027 15:42:19.335   03 Jun 2027 15:46:11.615           232.280                Norilsk          7258.750
       305   03 Jun 2027 15:47:16.645   03 Jun 2027 15:48:08.286            51.641                Norilsk          1613.781
       306   03 Jun 2027 17:12:03.274   03 Jun 2027 17:12:43.328            40.054                 Moscow          1251.688
       307   03 Jun 2027 17:15:04.209   03 Jun 2027 17:16:11.926            67.717              Murmansk2          2116.156
       308   03 Jun 2027 17:24:33.698   03 Jun 2027 17:24:52.277            18.579              Murmansk1           580.594
       309   03 Jun 2027 17:28:46.919   03 Jun 2027 17:29:21.291            34.372                Anadyr1          1074.125
       310   03 Jun 2027 17:29:44.471   03 Jun 2027 17:30:19.826            35.355                Anadyr2          1104.844
       311   03 Jun 2027 17:31:09.156   03 Jun 2027 17:31:19.366            10.210                Anadyr2           319.063
       312   03 Jun 2027 17:31:24.968   03 Jun 2027 17:31:26.679             1.711                Anadyr2            53.469
       313   03 Jun 2027 17:33:31.674   03 Jun 2027 17:33:36.636             4.962                Anadyr1           155.062
       314   03 Jun 2027 17:36:59.219   03 Jun 2027 17:37:10.674            11.455                Anadyr1           357.969
       315   03 Jun 2027 18:23:55.888   03 Jun 2027 18:25:52.352           116.464               CapeTown          3639.500
       316   03 Jun 2027 18:32:48.231   03 Jun 2027 18:33:27.690            39.459               CapeTown          1233.094
       317   03 Jun 2027 18:54:39.091   03 Jun 2027 18:58:39.226           240.135              Murmansk1          7504.219
       318   03 Jun 2027 19:07:36.208   03 Jun 2027 19:08:56.192            79.984               Magadan2          2499.500
       319   03 Jun 2027 19:10:36.665   03 Jun 2027 19:10:47.400            10.735               Magadan2           335.469
       320   03 Jun 2027 19:11:16.849   03 Jun 2027 19:11:33.319            16.470               Magadan2           514.687
       321   03 Jun 2027 20:40:20.397   03 Jun 2027 20:41:56.155            95.758                Anadyr1          2992.438
       322   03 Jun 2027 20:42:03.545   03 Jun 2027 20:44:04.786           121.241                Anadyr2          3788.781
       323   03 Jun 2027 20:44:52.483   03 Jun 2027 20:46:21.189            88.706               Magadan2          2772.062
       324   03 Jun 2027 20:46:31.713   03 Jun 2027 20:47:25.471            53.758               Magadan1          1679.938
       325   03 Jun 2027 20:48:04.600   03 Jun 2027 20:48:10.920             6.320               Magadan1           197.500
       326   03 Jun 2027 20:48:49.576   03 Jun 2027 20:49:07.111            17.535               Magadan1           547.969
       327   03 Jun 2027 20:49:44.428   03 Jun 2027 20:50:07.015            22.587               Magadan1           705.844
       328   03 Jun 2027 20:52:52.004   03 Jun 2027 20:53:23.418            31.414               Magadan1           981.687
       329   03 Jun 2027 21:36:54.946   03 Jun 2027 21:39:09.248           134.302            RioGallegos          4196.937
       330   03 Jun 2027 22:16:10.725   03 Jun 2027 22:17:24.995            74.270                Anadyr2          2320.937
       331   03 Jun 2027 22:17:50.871   03 Jun 2027 22:18:08.891            18.020                Anadyr2           563.125
       332   03 Jun 2027 22:18:13.397   03 Jun 2027 22:18:32.694            19.297                Anadyr2           603.031
       333   03 Jun 2027 22:18:33.661   03 Jun 2027 22:20:39.432           125.771               Magadan2          3930.344
       334   03 Jun 2027 22:20:52.527   03 Jun 2027 22:21:02.712            10.185               Magadan1           318.281
       335   03 Jun 2027 22:21:31.211   03 Jun 2027 22:22:24.089            52.878               Magadan2          1652.437
       336   03 Jun 2027 22:23:22.515   03 Jun 2027 22:23:42.190            19.675                Irkutsk           614.844
       337   03 Jun 2027 22:25:00.779   03 Jun 2027 22:25:38.929            38.150                Irkutsk          1192.187
       338   03 Jun 2027 22:38:36.345   03 Jun 2027 22:40:37.216           120.871                Sumatra          3777.219
       339   03 Jun 2027 22:44:15.570   03 Jun 2027 22:46:02.968           107.398                Sumatra          3356.188
       340   03 Jun 2027 23:51:30.115   03 Jun 2027 23:51:46.338            16.223                Anadyr1           506.969
       341   03 Jun 2027 23:52:29.743   03 Jun 2027 23:52:59.960            30.217                Anadyr1           944.281
       342   03 Jun 2027 23:53:57.540   03 Jun 2027 23:54:10.143            12.603                Anadyr2           393.844
       343   03 Jun 2027 23:54:28.871   03 Jun 2027 23:54:49.026            20.155                Anadyr2           629.844
       344   03 Jun 2027 23:54:51.919   03 Jun 2027 23:55:46.477            54.558                Norilsk          1704.937
       345   03 Jun 2027 23:56:11.863   03 Jun 2027 23:56:58.691            46.828               Magadan2          1463.375
       346   03 Jun 2027 23:57:36.500   03 Jun 2027 23:58:03.843            27.343               Magadan2           854.469
       347   03 Jun 2027 23:58:44.502   03 Jun 2027 23:59:39.566            55.064                Novosib          1720.750
       348   04 Jun 2027 00:00:55.768   04 Jun 2027 00:01:57.581            61.813                Novosib          1931.656
       349   04 Jun 2027 00:09:22.677   04 Jun 2027 00:10:27.856            65.179                  Delhi          2036.844
       350   04 Jun 2027 00:10:36.758   04 Jun 2027 00:10:42.802             6.044                  Delhi           188.875
       351   04 Jun 2027 00:16:36.720   04 Jun 2027 00:17:36.537            59.817                Sumatra          1869.281
       352   04 Jun 2027 00:47:57.747   04 Jun 2027 00:47:59.397             1.650            RioGallegos            51.563
       353   04 Jun 2027 00:48:12.244   04 Jun 2027 00:48:17.130             4.886            RioGallegos           152.687
       354   04 Jun 2027 00:48:54.372   04 Jun 2027 00:49:21.718            27.346            RioGallegos           854.562
       355   04 Jun 2027 00:53:56.929   04 Jun 2027 00:54:53.875            56.946            RioGallegos          1779.562
       356   04 Jun 2027 01:25:41.501   04 Jun 2027 01:26:32.573            51.072                Anadyr1          1596.000
       357   04 Jun 2027 01:27:13.056   04 Jun 2027 01:27:32.233            19.177                Anadyr1           599.281
       358   04 Jun 2027 01:28:10.435   04 Jun 2027 01:28:16.365             5.930                Anadyr1           185.313
       359   04 Jun 2027 01:28:21.829   04 Jun 2027 01:28:32.893            11.064                Anadyr2           345.750
       360   04 Jun 2027 01:30:04.265   04 Jun 2027 01:31:44.513           100.248                Norilsk          3132.750
       361   04 Jun 2027 01:32:02.369   04 Jun 2027 01:32:16.078            13.709               Magadan2           428.406
       362   04 Jun 2027 01:32:23.556   04 Jun 2027 01:32:39.647            16.091               Magadan2           502.844
       363   04 Jun 2027 01:33:05.364   04 Jun 2027 01:35:24.470           139.106              Murmansk1          4347.063
       364   04 Jun 2027 01:40:49.388   04 Jun 2027 01:41:02.645            13.257                Irkutsk           414.281
       365   04 Jun 2027 01:41:13.931   04 Jun 2027 01:41:31.854            17.923                  Delhi           560.094
       366   04 Jun 2027 01:41:55.152   04 Jun 2027 01:43:37.506           102.354                  Delhi          3198.562
       367   04 Jun 2027 02:23:01.506   04 Jun 2027 02:25:04.257           122.751            RioGallegos          3835.969
       368   04 Jun 2027 02:25:49.126   04 Jun 2027 02:27:39.558           110.432            RioGallegos          3451.000
       369   04 Jun 2027 03:15:06.915   04 Jun 2027 03:18:15.902           188.987                 Moscow          5905.844
       370   04 Jun 2027 03:18:44.505   04 Jun 2027 03:21:01.324           136.819                  Delhi          4275.594
       371   04 Jun 2027 04:51:17.825   04 Jun 2027 04:51:48.001            30.176                Novosib           943.000
       372   04 Jun 2027 04:52:05.720   04 Jun 2027 04:52:13.791             8.071                Norilsk           252.219
       373   04 Jun 2027 04:52:37.600   04 Jun 2027 04:52:57.383            19.783                Norilsk           618.219
       374   04 Jun 2027 04:53:26.708   04 Jun 2027 04:53:46.025            19.317              Murmansk1           603.656
       375   04 Jun 2027 04:53:46.025   04 Jun 2027 04:54:04.371            18.346              Murmansk2           573.312
       376   04 Jun 2027 04:54:04.371   04 Jun 2027 04:55:02.308            57.937              Murmansk1          1810.531
       377   04 Jun 2027 04:55:26.733   04 Jun 2027 04:55:31.516             4.783              Murmansk1           149.469
       378   04 Jun 2027 04:55:45.869   04 Jun 2027 04:56:29.097            43.228              Murmansk2          1350.875
       379   04 Jun 2027 05:11:16.868   04 Jun 2027 05:14:03.611           166.743               CapeTown          5210.719
       380   04 Jun 2027 06:14:17.858   04 Jun 2027 06:15:33.037            75.179               Magadan1          2349.344
       381   04 Jun 2027 06:15:35.017   04 Jun 2027 06:16:18.812            43.795               Magadan1          1368.594
       382   04 Jun 2027 06:17:10.956   04 Jun 2027 06:17:39.790            28.834                Anadyr1           901.062
       383   04 Jun 2027 06:50:36.612   04 Jun 2027 06:51:03.832            27.220               CapeTown           850.625
       384   04 Jun 2027 06:54:16.750   04 Jun 2027 06:54:55.761            39.011               CapeTown          1219.094
       385   04 Jun 2027 07:50:27.808   04 Jun 2027 07:50:39.379            11.571               Magadan2           361.594
       386   04 Jun 2027 07:50:43.149   04 Jun 2027 07:50:57.238            14.089               Magadan2           440.281
       387   04 Jun 2027 07:51:07.864   04 Jun 2027 07:51:17.332             9.468                Anadyr2           295.875
       388   04 Jun 2027 07:51:26.401   04 Jun 2027 07:52:10.161            43.760               Magadan1          1367.500
       389   04 Jun 2027 07:52:10.161   04 Jun 2027 07:52:41.334            31.173               Magadan2           974.156
       390   04 Jun 2027 07:52:47.483   04 Jun 2027 07:53:14.549            27.066               Magadan2           845.812
       391   04 Jun 2027 07:54:19.382   04 Jun 2027 07:55:03.233            43.851                Anadyr1          1370.344
       392   04 Jun 2027 07:55:28.252   04 Jun 2027 07:55:35.888             7.636               Magadan2           238.625
       393   04 Jun 2027 07:56:37.918   04 Jun 2027 07:56:46.195             8.277              Murmansk2           258.656
       394   04 Jun 2027 08:01:59.800   04 Jun 2027 08:03:17.974            78.174                 Moscow          2442.938
       395   04 Jun 2027 09:24:54.859   04 Jun 2027 09:25:25.969            31.110               Magadan1           972.188
       396   04 Jun 2027 09:25:35.812   04 Jun 2027 09:26:04.200            28.388               Magadan1           887.125
       397   04 Jun 2027 09:26:04.200   04 Jun 2027 09:26:44.899            40.699               Magadan2          1271.844
       398   04 Jun 2027 09:26:58.835   04 Jun 2027 09:30:46.548           227.713                Anadyr1          7116.031
       399   04 Jun 2027 09:31:07.396   04 Jun 2027 09:31:10.579             3.183              Murmansk1            99.469
       400   04 Jun 2027 09:31:14.727   04 Jun 2027 09:31:15.457             0.730                Novosib            22.813
       401   04 Jun 2027 09:31:18.448   04 Jun 2027 09:31:33.558            15.110                Norilsk           472.188
       402   04 Jun 2027 09:31:53.028   04 Jun 2027 09:32:47.566            54.538                Novosib          1704.313
       403   04 Jun 2027 10:07:15.530   04 Jun 2027 10:08:07.322            51.792            RioGallegos          1618.500
       404   04 Jun 2027 10:44:07.354   04 Jun 2027 10:46:00.674           113.320                Sumatra          3541.250
       405   04 Jun 2027 11:01:25.405   04 Jun 2027 11:01:54.242            28.837                Irkutsk           901.156
       406   04 Jun 2027 11:01:56.619   04 Jun 2027 11:02:04.959             8.340                Norilsk           260.625
       407   04 Jun 2027 11:02:22.561   04 Jun 2027 11:03:39.188            76.627                Novosib          2394.594
       408   04 Jun 2027 11:04:11.912   04 Jun 2027 11:04:23.921            12.009                Irkutsk           375.281
       409   04 Jun 2027 11:04:58.933   04 Jun 2027 11:06:04.605            65.672                Irkutsk          2052.250
       410   04 Jun 2027 11:06:07.066   04 Jun 2027 11:06:20.470            13.404              Murmansk1           418.875
       411   04 Jun 2027 11:06:29.073   04 Jun 2027 11:07:08.827            39.754                Novosib          1242.313
       412   04 Jun 2027 11:07:18.568   04 Jun 2027 11:07:22.704             4.136                Norilsk           129.250
       413   04 Jun 2027 11:07:27.793   04 Jun 2027 11:08:47.996            80.203              Murmansk1          2506.344
       414   04 Jun 2027 11:44:19.207   04 Jun 2027 11:44:54.595            35.388            RioGallegos          1105.875
       415   04 Jun 2027 12:17:54.314   04 Jun 2027 12:20:04.519           130.205                Sumatra          4068.906
       416   04 Jun 2027 12:32:40.020   04 Jun 2027 12:33:32.902            52.882                Irkutsk          1652.562
       417   04 Jun 2027 12:33:57.273   04 Jun 2027 12:35:36.718            99.445                Novosib          3107.656
       418   04 Jun 2027 12:36:33.806   04 Jun 2027 12:37:22.468            48.662                Norilsk          1520.687
       419   04 Jun 2027 14:02:30.227   04 Jun 2027 14:02:59.555            29.328                  Delhi           916.500
       420   04 Jun 2027 14:04:01.745   04 Jun 2027 14:04:50.128            48.383                  Delhi          1511.969
       421   04 Jun 2027 14:06:56.234   04 Jun 2027 14:07:24.688            28.454                  Delhi           889.188
       422   04 Jun 2027 14:09:56.432   04 Jun 2027 14:10:55.110            58.678                  Delhi          1833.687
       423   04 Jun 2027 14:11:15.926   04 Jun 2027 14:15:47.463           271.537                Novosib          8485.531
       424   04 Jun 2027 14:17:37.070   04 Jun 2027 14:19:19.273           102.203                Norilsk          3193.844
       425   04 Jun 2027 15:46:24.329   04 Jun 2027 15:47:43.918            79.589                 Moscow          2487.156
       426   04 Jun 2027 15:48:06.428   04 Jun 2027 15:49:27.539            81.111                 Moscow          2534.719
       427   04 Jun 2027 15:49:55.094   04 Jun 2027 15:50:58.492            63.398              Murmansk1          1981.187
       428   04 Jun 2027 15:55:08.875   04 Jun 2027 15:59:17.623           248.748                Norilsk          7773.375
       429   04 Jun 2027 17:24:37.373   04 Jun 2027 17:24:59.592            22.219                 Moscow           694.344
       430   04 Jun 2027 17:27:30.199   04 Jun 2027 17:28:07.107            36.908                 Moscow          1153.375
       431   04 Jun 2027 17:28:24.296   04 Jun 2027 17:29:09.700            45.404              Murmansk2          1418.875
       432   04 Jun 2027 17:29:28.127   04 Jun 2027 17:29:38.957            10.830                 Moscow           338.437
       433   04 Jun 2027 17:30:37.767   04 Jun 2027 17:31:10.939            33.172              Murmansk1          1036.625
       434   04 Jun 2027 17:36:33.167   04 Jun 2027 17:36:54.510            21.343              Murmansk1           666.969
       435   04 Jun 2027 17:40:43.648   04 Jun 2027 17:42:52.853           129.205                Anadyr1          4037.656
       436   04 Jun 2027 18:36:06.007   04 Jun 2027 18:36:52.765            46.758               CapeTown          1461.187
       437   04 Jun 2027 18:40:14.615   04 Jun 2027 18:40:24.928            10.313               CapeTown           322.281
       438   04 Jun 2027 18:43:18.405   04 Jun 2027 18:43:41.875            23.470               CapeTown           733.438
       439   04 Jun 2027 19:07:22.675   04 Jun 2027 19:12:50.947           328.272              Murmansk2         10258.500
       440   04 Jun 2027 19:19:24.259   04 Jun 2027 19:19:46.238            21.979               Magadan1           686.844
       441   04 Jun 2027 19:23:21.236   04 Jun 2027 19:23:31.786            10.550               Magadan2           329.687
       442   04 Jun 2027 19:23:49.355   04 Jun 2027 19:24:18.272            28.917               Magadan2           903.656
       443   04 Jun 2027 19:28:02.118   04 Jun 2027 19:28:28.965            26.847               Magadan2           838.969
       444   04 Jun 2027 20:52:22.011   04 Jun 2027 20:55:25.401           183.390                Anadyr1          5730.937
       445   04 Jun 2027 20:55:48.428   04 Jun 2027 20:55:56.098             7.670                Anadyr1           239.687
       446   04 Jun 2027 20:56:17.471   04 Jun 2027 20:57:34.288            76.817               Magadan1          2400.531
       447   04 Jun 2027 20:57:34.288   04 Jun 2027 20:58:10.077            35.789               Magadan2          1118.406
       448   04 Jun 2027 20:59:08.002   04 Jun 2027 20:59:26.996            18.994               Magadan2           593.562
       449   04 Jun 2027 20:59:59.577   04 Jun 2027 21:00:17.556            17.979               Magadan2           561.844
       450   04 Jun 2027 21:01:40.414   04 Jun 2027 21:01:59.670            19.256               Magadan2           601.750
       451   04 Jun 2027 21:02:24.574   04 Jun 2027 21:02:44.874            20.300               Magadan2           634.375
       452   04 Jun 2027 21:05:22.635   04 Jun 2027 21:05:24.572             1.937               Magadan1            60.531
       453   04 Jun 2027 21:05:38.839   04 Jun 2027 21:06:07.085            28.246               Magadan1           882.687
       454   04 Jun 2027 21:48:05.656   04 Jun 2027 21:50:50.259           164.603            RioGallegos          5143.844
       455   04 Jun 2027 21:53:49.341   04 Jun 2027 21:54:04.137            14.796            RioGallegos           462.375
       456   04 Jun 2027 22:28:10.146   04 Jun 2027 22:29:59.828           109.682                Anadyr2          3427.563
       457   04 Jun 2027 22:30:16.718   04 Jun 2027 22:30:21.424             4.706                Norilsk           147.063
       458   04 Jun 2027 22:30:36.311   04 Jun 2027 22:31:59.088            82.777               Magadan2          2586.781
       459   04 Jun 2027 22:32:15.632   04 Jun 2027 22:32:42.145            26.513               Magadan2           828.531
       460   04 Jun 2027 22:34:11.365   04 Jun 2027 22:34:25.623            14.258               Magadan1           445.562
       461   04 Jun 2027 22:35:03.085   04 Jun 2027 22:35:47.015            43.930                Irkutsk          1372.813
       462   04 Jun 2027 22:37:01.117   04 Jun 2027 22:37:42.439            41.322                Irkutsk          1291.312
       463   04 Jun 2027 22:44:10.573   04 Jun 2027 22:44:25.773            15.200                Irkutsk           475.000
       464   04 Jun 2027 22:51:27.452   04 Jun 2027 22:52:39.652            72.200                Sumatra          2256.250
       465   04 Jun 2027 22:53:40.234   04 Jun 2027 22:54:13.036            32.802                Sumatra          1025.063
       466   04 Jun 2027 22:55:25.149   04 Jun 2027 22:56:02.672            37.523                Sumatra          1172.594
       467   05 Jun 2027 00:03:22.948   05 Jun 2027 00:03:38.276            15.328                Anadyr2           479.000
       468   05 Jun 2027 00:03:41.506   05 Jun 2027 00:05:01.132            79.626                Anadyr1          2488.312
       469   05 Jun 2027 00:05:53.170   05 Jun 2027 00:06:30.818            37.648                Anadyr1          1176.500
       470   05 Jun 2027 00:06:43.763   05 Jun 2027 00:08:25.566           101.803               Magadan1          3181.344
       471   05 Jun 2027 00:09:00.954   05 Jun 2027 00:09:36.479            35.525               Magadan2          1110.156
       472   05 Jun 2027 00:09:59.755   05 Jun 2027 00:10:57.364            57.609                Irkutsk          1800.281
       473   05 Jun 2027 00:11:03.325   05 Jun 2027 00:11:42.563            39.238                Novosib          1226.188
       474   05 Jun 2027 00:13:36.764   05 Jun 2027 00:13:54.595            17.831                Novosib           557.219
       475   05 Jun 2027 00:19:49.480   05 Jun 2027 00:20:09.996            20.516                Novosib           641.125
       476   05 Jun 2027 00:20:18.556   05 Jun 2027 00:20:30.360            11.804                Novosib           368.875
       477   05 Jun 2027 00:21:32.993   05 Jun 2027 00:22:06.966            33.973                  Delhi          1061.656
       478   05 Jun 2027 00:22:37.098   05 Jun 2027 00:22:58.157            21.059                  Delhi           658.094
       479   05 Jun 2027 00:25:55.214   05 Jun 2027 00:26:48.994            53.780                  Delhi          1680.625
       480   05 Jun 2027 00:58:08.424   05 Jun 2027 00:58:50.348            41.924            RioGallegos          1310.125
       481   05 Jun 2027 01:04:45.491   05 Jun 2027 01:05:04.517            19.026            RioGallegos           594.563
       482   05 Jun 2027 01:06:51.716   05 Jun 2027 01:07:41.484            49.768            RioGallegos          1555.250
