uniorb/output/strategy_2/Drop/Drop_KinoSat_110408.txt

KinoSat_110408
-------------------------
    Access    *     Start Time (UTCG)     *     Stop Time (UTCG)  *   Duration (s)        *       Station  *  Data (Mbytes)
         1   01 Jun 2027 03:20:59.677   01 Jun 2027 03:21:24.768            25.091               Magadan2           857.000
         2   01 Jun 2027 03:21:28.767   01 Jun 2027 03:22:01.289            32.522               Magadan2          1999.500
         3   01 Jun 2027 03:22:10.616   01 Jun 2027 03:23:25.049            74.433                Irkutsk          4663.500
         4   01 Jun 2027 03:23:37.882   01 Jun 2027 03:24:29.740            51.858                Irkutsk          6416.500
         5   01 Jun 2027 03:24:34.543   01 Jun 2027 03:24:54.235            19.692                Anadyr2          2401.500
         6   01 Jun 2027 03:24:58.820   01 Jun 2027 03:25:36.927            38.107                Norilsk          2292.500
         7   01 Jun 2027 03:25:39.383   01 Jun 2027 03:26:04.584            25.201                Norilsk          1228.000
         8   01 Jun 2027 03:26:06.802   01 Jun 2027 03:26:30.673            23.871               Magadan2          1109.000
         9   01 Jun 2027 03:26:31.780   01 Jun 2027 03:26:57.135            25.355                Norilsk           553.500
        10   01 Jun 2027 03:26:58.066   01 Jun 2027 03:27:01.975             3.909                Anadyr2           465.500
        11   01 Jun 2027 03:27:05.393   01 Jun 2027 03:27:27.481            22.088                Norilsk          1709.000
        12   01 Jun 2027 03:27:38.524   01 Jun 2027 03:28:22.194            43.670                Novosib          5458.750
        13   01 Jun 2027 03:28:29.002   01 Jun 2027 03:29:14.981            45.979                Anadyr1          3466.750
        14   01 Jun 2027 03:29:24.127   01 Jun 2027 03:29:33.412             9.285                Anadyr2          1085.500
        15   01 Jun 2027 03:29:35.371   01 Jun 2027 03:29:47.959            12.588                Irkutsk           979.500
        16   01 Jun 2027 03:29:48.046   01 Jun 2027 03:29:51.274             3.228                Anadyr2            43.500
        17   01 Jun 2027 03:30:05.910   01 Jun 2027 03:30:23.975            18.065               Magadan2          2258.125
        18   01 Jun 2027 03:30:25.765   01 Jun 2027 03:31:06.538            40.773                Norilsk          5059.875
        19   01 Jun 2027 04:58:53.307   01 Jun 2027 04:59:03.558            10.251               Magadan1           476.000
        20   01 Jun 2027 04:59:13.611   01 Jun 2027 04:59:24.190            10.579                Norilsk          1322.375
        21   01 Jun 2027 04:59:30.560   01 Jun 2027 05:00:51.928            81.368               Magadan1          6889.125
        22   01 Jun 2027 05:01:17.489   01 Jun 2027 05:03:54.219           156.730               Magadan2         12780.500
        23   01 Jun 2027 05:03:57.151   01 Jun 2027 05:04:41.894            44.743              Murmansk1          1466.000
        24   01 Jun 2027 05:04:46.520   01 Jun 2027 05:05:39.587            53.067              Murmansk2          2313.000
        25   01 Jun 2027 05:05:44.399   01 Jun 2027 05:06:53.263            68.864              Murmansk2          2406.000
        26   01 Jun 2027 06:35:40.222   01 Jun 2027 06:35:53.163            12.941                Novosib          1617.625
        27   01 Jun 2027 06:35:58.493   01 Jun 2027 06:36:28.914            30.421                Norilsk          2917.375
        28   01 Jun 2027 06:36:39.063   01 Jun 2027 06:37:41.152            62.089                Irkutsk          5074.500
        29   01 Jun 2027 06:38:02.701   01 Jun 2027 06:39:46.042           103.341              Murmansk1         10774.500
        30   01 Jun 2027 06:39:49.941   01 Jun 2027 06:40:30.696            40.755                Novosib          1949.500
        31   01 Jun 2027 06:40:32.863   01 Jun 2027 06:41:23.821            50.958                Irkutsk          1083.500
        32   01 Jun 2027 06:41:35.902   01 Jun 2027 06:42:37.194            61.292              Murmansk2          6040.500
        33   01 Jun 2027 08:13:38.823   01 Jun 2027 08:14:15.739            36.916                Norilsk          4409.500
        34   01 Jun 2027 08:14:30.392   01 Jun 2027 08:15:31.587            61.195                Novosib          7326.500
        35   01 Jun 2027 08:15:37.090   01 Jun 2027 08:16:16.721            39.631                 Moscow          2751.500
        36   01 Jun 2027 08:16:16.779   01 Jun 2027 08:16:22.947             6.168              Murmansk1            29.000
        37   01 Jun 2027 08:16:23.157   01 Jun 2027 08:16:24.402             1.245                 Moscow           105.000
        38   01 Jun 2027 08:16:25.637   01 Jun 2027 08:16:52.452            26.815                Norilsk           617.500
        39   01 Jun 2027 08:16:57.749   01 Jun 2027 08:17:35.384            37.635                 Moscow          2648.500
        40   01 Jun 2027 08:17:36.475   01 Jun 2027 08:17:55.779            19.304                 Moscow           545.500
        41   01 Jun 2027 09:49:41.449   01 Jun 2027 09:51:30.249           108.800                 Moscow          6806.500
        42   01 Jun 2027 09:51:55.303   01 Jun 2027 09:53:51.756           116.453              Murmansk2         12527.000
        43   02 Jun 2027 03:34:03.316   02 Jun 2027 03:34:32.236            28.920               Magadan2          3615.000
        44   02 Jun 2027 03:34:32.236   02 Jun 2027 03:35:06.281            34.045               Magadan1          2559.500
        45   02 Jun 2027 03:35:17.927   02 Jun 2027 03:36:08.687            50.760               Magadan2          5823.000
        46   02 Jun 2027 03:36:10.296   02 Jun 2027 03:36:35.953            25.657                Anadyr2           804.500
        47   02 Jun 2027 03:36:43.052   02 Jun 2027 03:37:16.498            33.446                Irkutsk          3549.500
        48   02 Jun 2027 03:37:27.355   02 Jun 2027 03:38:11.643            44.288                Anadyr2          5428.500
        49   02 Jun 2027 03:38:17.846   02 Jun 2027 03:38:39.034            21.188                Novosib          2648.500
        50   02 Jun 2027 03:38:53.421   02 Jun 2027 03:40:06.097            72.676                Norilsk          7646.500
        51   02 Jun 2027 03:40:12.299   02 Jun 2027 03:40:49.518            37.219               Magadan1          3101.000
        52   02 Jun 2027 03:40:51.662   02 Jun 2027 03:41:11.127            19.465               Magadan1          1072.000
        53   02 Jun 2027 03:41:13.709   02 Jun 2027 03:41:57.293            43.584                Irkutsk          1291.000
        54   02 Jun 2027 03:42:02.808   02 Jun 2027 03:42:21.047            18.239               Magadan2          2279.875
        55   02 Jun 2027 03:42:23.638   02 Jun 2027 03:42:34.293            10.655              Murmansk1           724.125
        56   02 Jun 2027 05:11:03.549   02 Jun 2027 05:11:21.907            18.358                Norilsk          1367.000
        57   02 Jun 2027 05:11:34.950   02 Jun 2027 05:12:34.248            59.298                Irkutsk          6521.500
        58   02 Jun 2027 05:12:40.253   02 Jun 2027 05:13:22.958            42.705                Irkutsk          3002.500
        59   02 Jun 2027 05:13:31.001   02 Jun 2027 05:14:28.122            57.121                Norilsk          4021.500
        60   02 Jun 2027 05:14:31.610   02 Jun 2027 05:14:56.243            24.633                Norilsk          1744.000
        61   02 Jun 2027 05:14:56.637   02 Jun 2027 05:15:23.102            26.465                Novosib           197.000
        62   02 Jun 2027 05:15:28.566   02 Jun 2027 05:15:56.835            28.269               Magadan1          2732.000
        63   02 Jun 2027 05:15:57.718   02 Jun 2027 05:16:14.763            17.045                Norilsk           441.500
        64   02 Jun 2027 05:16:27.727   02 Jun 2027 05:17:10.182            42.455                Norilsk          5306.875
        65   02 Jun 2027 05:17:19.055   02 Jun 2027 05:18:40.770            81.715              Murmansk2          5611.625
        66   02 Jun 2027 06:48:15.729   02 Jun 2027 06:49:27.007            71.278                Irkutsk           293.000
        67   02 Jun 2027 06:49:32.431   02 Jun 2027 06:49:41.218             8.787                Norilsk          1098.375
        68   02 Jun 2027 06:49:50.276   02 Jun 2027 06:51:03.412            73.136              Murmansk2          6142.625
        69   02 Jun 2027 06:51:04.534   02 Jun 2027 06:51:26.430            21.896                 Moscow           561.000
        70   02 Jun 2027 06:51:29.089   02 Jun 2027 06:51:48.141            19.052                Norilsk          1329.500
        71   02 Jun 2027 06:51:48.143   02 Jun 2027 06:51:52.952             4.809              Murmansk1             1.000
        72   02 Jun 2027 06:51:54.605   02 Jun 2027 06:52:21.568            26.963                Norilsk           826.500
        73   02 Jun 2027 06:52:29.156   02 Jun 2027 06:53:18.014            48.858                 Moscow          3794.000
        74   02 Jun 2027 06:53:26.279   02 Jun 2027 06:54:15.278            48.999                Norilsk          4132.500
        75   02 Jun 2027 08:24:58.612   02 Jun 2027 08:25:12.569            13.957              Murmansk1          1328.500
        76   02 Jun 2027 08:25:12.746   02 Jun 2027 08:25:29.216            16.470                Novosib            88.500
        77   02 Jun 2027 08:25:36.515   02 Jun 2027 08:26:17.628            41.113                Norilsk          3649.500
        78   02 Jun 2027 08:26:39.793   02 Jun 2027 08:29:20.997           161.204                Novosib         11082.500
        79   02 Jun 2027 08:29:21.364   02 Jun 2027 08:29:25.170             3.806                Norilsk           183.500
        80   02 Jun 2027 08:29:30.364   02 Jun 2027 08:30:14.699            44.335                Norilsk          2597.000
        81   02 Jun 2027 10:00:19.919   02 Jun 2027 10:01:05.942            46.023                 Moscow          5696.500
        82   02 Jun 2027 10:01:57.818   02 Jun 2027 10:03:13.615            75.797                 Moscow          1881.000
        83   02 Jun 2027 10:03:15.190   02 Jun 2027 10:03:55.958            40.768              Murmansk2           787.500
        84   02 Jun 2027 10:04:18.373   02 Jun 2027 10:04:32.505            14.132                 Moscow          1766.500
        85   02 Jun 2027 10:04:50.264   02 Jun 2027 10:07:10.158           139.894                 Moscow         17486.750
        86   02 Jun 2027 10:07:11.298   02 Jun 2027 10:07:33.236            21.938                Norilsk           833.750
        87   03 Jun 2027 03:46:18.901   03 Jun 2027 03:46:46.168            27.267               Magadan1           829.500
        88   03 Jun 2027 03:46:50.857   03 Jun 2027 03:46:55.976             5.119                Irkutsk           639.875
        89   03 Jun 2027 03:46:58.041   03 Jun 2027 03:47:20.065            22.024               Magadan1          2737.125
        90   03 Jun 2027 03:47:25.243   03 Jun 2027 03:48:09.474            44.231                Norilsk          2589.000
        91   03 Jun 2027 03:48:12.048   03 Jun 2027 03:48:42.146            30.098               Magadan2          1287.000
        92   03 Jun 2027 03:48:55.888   03 Jun 2027 03:49:56.315            60.427               Magadan2          6871.000
        93   03 Jun 2027 03:49:59.493   03 Jun 2027 03:50:24.576            25.083               Magadan2          1589.000
        94   03 Jun 2027 03:50:27.792   03 Jun 2027 03:50:57.621            29.829                Anadyr1          1608.000
        95   03 Jun 2027 03:50:58.651   03 Jun 2027 03:51:07.518             8.867               Magadan1           515.000
        96   03 Jun 2027 03:51:08.429   03 Jun 2027 03:52:43.111            94.682                Irkutsk           455.500
        97   03 Jun 2027 03:52:44.068   03 Jun 2027 03:52:55.102            11.034                Anadyr1           478.500
        98   03 Jun 2027 03:52:59.863   03 Jun 2027 03:53:11.636            11.773               Magadan2          1471.625
        99   03 Jun 2027 03:53:11.636   03 Jun 2027 03:53:35.864            24.228               Magadan1           908.875
       100   03 Jun 2027 03:53:44.807   03 Jun 2027 03:54:21.532            36.725              Murmansk2          4471.500
       101   03 Jun 2027 05:23:30.053   03 Jun 2027 05:23:57.066            27.013                Novosib          2260.500
       102   03 Jun 2027 05:24:17.707   03 Jun 2027 05:25:21.698            63.991                Irkutsk          7998.875
       103   03 Jun 2027 05:25:22.760   03 Jun 2027 05:25:42.637            19.877                Norilsk          2484.625
       104   03 Jun 2027 05:25:44.440   03 Jun 2027 05:26:20.064            35.624                Norilsk          1269.500
       105   03 Jun 2027 05:26:30.546   03 Jun 2027 05:28:16.050           105.504                Irkutsk          5241.000
       106   03 Jun 2027 05:28:16.259   03 Jun 2027 05:28:38.506            22.247                Norilsk           104.500
       107   03 Jun 2027 05:28:41.147   03 Jun 2027 05:29:06.666            25.519              Murmansk1          1320.500
       108   03 Jun 2027 05:29:13.566   03 Jun 2027 05:29:21.121             7.555                Norilsk           944.375
       109   03 Jun 2027 05:29:23.317   03 Jun 2027 05:30:20.644            57.327              Murmansk2          3603.625
       110   03 Jun 2027 07:00:23.584   03 Jun 2027 07:00:43.457            19.873                  Delhi            18.000
       111   03 Jun 2027 07:01:14.167   03 Jun 2027 07:03:26.585           132.418                 Moscow         15355.000
       112   03 Jun 2027 07:03:27.768   03 Jun 2027 07:03:44.425            16.657              Murmansk2           591.500
       113   03 Jun 2027 07:03:47.770   03 Jun 2027 07:04:07.114            19.344                 Moscow          1672.500
       114   03 Jun 2027 07:04:11.045   03 Jun 2027 07:05:09.448            58.403                Norilsk          1965.500
       115   03 Jun 2027 07:05:09.984   03 Jun 2027 07:05:37.076            27.092                Irkutsk           268.000
       116   03 Jun 2027 08:37:17.858   03 Jun 2027 08:38:36.440            78.582                Novosib          3579.500
       117   03 Jun 2027 08:38:48.027   03 Jun 2027 08:40:09.455            81.428                Novosib          5793.500
       118   03 Jun 2027 08:40:12.551   03 Jun 2027 08:40:21.637             9.086              Murmansk1          1135.750
       119   03 Jun 2027 08:40:21.637   03 Jun 2027 08:41:08.141            46.504              Murmansk2           412.250
       120   03 Jun 2027 08:41:22.374   03 Jun 2027 08:42:26.197            63.823                Norilsk          7116.500
       121   03 Jun 2027 10:15:25.390   03 Jun 2027 10:16:15.637            50.247                 Moscow          2104.500
       122   03 Jun 2027 10:16:42.665   03 Jun 2027 10:17:08.833            26.168              Murmansk1          3052.000
       123   04 Jun 2027 03:59:35.159   04 Jun 2027 04:01:16.283           101.124                Irkutsk          2276.000
       124   04 Jun 2027 04:01:18.538   04 Jun 2027 04:01:37.101            18.563                Novosib          1127.500
       125   04 Jun 2027 04:01:45.417   04 Jun 2027 04:02:42.699            57.282                Norilsk          4158.000
       126   04 Jun 2027 04:02:46.988   04 Jun 2027 04:03:56.445            69.457               Magadan1          2144.500
       127   04 Jun 2027 04:04:11.793   04 Jun 2027 04:05:29.599            77.806               Magadan1          7674.000
       128   04 Jun 2027 04:05:29.715   04 Jun 2027 04:05:32.480             2.765                Novosib            58.000
       129   04 Jun 2027 04:05:36.990   04 Jun 2027 04:06:17.658            40.668                Novosib          2255.000
       130   04 Jun 2027 04:06:20.745   04 Jun 2027 04:06:45.779            25.034              Murmansk1          1061.500
       131   04 Jun 2027 05:36:12.229   04 Jun 2027 05:37:50.557            98.328                Novosib         10558.500
       132   04 Jun 2027 05:37:51.697   04 Jun 2027 05:38:23.800            32.103                Irkutsk           570.000
       133   04 Jun 2027 05:38:25.983   04 Jun 2027 05:38:51.838            25.855                Irkutsk          1091.500
       134   04 Jun 2027 05:38:54.096   04 Jun 2027 05:39:07.603            13.507                Novosib          1129.000
       135   04 Jun 2027 05:39:08.189   04 Jun 2027 05:39:36.743            28.554                Norilsk           293.000
       136   04 Jun 2027 05:39:37.460   04 Jun 2027 05:40:20.613            43.153                Irkutsk           358.500
       137   04 Jun 2027 05:40:24.116   04 Jun 2027 05:41:11.067            46.951              Murmansk1          1751.500
       138   04 Jun 2027 05:41:11.117   04 Jun 2027 05:41:12.052             0.935                Norilsk            25.000
       139   04 Jun 2027 05:41:14.073   04 Jun 2027 05:41:41.380            27.307              Murmansk2          1010.500
       140   04 Jun 2027 05:41:45.532   04 Jun 2027 05:42:16.946            31.414              Murmansk1          2076.000
       141   04 Jun 2027 07:13:26.704   04 Jun 2027 07:13:54.461            27.757              Murmansk1           781.000
       142   04 Jun 2027 07:14:13.092   04 Jun 2027 07:15:29.569            76.477                Norilsk          9315.500
       143   04 Jun 2027 07:15:31.809   04 Jun 2027 07:15:46.563            14.754                 Moscow          1120.000
       144   04 Jun 2027 07:15:47.832   04 Jun 2027 07:16:05.472            17.640                Novosib           634.500
       145   04 Jun 2027 07:16:18.477   04 Jun 2027 07:16:29.444            10.967                Norilsk          1370.875
       146   04 Jun 2027 07:16:35.646   04 Jun 2027 07:18:14.636            98.990                 Moscow          8232.625
       147   04 Jun 2027 08:49:32.292   04 Jun 2027 08:49:50.723            18.431              Murmansk2          1880.500
       148   04 Jun 2027 08:49:56.307   04 Jun 2027 08:50:21.715            25.408                 Moscow          2792.000
       149   04 Jun 2027 08:50:27.018   04 Jun 2027 08:50:54.702            27.684                Novosib          2651.500
       150   04 Jun 2027 08:50:55.348   04 Jun 2027 08:52:09.894            74.546                Novosib           323.000
       151   04 Jun 2027 08:52:10.357   04 Jun 2027 08:52:48.661            38.304                Norilsk           231.500
       152   04 Jun 2027 08:52:54.732   04 Jun 2027 08:53:28.002            33.270                Novosib          3035.500
       153   04 Jun 2027 08:53:30.597   04 Jun 2027 08:54:18.459            47.862              Murmansk2          1297.500
       154   05 Jun 2027 04:11:44.400   05 Jun 2027 04:11:57.146            12.746               Magadan2           930.500
       155   05 Jun 2027 04:11:57.496   05 Jun 2027 04:12:02.479             4.983                Novosib           175.000
       156   05 Jun 2027 04:12:12.187   05 Jun 2027 04:12:53.662            41.475               Magadan1          4854.000
       157   05 Jun 2027 04:12:59.984   05 Jun 2027 04:13:04.060             4.076                Norilsk           509.500
       158   05 Jun 2027 04:13:12.850   05 Jun 2027 04:13:39.790            26.940                Norilsk          3367.500
       159   05 Jun 2027 04:13:40.232   05 Jun 2027 04:13:48.656             8.424                Novosib          1053.000
       160   05 Jun 2027 04:13:49.291   05 Jun 2027 04:14:23.436            34.145                Irkutsk          3164.500
       161   05 Jun 2027 04:14:35.844   05 Jun 2027 04:15:25.740            49.896                Norilsk          6204.000
       162   05 Jun 2027 04:15:32.134   05 Jun 2027 04:16:36.024            63.890                Norilsk          3197.000
       163   05 Jun 2027 04:16:38.416   05 Jun 2027 04:16:43.348             4.932               Magadan1           616.500
       164   05 Jun 2027 04:16:45.071   05 Jun 2027 04:16:51.155             6.084                Novosib           760.500
       165   05 Jun 2027 04:16:51.634   05 Jun 2027 04:17:03.629            11.995              Murmansk2           920.000
       166   05 Jun 2027 04:17:06.512   05 Jun 2027 04:17:56.206            49.694               Magadan2          1441.500
       167   05 Jun 2027 04:17:56.856   05 Jun 2027 04:18:16.762            19.906              Murmansk2           325.000
       168   05 Jun 2027 04:18:19.416   05 Jun 2027 04:18:32.796            13.380                Novosib           745.500
       169   05 Jun 2027 05:48:29.433   05 Jun 2027 05:50:51.311           141.878                Novosib         13647.500
       170   05 Jun 2027 05:51:01.454   05 Jun 2027 05:52:35.946            94.492                Novosib          5071.500
       171   05 Jun 2027 05:52:58.487   05 Jun 2027 05:54:48.748           110.261              Murmansk2         11270.500
       172   05 Jun 2027 07:25:36.761   05 Jun 2027 07:26:39.885            63.124                Novosib          3875.000
       173   05 Jun 2027 07:26:42.925   05 Jun 2027 07:27:58.288            75.363                Irkutsk          1520.000
       174   05 Jun 2027 07:28:01.125   05 Jun 2027 07:28:19.614            18.489                 Moscow          1418.500
       175   05 Jun 2027 07:28:38.149   05 Jun 2027 07:30:01.631            83.482                 Moscow          9267.500
       176   05 Jun 2027 09:01:45.188   05 Jun 2027 09:02:40.402            55.214              Murmansk2          6307.500
       177   05 Jun 2027 09:02:45.890   05 Jun 2027 09:03:19.065            33.175                 Moscow          2744.000
       178   05 Jun 2027 09:03:20.468   05 Jun 2027 09:03:32.281            11.813              Murmansk1           701.500
       179   05 Jun 2027 09:03:37.140   05 Jun 2027 09:04:05.010            27.870                Norilsk          2429.500
       180   05 Jun 2027 09:04:09.619   05 Jun 2027 09:04:38.696            29.077                Novosib          2304.500
       181   05 Jun 2027 09:04:47.598   05 Jun 2027 09:05:12.372            24.774                 Moscow          3096.750
       182   05 Jun 2027 09:05:18.383   05 Jun 2027 09:06:09.132            50.749                Norilsk          4359.750
       183   05 Jun 2027 09:06:09.504   05 Jun 2027 09:06:26.340            16.836                Norilsk           186.000
       184   06 Jun 2027 04:23:40.008   06 Jun 2027 04:25:00.359            80.351                Norilsk         10043.875
       185   06 Jun 2027 04:25:09.748   06 Jun 2027 04:27:01.311           111.563               Magadan2          8812.125
       186   06 Jun 2027 04:27:06.751   06 Jun 2027 04:27:42.476            35.725                Irkutsk          2720.000
       187   06 Jun 2027 04:28:01.763   06 Jun 2027 04:29:47.942           106.179               Magadan2          9643.500
       188   06 Jun 2027 04:29:50.413   06 Jun 2027 04:30:30.639            40.226              Murmansk2          1235.500
       189   06 Jun 2027 05:59:44.559   06 Jun 2027 06:00:50.543            65.984                Novosib          1256.500
       190   06 Jun 2027 06:01:10.161   06 Jun 2027 06:02:37.003            86.842                Irkutsk          9809.000
       191   06 Jun 2027 06:02:47.274   06 Jun 2027 06:03:43.378            56.104                Novosib          5135.500
       192   06 Jun 2027 06:03:47.144   06 Jun 2027 06:04:04.251            17.107                Norilsk          1883.000
       193   06 Jun 2027 06:04:07.043   06 Jun 2027 06:04:20.102            13.059              Murmansk2          1396.000
       194   06 Jun 2027 06:04:28.579   06 Jun 2027 06:04:45.808            17.229                Novosib          2153.625
       195   06 Jun 2027 06:04:53.876   06 Jun 2027 06:05:04.465            10.589                Norilsk          1323.625
       196   06 Jun 2027 06:05:07.915   06 Jun 2027 06:06:10.092            62.177                Irkutsk          6520.250
       197   06 Jun 2027 07:38:01.566   06 Jun 2027 07:38:17.868            16.302              Murmansk1           746.500
       198   06 Jun 2027 07:38:24.451   06 Jun 2027 07:39:51.160            86.709                Irkutsk          3291.500
       199   06 Jun 2027 07:39:54.939   06 Jun 2027 07:40:20.681            25.742                Norilsk          1889.500
       200   06 Jun 2027 07:40:24.954   06 Jun 2027 07:40:40.123            15.169                 Moscow          1896.125
       201   06 Jun 2027 07:40:41.954   06 Jun 2027 07:40:48.209             6.255              Murmansk2           781.875
       202   06 Jun 2027 07:41:06.974   06 Jun 2027 07:41:58.692            51.718                Norilsk          6464.750
       203   06 Jun 2027 07:41:59.838   06 Jun 2027 07:42:08.217             8.379                 Moscow          1047.375
       204   06 Jun 2027 07:42:29.044   06 Jun 2027 07:43:06.210            37.166                Novosib          2244.375
       205   06 Jun 2027 09:13:39.717   06 Jun 2027 09:14:37.855            58.138                Novosib          7130.000
       206   06 Jun 2027 09:14:39.289   06 Jun 2027 09:15:04.304            25.015                Norilsk           717.000
       207   06 Jun 2027 09:15:07.848   06 Jun 2027 09:16:08.519            60.671                Novosib          1772.000
       208   06 Jun 2027 09:16:09.646   06 Jun 2027 09:16:45.742            36.096              Murmansk1           563.500
       209   06 Jun 2027 09:16:48.234   06 Jun 2027 09:17:32.908            44.674                Novosib          1246.000
       210   06 Jun 2027 09:17:50.918   06 Jun 2027 09:17:58.742             7.824              Murmansk1           868.500
       211   06 Jun 2027 09:18:01.836   06 Jun 2027 09:18:15.881            14.045                Norilsk          1547.000
       212   06 Jun 2027 09:18:20.336   06 Jun 2027 09:19:01.625            41.289              Murmansk2          2227.500
       213   07 Jun 2027 03:00:08.115   07 Jun 2027 03:00:46.906            38.791                Anadyr2          2014.500
       214   07 Jun 2027 03:00:48.450   07 Jun 2027 03:01:13.550            25.100               Magadan2           772.000
       215   07 Jun 2027 03:01:25.739   07 Jun 2027 03:02:19.497            53.758                Anadyr1          6094.500
       216   07 Jun 2027 03:02:24.672   07 Jun 2027 03:02:49.172            24.500                Anadyr2          2587.500
       217   07 Jun 2027 03:02:55.188   07 Jun 2027 03:03:31.088            35.900               Magadan1          3008.000
       218   07 Jun 2027 03:03:42.639   07 Jun 2027 03:04:07.011            24.372               Magadan2          3046.500
       219   07 Jun 2027 03:04:19.252   07 Jun 2027 03:05:30.167            70.915               Magadan2          8849.500
       220   07 Jun 2027 04:35:16.038   07 Jun 2027 04:35:44.282            28.244                Norilsk          3530.500
       221   07 Jun 2027 04:35:50.338   07 Jun 2027 04:36:31.364            41.026                Norilsk          5128.250
       222   07 Jun 2027 04:36:48.776   07 Jun 2027 04:38:49.750           120.974               Magadan1         13195.750
       223   07 Jun 2027 04:38:51.558   07 Jun 2027 04:39:11.072            19.514                Norilsk           904.000
       224   07 Jun 2027 04:39:14.607   07 Jun 2027 04:40:20.809            66.202                Norilsk          1767.500
       225   07 Jun 2027 04:40:23.478   07 Jun 2027 04:41:01.227            37.749               Magadan1          1334.500
       226   07 Jun 2027 04:41:03.279   07 Jun 2027 04:41:19.167            15.888              Murmansk2          1026.000
       227   07 Jun 2027 04:41:33.942   07 Jun 2027 04:43:06.945            93.003              Murmansk1          7387.500
       228   07 Jun 2027 06:12:08.652   07 Jun 2027 06:13:00.824            52.172                Irkutsk          3395.000
       229   07 Jun 2027 06:13:01.898   07 Jun 2027 06:13:22.638            20.740                Norilsk           537.000
       230   07 Jun 2027 06:13:30.504   07 Jun 2027 06:14:23.703            53.199                Novosib          3933.000
       231   07 Jun 2027 06:14:30.625   07 Jun 2027 06:14:59.336            28.711                Norilsk          3461.000
       232   07 Jun 2027 06:15:04.364   07 Jun 2027 06:15:51.343            46.979                Novosib          2514.000
       233   07 Jun 2027 06:15:53.172   07 Jun 2027 06:16:24.020            30.848                Norilsk           914.500
       234   07 Jun 2027 06:16:32.795   07 Jun 2027 06:17:17.417            44.622              Murmansk2          4387.500
       235   07 Jun 2027 06:17:18.810   07 Jun 2027 06:17:51.743            32.933                 Moscow           696.500
       236   07 Jun 2027 06:18:28.369   07 Jun 2027 06:19:24.138            55.769                 Moscow          6963.500
       237   07 Jun 2027 07:50:03.903   07 Jun 2027 07:51:27.452            83.549                Norilsk          3265.000
       238   07 Jun 2027 07:51:31.512   07 Jun 2027 07:52:00.960            29.448                Irkutsk          2030.000
       239   07 Jun 2027 07:52:10.418   07 Jun 2027 07:53:04.006            53.588                Norilsk          4729.000
       240   07 Jun 2027 07:53:04.137   07 Jun 2027 07:53:10.467             6.330              Murmansk1            65.500
       241   07 Jun 2027 07:53:21.114   07 Jun 2027 07:54:21.296            60.182              Murmansk1          5323.500
       242   07 Jun 2027 09:23:38.893   07 Jun 2027 09:26:12.116           153.223                 Moscow         17953.000
       243   07 Jun 2027 09:26:15.954   07 Jun 2027 09:26:37.306            21.352                Novosib          1919.000
       244   07 Jun 2027 09:26:55.395   07 Jun 2027 09:28:09.439            74.044              Murmansk2          9044.500
       245   07 Jun 2027 09:28:16.241   07 Jun 2027 09:28:55.961            39.720                 Moscow          3401.000
       246   07 Jun 2027 09:28:56.590   07 Jun 2027 09:29:02.385             5.795                Novosib           314.500
       247   07 Jun 2027 09:29:06.433   07 Jun 2027 09:29:27.143            20.710                 Moscow          2024.000
       248   07 Jun 2027 09:30:07.589   07 Jun 2027 09:30:25.713            18.124              Murmansk1          1306.500
       249   07 Jun 2027 09:30:42.790   07 Jun 2027 09:32:32.525           109.735                 Moscow          8538.500
       250   08 Jun 2027 03:09:46.174   08 Jun 2027 03:10:15.561            29.387               Magadan1          1415.500
       251   08 Jun 2027 03:10:15.823   08 Jun 2027 03:10:39.697            23.874               Magadan1           131.000
       252   08 Jun 2027 03:10:53.163   08 Jun 2027 03:11:16.300            23.137                Anadyr1          2892.125
       253   08 Jun 2027 03:11:16.300   08 Jun 2027 03:11:49.208            32.908                Anadyr2          3840.875
       254   08 Jun 2027 03:12:01.242   08 Jun 2027 03:12:55.007            53.765                Irkutsk          6017.000
       255   08 Jun 2027 03:13:04.083   08 Jun 2027 03:14:03.591            59.508                Anadyr2          4538.000
       256   08 Jun 2027 03:14:04.399   08 Jun 2027 03:14:15.125            10.726               Magadan1           404.000
       257   08 Jun 2027 03:14:16.256   08 Jun 2027 03:14:35.239            18.983                Anadyr2           565.500
       258   08 Jun 2027 03:14:39.408   08 Jun 2027 03:15:03.121            23.713                Anadyr1          2084.500
       259   08 Jun 2027 03:15:08.016   08 Jun 2027 03:16:06.686            58.670               Magadan1          2447.500
       260   08 Jun 2027 03:16:07.390   08 Jun 2027 03:16:22.008            14.618               Magadan2           352.000
       261   08 Jun 2027 03:16:22.970   08 Jun 2027 03:16:51.214            28.244                Irkutsk           481.000
       262   08 Jun 2027 03:16:58.844   08 Jun 2027 03:17:41.804            42.960               Magadan1          3815.000
       263   08 Jun 2027 03:17:42.454   08 Jun 2027 03:17:55.042            12.588                Novosib           161.500
       264   08 Jun 2027 03:17:57.646   08 Jun 2027 03:18:28.036            30.390               Magadan2          1302.000
       265   08 Jun 2027 04:47:18.035   08 Jun 2027 04:47:39.441            21.406                Norilsk          2427.000
       266   08 Jun 2027 04:47:44.400   08 Jun 2027 04:48:18.183            33.783                Irkutsk          2479.500
       267   08 Jun 2027 04:48:19.771   08 Jun 2027 04:48:24.662             4.891               Magadan2           611.375
       268   08 Jun 2027 04:48:24.662   08 Jun 2027 04:48:39.551            14.889               Magadan1           182.625
       269   08 Jun 2027 04:48:46.647   08 Jun 2027 04:49:21.104            34.457               Magadan2          3548.000
       270   08 Jun 2027 04:49:35.926   08 Jun 2027 04:51:11.719            95.793                Irkutsk          7411.000
       271   08 Jun 2027 04:51:13.532   08 Jun 2027 04:51:36.693            23.161                Norilsk           906.500
       272   08 Jun 2027 04:51:55.109   08 Jun 2027 04:53:40.879           105.770                Novosib          9208.000
       273   08 Jun 2027 04:53:42.651   08 Jun 2027 04:53:54.539            11.888              Murmansk2           886.000
       274   08 Jun 2027 04:54:11.766   08 Jun 2027 04:55:34.755            82.989              Murmansk2          8613.500
       275   08 Jun 2027 06:24:15.184   08 Jun 2027 06:25:56.764           101.580                Irkutsk          8640.500
       276   08 Jun 2027 06:26:29.893   08 Jun 2027 06:29:11.527           161.634              Murmansk1         16564.500
       277   08 Jun 2027 06:29:25.629   08 Jun 2027 06:30:05.768            40.139                 Moscow          5017.375
       278   08 Jun 2027 06:30:32.362   08 Jun 2027 06:32:11.422            99.060              Murmansk2         12109.625
       279   08 Jun 2027 08:01:56.717   08 Jun 2027 08:02:15.971            19.254                Novosib            33.500
       280   08 Jun 2027 08:02:19.482   08 Jun 2027 08:03:25.069            65.587                Norilsk          1755.500
       281   08 Jun 2027 08:03:27.165   08 Jun 2027 08:04:09.801            42.636                 Moscow          1048.000
       282   08 Jun 2027 08:04:19.228   08 Jun 2027 08:05:20.075            60.847                Novosib          4713.500
       283   08 Jun 2027 08:05:27.754   08 Jun 2027 08:06:46.821            79.067                Novosib          3839.500
       284   08 Jun 2027 09:35:36.208   08 Jun 2027 09:35:58.811            22.603                 Moscow          1023.500
       285   08 Jun 2027 09:36:06.545   08 Jun 2027 09:36:11.963             5.418              Murmansk1           677.250
       286   08 Jun 2027 09:36:11.963   08 Jun 2027 09:37:05.821            53.858              Murmansk2          3189.750
       287   08 Jun 2027 09:37:26.795   08 Jun 2027 09:39:24.489           117.694                 Moscow         10487.000
       288   08 Jun 2027 09:39:27.930   08 Jun 2027 09:40:09.554            41.624              Murmansk1          1720.500
       289   08 Jun 2027 09:40:15.505   08 Jun 2027 09:40:40.784            25.279                 Moscow          2975.500
       290   08 Jun 2027 09:40:58.342   08 Jun 2027 09:42:16.184            77.842              Murmansk2          8779.000
       291   08 Jun 2027 09:42:18.182   08 Jun 2027 09:43:02.620            44.438                 Moscow           999.000
       292   09 Jun 2027 03:21:14.773   09 Jun 2027 03:21:40.425            25.652               Magadan2          1180.500
       293   09 Jun 2027 03:21:43.286   09 Jun 2027 03:22:17.414            34.128               Magadan2          1430.500
       294   09 Jun 2027 03:22:40.053   09 Jun 2027 03:23:54.884            74.831               Magadan1          9353.875
       295   09 Jun 2027 03:23:57.041   09 Jun 2027 03:24:24.216            27.175                Irkutsk          3044.125
       296   09 Jun 2027 03:24:37.788   09 Jun 2027 03:25:59.796            82.008               Magadan1          6786.000
       297   09 Jun 2027 03:26:04.544   09 Jun 2027 03:26:29.536            24.992                Anadyr2          2374.000
       298   09 Jun 2027 03:26:37.544   09 Jun 2027 03:27:25.770            48.226                Irkutsk          4004.000
       299   09 Jun 2027 03:27:28.386   09 Jun 2027 03:28:06.578            38.192                Irkutsk          1308.000
       300   09 Jun 2027 03:28:07.343   09 Jun 2027 03:28:24.726            17.383               Magadan2           382.500
       301   09 Jun 2027 03:28:26.689   09 Jun 2027 03:29:26.180            59.491               Magadan1           981.500
       302   09 Jun 2027 03:29:37.248   09 Jun 2027 03:29:49.410            12.162                Anadyr1           316.000
       303   09 Jun 2027 03:29:58.937   09 Jun 2027 03:30:42.991            44.054              Murmansk1          4763.500
       304   09 Jun 2027 04:59:08.803   09 Jun 2027 04:59:18.321             9.518               Magadan2           863.500
       305   09 Jun 2027 04:59:28.088   09 Jun 2027 05:00:17.751            49.663                Irkutsk          4883.500
       306   09 Jun 2027 05:00:22.704   09 Jun 2027 05:00:38.186            15.482               Magadan1          1935.250
       307   09 Jun 2027 05:00:38.186   09 Jun 2027 05:01:06.986            28.800               Magadan2           541.250
       308   09 Jun 2027 05:01:31.985   09 Jun 2027 05:04:10.683           158.698               Magadan1         12499.500
       309   09 Jun 2027 05:04:11.652   09 Jun 2027 05:04:57.435            45.783              Murmansk2           484.500
       310   09 Jun 2027 05:05:04.569   09 Jun 2027 05:05:56.608            52.039              Murmansk1          3567.000
       311   09 Jun 2027 05:06:01.153   09 Jun 2027 05:07:07.751            66.598              Murmansk2          2272.500
       312   09 Jun 2027 06:35:54.336   09 Jun 2027 06:35:57.815             3.479                Novosib           434.875
       313   09 Jun 2027 06:36:09.146   09 Jun 2027 06:37:41.728            92.582                Novosib          6715.125
       314   09 Jun 2027 06:37:45.616   09 Jun 2027 06:37:54.030             8.414                Norilsk          1051.750
       315   09 Jun 2027 06:37:55.750   09 Jun 2027 06:38:29.452            33.702                Irkutsk          1752.250
       316   09 Jun 2027 06:38:32.264   09 Jun 2027 06:39:03.988            31.724                Norilsk          1406.000
       317   09 Jun 2027 06:39:13.454   09 Jun 2027 06:40:03.924            50.470              Murmansk2          4733.000
       318   09 Jun 2027 06:40:04.758   09 Jun 2027 06:40:45.340            40.582                Novosib           417.000
       319   09 Jun 2027 06:40:46.936   09 Jun 2027 06:41:38.409            51.473                Irkutsk           798.000
       320   09 Jun 2027 06:41:52.837   09 Jun 2027 06:42:52.249            59.412              Murmansk2          7214.000
       321   09 Jun 2027 08:13:53.482   09 Jun 2027 08:14:30.405            36.923                Norilsk          4368.000
       322   09 Jun 2027 08:15:04.505   09 Jun 2027 08:17:25.220           140.715                Novosib         17050.000
       323   09 Jun 2027 08:17:31.886   09 Jun 2027 08:18:19.007            47.121                Novosib          3333.000
       324   09 Jun 2027 09:49:57.219   09 Jun 2027 09:51:44.959           107.740                 Moscow          7283.000
       325   09 Jun 2027 09:52:09.952   09 Jun 2027 09:54:07.381           117.429              Murmansk2         12496.500
       326   10 Jun 2027 03:34:19.447   10 Jun 2027 03:35:21.048            61.601               Magadan1          6996.500
       327   10 Jun 2027 03:35:33.980   10 Jun 2027 03:37:11.421            97.441               Magadan1          6466.000
       328   10 Jun 2027 03:37:12.246   10 Jun 2027 03:37:50.561            38.315                Novosib           412.500
       329   10 Jun 2027 03:37:56.440   10 Jun 2027 03:38:27.808            31.368                Anadyr2          2939.500
       330   10 Jun 2027 03:38:32.831   10 Jun 2027 03:38:55.673            22.842                Novosib          2511.500
       331   10 Jun 2027 03:39:10.270   10 Jun 2027 03:40:21.178            70.908                Norilsk          7298.500
       332   10 Jun 2027 03:40:27.366   10 Jun 2027 03:41:03.913            36.547               Magadan1          3094.000
       333   10 Jun 2027 03:41:06.384   10 Jun 2027 03:41:26.767            20.383               Magadan1          1235.500
       334   10 Jun 2027 03:41:28.634   10 Jun 2027 03:41:43.674            15.040              Murmansk2           933.500
       335   10 Jun 2027 03:41:47.702   10 Jun 2027 03:42:08.028            20.326                Novosib          2014.000
       336   10 Jun 2027 03:42:19.646   10 Jun 2027 03:42:35.649            16.003               Magadan2          2000.375
       337   10 Jun 2027 03:42:38.997   10 Jun 2027 03:42:46.322             7.325                Norilsk           915.625
       338   10 Jun 2027 03:42:48.769   10 Jun 2027 03:43:32.141            43.372              Murmansk2          3173.000
       339   10 Jun 2027 05:11:19.315   10 Jun 2027 05:11:53.696            34.381                Novosib          1654.500
       340   10 Jun 2027 05:12:02.870   10 Jun 2027 05:12:58.650            55.780                Norilsk          4587.000
       341   10 Jun 2027 05:13:10.963   10 Jun 2027 05:14:16.216            65.253               Magadan1          6156.500
       342   10 Jun 2027 05:14:21.100   10 Jun 2027 05:15:19.623            58.523                Irkutsk          2442.000
       343   10 Jun 2027 05:15:39.170   10 Jun 2027 05:16:39.628            60.458                Novosib          7557.250
       344   10 Jun 2027 05:16:42.614   10 Jun 2027 05:17:25.708            43.094                Norilsk          3709.250
       345   10 Jun 2027 05:17:45.423   10 Jun 2027 05:19:04.961            79.538                Norilsk          9857.500
       346   10 Jun 2027 06:48:32.442   10 Jun 2027 06:50:11.149            98.707                Novosib          1172.500
       347   10 Jun 2027 06:50:16.648   10 Jun 2027 06:51:08.303            51.655                 Moscow          2749.500
       348   10 Jun 2027 06:51:22.044   10 Jun 2027 06:53:03.347           101.303              Murmansk1          6870.500
       349   10 Jun 2027 06:53:20.001   10 Jun 2027 06:54:15.261            55.260              Murmansk2          4762.500
       350   10 Jun 2027 06:54:28.159   10 Jun 2027 06:55:30.594            62.435                Novosib          2954.000
       351   10 Jun 2027 08:25:12.163   10 Jun 2027 08:25:16.233             4.070                Norilsk           508.750
       352   10 Jun 2027 08:25:27.833   10 Jun 2027 08:26:18.857            51.024              Murmansk2          6037.750
       353   10 Jun 2027 08:26:32.292   10 Jun 2027 08:27:36.625            64.333                Norilsk          6717.500
       354   10 Jun 2027 08:27:37.016   10 Jun 2027 08:27:58.977            21.961              Murmansk1           195.500
       355   10 Jun 2027 08:28:08.839   10 Jun 2027 08:28:58.353            49.514                Norilsk          4931.000
       356   10 Jun 2027 08:29:08.468   10 Jun 2027 08:30:30.012            81.544                Norilsk          5057.500
       357   10 Jun 2027 10:00:34.615   10 Jun 2027 10:01:20.917            46.302                 Moscow          5598.000
       358   10 Jun 2027 10:02:13.451   10 Jun 2027 10:03:28.219            74.768                 Moscow          2192.000
       359   10 Jun 2027 10:03:30.494   10 Jun 2027 10:04:10.613            40.119              Murmansk1          1137.500
       360   10 Jun 2027 10:04:33.054   10 Jun 2027 10:04:52.675            19.621                 Moscow          2452.625
       361   10 Jun 2027 10:05:04.914   10 Jun 2027 10:07:23.578           138.664                 Moscow         14887.375
       362   11 Jun 2027 03:46:34.280   11 Jun 2027 03:47:05.368            31.088                Irkutsk           632.500
       363   11 Jun 2027 03:47:12.718   11 Jun 2027 03:47:53.817            41.099               Magadan1          3675.000
       364   11 Jun 2027 03:48:11.284   11 Jun 2027 03:49:36.667            85.383                Irkutsk          8733.500
       365   11 Jun 2027 03:49:42.040   11 Jun 2027 03:50:09.266            27.226                Anadyr1          2686.500
       366   11 Jun 2027 03:50:12.154   11 Jun 2027 03:50:41.490            29.336               Magadan2          1444.000
       367   11 Jun 2027 03:50:43.553   11 Jun 2027 03:51:13.112            29.559                Anadyr1          1031.500
       368   11 Jun 2027 03:51:13.387   11 Jun 2027 03:51:22.112             8.725               Magadan1           137.500
       369   11 Jun 2027 03:51:23.481   11 Jun 2027 03:52:47.162            83.681                Anadyr1           684.500
       370   11 Jun 2027 03:52:50.756   11 Jun 2027 03:53:09.102            18.346                Anadyr1          1797.000
       371   11 Jun 2027 03:53:14.847   11 Jun 2027 03:53:50.520            35.673               Magadan1          2872.500
       372   11 Jun 2027 03:53:51.118   11 Jun 2027 03:54:05.095            13.977                Novosib           299.000
       373   11 Jun 2027 03:54:06.064   11 Jun 2027 03:54:18.449            12.385               Magadan2           484.500
       374   11 Jun 2027 03:54:22.284   11 Jun 2027 03:54:33.325            11.041                Novosib          1380.125
       375   11 Jun 2027 03:54:36.014   11 Jun 2027 03:54:52.758            16.744              Murmansk1          1104.375
       376   11 Jun 2027 05:23:43.801   11 Jun 2027 05:24:11.659            27.858                Novosib          1814.000
       377   11 Jun 2027 05:24:19.239   11 Jun 2027 05:24:52.444            33.205                Norilsk          3790.000
       378   11 Jun 2027 05:25:30.457   11 Jun 2027 05:28:40.432           189.975                Novosib         19006.500
       379   11 Jun 2027 05:28:46.624   11 Jun 2027 05:29:24.441            37.817              Murmansk2          3096.000
       380   11 Jun 2027 05:29:25.319   11 Jun 2027 05:29:59.779            34.460                Irkutsk           439.000
       381   11 Jun 2027 05:30:00.640   11 Jun 2027 05:30:05.972             5.332              Murmansk1           430.500
       382   11 Jun 2027 05:30:08.414   11 Jun 2027 05:30:38.400            29.986                Norilsk          1221.000
       383   11 Jun 2027 07:00:38.209   11 Jun 2027 07:00:58.241            20.032                  Delhi           103.000
       384   11 Jun 2027 07:01:05.583   11 Jun 2027 07:01:39.145            33.562                Norilsk          3671.000
       385   11 Jun 2027 07:01:44.660   11 Jun 2027 07:02:33.204            48.544                 Moscow          2757.500
       386   11 Jun 2027 07:02:34.724   11 Jun 2027 07:02:41.137             6.413                Norilsk           760.000
       387   11 Jun 2027 07:02:43.662   11 Jun 2027 07:02:55.687            12.025                Irkutsk          1262.500
       388   11 Jun 2027 07:03:08.302   11 Jun 2027 07:04:03.523            55.221                Irkutsk          6307.500
       389   11 Jun 2027 07:04:04.018   11 Jun 2027 07:04:21.914            17.896                 Moscow           247.500
       390   11 Jun 2027 07:04:26.000   11 Jun 2027 07:05:10.194            44.194                Norilsk          2043.000
       391   11 Jun 2027 07:05:13.046   11 Jun 2027 07:05:48.162            35.116              Murmansk2          1426.000
       392   11 Jun 2027 08:37:33.202   11 Jun 2027 08:39:04.057            90.855                Novosib          3914.500
       393   11 Jun 2027 08:39:09.341   11 Jun 2027 08:40:24.182            74.841                Novosib          2642.000
       394   11 Jun 2027 08:40:27.179   11 Jun 2027 08:40:36.778             9.599              Murmansk2          1199.875
       395   11 Jun 2027 08:40:36.778   11 Jun 2027 08:41:23.362            46.584              Murmansk1           298.625
       396   11 Jun 2027 08:41:38.819   11 Jun 2027 08:42:59.984            81.165                Norilsk          7728.500
       397   11 Jun 2027 10:15:39.867   11 Jun 2027 10:16:30.303            50.436                 Moscow          2060.500
       398   11 Jun 2027 10:16:39.248   11 Jun 2027 10:17:19.329            40.081              Murmansk2          3015.000
       399   12 Jun 2027 03:59:49.733   12 Jun 2027 04:00:15.149            25.416                Novosib          2285.500
       400   12 Jun 2027 04:00:16.264   12 Jun 2027 04:00:39.783            23.519                Norilsk           557.500
       401   12 Jun 2027 04:00:58.107   12 Jun 2027 04:02:12.453            74.346               Magadan1          9162.000
       402   12 Jun 2027 04:02:15.007   12 Jun 2027 04:02:36.689            21.682               Magadan1          1277.000
       403   12 Jun 2027 04:02:37.895   12 Jun 2027 04:02:50.487            12.592               Magadan1           603.000
       404   12 Jun 2027 04:02:52.557   12 Jun 2027 04:03:17.599            25.042                Novosib          1035.000
       405   12 Jun 2027 04:03:24.868   12 Jun 2027 04:03:58.321            33.453                Norilsk          3634.500
       406   12 Jun 2027 04:04:12.058   12 Jun 2027 04:05:07.603            55.545                Novosib          6868.500
       407   12 Jun 2027 04:05:14.403   12 Jun 2027 04:06:03.568            49.165              Murmansk2          3400.000
       408   12 Jun 2027 04:06:08.919   12 Jun 2027 04:06:18.528             9.609               Magadan1          1201.125
       409   12 Jun 2027 04:06:23.507   12 Jun 2027 04:07:00.644            37.137              Murmansk2          3963.875
       410   12 Jun 2027 05:36:14.734   12 Jun 2027 05:36:45.291            30.557                Norilsk          3819.625
       411   12 Jun 2027 05:36:59.049   12 Jun 2027 05:38:04.906            65.857                Novosib          7590.375
       412   12 Jun 2027 05:38:06.349   12 Jun 2027 05:38:38.638            32.289                Irkutsk           721.500
       413   12 Jun 2027 05:38:42.358   12 Jun 2027 05:39:07.272            24.914                Irkutsk          1860.000
       414   12 Jun 2027 05:39:09.039   12 Jun 2027 05:39:22.291            13.252                Novosib           883.500
       415   12 Jun 2027 05:39:22.973   12 Jun 2027 05:39:51.320            28.347                Norilsk           341.000
       416   12 Jun 2027 05:39:54.406   12 Jun 2027 05:40:10.809            16.403              Murmansk1          1543.000
       417   12 Jun 2027 05:40:14.084   12 Jun 2027 05:40:19.555             5.471                Norilsk           683.875
       418   12 Jun 2027 05:40:30.806   12 Jun 2027 05:41:05.592            34.786                Norilsk          4348.250
       419   12 Jun 2027 05:41:22.465   12 Jun 2027 05:42:28.484            66.019                Novosib          8252.375
       420   12 Jun 2027 05:42:29.770   12 Jun 2027 05:42:45.115            15.345                Norilsk          1918.125
       421   12 Jun 2027 05:42:54.583   12 Jun 2027 05:43:09.843            15.260              Murmansk2           496.875
       422   12 Jun 2027 07:13:41.202   12 Jun 2027 07:14:11.680            30.478              Murmansk2           735.000
       423   12 Jun 2027 07:14:28.386   12 Jun 2027 07:16:08.849           100.463                Irkutsk          8353.000
       424   12 Jun 2027 07:16:09.862   12 Jun 2027 07:17:06.829            56.967              Murmansk2           506.500
       425   12 Jun 2027 07:17:09.864   12 Jun 2027 07:17:25.994            16.130                Irkutsk          1517.500
       426   12 Jun 2027 07:17:39.306   12 Jun 2027 07:19:01.917            82.611              Murmansk1          6656.000
       427   12 Jun 2027 08:49:49.247   12 Jun 2027 08:51:04.704            75.457              Murmansk1          3083.000
       428   12 Jun 2027 08:51:09.239   12 Jun 2027 08:51:51.669            42.430                Novosib          2267.500
       429   12 Jun 2027 08:51:53.080   12 Jun 2027 08:52:03.323            10.243                 Moscow           705.500
       430   12 Jun 2027 08:52:24.610   12 Jun 2027 08:54:31.785           127.175                Novosib         10643.500
       431   13 Jun 2027 04:11:59.192   13 Jun 2027 04:12:12.029            12.837               Magadan1          1026.000
       432   13 Jun 2027 04:12:20.339   13 Jun 2027 04:12:58.843            38.504                Novosib          4155.000
       433   13 Jun 2027 04:13:04.182   13 Jun 2027 04:13:40.996            36.814                Irkutsk          2669.500
       434   13 Jun 2027 04:13:45.086   13 Jun 2027 04:14:09.669            24.583                Irkutsk          2045.000
       435   13 Jun 2027 04:14:09.948   13 Jun 2027 04:14:17.906             7.958               Magadan1           139.500
       436   13 Jun 2027 04:14:19.711   13 Jun 2027 04:14:36.280            16.569               Magadan2           902.500
       437   13 Jun 2027 04:14:38.667   13 Jun 2027 04:14:58.984            20.317                Novosib          1193.500
       438   13 Jun 2027 04:15:06.849   13 Jun 2027 04:16:18.559            71.710                Novosib          3932.500
       439   13 Jun 2027 04:16:34.592   13 Jun 2027 04:18:11.748            97.156               Magadan2          8016.500
       440   13 Jun 2027 04:18:32.889   13 Jun 2027 04:18:33.117             0.228                Irkutsk            28.500
       441   13 Jun 2027 04:18:35.150   13 Jun 2027 04:19:39.721            64.571                Novosib          8071.375
       442   13 Jun 2027 04:19:45.598   13 Jun 2027 04:20:08.643            23.045                Norilsk          2470.625
       443   13 Jun 2027 05:48:37.275   13 Jun 2027 05:50:21.190           103.915                Norilsk         10949.000
       444   13 Jun 2027 05:50:24.269   13 Jun 2027 05:51:06.232            41.963                Novosib          1539.500
       445   13 Jun 2027 05:51:16.191   13 Jun 2027 05:52:50.907            94.716                Novosib          4979.500
       446   13 Jun 2027 05:52:55.558   13 Jun 2027 05:53:16.340            20.782                Novosib          2325.500
       447   13 Jun 2027 05:53:18.324   13 Jun 2027 05:53:57.682            39.358                Norilsk           992.000
       448   13 Jun 2027 05:54:04.323   13 Jun 2027 05:54:20.301            15.978              Murmansk1          1680.500
       449   13 Jun 2027 07:25:51.282   13 Jun 2027 07:26:21.885            30.603                Novosib          3712.500
       450   13 Jun 2027 07:26:27.883   13 Jun 2027 07:27:19.646            51.763              Murmansk1          2999.000
       451   13 Jun 2027 07:27:28.960   13 Jun 2027 07:28:16.065            47.105                 Moscow          4657.000
       452   13 Jun 2027 07:28:18.376   13 Jun 2027 07:28:34.400            16.024                 Moscow          1155.500
       453   13 Jun 2027 07:28:56.249   13 Jun 2027 07:30:32.180            95.931                Novosib         10924.500
       454   13 Jun 2027 09:02:00.093   13 Jun 2027 09:02:57.613            57.520              Murmansk1          6431.500
       455   13 Jun 2027 09:03:00.296   13 Jun 2027 09:03:34.146            33.850                 Moscow          1341.500
       456   13 Jun 2027 09:03:36.732   13 Jun 2027 09:03:47.936            11.204              Murmansk1          1293.000
       457   13 Jun 2027 09:03:52.687   13 Jun 2027 09:04:22.062            29.375                Norilsk          2375.500
       458   13 Jun 2027 09:04:24.322   13 Jun 2027 09:04:55.559            31.237                Novosib          1130.000
       459   13 Jun 2027 09:05:12.152   13 Jun 2027 09:06:24.168            72.016                Norilsk          8296.500
       460   13 Jun 2027 09:06:24.991   13 Jun 2027 09:06:42.277            17.286                Norilsk           411.500
