uniorb/output/strategy_2/Drop/Drop_KinoSat_111706.txt

KinoSat_111706
-------------------------
    Access    *     Start Time (UTCG)     *     Stop Time (UTCG)  *   Duration (s)        *       Station  *  Data (Mbytes)
         1   01 Jun 2027 03:00:39.019   01 Jun 2027 03:00:44.331             5.312              Murmansk1           166.000
         2   01 Jun 2027 03:00:45.713   01 Jun 2027 03:01:19.105            33.392                Novosib          1043.500
         3   01 Jun 2027 03:01:21.726   01 Jun 2027 03:01:48.909            27.183              Murmansk1           849.469
         4   01 Jun 2027 03:02:16.045   01 Jun 2027 03:03:51.478            95.433                 Moscow          2982.281
         5   01 Jun 2027 03:04:28.110   01 Jun 2027 03:04:40.184            12.074              Murmansk2           377.313
         6   01 Jun 2027 03:04:44.566   01 Jun 2027 03:04:52.878             8.312                 Moscow           259.750
         7   01 Jun 2027 03:04:54.494   01 Jun 2027 03:05:38.131            43.637              Murmansk2          1363.656
         8   01 Jun 2027 03:06:29.587   01 Jun 2027 03:08:31.824           122.237                  Delhi          3819.906
         9   01 Jun 2027 04:40:50.675   01 Jun 2027 04:40:59.321             8.646              Murmansk2           270.188
        10   01 Jun 2027 04:41:00.719   01 Jun 2027 04:41:09.472             8.753              Murmansk2           273.531
        11   01 Jun 2027 04:41:16.947   01 Jun 2027 04:41:29.322            12.375                Norilsk           386.719
        12   01 Jun 2027 04:41:42.412   01 Jun 2027 04:44:20.593           158.181                Novosib          4943.156
        13   01 Jun 2027 04:44:23.145   01 Jun 2027 04:45:16.659            53.514              Murmansk2          1672.313
        14   01 Jun 2027 04:45:44.390   01 Jun 2027 04:46:38.716            54.326                 Moscow          1697.688
        15   01 Jun 2027 05:00:39.068   01 Jun 2027 05:02:46.551           127.483               CapeTown          3983.844
        16   01 Jun 2027 05:03:13.321   01 Jun 2027 05:03:55.320            41.999               CapeTown          1312.469
        17   01 Jun 2027 05:56:59.516   01 Jun 2027 05:58:18.582            79.066                Anadyr2          2470.813
        18   01 Jun 2027 06:04:27.521   01 Jun 2027 06:04:35.353             7.832                Anadyr2           244.750
        19   01 Jun 2027 06:05:22.666   01 Jun 2027 06:05:52.721            30.055               Magadan1           939.219
        20   01 Jun 2027 06:05:52.721   01 Jun 2027 06:06:20.400            27.679               Magadan2           864.969
        21   01 Jun 2027 06:16:33.877   01 Jun 2027 06:16:43.010             9.133              Murmansk1           285.406
        22   01 Jun 2027 06:17:07.646   01 Jun 2027 06:17:36.295            28.649              Murmansk2           895.281
        23   01 Jun 2027 06:18:09.531   01 Jun 2027 06:18:39.639            30.108              Murmansk2           940.875
        24   01 Jun 2027 06:19:28.685   01 Jun 2027 06:20:48.874            80.189              Murmansk2          2505.906
        25   01 Jun 2027 07:38:29.263   01 Jun 2027 07:38:57.762            28.499               Magadan2           890.594
        26   01 Jun 2027 07:39:54.459   01 Jun 2027 07:44:31.832           277.373                Anadyr2          8667.906
        27   01 Jun 2027 09:14:58.932   01 Jun 2027 09:16:18.630            79.698                Anadyr1          2490.562
        28   01 Jun 2027 09:17:32.713   01 Jun 2027 09:21:09.079           216.366                Anadyr1          6761.438
        29   01 Jun 2027 10:49:51.985   01 Jun 2027 10:54:20.651           268.666               Magadan2          8395.812
        30   01 Jun 2027 10:55:14.983   01 Jun 2027 10:56:18.785            63.802               Magadan2          1993.813
        31   01 Jun 2027 12:20:38.207   01 Jun 2027 12:22:11.100            92.893                Irkutsk          2902.906
        32   01 Jun 2027 12:22:42.271   01 Jun 2027 12:22:55.283            13.012                Novosib           406.625
        33   01 Jun 2027 12:25:12.311   01 Jun 2027 12:26:28.219            75.908                Norilsk          2372.125
        34   01 Jun 2027 13:45:33.074   01 Jun 2027 13:49:48.516           255.442                Sumatra          7982.562
        35   01 Jun 2027 14:00:51.719   01 Jun 2027 14:01:23.237            31.518                Novosib           984.937
        36   01 Jun 2027 14:01:28.977   01 Jun 2027 14:04:46.074           197.097                Irkutsk          6159.281
        37   01 Jun 2027 15:32:04.399   01 Jun 2027 15:34:11.060           126.661                  Delhi          3958.156
        38   01 Jun 2027 15:34:43.128   01 Jun 2027 15:35:01.885            18.757                  Delhi           586.156
        39   01 Jun 2027 15:36:18.011   01 Jun 2027 15:36:49.949            31.938                 Moscow           998.063
        40   01 Jun 2027 15:38:44.959   01 Jun 2027 15:39:47.844            62.885              Murmansk1          1965.156
        41   01 Jun 2027 15:40:06.935   01 Jun 2027 15:41:00.135            53.200                Novosib          1662.500
        42   01 Jun 2027 15:41:25.466   01 Jun 2027 15:43:30.943           125.477                Novosib          3921.156
        43   01 Jun 2027 17:12:11.960   01 Jun 2027 17:13:16.057            64.097                 Moscow          2003.031
        44   01 Jun 2027 17:15:31.025   01 Jun 2027 17:17:26.996           115.971              Murmansk2          3624.094
        45   01 Jun 2027 17:29:58.303   01 Jun 2027 17:31:10.217            71.914                Anadyr2          2247.312
        46   01 Jun 2027 18:24:45.511   01 Jun 2027 18:27:00.336           134.825               CapeTown          4213.281
        47   01 Jun 2027 18:54:25.255   01 Jun 2027 18:54:56.831            31.576              Murmansk2           986.750
        48   01 Jun 2027 18:55:57.879   01 Jun 2027 18:59:46.946           229.067              Murmansk1          7158.344
        49   01 Jun 2027 19:00:57.728   01 Jun 2027 19:01:38.372            40.644              Murmansk1          1270.125
        50   01 Jun 2027 19:09:16.241   01 Jun 2027 19:09:39.730            23.489               Magadan1           734.031
        51   01 Jun 2027 20:03:00.746   01 Jun 2027 20:04:58.845           118.099               CapeTown          3690.594
        52   01 Jun 2027 20:06:36.492   01 Jun 2027 20:07:30.588            54.096               CapeTown          1690.500
        53   01 Jun 2027 20:41:17.805   01 Jun 2027 20:42:08.851            51.046                Anadyr1          1595.188
        54   01 Jun 2027 20:42:50.326   01 Jun 2027 20:42:56.443             6.117                Anadyr1           191.156
        55   01 Jun 2027 20:43:13.392   01 Jun 2027 20:44:31.823            78.431                Anadyr2          2450.969
        56   01 Jun 2027 20:44:40.350   01 Jun 2027 20:45:37.226            56.876               Magadan2          1777.375
        57   01 Jun 2027 20:46:02.055   01 Jun 2027 20:46:07.380             5.325               Magadan2           166.406
        58   01 Jun 2027 20:46:31.674   01 Jun 2027 20:46:54.370            22.696               Magadan2           709.250
        59   01 Jun 2027 22:17:11.505   01 Jun 2027 22:19:10.058           118.553                Anadyr1          3704.781
        60   01 Jun 2027 22:19:20.045   01 Jun 2027 22:21:23.126           123.081                Anadyr2          3846.281
        61   01 Jun 2027 22:21:26.198   01 Jun 2027 22:23:11.890           105.692               Magadan2          3302.875
        62   01 Jun 2027 22:24:37.134   01 Jun 2027 22:25:13.385            36.251               Magadan1          1132.844
        63   01 Jun 2027 22:25:32.295   01 Jun 2027 22:26:26.464            54.169                Irkutsk          1692.781
        64   01 Jun 2027 22:27:53.444   01 Jun 2027 22:27:57.300             3.856                Irkutsk           120.500
        65   01 Jun 2027 23:11:23.354   01 Jun 2027 23:12:58.149            94.795            RioGallegos          2962.344
        66   01 Jun 2027 23:52:42.006   01 Jun 2027 23:54:56.277           134.271                Anadyr2          4195.969
        67   01 Jun 2027 23:55:00.959   01 Jun 2027 23:56:43.363           102.404                Norilsk          3200.125
        68   01 Jun 2027 23:56:53.654   01 Jun 2027 23:57:02.199             8.545               Magadan1           267.031
        69   01 Jun 2027 23:57:11.206   01 Jun 2027 23:57:43.758            32.552               Magadan1          1017.250
        70   01 Jun 2027 23:58:46.504   01 Jun 2027 23:58:58.605            12.101               Magadan1           378.156
        71   01 Jun 2027 23:59:04.604   01 Jun 2027 23:59:43.992            39.388                Irkutsk          1230.875
        72   02 Jun 2027 00:00:07.577   02 Jun 2027 00:00:35.484            27.907                Irkutsk           872.094
        73   02 Jun 2027 00:00:58.583   02 Jun 2027 00:01:45.422            46.839                Novosib          1463.719
        74   02 Jun 2027 00:02:52.928   02 Jun 2027 00:03:19.471            26.543                Novosib           829.469
        75   02 Jun 2027 00:06:33.223   02 Jun 2027 00:07:04.220            30.997                Novosib           968.656
        76   02 Jun 2027 00:12:45.977   02 Jun 2027 00:13:18.542            32.565                Sumatra          1017.656
        77   02 Jun 2027 00:46:56.464   02 Jun 2027 00:48:54.378           117.914            RioGallegos          3684.812
        78   02 Jun 2027 01:27:21.585   02 Jun 2027 01:28:01.297            39.712                Anadyr2          1241.000
        79   02 Jun 2027 01:29:15.193   02 Jun 2027 01:29:52.898            37.705                Anadyr2          1178.281
        80   02 Jun 2027 01:31:00.504   02 Jun 2027 01:32:43.093           102.589                Norilsk          3205.906
        81   02 Jun 2027 01:32:45.542   02 Jun 2027 01:32:56.508            10.966               Magadan1           342.687
        82   02 Jun 2027 01:34:14.647   02 Jun 2027 01:34:39.381            24.734               Magadan2           772.938
        83   02 Jun 2027 01:34:54.346   02 Jun 2027 01:36:49.962           115.616                Novosib          3613.000
        84   02 Jun 2027 01:38:03.187   02 Jun 2027 01:38:19.794            16.607                Novosib           518.969
        85   02 Jun 2027 01:39:39.532   02 Jun 2027 01:40:04.405            24.873                Irkutsk           777.281
        86   02 Jun 2027 01:42:26.002   02 Jun 2027 01:42:47.572            21.570                  Delhi           674.063
        87   02 Jun 2027 01:43:31.633   02 Jun 2027 01:44:05.410            33.777                  Delhi          1055.531
        88   02 Jun 2027 01:52:26.291   02 Jun 2027 01:53:16.030            49.739                Sumatra          1554.344
        89   02 Jun 2027 01:55:53.575   02 Jun 2027 01:56:11.312            17.737                Sumatra           554.281
        90   02 Jun 2027 02:23:55.637   02 Jun 2027 02:24:42.273            46.636            RioGallegos          1457.375
        91   02 Jun 2027 02:26:47.644   02 Jun 2027 02:27:15.803            28.159            RioGallegos           879.969
        92   02 Jun 2027 02:27:40.252   02 Jun 2027 02:27:51.420            11.168            RioGallegos           349.000
        93   02 Jun 2027 03:14:13.518   02 Jun 2027 03:15:53.446            99.928                 Moscow          3122.750
        94   02 Jun 2027 03:16:11.423   02 Jun 2027 03:16:28.630            17.207                Irkutsk           537.719
        95   02 Jun 2027 03:16:34.440   02 Jun 2027 03:17:43.680            69.240                Novosib          2163.750
        96   02 Jun 2027 03:17:57.006   02 Jun 2027 03:19:39.615           102.609                Irkutsk          3206.531
        97   02 Jun 2027 04:52:29.586   02 Jun 2027 04:52:39.605            10.019              Murmansk2           313.094
        98   02 Jun 2027 04:53:01.880   02 Jun 2027 04:53:05.643             3.763                 Moscow           117.594
        99   02 Jun 2027 04:53:09.618   02 Jun 2027 04:53:55.596            45.978              Murmansk2          1436.813
       100   02 Jun 2027 04:54:06.720   02 Jun 2027 04:54:42.647            35.927              Murmansk1          1122.719
       101   02 Jun 2027 04:54:58.454   02 Jun 2027 04:55:47.346            48.892                Novosib          1527.875
       102   02 Jun 2027 04:55:55.949   02 Jun 2027 04:56:24.915            28.966              Murmansk2           905.188
       103   02 Jun 2027 04:56:24.915   02 Jun 2027 04:57:30.657            65.742              Murmansk1          2054.437
       104   02 Jun 2027 04:57:49.557   02 Jun 2027 04:57:58.333             8.776                 Moscow           274.250
       105   02 Jun 2027 04:59:06.957   02 Jun 2027 05:01:08.117           121.160                 Moscow          3786.250
       106   02 Jun 2027 05:12:26.852   02 Jun 2027 05:15:55.918           209.066               CapeTown          6533.312
       107   02 Jun 2027 05:16:24.301   02 Jun 2027 05:16:41.335            17.034               CapeTown           532.313
       108   02 Jun 2027 06:08:58.672   02 Jun 2027 06:09:38.516            39.844                Anadyr1          1245.125
       109   02 Jun 2027 06:15:25.538   02 Jun 2027 06:16:04.962            39.424                Anadyr1          1232.000
       110   02 Jun 2027 06:16:28.071   02 Jun 2027 06:17:24.891            56.820               Magadan1          1775.625
       111   02 Jun 2027 06:17:40.200   02 Jun 2027 06:18:05.918            25.718                Anadyr1           803.687
       112   02 Jun 2027 06:19:07.565   02 Jun 2027 06:19:49.332            41.767                Anadyr2          1305.219
       113   02 Jun 2027 07:51:42.278   02 Jun 2027 07:55:20.895           218.617               Magadan2          6831.781
       114   02 Jun 2027 07:55:30.334   02 Jun 2027 07:55:36.728             6.394                Anadyr1           199.813
       115   02 Jun 2027 07:55:48.613   02 Jun 2027 07:57:46.854           118.241                Anadyr1          3695.031
       116   02 Jun 2027 09:25:25.904   02 Jun 2027 09:25:34.476             8.572               Magadan2           267.875
       117   02 Jun 2027 09:25:48.345   02 Jun 2027 09:28:08.834           140.489               Magadan2          4390.281
       118   02 Jun 2027 09:28:43.277   02 Jun 2027 09:29:01.649            18.372                Irkutsk           574.125
       119   02 Jun 2027 09:29:05.620   02 Jun 2027 09:29:37.392            31.772                Irkutsk           992.875
       120   02 Jun 2027 09:29:58.319   02 Jun 2027 09:32:59.008           180.689                Anadyr1          5646.531
       121   02 Jun 2027 10:48:10.746   02 Jun 2027 10:48:13.990             3.244                Sumatra           101.375
       122   02 Jun 2027 11:01:04.313   02 Jun 2027 11:01:11.262             6.949               Magadan1           217.156
       123   02 Jun 2027 11:02:45.112   02 Jun 2027 11:03:24.537            39.425                Irkutsk          1232.031
       124   02 Jun 2027 11:03:54.659   02 Jun 2027 11:04:45.784            51.125                Irkutsk          1597.656
       125   02 Jun 2027 11:04:52.915   02 Jun 2027 11:05:34.078            41.163               Magadan1          1286.344
       126   02 Jun 2027 11:05:58.360   02 Jun 2027 11:06:05.718             7.358                Novosib           229.937
       127   02 Jun 2027 11:06:05.734   02 Jun 2027 11:06:40.713            34.979                Irkutsk          1093.094
       128   02 Jun 2027 11:07:00.301   02 Jun 2027 11:07:07.494             7.193              Murmansk2           224.781
       129   02 Jun 2027 11:07:07.675   02 Jun 2027 11:07:29.910            22.235                Novosib           694.844
       130   02 Jun 2027 11:07:35.152   02 Jun 2027 11:07:57.734            22.582              Murmansk2           705.688
       131   02 Jun 2027 11:08:00.039   02 Jun 2027 11:08:15.006            14.967                Irkutsk           467.719
       132   02 Jun 2027 11:08:21.341   02 Jun 2027 11:08:35.554            14.213                Novosib           444.156
       133   02 Jun 2027 11:08:41.429   02 Jun 2027 11:09:59.521            78.092              Murmansk1          2440.375
       134   02 Jun 2027 11:45:01.236   02 Jun 2027 11:45:49.957            48.721            RioGallegos          1522.531
       135   02 Jun 2027 12:18:45.041   02 Jun 2027 12:19:14.714            29.673                Sumatra           927.281
       136   02 Jun 2027 12:21:33.511   02 Jun 2027 12:21:40.752             7.241                Sumatra           226.281
       137   02 Jun 2027 12:27:32.703   02 Jun 2027 12:28:20.736            48.033                Sumatra          1501.031
       138   02 Jun 2027 12:32:54.931   02 Jun 2027 12:34:13.181            78.250                Irkutsk          2445.312
       139   02 Jun 2027 12:35:00.988   02 Jun 2027 12:35:26.151            25.163                Novosib           786.344
       140   02 Jun 2027 12:36:53.120   02 Jun 2027 12:37:30.705            37.585                Irkutsk          1174.531
       141   02 Jun 2027 12:38:17.222   02 Jun 2027 12:39:06.338            49.116                Norilsk          1534.875
       142   02 Jun 2027 12:41:26.029   02 Jun 2027 12:41:39.629            13.600              Murmansk2           425.000
       143   02 Jun 2027 12:44:20.394   02 Jun 2027 12:44:31.408            11.014                Norilsk           344.187
       144   02 Jun 2027 13:23:53.557   02 Jun 2027 13:27:54.971           241.414            RioGallegos          7544.187
       145   02 Jun 2027 14:06:05.454   02 Jun 2027 14:07:21.912            76.458                  Delhi          2389.312
       146   02 Jun 2027 14:11:47.197   02 Jun 2027 14:12:48.314            61.117                Novosib          1909.906
       147   02 Jun 2027 14:14:49.363   02 Jun 2027 14:15:42.005            52.642                Norilsk          1645.062
       148   02 Jun 2027 14:16:33.857   02 Jun 2027 14:17:53.903            80.046                Norilsk          2501.438
       149   02 Jun 2027 15:47:21.707   02 Jun 2027 15:50:39.105           197.398                 Moscow          6168.687
       150   02 Jun 2027 15:50:47.101   02 Jun 2027 15:51:51.494            64.393              Murmansk1          2012.281
       151   02 Jun 2027 15:54:36.580   02 Jun 2027 15:56:00.561            83.981                Norilsk          2624.406
       152   02 Jun 2027 15:58:13.151   02 Jun 2027 15:59:06.395            53.244                Norilsk          1663.875
       153   02 Jun 2027 17:02:02.745   02 Jun 2027 17:03:04.003            61.258               CapeTown          1914.312
       154   02 Jun 2027 17:10:46.963   02 Jun 2027 17:11:18.963            32.000               CapeTown          1000.000
       155   02 Jun 2027 17:24:36.140   02 Jun 2027 17:24:51.903            15.763                 Moscow           492.594
       156   02 Jun 2027 17:25:25.151   02 Jun 2027 17:25:58.025            32.874                 Moscow          1027.313
       157   02 Jun 2027 17:27:47.259   02 Jun 2027 17:28:56.062            68.803              Murmansk2          2150.094
       158   02 Jun 2027 17:29:22.063   02 Jun 2027 17:30:07.451            45.388              Murmansk2          1418.375
       159   02 Jun 2027 17:31:42.221   02 Jun 2027 17:32:13.883            31.662              Murmansk2           989.438
       160   02 Jun 2027 17:41:51.892   02 Jun 2027 17:42:34.043            42.151                Anadyr2          1317.219
       161   02 Jun 2027 17:42:34.043   02 Jun 2027 17:42:51.448            17.405                Anadyr1           543.906
       162   02 Jun 2027 17:44:42.989   02 Jun 2027 17:44:54.897            11.908                Anadyr1           372.125
       163   02 Jun 2027 17:45:00.668   02 Jun 2027 17:45:25.633            24.965                Anadyr2           780.156
       164   02 Jun 2027 17:46:47.882   02 Jun 2027 17:46:53.415             5.533                Anadyr2           172.906
       165   02 Jun 2027 18:36:49.867   02 Jun 2027 18:38:48.639           118.772               CapeTown          3711.625
       166   02 Jun 2027 18:40:10.967   02 Jun 2027 18:40:53.669            42.702               CapeTown          1334.438
       167   02 Jun 2027 19:07:01.334   02 Jun 2027 19:07:52.117            50.783              Murmansk2          1586.969
       168   02 Jun 2027 19:07:59.039   02 Jun 2027 19:11:24.434           205.395              Murmansk1          6418.594
       169   02 Jun 2027 19:11:46.881   02 Jun 2027 19:11:56.088             9.207              Murmansk1           287.719
       170   02 Jun 2027 19:13:40.089   02 Jun 2027 19:14:25.006            44.917              Murmansk2          1403.656
       171   02 Jun 2027 19:22:22.835   02 Jun 2027 19:23:16.172            53.337               Magadan1          1666.781
       172   02 Jun 2027 20:16:28.208   02 Jun 2027 20:18:05.449            97.241               CapeTown          3038.781
       173   02 Jun 2027 20:53:19.602   02 Jun 2027 20:56:29.373           189.771                Anadyr1          5930.344
       174   02 Jun 2027 20:56:47.086   02 Jun 2027 20:58:05.207            78.121               Magadan2          2441.281
       175   02 Jun 2027 20:58:05.207   02 Jun 2027 20:58:09.426             4.219               Magadan1           131.844
       176   02 Jun 2027 20:58:16.452   02 Jun 2027 20:58:24.330             7.878               Magadan1           246.187
       177   02 Jun 2027 20:58:42.177   02 Jun 2027 20:59:00.634            18.457               Magadan1           576.781
       178   02 Jun 2027 22:29:11.825   02 Jun 2027 22:31:11.562           119.737                Anadyr2          3741.781
       179   02 Jun 2027 22:31:19.290   02 Jun 2027 22:33:24.136           124.846                Anadyr1          3901.437
       180   02 Jun 2027 22:33:26.956   02 Jun 2027 22:34:59.041            92.085                Norilsk          2877.656
       181   02 Jun 2027 22:35:02.711   02 Jun 2027 22:35:14.582            11.871               Magadan2           370.969
       182   02 Jun 2027 22:35:26.253   02 Jun 2027 22:36:44.050            77.797               Magadan1          2431.156
       183   02 Jun 2027 22:36:49.439   02 Jun 2027 22:38:28.329            98.890                Irkutsk          3090.312
       184   02 Jun 2027 22:42:17.136   02 Jun 2027 22:42:27.457            10.321                Irkutsk           322.531
       185   02 Jun 2027 22:52:57.081   02 Jun 2027 22:54:10.539            73.458                Sumatra          2295.563
       186   02 Jun 2027 22:55:38.555   02 Jun 2027 22:56:48.891            70.336                Sumatra          2198.000
       187   02 Jun 2027 23:31:26.931   02 Jun 2027 23:32:26.751            59.820            RioGallegos          1869.375
       188   03 Jun 2027 00:04:37.059   03 Jun 2027 00:05:08.352            31.293                Anadyr1           977.906
       189   03 Jun 2027 00:05:21.434   03 Jun 2027 00:06:08.315            46.881                Anadyr2          1465.031
       190   03 Jun 2027 00:07:24.950   03 Jun 2027 00:08:45.557            80.607                Norilsk          2518.969
       191   03 Jun 2027 00:08:56.281   03 Jun 2027 00:09:13.570            17.289               Magadan1           540.281
       192   03 Jun 2027 00:09:17.401   03 Jun 2027 00:09:59.199            41.798               Magadan1          1306.187
       193   03 Jun 2027 00:11:43.777   03 Jun 2027 00:12:38.734            54.957                Irkutsk          1717.406
       194   03 Jun 2027 00:13:50.280   03 Jun 2027 00:14:47.421            57.141                Novosib          1785.656
       195   03 Jun 2027 00:15:05.054   03 Jun 2027 00:15:20.903            15.849                Novosib           495.281
       196   03 Jun 2027 00:15:59.531   03 Jun 2027 00:16:35.111            35.580                Novosib          1111.875
       197   03 Jun 2027 00:18:11.359   03 Jun 2027 00:19:31.480            80.121                Novosib          2503.781
       198   03 Jun 2027 00:29:07.694   03 Jun 2027 00:30:39.084            91.390                Sumatra          2855.937
       199   03 Jun 2027 01:08:18.462   03 Jun 2027 01:08:37.656            19.194            RioGallegos           599.812
       200   03 Jun 2027 01:09:33.348   03 Jun 2027 01:09:59.260            25.912            RioGallegos           809.750
       201   03 Jun 2027 01:39:55.524   03 Jun 2027 01:40:33.310            37.786                Anadyr1          1180.812
       202   03 Jun 2027 01:40:33.310   03 Jun 2027 01:40:58.082            24.772                Anadyr2           774.125
       203   03 Jun 2027 01:41:35.694   03 Jun 2027 01:42:00.997            25.303                Anadyr2           790.719
       204   03 Jun 2027 01:43:02.845   03 Jun 2027 01:44:44.580           101.735                Norilsk          3179.219
       205   03 Jun 2027 01:46:27.098   03 Jun 2027 01:47:54.890            87.792              Murmansk2          2743.500
       206   03 Jun 2027 01:48:03.310   03 Jun 2027 01:49:32.181            88.871                Novosib          2777.219
       207   03 Jun 2027 01:52:42.630   03 Jun 2027 01:52:43.068             0.438                Irkutsk            13.687
       208   03 Jun 2027 01:54:18.449   03 Jun 2027 01:55:08.290            49.841                  Delhi          1557.531
       209   03 Jun 2027 01:58:12.639   03 Jun 2027 02:00:22.613           129.974                  Delhi          4061.688
       210   03 Jun 2027 02:37:07.801   03 Jun 2027 02:37:20.251            12.450            RioGallegos           389.063
       211   03 Jun 2027 02:38:08.588   03 Jun 2027 02:38:41.350            32.762            RioGallegos          1023.813
       212   03 Jun 2027 02:38:57.883   03 Jun 2027 02:39:26.813            28.930            RioGallegos           904.062
       213   03 Jun 2027 03:27:55.955   03 Jun 2027 03:31:22.886           206.931                 Moscow          6466.594
       214   03 Jun 2027 03:31:24.438   03 Jun 2027 03:31:35.761            11.323                Novosib           353.844
       215   03 Jun 2027 03:32:24.219   03 Jun 2027 03:32:31.883             7.664                Novosib           239.500
       216   03 Jun 2027 03:33:07.724   03 Jun 2027 03:33:39.545            31.821                 Moscow           994.406
       217   03 Jun 2027 05:03:42.170   03 Jun 2027 05:04:34.840            52.670                Novosib          1645.938
       218   03 Jun 2027 05:05:26.459   03 Jun 2027 05:05:54.775            28.316              Murmansk1           884.875
       219   03 Jun 2027 05:05:56.322   03 Jun 2027 05:07:04.751            68.429              Murmansk2          2138.406
       220   03 Jun 2027 05:07:27.512   03 Jun 2027 05:08:08.025            40.513                 Moscow          1266.031
       221   03 Jun 2027 05:08:19.769   03 Jun 2027 05:09:55.282            95.513                 Moscow          2984.781
       222   03 Jun 2027 05:24:19.782   03 Jun 2027 05:27:05.808           166.026               CapeTown          5188.312
       223   03 Jun 2027 06:27:26.426   03 Jun 2027 06:27:39.754            13.328                Anadyr2           416.500
       224   03 Jun 2027 06:27:39.754   03 Jun 2027 06:27:47.826             8.072                Anadyr1           252.250
       225   03 Jun 2027 06:28:06.542   03 Jun 2027 06:28:54.608            48.066                Anadyr1          1502.062
       226   03 Jun 2027 06:29:39.835   03 Jun 2027 06:30:07.760            27.925                Anadyr1           872.656
       227   03 Jun 2027 06:32:43.694   03 Jun 2027 06:32:53.265             9.571               Magadan1           299.094
       228   03 Jun 2027 06:40:12.434   03 Jun 2027 06:40:15.020             2.586                 Moscow            80.813
       229   03 Jun 2027 06:40:22.535   03 Jun 2027 06:41:28.971            66.436                 Moscow          2076.125
       230   03 Jun 2027 07:03:43.892   03 Jun 2027 07:05:10.525            86.633               CapeTown          2707.281
       231   03 Jun 2027 08:01:33.855   03 Jun 2027 08:01:49.174            15.319               Magadan1           478.719
       232   03 Jun 2027 08:02:12.557   03 Jun 2027 08:03:27.628            75.071                Anadyr2          2345.969
       233   03 Jun 2027 08:03:43.961   03 Jun 2027 08:04:18.937            34.976               Magadan1          1093.000
       234   03 Jun 2027 08:04:36.928   03 Jun 2027 08:05:02.861            25.933                Anadyr2           810.406
       235   03 Jun 2027 08:05:12.568   03 Jun 2027 08:06:03.813            51.245               Magadan1          1601.406
       236   03 Jun 2027 08:06:15.221   03 Jun 2027 08:07:26.619            71.398               Magadan1          2231.188
       237   03 Jun 2027 08:18:20.194   03 Jun 2027 08:18:26.285             6.091                 Moscow           190.344
       238   03 Jun 2027 08:20:08.341   03 Jun 2027 08:20:12.088             3.747                 Moscow           117.094
       239   03 Jun 2027 08:48:16.381   03 Jun 2027 08:48:41.546            25.165            RioGallegos           786.406
       240   03 Jun 2027 08:50:59.548   03 Jun 2027 08:51:36.000            36.452            RioGallegos          1139.125
       241   03 Jun 2027 09:36:03.714   03 Jun 2027 09:37:02.007            58.293                Irkutsk          1821.656
       242   03 Jun 2027 09:37:48.367   03 Jun 2027 09:37:55.524             7.157                Irkutsk           223.656
       243   03 Jun 2027 09:38:00.032   03 Jun 2027 09:38:11.951            11.919               Magadan1           372.469
       244   03 Jun 2027 09:38:22.850   03 Jun 2027 09:42:23.243           240.393                Anadyr2          7512.281
       245   03 Jun 2027 09:42:23.243   03 Jun 2027 09:43:40.474            77.231                Anadyr1          2413.469
       246   03 Jun 2027 09:43:40.474   03 Jun 2027 09:44:44.428            63.954                Anadyr2          1998.563
       247   03 Jun 2027 09:45:19.930   03 Jun 2027 09:45:29.605             9.675                Norilsk           302.344
       248   03 Jun 2027 09:45:35.598   03 Jun 2027 09:45:52.275            16.677              Murmansk2           521.156
       249   03 Jun 2027 09:46:30.549   03 Jun 2027 09:46:39.124             8.575              Murmansk2           267.969
       250   03 Jun 2027 09:48:05.068   03 Jun 2027 09:48:09.693             4.625              Murmansk1           144.531
       251   03 Jun 2027 10:20:27.099   03 Jun 2027 10:21:08.715            41.616            RioGallegos          1300.500
       252   03 Jun 2027 10:24:37.149   03 Jun 2027 10:24:51.421            14.272            RioGallegos           446.000
       253   03 Jun 2027 10:26:58.003   03 Jun 2027 10:27:26.473            28.470            RioGallegos           889.687
       254   03 Jun 2027 10:58:10.442   03 Jun 2027 10:59:37.334            86.892                Sumatra          2715.375
       255   03 Jun 2027 11:14:10.016   03 Jun 2027 11:18:21.222           251.206               Magadan2          7850.188
       256   03 Jun 2027 11:18:38.747   03 Jun 2027 11:18:59.353            20.606                Norilsk           643.937
       257   03 Jun 2027 11:19:08.160   03 Jun 2027 11:21:15.329           127.169                Irkutsk          3974.031
       258   03 Jun 2027 12:32:36.467   03 Jun 2027 12:33:54.067            77.600                Sumatra          2425.000
       259   03 Jun 2027 12:45:15.950   03 Jun 2027 12:46:18.600            62.650                Irkutsk          1957.812
       260   03 Jun 2027 12:46:54.838   03 Jun 2027 12:48:02.859            68.021                Novosib          2125.656
       261   03 Jun 2027 12:49:25.771   03 Jun 2027 12:51:07.736           101.965                Norilsk          3186.406
       262   03 Jun 2027 13:37:15.338   03 Jun 2027 13:39:36.504           141.166            RioGallegos          4411.437
       263   03 Jun 2027 14:23:08.276   03 Jun 2027 14:25:01.721           113.445                  Delhi          3545.156
       264   03 Jun 2027 14:26:58.060   03 Jun 2027 14:28:12.822            74.762                Novosib          2336.312
       265   03 Jun 2027 14:28:33.310   03 Jun 2027 14:28:52.841            19.531              Murmansk2           610.344
       266   03 Jun 2027 14:29:09.337   03 Jun 2027 14:31:54.996           165.659                Norilsk          5176.844
       267   03 Jun 2027 15:59:22.061   03 Jun 2027 16:02:04.551           162.490                 Moscow          5077.813
       268   03 Jun 2027 16:02:50.815   03 Jun 2027 16:04:06.857            76.042              Murmansk1          2376.312
       269   03 Jun 2027 16:04:06.857   03 Jun 2027 16:04:31.613            24.756              Murmansk2           773.625
       270   03 Jun 2027 16:07:21.216   03 Jun 2027 16:10:11.954           170.738                Norilsk          5335.562
       271   03 Jun 2027 16:10:18.369   03 Jun 2027 16:10:37.546            19.177                Norilsk           599.281
       272   03 Jun 2027 16:11:33.466   03 Jun 2027 16:13:13.296            99.830                Norilsk          3119.688
       273   03 Jun 2027 17:37:05.027   03 Jun 2027 17:37:51.884            46.857                 Moscow          1464.281
       274   03 Jun 2027 17:40:05.577   03 Jun 2027 17:41:14.638            69.061              Murmansk1          2158.156
       275   03 Jun 2027 17:43:41.251   03 Jun 2027 17:44:04.269            23.018              Murmansk2           719.312
       276   03 Jun 2027 17:49:36.129   03 Jun 2027 17:49:43.585             7.456              Murmansk1           233.000
       277   03 Jun 2027 17:53:47.347   03 Jun 2027 17:55:14.463            87.116                Anadyr2          2722.375
       278   03 Jun 2027 17:56:20.882   03 Jun 2027 17:56:23.242             2.360                Anadyr1            73.750
       279   03 Jun 2027 18:48:57.084   03 Jun 2027 18:50:48.170           111.086               CapeTown          3471.437
       280   03 Jun 2027 18:57:45.432   03 Jun 2027 18:58:25.261            39.829               CapeTown          1244.656
       281   03 Jun 2027 19:19:40.942   03 Jun 2027 19:23:46.096           245.154              Murmansk2          7661.062
       282   03 Jun 2027 19:23:53.074   03 Jun 2027 19:25:41.544           108.470              Murmansk2          3389.688
       283   03 Jun 2027 19:38:27.825   03 Jun 2027 19:38:47.695            19.870               Magadan1           620.937
       284   03 Jun 2027 21:05:21.347   03 Jun 2027 21:06:57.580            96.233                Anadyr2          3007.281
       285   03 Jun 2027 21:07:11.470   03 Jun 2027 21:09:06.972           115.502                Anadyr1          3609.437
       286   03 Jun 2027 21:09:30.522   03 Jun 2027 21:10:30.326            59.804                Anadyr2          1868.875
       287   03 Jun 2027 21:10:31.491   03 Jun 2027 21:11:12.174            40.683               Magadan2          1271.344
       288   03 Jun 2027 21:11:12.174   03 Jun 2027 21:13:06.415           114.241               Magadan1          3570.031
       289   03 Jun 2027 21:16:31.377   03 Jun 2027 21:17:42.629            71.252               Magadan1          2226.625
       290   03 Jun 2027 22:01:52.825   03 Jun 2027 22:03:32.822            99.997            RioGallegos          3124.906
       291   03 Jun 2027 22:06:31.741   03 Jun 2027 22:06:39.263             7.522            RioGallegos           235.063
       292   03 Jun 2027 22:41:11.738   03 Jun 2027 22:43:21.181           129.443                Anadyr1          4045.094
       293   03 Jun 2027 22:43:34.657   03 Jun 2027 22:45:17.771           103.114               Magadan2          3222.313
       294   03 Jun 2027 22:45:20.091   03 Jun 2027 22:45:41.657            21.566               Magadan1           673.938
       295   03 Jun 2027 22:46:20.588   03 Jun 2027 22:46:37.266            16.678               Magadan1           521.187
       296   03 Jun 2027 22:48:13.447   03 Jun 2027 22:48:28.866            15.419               Magadan1           481.844
       297   03 Jun 2027 22:48:50.546   03 Jun 2027 22:49:57.028            66.482                Irkutsk          2077.562
       298   03 Jun 2027 22:53:39.726   03 Jun 2027 22:53:47.307             7.581                Irkutsk           236.906
       299   03 Jun 2027 23:03:34.988   03 Jun 2027 23:05:37.475           122.487                Sumatra          3827.719
       300   03 Jun 2027 23:06:49.223   03 Jun 2027 23:08:34.853           105.630                Sumatra          3300.938
       301   04 Jun 2027 00:16:31.046   04 Jun 2027 00:16:40.297             9.251                Anadyr1           289.094
       302   04 Jun 2027 00:16:42.598   04 Jun 2027 00:16:54.420            11.822                Anadyr1           369.438
       303   04 Jun 2027 00:18:16.934   04 Jun 2027 00:18:30.146            13.212                Anadyr1           412.875
       304   04 Jun 2027 00:18:30.146   04 Jun 2027 00:18:34.137             3.991                Anadyr2           124.719
       305   04 Jun 2027 00:19:04.378   04 Jun 2027 00:20:47.753           103.375                Norilsk          3230.469
       306   04 Jun 2027 00:20:52.584   04 Jun 2027 00:21:16.081            23.497               Magadan1           734.281
       307   04 Jun 2027 00:21:27.004   04 Jun 2027 00:21:57.306            30.302               Magadan1           946.938
       308   04 Jun 2027 00:22:34.087   04 Jun 2027 00:23:04.006            29.919               Magadan1           934.969
       309   04 Jun 2027 00:23:44.648   04 Jun 2027 00:24:33.928            49.280                Novosib          1540.000
       310   04 Jun 2027 00:25:52.163   04 Jun 2027 00:26:48.005            55.842                Novosib          1745.062
       311   04 Jun 2027 00:29:31.512   04 Jun 2027 00:31:31.083           119.571                Novosib          3736.594
       312   04 Jun 2027 00:41:30.592   04 Jun 2027 00:42:35.236            64.644                Sumatra          2020.125
       313   04 Jun 2027 01:16:12.544   04 Jun 2027 01:16:47.523            34.979            RioGallegos          1093.094
       314   04 Jun 2027 01:20:42.731   04 Jun 2027 01:21:32.546            49.815            RioGallegos          1556.719
       315   04 Jun 2027 01:51:10.852   04 Jun 2027 01:51:47.609            36.757                Anadyr2          1148.656
       316   04 Jun 2027 01:52:32.866   04 Jun 2027 01:52:48.497            15.631                Anadyr1           488.469
       317   04 Jun 2027 01:53:11.658   04 Jun 2027 01:53:16.087             4.429                Anadyr1           138.406
       318   04 Jun 2027 01:53:17.635   04 Jun 2027 01:53:41.677            24.042                Anadyr2           751.313
       319   04 Jun 2027 01:55:05.137   04 Jun 2027 01:56:39.755            94.618                Norilsk          2956.813
       320   04 Jun 2027 01:58:04.855   04 Jun 2027 01:59:48.668           103.813              Murmansk2          3244.156
       321   04 Jun 2027 02:00:00.477   04 Jun 2027 02:00:13.020            12.543                Novosib           391.969
       322   04 Jun 2027 02:00:13.369   04 Jun 2027 02:00:50.916            37.547                Irkutsk          1173.344
       323   04 Jun 2027 02:04:05.039   04 Jun 2027 02:04:17.078            12.039                Irkutsk           376.219
       324   04 Jun 2027 02:06:14.683   04 Jun 2027 02:06:32.688            18.005                  Delhi           562.656
       325   04 Jun 2027 02:08:59.161   04 Jun 2027 02:09:23.354            24.193                  Delhi           756.031
       326   04 Jun 2027 02:11:51.846   04 Jun 2027 02:13:05.668            73.822                  Delhi          2306.937
       327   04 Jun 2027 02:48:03.358   04 Jun 2027 02:50:36.555           153.197            RioGallegos          4787.406
       328   04 Jun 2027 02:52:12.049   04 Jun 2027 02:52:45.182            33.133            RioGallegos          1035.406
       329   04 Jun 2027 03:41:11.078   04 Jun 2027 03:41:53.933            42.855              Murmansk1          1339.219
       330   04 Jun 2027 03:41:53.933   04 Jun 2027 03:43:54.166           120.233              Murmansk2          3757.281
       331   04 Jun 2027 03:45:26.304   04 Jun 2027 03:45:43.420            17.116                Novosib           534.875
       332   04 Jun 2027 03:46:49.192   04 Jun 2027 03:47:21.024            31.832                 Moscow           994.750
       333   04 Jun 2027 05:16:23.382   04 Jun 2027 05:16:24.792             1.410              Murmansk2            44.063
       334   04 Jun 2027 05:16:43.404   04 Jun 2027 05:16:45.626             2.222              Murmansk1            69.437
       335   04 Jun 2027 05:17:41.278   04 Jun 2027 05:17:43.752             2.474              Murmansk2            77.312
       336   04 Jun 2027 05:18:14.141   04 Jun 2027 05:18:31.112            16.971                 Moscow           530.344
       337   04 Jun 2027 05:18:46.884   04 Jun 2027 05:18:55.150             8.266              Murmansk1           258.313
       338   04 Jun 2027 05:18:55.150   04 Jun 2027 05:19:52.541            57.391              Murmansk2          1793.469
       339   04 Jun 2027 05:19:58.510   04 Jun 2027 05:20:41.008            42.498                 Moscow          1328.062
       340   04 Jun 2027 05:20:41.192   04 Jun 2027 05:21:25.975            44.783              Murmansk2          1399.469
       341   04 Jun 2027 05:36:17.740   04 Jun 2027 05:37:04.208            46.468               CapeTown          1452.125
       342   04 Jun 2027 05:45:31.471   04 Jun 2027 05:45:53.992            22.521               CapeTown           703.781
       343   04 Jun 2027 06:39:20.980   04 Jun 2027 06:40:07.991            47.011                Anadyr1          1469.094
       344   04 Jun 2027 06:40:11.064   04 Jun 2027 06:40:17.695             6.631                Anadyr1           207.219
       345   04 Jun 2027 06:40:34.229   04 Jun 2027 06:41:00.765            26.536               Magadan1           829.250
       346   04 Jun 2027 06:41:07.690   04 Jun 2027 06:41:38.900            31.210                Anadyr2           975.313
       347   04 Jun 2027 06:42:02.091   04 Jun 2027 06:43:15.694            73.603               Magadan2          2300.094
       348   04 Jun 2027 07:15:40.007   04 Jun 2027 07:17:01.991            81.984               CapeTown          2562.000
       349   04 Jun 2027 08:15:31.332   04 Jun 2027 08:16:17.715            46.383                Anadyr2          1449.469
       350   04 Jun 2027 08:16:29.258   04 Jun 2027 08:17:09.175            39.917               Magadan1          1247.406
       351   04 Jun 2027 08:17:09.175   04 Jun 2027 08:17:39.208            30.033               Magadan2           938.531
       352   04 Jun 2027 08:17:46.104   04 Jun 2027 08:18:15.460            29.356               Magadan1           917.375
       353   04 Jun 2027 08:18:45.634   04 Jun 2027 08:18:57.556            11.922                Norilsk           372.563
       354   04 Jun 2027 08:19:54.681   04 Jun 2027 08:20:16.099            21.418                Anadyr1           669.313
       355   04 Jun 2027 08:22:16.771   04 Jun 2027 08:22:24.063             7.292              Murmansk1           227.875
       356   04 Jun 2027 08:25:05.840   04 Jun 2027 08:25:54.506            48.666              Murmansk1          1520.812
       357   04 Jun 2027 09:00:44.414   04 Jun 2027 09:00:49.959             5.545            RioGallegos           173.281
       358   04 Jun 2027 09:01:58.979   04 Jun 2027 09:02:28.791            29.812            RioGallegos           931.625
       359   04 Jun 2027 09:49:50.487   04 Jun 2027 09:50:29.774            39.287               Magadan2          1227.719
       360   04 Jun 2027 09:50:37.171   04 Jun 2027 09:52:13.996            96.825               Magadan1          3025.781
       361   04 Jun 2027 09:52:19.725   04 Jun 2027 09:52:51.770            32.045                Norilsk          1001.406
       362   04 Jun 2027 09:52:55.557   04 Jun 2027 09:53:13.543            17.986                Norilsk           562.062
       363   04 Jun 2027 09:53:15.761   04 Jun 2027 09:54:31.008            75.247                Novosib          2351.469
       364   04 Jun 2027 09:54:38.129   04 Jun 2027 09:55:31.937            53.808               Magadan1          1681.500
       365   04 Jun 2027 09:55:37.554   04 Jun 2027 09:55:39.866             2.312               Magadan1            72.250
       366   04 Jun 2027 09:55:53.993   04 Jun 2027 09:56:53.652            59.659                Irkutsk          1864.344
       367   04 Jun 2027 09:56:56.585   04 Jun 2027 09:57:22.891            26.306              Murmansk2           822.062
       368   04 Jun 2027 10:32:16.116   04 Jun 2027 10:33:01.180            45.064            RioGallegos          1408.250
       369   04 Jun 2027 10:36:46.667   04 Jun 2027 10:37:37.992            51.325            RioGallegos          1603.906
       370   04 Jun 2027 11:09:06.373   04 Jun 2027 11:11:03.573           117.200                Sumatra          3662.500
       371   04 Jun 2027 11:26:30.127   04 Jun 2027 11:26:34.252             4.125                Norilsk           128.906
       372   04 Jun 2027 11:26:48.381   04 Jun 2027 11:27:06.482            18.101                Norilsk           565.656
       373   04 Jun 2027 11:27:27.421   04 Jun 2027 11:28:35.127            67.706                Irkutsk          2115.812
       374   04 Jun 2027 11:28:48.718   04 Jun 2027 11:29:19.519            30.801                Irkutsk           962.531
       375   04 Jun 2027 11:29:24.465   04 Jun 2027 11:29:39.189            14.724                Novosib           460.125
       376   04 Jun 2027 11:29:59.810   04 Jun 2027 11:30:58.291            58.481                Irkutsk          1827.531
       377   04 Jun 2027 11:31:00.922   04 Jun 2027 11:31:15.746            14.824              Murmansk1           463.250
       378   04 Jun 2027 11:31:24.497   04 Jun 2027 11:31:58.099            33.602                Novosib          1050.063
       379   04 Jun 2027 11:31:59.184   04 Jun 2027 11:32:32.335            33.151              Murmansk2          1035.969
       380   04 Jun 2027 11:32:37.484   04 Jun 2027 11:32:42.922             5.438                Novosib           169.937
       381   04 Jun 2027 11:32:44.971   04 Jun 2027 11:32:51.010             6.039                Norilsk           188.719
       382   04 Jun 2027 11:33:11.552   04 Jun 2027 11:33:46.015            34.463                Novosib          1076.969
       383   04 Jun 2027 11:34:23.151   04 Jun 2027 11:34:37.771            14.620                Novosib           456.875
       384   04 Jun 2027 12:08:30.693   04 Jun 2027 12:09:10.225            39.532            RioGallegos          1235.375
       385   04 Jun 2027 12:11:09.225   04 Jun 2027 12:13:07.455           118.230            RioGallegos          3694.688
       386   04 Jun 2027 12:51:45.034   04 Jun 2027 12:52:40.783            55.749                Sumatra          1742.156
       387   04 Jun 2027 12:57:41.750   04 Jun 2027 12:58:27.513            45.763                Irkutsk          1430.094
       388   04 Jun 2027 12:58:59.453   04 Jun 2027 12:59:00.261             0.808                Novosib            25.250
       389   04 Jun 2027 12:59:48.076   04 Jun 2027 13:00:38.829            50.753                Novosib          1586.031
       390   04 Jun 2027 13:01:31.123   04 Jun 2027 13:02:29.647            58.524                Irkutsk          1828.875
       391   04 Jun 2027 13:02:34.859   04 Jun 2027 13:03:10.577            35.718                Norilsk          1116.187
       392   04 Jun 2027 13:07:14.212   04 Jun 2027 13:08:11.380            57.168                Irkutsk          1786.500
       393   04 Jun 2027 14:27:31.828   04 Jun 2027 14:28:06.478            34.650                  Delhi          1082.813
       394   04 Jun 2027 14:29:50.704   04 Jun 2027 14:32:08.313           137.609                  Delhi          4300.281
       395   04 Jun 2027 14:34:53.402   04 Jun 2027 14:34:54.954             1.552                  Delhi            48.500
       396   04 Jun 2027 14:35:41.244   04 Jun 2027 14:36:36.097            54.853                Novosib          1714.156
       397   04 Jun 2027 14:38:57.097   04 Jun 2027 14:40:45.662           108.565                Novosib          3392.656
       398   04 Jun 2027 14:40:51.018   04 Jun 2027 14:42:04.296            73.278                Norilsk          2289.938
       399   04 Jun 2027 16:11:25.352   04 Jun 2027 16:14:29.778           184.426                 Moscow          5763.313
       400   04 Jun 2027 16:14:42.350   04 Jun 2027 16:14:59.045            16.695                 Moscow           521.719
       401   04 Jun 2027 16:15:47.607   04 Jun 2027 16:17:19.109            91.502              Murmansk1          2859.438
       402   04 Jun 2027 16:20:10.903   04 Jun 2027 16:24:43.551           272.648                Norilsk          8520.250
       403   04 Jun 2027 17:49:39.357   04 Jun 2027 17:51:14.221            94.864                 Moscow          2964.500
       404   04 Jun 2027 17:52:26.062   04 Jun 2027 17:54:10.803           104.741              Murmansk1          3273.156
       405   04 Jun 2027 17:56:06.465   04 Jun 2027 17:56:58.522            52.057              Murmansk1          1626.781
       406   04 Jun 2027 18:05:44.187   04 Jun 2027 18:05:51.249             7.062                Anadyr2           220.688
       407   04 Jun 2027 18:06:30.126   04 Jun 2027 18:07:11.133            41.007                Anadyr1          1281.469
       408   04 Jun 2027 18:12:00.895   04 Jun 2027 18:12:17.587            16.692                Anadyr1           521.625
       409   04 Jun 2027 18:12:48.491   04 Jun 2027 18:12:52.283             3.792                Anadyr1           118.500
       410   04 Jun 2027 19:01:07.388   04 Jun 2027 19:02:46.825            99.437               CapeTown          3107.406
       411   04 Jun 2027 19:08:34.465   04 Jun 2027 19:09:40.815            66.350               CapeTown          2073.437
       412   04 Jun 2027 19:32:24.677   04 Jun 2027 19:39:17.726           413.049              Murmansk2         12907.781
       413   04 Jun 2027 21:17:23.011   04 Jun 2027 21:18:57.633            94.622                Anadyr1          2956.937
       414   04 Jun 2027 21:19:18.809   04 Jun 2027 21:20:22.156            63.347                Anadyr2          1979.594
       415   04 Jun 2027 21:20:35.863   04 Jun 2027 21:20:40.692             4.829                Anadyr2           150.906
       416   04 Jun 2027 21:20:49.038   04 Jun 2027 21:21:31.700            42.662                Anadyr2          1333.188
       417   04 Jun 2027 21:21:37.683   04 Jun 2027 21:23:37.964           120.281               Magadan2          3758.781
       418   04 Jun 2027 21:24:27.496   04 Jun 2027 21:24:48.713            21.217               Magadan2           663.031
       419   04 Jun 2027 21:26:18.990   04 Jun 2027 21:26:36.440            17.450               Magadan1           545.312
       420   04 Jun 2027 21:30:35.187   04 Jun 2027 21:30:41.320             6.133               Magadan1           191.656
       421   04 Jun 2027 22:13:04.798   04 Jun 2027 22:15:51.055           166.257            RioGallegos          5195.531
       422   04 Jun 2027 22:17:50.455   04 Jun 2027 22:18:16.209            25.754            RioGallegos           804.812
       423   04 Jun 2027 22:53:11.195   04 Jun 2027 22:54:55.177           103.982                Anadyr1          3249.437
       424   04 Jun 2027 22:55:02.227   04 Jun 2027 22:55:13.944            11.717                Anadyr2           366.156
       425   04 Jun 2027 22:55:17.133   04 Jun 2027 22:56:49.910            92.777                Norilsk          2899.281
       426   04 Jun 2027 22:57:19.291   04 Jun 2027 22:57:25.051             5.760               Magadan1           180.000
       427   04 Jun 2027 22:57:51.056   04 Jun 2027 22:58:23.363            32.307               Magadan2          1009.594
       428   04 Jun 2027 22:58:29.378   04 Jun 2027 22:58:50.089            20.711               Magadan2           647.219
       429   04 Jun 2027 23:00:03.115   04 Jun 2027 23:00:48.175            45.060                Irkutsk          1408.125
       430   04 Jun 2027 23:05:37.770   04 Jun 2027 23:07:32.079           114.309                Irkutsk          3572.156
       431   04 Jun 2027 23:16:32.759   04 Jun 2027 23:17:13.822            41.063                Sumatra          1283.219
       432   04 Jun 2027 23:19:16.433   04 Jun 2027 23:20:27.017            70.584                Sumatra          2205.750
       433   05 Jun 2027 00:28:23.881   05 Jun 2027 00:29:23.399            59.518                Anadyr2          1859.937
       434   05 Jun 2027 00:30:27.774   05 Jun 2027 00:31:41.430            73.656                Anadyr1          2301.750
       435   05 Jun 2027 00:31:41.437   05 Jun 2027 00:32:49.916            68.479                Norilsk          2139.969
       436   05 Jun 2027 00:32:54.811   05 Jun 2027 00:33:27.456            32.645               Magadan1          1020.156
       437   05 Jun 2027 00:34:06.798   05 Jun 2027 00:34:31.290            24.492               Magadan2           765.375
       438   05 Jun 2027 00:35:00.613   05 Jun 2027 00:36:03.278            62.665                Irkutsk          1958.281
       439   05 Jun 2027 00:36:05.604   05 Jun 2027 00:36:50.449            44.845                Novosib          1401.406
       440   05 Jun 2027 00:38:28.311   05 Jun 2027 00:38:53.107            24.796                Novosib           774.875
       441   05 Jun 2027 00:44:42.116   05 Jun 2027 00:44:59.539            17.423                Novosib           544.469
       442   05 Jun 2027 00:45:44.935   05 Jun 2027 00:45:52.498             7.563                Novosib           236.344
       443   05 Jun 2027 00:46:22.222   05 Jun 2027 00:47:07.332            45.110                  Delhi          1409.688
       444   05 Jun 2027 00:47:41.802   05 Jun 2027 00:47:43.578             1.776                  Delhi            55.500
       445   05 Jun 2027 00:47:55.465   05 Jun 2027 00:48:58.176            62.711                  Delhi          1959.719
       446   05 Jun 2027 00:57:44.518   05 Jun 2027 00:58:49.906            65.388                Sumatra          2043.375
       447   05 Jun 2027 01:30:04.197   05 Jun 2027 01:30:37.423            33.226            RioGallegos          1038.312
       448   05 Jun 2027 02:02:25.265   05 Jun 2027 02:02:55.895            30.630                Anadyr2           957.188
       449   05 Jun 2027 02:03:36.619   05 Jun 2027 02:04:05.620            29.001                Anadyr1           906.281
       450   05 Jun 2027 02:04:31.889   05 Jun 2027 02:04:33.144             1.255                Anadyr2            39.219
       451   05 Jun 2027 02:05:04.398   05 Jun 2027 02:05:18.672            14.274                Anadyr2           446.062
       452   05 Jun 2027 02:07:07.359   05 Jun 2027 02:09:00.764           113.405                Norilsk          3543.906
       453   05 Jun 2027 02:09:52.136   05 Jun 2027 02:11:02.079            69.943              Murmansk2          2185.719
       454   05 Jun 2027 02:11:12.243   05 Jun 2027 02:12:14.686            62.443                Irkutsk          1951.344
       455   05 Jun 2027 02:14:12.176   05 Jun 2027 02:14:30.259            18.083                Novosib           565.094
       456   05 Jun 2027 02:18:10.496   05 Jun 2027 02:18:32.193            21.697                Irkutsk           678.031
       457   05 Jun 2027 02:18:38.723   05 Jun 2027 02:21:06.273           147.550                  Delhi          4610.937
       458   05 Jun 2027 03:00:23.588   05 Jun 2027 03:02:38.412           134.824            RioGallegos          4213.250
       459   05 Jun 2027 03:03:50.069   05 Jun 2027 03:05:36.982           106.913            RioGallegos          3341.031
       460   05 Jun 2027 03:49:33.733   05 Jun 2027 03:51:13.506            99.773                Irkutsk          3117.906
       461   05 Jun 2027 03:52:46.033   05 Jun 2027 03:53:01.283            15.250                Novosib           476.562
       462   05 Jun 2027 03:54:29.142   05 Jun 2027 03:54:36.095             6.953                Norilsk           217.281
       463   05 Jun 2027 03:54:50.841   05 Jun 2027 03:55:37.705            46.864                Norilsk          1464.500
       464   05 Jun 2027 03:55:51.591   05 Jun 2027 03:56:42.396            50.805                Novosib          1587.656
       465   05 Jun 2027 03:56:49.812   05 Jun 2027 03:57:43.212            53.400                Novosib          1668.750
       466   05 Jun 2027 05:28:07.500   05 Jun 2027 05:28:30.567            23.067                Novosib           720.844
       467   05 Jun 2027 05:29:15.284   05 Jun 2027 05:29:51.221            35.937                 Moscow          1123.031
       468   05 Jun 2027 05:29:54.140   05 Jun 2027 05:32:06.659           132.519              Murmansk1          4141.219
       469   05 Jun 2027 05:48:43.495   05 Jun 2027 05:48:58.230            14.735               CapeTown           460.469
       470   05 Jun 2027 05:52:31.010   05 Jun 2027 05:52:35.067             4.057               CapeTown           126.781
       471   05 Jun 2027 05:53:01.286   05 Jun 2027 05:53:15.384            14.098               CapeTown           440.562
       472   05 Jun 2027 05:55:02.801   05 Jun 2027 05:57:02.345           119.544               CapeTown          3735.750
       473   05 Jun 2027 06:51:09.399   05 Jun 2027 06:51:47.220            37.821               Magadan1          1181.906
       474   05 Jun 2027 06:52:09.253   05 Jun 2027 06:52:37.380            28.127                Anadyr1           878.969
       475   05 Jun 2027 06:52:52.012   05 Jun 2027 06:53:37.242            45.230                Anadyr1          1413.438
       476   05 Jun 2027 06:55:13.025   05 Jun 2027 06:55:18.384             5.359               Magadan2           167.469
       477   05 Jun 2027 06:55:51.909   05 Jun 2027 06:55:59.709             7.800                Anadyr2           243.750
       478   05 Jun 2027 06:57:15.602   05 Jun 2027 06:57:34.764            19.162               Magadan1           598.813
       479   05 Jun 2027 07:02:14.188   05 Jun 2027 07:02:22.487             8.299                 Moscow           259.344
       480   05 Jun 2027 07:29:34.796   05 Jun 2027 07:31:38.964           124.168               CapeTown          3880.250
       481   05 Jun 2027 08:27:38.951   05 Jun 2027 08:28:04.927            25.976                Anadyr2           811.750
       482   05 Jun 2027 08:28:31.350   05 Jun 2027 08:28:42.491            11.141               Magadan1           348.156
