uniorb/output/strategy_2/Drop/Drop_KinoSat_110905.txt

KinoSat_110905
-------------------------
    Access    *     Start Time (UTCG)     *     Stop Time (UTCG)  *   Duration (s)        *       Station  *  Data (Mbytes)
         1   01 Jun 2027 03:31:20.347   01 Jun 2027 03:32:13.255            52.908                Anadyr2          1653.375
         2   01 Jun 2027 03:32:17.979   01 Jun 2027 03:32:22.011             4.032               Magadan1           126.000
         3   01 Jun 2027 03:32:33.684   01 Jun 2027 03:32:37.358             3.674                Anadyr1           114.813
         4   01 Jun 2027 03:32:38.405   01 Jun 2027 03:33:07.107            28.702               Magadan2           896.937
         5   01 Jun 2027 03:33:07.107   01 Jun 2027 03:33:15.128             8.021               Magadan1           250.656
         6   01 Jun 2027 03:34:10.155   01 Jun 2027 03:38:03.974           233.819                Anadyr2          7306.844
         7   01 Jun 2027 05:08:03.676   01 Jun 2027 05:08:37.321            33.645                Irkutsk          1051.406
         8   01 Jun 2027 05:10:57.613   01 Jun 2027 05:11:25.236            27.623                Irkutsk           863.219
         9   01 Jun 2027 06:45:33.189   01 Jun 2027 06:45:48.032            14.843               Magadan1           463.844
        10   01 Jun 2027 06:46:12.364   01 Jun 2027 06:48:14.768           122.404                Novosib          3825.125
        11   01 Jun 2027 06:48:26.148   01 Jun 2027 06:49:18.221            52.073               Magadan1          1627.281
        12   01 Jun 2027 06:49:29.084   01 Jun 2027 06:50:06.559            37.475                Novosib          1171.094
        13   01 Jun 2027 06:52:18.121   01 Jun 2027 06:52:19.401             1.280                Norilsk            40.000
        14   01 Jun 2027 06:52:44.777   01 Jun 2027 06:53:13.866            29.089              Murmansk2           909.031
        15   01 Jun 2027 07:24:21.914   01 Jun 2027 07:24:23.292             1.378            RioGallegos            43.062
        16   01 Jun 2027 07:24:42.982   01 Jun 2027 07:25:48.540            65.558            RioGallegos          2048.687
        17   01 Jun 2027 08:00:20.356   01 Jun 2027 08:02:30.422           130.066                Sumatra          4064.562
        18   01 Jun 2027 08:21:29.123   01 Jun 2027 08:21:53.769            24.646                Irkutsk           770.188
        19   01 Jun 2027 08:22:21.517   01 Jun 2027 08:25:28.873           187.356                Irkutsk          5854.875
        20   01 Jun 2027 08:25:47.125   01 Jun 2027 08:25:49.379             2.254              Murmansk1            70.438
        21   01 Jun 2027 08:25:58.841   01 Jun 2027 08:26:14.291            15.450                Norilsk           482.812
        22   01 Jun 2027 08:26:14.319   01 Jun 2027 08:26:30.292            15.973              Murmansk1           499.156
        23   01 Jun 2027 08:27:22.248   01 Jun 2027 08:28:10.312            48.064              Murmansk1          1502.000
        24   01 Jun 2027 09:01:10.371   01 Jun 2027 09:01:50.491            40.120            RioGallegos          1253.750
        25   01 Jun 2027 09:03:01.142   01 Jun 2027 09:03:22.551            21.409            RioGallegos           669.031
        26   01 Jun 2027 09:04:47.878   01 Jun 2027 09:05:03.363            15.485            RioGallegos           483.906
        27   01 Jun 2027 09:35:25.853   01 Jun 2027 09:36:47.480            81.627                Sumatra          2550.844
        28   01 Jun 2027 09:39:08.215   01 Jun 2027 09:39:46.689            38.474                Sumatra          1202.312
        29   01 Jun 2027 09:40:11.273   01 Jun 2027 09:40:39.183            27.910                Sumatra           872.187
        30   01 Jun 2027 09:46:05.117   01 Jun 2027 09:47:21.103            75.986                  Delhi          2374.563
        31   01 Jun 2027 09:58:36.535   01 Jun 2027 09:58:58.690            22.155                Novosib           692.344
        32   01 Jun 2027 09:59:11.580   01 Jun 2027 09:59:37.868            26.288              Murmansk1           821.500
        33   01 Jun 2027 09:59:48.048   01 Jun 2027 10:02:50.692           182.644                Novosib          5707.625
        34   01 Jun 2027 10:03:19.661   01 Jun 2027 10:03:49.921            30.260              Murmansk2           945.625
        35   01 Jun 2027 10:08:11.089   01 Jun 2027 10:08:20.235             9.146              Murmansk1           285.812
        36   01 Jun 2027 11:20:18.304   01 Jun 2027 11:25:10.057           291.753                  Delhi          9117.281
        37   01 Jun 2027 11:33:54.022   01 Jun 2027 11:35:50.145           116.123                 Moscow          3628.844
        38   01 Jun 2027 11:36:06.011   01 Jun 2027 11:36:15.149             9.138              Murmansk2           285.562
        39   01 Jun 2027 11:36:17.587   01 Jun 2027 11:36:25.971             8.384              Murmansk2           262.000
        40   01 Jun 2027 11:36:25.971   01 Jun 2027 11:36:37.116            11.145              Murmansk1           348.281
        41   01 Jun 2027 11:36:40.669   01 Jun 2027 11:37:54.748            74.079                Novosib          2314.969
        42   01 Jun 2027 11:38:07.188   01 Jun 2027 11:39:12.502            65.314                 Moscow          2041.063
        43   01 Jun 2027 13:03:44.248   01 Jun 2027 13:07:33.893           229.645                 Moscow          7176.406
        44   01 Jun 2027 13:07:39.244   01 Jun 2027 13:13:06.633           327.389              Murmansk2         10230.906
        45   01 Jun 2027 13:23:29.519   01 Jun 2027 13:26:35.360           185.841                Anadyr1          5807.531
        46   01 Jun 2027 13:27:08.040   01 Jun 2027 13:27:46.608            38.568                Anadyr2          1205.250
        47   01 Jun 2027 14:17:20.593   01 Jun 2027 14:18:49.845            89.252               CapeTown          2789.125
        48   01 Jun 2027 14:45:07.827   01 Jun 2027 14:45:28.635            20.808              Murmansk2           650.250
        49   01 Jun 2027 14:46:12.935   01 Jun 2027 14:46:17.255             4.320              Murmansk1           135.000
        50   01 Jun 2027 14:46:20.361   01 Jun 2027 14:46:36.120            15.759              Murmansk1           492.469
        51   01 Jun 2027 14:57:52.478   01 Jun 2027 14:59:59.667           127.189                Anadyr2          3974.656
        52   01 Jun 2027 15:00:01.184   01 Jun 2027 15:02:43.142           161.958                Anadyr1          5061.187
        53   01 Jun 2027 16:25:46.111   01 Jun 2027 16:27:36.275           110.164              Murmansk1          3442.625
        54   01 Jun 2027 16:33:38.368   01 Jun 2027 16:35:32.865           114.497                Anadyr1          3578.031
        55   01 Jun 2027 16:35:39.249   01 Jun 2027 16:35:49.597            10.348                Anadyr1           323.375
        56   01 Jun 2027 16:36:24.615   01 Jun 2027 16:41:10.787           286.172               Magadan2          8942.875
        57   01 Jun 2027 18:09:33.781   01 Jun 2027 18:11:15.938           102.157                Anadyr1          3192.406
        58   01 Jun 2027 18:11:39.871   01 Jun 2027 18:12:46.572            66.701                Anadyr2          2084.406
        59   01 Jun 2027 18:12:49.750   01 Jun 2027 18:16:03.423           193.673               Magadan2          6052.281
        60   01 Jun 2027 19:04:39.060   01 Jun 2027 19:07:58.102           199.042            RioGallegos          6220.063
        61   01 Jun 2027 19:08:30.211   01 Jun 2027 19:09:06.443            36.232            RioGallegos          1132.250
        62   01 Jun 2027 19:10:41.826   01 Jun 2027 19:11:19.363            37.537            RioGallegos          1173.031
        63   01 Jun 2027 19:45:17.360   01 Jun 2027 19:45:42.733            25.373                Anadyr2           792.906
        64   01 Jun 2027 19:46:02.006   01 Jun 2027 19:47:08.989            66.983                Anadyr2          2093.219
        65   01 Jun 2027 19:47:27.680   01 Jun 2027 19:51:28.762           241.082                Norilsk          7533.812
        66   01 Jun 2027 19:51:56.159   01 Jun 2027 19:52:10.996            14.837                Irkutsk           463.656
        67   01 Jun 2027 19:52:30.604   01 Jun 2027 19:52:57.963            27.359                Irkutsk           854.969
        68   01 Jun 2027 19:53:21.772   01 Jun 2027 19:53:46.763            24.991                Irkutsk           780.969
        69   01 Jun 2027 19:54:31.134   01 Jun 2027 19:55:35.429            64.295                Irkutsk          2009.219
        70   01 Jun 2027 20:06:05.131   01 Jun 2027 20:07:17.105            71.974                Sumatra          2249.188
        71   01 Jun 2027 20:10:29.021   01 Jun 2027 20:11:29.139            60.118                Sumatra          1878.688
        72   01 Jun 2027 21:26:21.963   01 Jun 2027 21:27:03.075            41.112                Norilsk          1284.750
        73   01 Jun 2027 21:27:11.244   01 Jun 2027 21:28:32.860            81.616                Irkutsk          2550.500
        74   01 Jun 2027 21:28:42.588   01 Jun 2027 21:29:13.349            30.761                Novosib           961.281
        75   01 Jun 2027 21:30:04.705   01 Jun 2027 21:30:45.203            40.498                Novosib          1265.563
        76   01 Jun 2027 21:33:26.442   01 Jun 2027 21:33:29.648             3.206                Novosib           100.188
        77   01 Jun 2027 21:35:06.241   01 Jun 2027 21:35:45.692            39.451                Novosib          1232.844
        78   01 Jun 2027 21:36:05.080   01 Jun 2027 21:39:02.512           177.432                  Delhi          5544.750
        79   01 Jun 2027 21:41:08.284   01 Jun 2027 21:42:30.459            82.175                  Delhi          2567.969
        80   01 Jun 2027 22:59:19.624   01 Jun 2027 23:00:24.480            64.856                Norilsk          2026.750
        81   01 Jun 2027 23:00:36.962   01 Jun 2027 23:01:05.583            28.621               Magadan2           894.406
        82   01 Jun 2027 23:01:53.294   01 Jun 2027 23:02:39.578            46.284               Magadan2          1446.375
        83   01 Jun 2027 23:02:53.986   01 Jun 2027 23:05:45.474           171.488              Murmansk1          5359.000
        84   01 Jun 2027 23:06:10.003   01 Jun 2027 23:08:30.461           140.458              Murmansk2          4389.313
        85   01 Jun 2027 23:19:14.431   01 Jun 2027 23:19:59.669            45.238                  Delhi          1413.687
        86   01 Jun 2027 23:21:53.273   01 Jun 2027 23:23:00.681            67.408                  Delhi          2106.500
        87   02 Jun 2027 00:27:26.870   02 Jun 2027 00:27:35.666             8.796                Anadyr2           274.875
        88   02 Jun 2027 00:30:02.334   02 Jun 2027 00:30:21.150            18.816                Anadyr1           588.000
        89   02 Jun 2027 00:31:41.763   02 Jun 2027 00:32:46.369            64.606                Anadyr1          2018.938
        90   02 Jun 2027 00:33:05.646   02 Jun 2027 00:34:09.222            63.576               Magadan2          1986.750
        91   02 Jun 2027 00:34:43.256   02 Jun 2027 00:35:06.570            23.314               Magadan1           728.562
        92   02 Jun 2027 00:36:25.189   02 Jun 2027 00:36:44.961            19.772               Magadan2           617.875
        93   02 Jun 2027 00:37:28.258   02 Jun 2027 00:39:27.944           119.686              Murmansk2          3740.188
        94   02 Jun 2027 00:40:27.858   02 Jun 2027 00:42:00.997            93.139              Murmansk2          2910.594
        95   02 Jun 2027 00:43:31.810   02 Jun 2027 00:43:35.482             3.672                 Moscow           114.750
        96   02 Jun 2027 00:44:53.118   02 Jun 2027 00:45:44.908            51.790              Murmansk2          1618.437
        97   02 Jun 2027 00:48:44.997   02 Jun 2027 00:48:51.487             6.490              Murmansk1           202.813
        98   02 Jun 2027 00:49:43.241   02 Jun 2027 00:50:07.013            23.772                 Moscow           742.875
        99   02 Jun 2027 00:52:15.455   02 Jun 2027 00:52:41.488            26.033                 Moscow           813.531
       100   02 Jun 2027 01:06:02.855   02 Jun 2027 01:06:28.593            25.738               CapeTown           804.312
       101   02 Jun 2027 01:07:42.236   02 Jun 2027 01:09:02.535            80.299               CapeTown          2509.344
       102   02 Jun 2027 01:14:17.251   02 Jun 2027 01:15:15.090            57.839               CapeTown          1807.469
       103   02 Jun 2027 02:03:37.325   02 Jun 2027 02:03:56.531            19.206                Anadyr2           600.187
       104   02 Jun 2027 02:04:45.406   02 Jun 2027 02:05:46.511            61.105               Magadan1          1909.531
       105   02 Jun 2027 02:07:14.856   02 Jun 2027 02:07:29.699            14.843               Magadan1           463.844
       106   02 Jun 2027 02:07:58.676   02 Jun 2027 02:08:11.469            12.793               Magadan2           399.781
       107   02 Jun 2027 02:09:40.729   02 Jun 2027 02:10:07.238            26.509               Magadan1           828.406
       108   02 Jun 2027 02:11:32.202   02 Jun 2027 02:11:48.043            15.841                Norilsk           495.031
       109   02 Jun 2027 02:12:20.555   02 Jun 2027 02:12:34.315            13.760                Norilsk           430.000
       110   02 Jun 2027 02:13:20.997   02 Jun 2027 02:13:56.278            35.281                Norilsk          1102.531
       111   02 Jun 2027 02:13:57.975   02 Jun 2027 02:14:46.620            48.645              Murmansk2          1520.156
       112   02 Jun 2027 02:14:46.620   02 Jun 2027 02:15:25.736            39.116              Murmansk1          1222.375
       113   02 Jun 2027 02:19:02.894   02 Jun 2027 02:19:53.720            50.826                Novosib          1588.313
       114   02 Jun 2027 02:23:25.809   02 Jun 2027 02:23:42.348            16.539              Murmansk2           516.844
       115   02 Jun 2027 02:24:41.467   02 Jun 2027 02:25:05.697            24.230                 Moscow           757.188
       116   02 Jun 2027 02:26:43.127   02 Jun 2027 02:27:03.850            20.723                 Moscow           647.594
       117   02 Jun 2027 02:43:36.521   02 Jun 2027 02:44:06.524            30.003               CapeTown           937.594
       118   02 Jun 2027 02:48:37.884   02 Jun 2027 02:49:20.463            42.579               CapeTown          1330.594
       119   02 Jun 2027 02:50:28.910   02 Jun 2027 02:50:51.049            22.139               CapeTown           691.844
       120   02 Jun 2027 02:51:53.884   02 Jun 2027 02:52:17.529            23.645               CapeTown           738.906
       121   02 Jun 2027 03:43:17.625   02 Jun 2027 03:44:06.969            49.344                Anadyr1          1542.000
       122   02 Jun 2027 03:44:38.199   02 Jun 2027 03:44:51.586            13.387               Magadan2           418.344
       123   02 Jun 2027 03:45:13.638   02 Jun 2027 03:45:45.963            32.325               Magadan1          1010.156
       124   02 Jun 2027 03:46:11.512   02 Jun 2027 03:50:04.952           233.440                Anadyr1          7295.000
       125   02 Jun 2027 05:22:28.651   02 Jun 2027 05:23:36.881            68.230               Magadan1          2132.187
       126   02 Jun 2027 05:24:15.374   02 Jun 2027 05:24:40.145            24.771               Magadan2           774.094
       127   02 Jun 2027 05:24:51.570   02 Jun 2027 05:25:33.856            42.286                Anadyr2          1321.437
       128   02 Jun 2027 05:25:34.052   02 Jun 2027 05:25:38.024             3.972               Magadan2           124.125
       129   02 Jun 2027 06:57:30.329   02 Jun 2027 06:57:33.133             2.804               Magadan1            87.625
       130   02 Jun 2027 06:57:52.166   02 Jun 2027 06:58:00.265             8.099               Magadan1           253.094
       131   02 Jun 2027 06:58:18.724   02 Jun 2027 07:01:11.508           172.784               Magadan2          5399.500
       132   02 Jun 2027 07:01:34.355   02 Jun 2027 07:02:27.309            52.954                Novosib          1654.813
       133   02 Jun 2027 07:36:12.158   02 Jun 2027 07:37:09.797            57.639            RioGallegos          1801.219
       134   02 Jun 2027 07:38:09.947   02 Jun 2027 07:38:40.588            30.641            RioGallegos           957.531
       135   02 Jun 2027 08:11:52.194   02 Jun 2027 08:14:55.557           183.363                Sumatra          5730.094
       136   02 Jun 2027 08:32:34.640   02 Jun 2027 08:33:14.720            40.080                Irkutsk          1252.500
       137   02 Jun 2027 08:33:43.483   02 Jun 2027 08:36:52.856           189.373                Irkutsk          5917.906
       138   02 Jun 2027 08:37:20.754   02 Jun 2027 08:37:47.421            26.667              Murmansk1           833.344
       139   02 Jun 2027 08:37:51.982   02 Jun 2027 08:38:09.920            17.938                Norilsk           560.562
       140   02 Jun 2027 08:38:45.235   02 Jun 2027 08:39:13.878            28.643              Murmansk1           895.094
       141   02 Jun 2027 08:40:19.592   02 Jun 2027 08:40:21.274             1.682                Norilsk            52.562
       142   02 Jun 2027 08:40:35.247   02 Jun 2027 08:40:46.998            11.751              Murmansk1           367.219
       143   02 Jun 2027 08:41:11.719   02 Jun 2027 08:41:25.707            13.988              Murmansk2           437.125
       144   02 Jun 2027 09:13:38.015   02 Jun 2027 09:13:58.834            20.819            RioGallegos           650.594
       145   02 Jun 2027 09:14:53.141   02 Jun 2027 09:15:45.511            52.370            RioGallegos          1636.562
       146   02 Jun 2027 09:47:50.018   02 Jun 2027 09:48:43.396            53.378                Sumatra          1668.063
       147   02 Jun 2027 09:55:30.653   02 Jun 2027 09:56:55.088            84.435                  Delhi          2638.594
       148   02 Jun 2027 10:08:42.291   02 Jun 2027 10:08:51.463             9.172                Norilsk           286.625
       149   02 Jun 2027 10:09:11.469   02 Jun 2027 10:09:15.744             4.275              Murmansk2           133.594
       150   02 Jun 2027 10:09:16.701   02 Jun 2027 10:09:34.622            17.921                Novosib           560.031
       151   02 Jun 2027 10:09:38.460   02 Jun 2027 10:10:40.376            61.916              Murmansk2          1934.875
       152   02 Jun 2027 10:10:43.729   02 Jun 2027 10:10:59.813            16.084                Novosib           502.625
       153   02 Jun 2027 10:11:13.442   02 Jun 2027 10:11:20.381             6.939                Irkutsk           216.844
       154   02 Jun 2027 10:11:22.822   02 Jun 2027 10:12:30.298            67.476                 Moscow          2108.625
       155   02 Jun 2027 10:12:41.836   02 Jun 2027 10:13:31.176            49.340              Murmansk1          1541.875
       156   02 Jun 2027 11:32:56.752   02 Jun 2027 11:35:13.716           136.964                  Delhi          4280.125
       157   02 Jun 2027 11:36:03.755   02 Jun 2027 11:37:31.445            87.690                  Delhi          2740.313
       158   02 Jun 2027 11:45:03.272   02 Jun 2027 11:45:52.988            49.716                 Moscow          1553.625
       159   02 Jun 2027 11:46:14.016   02 Jun 2027 11:47:02.407            48.391                 Moscow          1512.219
       160   02 Jun 2027 11:47:13.898   02 Jun 2027 11:47:59.121            45.223                 Moscow          1413.219
       161   02 Jun 2027 11:48:05.404   02 Jun 2027 11:48:26.436            21.032              Murmansk1           657.250
       162   02 Jun 2027 11:48:26.711   02 Jun 2027 11:48:45.166            18.455                Norilsk           576.719
       163   02 Jun 2027 11:48:49.108   02 Jun 2027 11:49:28.109            39.001              Murmansk2          1218.781
       164   02 Jun 2027 11:50:01.722   02 Jun 2027 11:50:24.984            23.262                Norilsk           726.937
       165   02 Jun 2027 11:54:15.882   02 Jun 2027 11:54:21.333             5.451                Norilsk           170.344
       166   02 Jun 2027 13:15:54.646   02 Jun 2027 13:17:19.957            85.311                 Moscow          2665.969
       167   02 Jun 2027 13:18:51.151   02 Jun 2027 13:19:52.423            61.272                 Moscow          1914.750
       168   02 Jun 2027 13:20:06.678   02 Jun 2027 13:21:38.097            91.419              Murmansk2          2856.844
       169   02 Jun 2027 13:21:38.097   02 Jun 2027 13:24:06.304           148.207              Murmansk1          4631.469
       170   02 Jun 2027 13:27:24.888   02 Jun 2027 13:28:27.011            62.123                Norilsk          1941.344
       171   02 Jun 2027 13:35:01.507   02 Jun 2027 13:36:53.193           111.686                Anadyr2          3490.188
       172   02 Jun 2027 13:37:02.252   02 Jun 2027 13:38:26.251            83.999                Anadyr1          2624.969
       173   02 Jun 2027 13:40:44.966   02 Jun 2027 13:40:54.142             9.176                Anadyr2           286.750
       174   02 Jun 2027 14:37:41.270   02 Jun 2027 14:38:45.516            64.246               CapeTown          2007.687
       175   02 Jun 2027 14:57:33.526   02 Jun 2027 14:58:55.312            81.786              Murmansk2          2555.813
       176   02 Jun 2027 15:02:19.870   02 Jun 2027 15:03:06.426            46.556              Murmansk1          1454.875
       177   02 Jun 2027 15:05:49.484   02 Jun 2027 15:06:10.452            20.968              Murmansk2           655.250
       178   02 Jun 2027 15:09:51.028   02 Jun 2027 15:12:02.341           131.313                Anadyr2          4103.531
       179   02 Jun 2027 15:16:01.359   02 Jun 2027 15:16:21.422            20.063                Anadyr2           626.969
       180   02 Jun 2027 15:16:38.903   02 Jun 2027 15:17:04.631            25.728                Anadyr1           804.000
       181   02 Jun 2027 15:20:23.233   02 Jun 2027 15:21:07.888            44.655                Anadyr2          1395.469
       182   02 Jun 2027 16:38:47.102   02 Jun 2027 16:41:41.132           174.030              Murmansk2          5438.438
       183   02 Jun 2027 16:45:39.629   02 Jun 2027 16:47:02.463            82.834                Anadyr1          2588.562
       184   02 Jun 2027 16:47:28.442   02 Jun 2027 16:47:48.392            19.950                Anadyr1           623.437
       185   02 Jun 2027 16:48:18.377   02 Jun 2027 16:50:55.228           156.851               Magadan1          4901.594
       186   02 Jun 2027 16:55:18.836   02 Jun 2027 16:56:13.706            54.870               Magadan1          1714.687
       187   02 Jun 2027 18:21:34.706   02 Jun 2027 18:24:49.767           195.061                Anadyr2          6095.656
       188   02 Jun 2027 18:24:58.060   02 Jun 2027 18:26:59.332           121.272                Norilsk          3789.750
       189   02 Jun 2027 18:31:23.664   02 Jun 2027 18:31:30.705             7.041               Magadan2           220.031
       190   02 Jun 2027 18:33:34.256   02 Jun 2027 18:34:01.164            26.908               Magadan1           840.875
       191   02 Jun 2027 19:16:19.980   02 Jun 2027 19:19:49.676           209.696            RioGallegos          6553.000
       192   02 Jun 2027 19:21:34.981   02 Jun 2027 19:22:40.847            65.866            RioGallegos          2058.313
       193   02 Jun 2027 19:59:27.095   02 Jun 2027 20:03:29.590           242.495                Norilsk          7577.969
       194   02 Jun 2027 20:04:03.003   02 Jun 2027 20:05:03.506            60.503                Irkutsk          1890.719
       195   02 Jun 2027 20:05:52.963   02 Jun 2027 20:06:15.049            22.086                Irkutsk           690.188
       196   02 Jun 2027 20:06:50.434   02 Jun 2027 20:06:53.584             3.150                Irkutsk            98.438
       197   02 Jun 2027 20:17:41.297   02 Jun 2027 20:21:12.000           210.703                Sumatra          6584.469
       198   02 Jun 2027 21:35:21.530   02 Jun 2027 21:36:30.839            69.309                Norilsk          2165.906
       199   02 Jun 2027 21:39:12.755   02 Jun 2027 21:40:17.599            64.844                Irkutsk          2026.375
       200   02 Jun 2027 21:41:07.254   02 Jun 2027 21:41:23.062            15.808                Novosib           494.000
       201   02 Jun 2027 21:41:43.718   02 Jun 2027 21:42:11.813            28.095                Novosib           877.969
       202   02 Jun 2027 21:47:35.585   02 Jun 2027 21:50:51.178           195.593                  Delhi          6112.281
       203   02 Jun 2027 23:08:03.984   02 Jun 2027 23:08:07.374             3.390                Anadyr1           105.937
       204   02 Jun 2027 23:08:17.508   02 Jun 2027 23:08:28.220            10.712                Anadyr1           334.750
       205   02 Jun 2027 23:11:21.189   02 Jun 2027 23:13:01.149            99.960                Norilsk          3123.750
       206   02 Jun 2027 23:13:21.243   02 Jun 2027 23:13:37.478            16.235               Magadan2           507.344
       207   02 Jun 2027 23:13:49.658   02 Jun 2027 23:16:35.851           166.193              Murmansk2          5193.531
       208   02 Jun 2027 23:17:28.945   02 Jun 2027 23:17:43.989            15.044              Murmansk1           470.125
       209   02 Jun 2027 23:19:28.722   02 Jun 2027 23:23:47.562           258.840                 Moscow          8088.750
       210   03 Jun 2027 00:44:34.482   03 Jun 2027 00:46:06.246            91.764               Magadan2          2867.625
       211   03 Jun 2027 00:46:35.062   03 Jun 2027 00:47:05.341            30.279               Magadan2           946.219
       212   03 Jun 2027 00:49:29.343   03 Jun 2027 00:50:04.421            35.078              Murmansk2          1096.188
       213   03 Jun 2027 00:50:40.234   03 Jun 2027 00:51:14.699            34.465              Murmansk1          1077.031
       214   03 Jun 2027 00:51:25.148   03 Jun 2027 00:52:04.086            38.938                Novosib          1216.812
       215   03 Jun 2027 00:52:29.469   03 Jun 2027 00:53:34.507            65.038              Murmansk1          2032.437
       216   03 Jun 2027 00:55:11.165   03 Jun 2027 00:55:18.625             7.460                 Moscow           233.125
       217   03 Jun 2027 00:55:19.070   03 Jun 2027 00:55:42.473            23.403                 Moscow           731.344
       218   03 Jun 2027 01:02:40.055   03 Jun 2027 01:04:17.986            97.931                 Moscow          3060.344
       219   03 Jun 2027 01:24:54.398   03 Jun 2027 01:25:53.049            58.651               CapeTown          1832.844
       220   03 Jun 2027 02:13:30.462   03 Jun 2027 02:14:13.901            43.439                Anadyr2          1357.469
       221   03 Jun 2027 02:15:47.854   03 Jun 2027 02:15:54.932             7.078                Anadyr2           221.187
       222   03 Jun 2027 02:16:18.723   03 Jun 2027 02:17:23.039            64.316               Magadan1          2009.875
       223   03 Jun 2027 02:17:47.224   03 Jun 2027 02:17:48.453             1.229               Magadan1            38.406
       224   03 Jun 2027 02:18:16.606   03 Jun 2027 02:18:41.045            24.439               Magadan2           763.719
       225   03 Jun 2027 02:21:42.708   03 Jun 2027 02:21:58.674            15.966               Magadan1           498.938
       226   03 Jun 2027 02:24:04.529   03 Jun 2027 02:24:30.708            26.179               Magadan2           818.094
       227   03 Jun 2027 02:25:27.168   03 Jun 2027 02:26:40.380            73.212              Murmansk1          2287.875
       228   03 Jun 2027 02:27:23.748   03 Jun 2027 02:27:33.772            10.024              Murmansk2           313.250
       229   03 Jun 2027 02:28:40.152   03 Jun 2027 02:29:16.018            35.866                 Moscow          1120.813
       230   03 Jun 2027 02:29:49.023   03 Jun 2027 02:30:07.044            18.021                Novosib           563.156
       231   03 Jun 2027 02:34:40.305   03 Jun 2027 02:35:06.738            26.433                 Moscow           826.031
       232   03 Jun 2027 02:38:44.723   03 Jun 2027 02:39:02.335            17.612                 Moscow           550.375
       233   03 Jun 2027 02:39:47.103   03 Jun 2027 02:39:57.046             9.943                 Moscow           310.719
       234   03 Jun 2027 02:52:58.055   03 Jun 2027 02:53:19.144            21.089               CapeTown           659.031
       235   03 Jun 2027 02:55:29.288   03 Jun 2027 02:57:26.077           116.789               CapeTown          3649.656
       236   03 Jun 2027 03:56:15.860   03 Jun 2027 03:56:44.995            29.135                Anadyr1           910.469
       237   03 Jun 2027 03:58:12.762   03 Jun 2027 04:02:10.805           238.043                Anadyr1          7438.844
       238   03 Jun 2027 04:44:53.403   03 Jun 2027 04:45:52.288            58.885            RioGallegos          1840.156
       239   03 Jun 2027 05:32:00.764   03 Jun 2027 05:32:08.332             7.568                Irkutsk           236.500
       240   03 Jun 2027 05:33:34.716   03 Jun 2027 05:34:42.581            67.865                Irkutsk          2120.781
       241   03 Jun 2027 05:36:22.116   03 Jun 2027 05:36:49.572            27.456                Anadyr1           858.000
       242   03 Jun 2027 07:08:03.692   03 Jun 2027 07:08:10.295             6.603               Magadan2           206.344
       243   03 Jun 2027 07:08:22.094   03 Jun 2027 07:08:27.309             5.215                Novosib           162.969
       244   03 Jun 2027 07:08:27.774   03 Jun 2027 07:08:30.445             2.671                Norilsk            83.469
       245   03 Jun 2027 07:08:34.568   03 Jun 2027 07:09:02.700            28.132                Norilsk           879.125
       246   03 Jun 2027 07:09:26.307   03 Jun 2027 07:09:34.813             8.506               Magadan1           265.812
       247   03 Jun 2027 07:09:38.411   03 Jun 2027 07:09:55.839            17.428                Novosib           544.625
       248   03 Jun 2027 07:10:02.128   03 Jun 2027 07:10:25.110            22.982                Irkutsk           718.187
       249   03 Jun 2027 07:10:57.552   03 Jun 2027 07:11:06.357             8.805                Irkutsk           275.156
       250   03 Jun 2027 07:11:33.115   03 Jun 2027 07:11:55.454            22.339               Magadan1           698.094
       251   03 Jun 2027 07:11:57.639   03 Jun 2027 07:12:51.082            53.443              Murmansk1          1670.094
       252   03 Jun 2027 07:12:51.082   03 Jun 2027 07:12:56.490             5.408              Murmansk2           169.000
       253   03 Jun 2027 07:13:03.988   03 Jun 2027 07:13:11.706             7.718                Norilsk           241.188
       254   03 Jun 2027 07:13:13.315   03 Jun 2027 07:13:47.949            34.634                Norilsk          1082.312
       255   03 Jun 2027 07:14:18.236   03 Jun 2027 07:14:35.569            17.333                Novosib           541.656
       256   03 Jun 2027 07:14:35.702   03 Jun 2027 07:15:00.955            25.253              Murmansk2           789.156
       257   03 Jun 2027 07:48:11.837   03 Jun 2027 07:48:21.101             9.264            RioGallegos           289.500
       258   03 Jun 2027 07:49:55.479   03 Jun 2027 07:50:26.023            30.544            RioGallegos           954.500
       259   03 Jun 2027 08:23:32.240   03 Jun 2027 08:24:42.568            70.328                Sumatra          2197.750
       260   03 Jun 2027 08:25:53.910   03 Jun 2027 08:27:11.455            77.545                Sumatra          2423.281
       261   03 Jun 2027 08:36:16.738   03 Jun 2027 08:37:25.240            68.502                  Delhi          2140.688
       262   03 Jun 2027 08:38:57.679   03 Jun 2027 08:40:10.619            72.940                  Delhi          2279.375
       263   03 Jun 2027 08:43:13.894   03 Jun 2027 08:44:21.883            67.989                Novosib          2124.656
       264   03 Jun 2027 08:44:30.352   03 Jun 2027 08:44:57.869            27.517                Irkutsk           859.906
       265   03 Jun 2027 08:45:31.952   03 Jun 2027 08:45:46.309            14.357                Norilsk           448.656
       266   03 Jun 2027 08:45:48.296   03 Jun 2027 08:46:14.956            26.660                Norilsk           833.125
       267   03 Jun 2027 08:46:26.460   03 Jun 2027 08:47:07.087            40.627              Murmansk2          1269.594
       268   03 Jun 2027 08:47:13.993   03 Jun 2027 08:47:26.428            12.435              Murmansk2           388.594
       269   03 Jun 2027 08:47:33.502   03 Jun 2027 08:47:46.777            13.275                Irkutsk           414.844
       270   03 Jun 2027 08:47:59.423   03 Jun 2027 08:49:01.587            62.164                Irkutsk          1942.625
       271   03 Jun 2027 08:49:09.265   03 Jun 2027 08:49:15.564             6.299              Murmansk2           196.844
       272   03 Jun 2027 08:49:21.626   03 Jun 2027 08:49:45.939            24.313              Murmansk1           759.781
       273   03 Jun 2027 08:52:34.999   03 Jun 2027 08:53:00.443            25.444              Murmansk2           795.125
       274   03 Jun 2027 09:26:42.462   03 Jun 2027 09:27:16.265            33.803            RioGallegos          1056.344
       275   03 Jun 2027 09:27:23.210   03 Jun 2027 09:27:47.761            24.551            RioGallegos           767.219
       276   03 Jun 2027 10:00:24.396   03 Jun 2027 10:00:44.919            20.523                Sumatra           641.344
       277   03 Jun 2027 10:03:51.652   03 Jun 2027 10:05:07.019            75.367                Sumatra          2355.219
       278   03 Jun 2027 10:10:29.428   03 Jun 2027 10:10:31.852             2.424                  Delhi            75.750
       279   03 Jun 2027 10:11:16.845   03 Jun 2027 10:11:29.794            12.949                  Delhi           404.656
       280   03 Jun 2027 10:21:21.545   03 Jun 2027 10:21:34.493            12.948                 Moscow           404.625
       281   03 Jun 2027 10:21:37.512   03 Jun 2027 10:21:41.965             4.453                Novosib           139.156
       282   03 Jun 2027 10:21:45.895   03 Jun 2027 10:22:43.904            58.009              Murmansk1          1812.781
       283   03 Jun 2027 10:22:47.921   03 Jun 2027 10:23:00.545            12.624              Murmansk1           394.500
       284   03 Jun 2027 10:23:09.034   03 Jun 2027 10:23:19.777            10.743                 Moscow           335.719
       285   03 Jun 2027 10:23:21.286   03 Jun 2027 10:23:21.585             0.299                Norilsk             9.344
       286   03 Jun 2027 10:23:27.470   03 Jun 2027 10:23:52.563            25.093                Irkutsk           784.156
       287   03 Jun 2027 10:23:53.751   03 Jun 2027 10:23:58.308             4.557                 Moscow           142.406
       288   03 Jun 2027 10:24:12.256   03 Jun 2027 10:24:30.949            18.693                Novosib           584.156
       289   03 Jun 2027 10:24:31.287   03 Jun 2027 10:25:27.129            55.842                 Moscow          1745.063
       290   03 Jun 2027 11:45:49.620   03 Jun 2027 11:47:02.677            73.057                  Delhi          2283.031
       291   03 Jun 2027 11:47:58.370   03 Jun 2027 11:50:00.882           122.512                  Delhi          3828.500
       292   03 Jun 2027 11:56:52.222   03 Jun 2027 11:57:10.990            18.768              Murmansk2           586.500
       293   03 Jun 2027 11:57:10.990   03 Jun 2027 11:57:16.529             5.539              Murmansk1           173.094
       294   03 Jun 2027 11:57:20.152   03 Jun 2027 11:57:51.026            30.874                 Moscow           964.813
       295   03 Jun 2027 11:57:55.083   03 Jun 2027 11:58:46.234            51.151                Norilsk          1598.469
       296   03 Jun 2027 11:59:05.962   03 Jun 2027 12:00:05.677            59.715                 Moscow          1866.094
       297   03 Jun 2027 12:00:14.781   03 Jun 2027 12:00:16.410             1.629              Murmansk2            50.906
       298   03 Jun 2027 12:00:17.971   03 Jun 2027 12:00:49.780            31.809              Murmansk2           994.031
       299   03 Jun 2027 12:01:55.981   03 Jun 2027 12:02:04.409             8.428                 Moscow           263.375
       300   03 Jun 2027 12:02:34.936   03 Jun 2027 12:02:51.947            17.011              Murmansk2           531.594
       301   03 Jun 2027 12:03:15.128   03 Jun 2027 12:04:34.953            79.825                 Moscow          2494.531
       302   03 Jun 2027 12:05:52.735   03 Jun 2027 12:06:05.008            12.273              Murmansk2           383.531
       303   03 Jun 2027 12:06:05.008   03 Jun 2027 12:06:17.679            12.671              Murmansk1           395.969
       304   03 Jun 2027 12:07:09.723   03 Jun 2027 12:08:05.493            55.770              Murmansk1          1742.813
       305   03 Jun 2027 13:08:27.385   03 Jun 2027 13:10:25.418           118.033               CapeTown          3688.531
       306   03 Jun 2027 13:11:48.021   03 Jun 2027 13:12:42.012            53.991               CapeTown          1687.219
       307   03 Jun 2027 13:28:52.687   03 Jun 2027 13:29:19.887            27.200                 Moscow           850.000
       308   03 Jun 2027 13:31:35.800   03 Jun 2027 13:32:48.477            72.677              Murmansk2          2271.156
       309   03 Jun 2027 13:33:25.450   03 Jun 2027 13:33:53.029            27.579              Murmansk1           861.844
       310   03 Jun 2027 13:35:05.754   03 Jun 2027 13:36:07.956            62.202              Murmansk1          1943.812
       311   03 Jun 2027 13:40:56.594   03 Jun 2027 13:41:20.363            23.769              Murmansk2           742.781
       312   03 Jun 2027 13:42:49.817   03 Jun 2027 13:43:20.583            30.766              Murmansk1           961.438
       313   03 Jun 2027 13:46:44.120   03 Jun 2027 13:49:42.755           178.635                Anadyr1          5582.344
       314   03 Jun 2027 13:50:57.237   03 Jun 2027 13:51:23.855            26.618                Anadyr1           831.813
       315   03 Jun 2027 13:52:45.538   03 Jun 2027 13:53:13.096            27.558                Anadyr1           861.188
       316   03 Jun 2027 15:10:01.774   03 Jun 2027 15:10:20.702            18.928              Murmansk1           591.500
       317   03 Jun 2027 15:10:35.907   03 Jun 2027 15:11:43.753            67.846              Murmansk1          2120.187
       318   03 Jun 2027 15:16:19.156   03 Jun 2027 15:17:51.207            92.051              Murmansk2          2876.594
       319   03 Jun 2027 15:21:50.219   03 Jun 2027 15:22:35.125            44.906                Anadyr1          1403.313
       320   03 Jun 2027 15:22:48.142   03 Jun 2027 15:23:35.489            47.347                Anadyr1          1479.594
       321   03 Jun 2027 15:27:21.090   03 Jun 2027 15:29:13.296           112.206               Magadan2          3506.438
       322   03 Jun 2027 16:52:12.076   03 Jun 2027 16:53:40.038            87.962              Murmansk1          2748.813
       323   03 Jun 2027 16:57:40.983   03 Jun 2027 16:57:47.447             6.464                Anadyr1           202.000
       324   03 Jun 2027 16:57:58.444   03 Jun 2027 16:59:46.620           108.176                Anadyr1          3380.500
       325   03 Jun 2027 17:00:13.736   03 Jun 2027 17:01:45.038            91.302               Magadan2          2853.187
       326   03 Jun 2027 17:01:45.038   03 Jun 2027 17:02:16.361            31.323               Magadan1           978.844
       327   03 Jun 2027 17:06:30.276   03 Jun 2027 17:06:45.571            15.295               Magadan2           477.969
       328   03 Jun 2027 17:07:11.364   03 Jun 2027 17:07:20.819             9.455               Magadan2           295.469
       329   03 Jun 2027 17:11:04.927   03 Jun 2027 17:11:26.121            21.194               Magadan1           662.313
       330   03 Jun 2027 18:33:35.408   03 Jun 2027 18:37:16.316           220.908                Anadyr1          6903.375
       331   03 Jun 2027 18:37:24.705   03 Jun 2027 18:38:25.559            60.854               Magadan1          1901.688
       332   03 Jun 2027 18:38:29.532   03 Jun 2027 18:40:07.954            98.422                Norilsk          3075.687
       333   03 Jun 2027 18:48:01.884   03 Jun 2027 18:48:47.480            45.596               Magadan2          1424.875
       334   03 Jun 2027 19:28:05.832   03 Jun 2027 19:30:20.858           135.026            RioGallegos          4219.563
       335   03 Jun 2027 19:30:52.901   03 Jun 2027 19:31:43.448            50.547            RioGallegos          1579.594
       336   03 Jun 2027 20:11:27.144   03 Jun 2027 20:13:20.519           113.375                Norilsk          3542.969
       337   03 Jun 2027 20:13:35.749   03 Jun 2027 20:13:49.672            13.923               Magadan2           435.094
       338   03 Jun 2027 20:15:30.731   03 Jun 2027 20:16:41.545            70.814                Norilsk          2212.938
       339   03 Jun 2027 20:17:45.677   03 Jun 2027 20:20:24.611           158.934                Novosib          4966.688
       340   03 Jun 2027 20:22:18.101   03 Jun 2027 20:22:36.365            18.264                Novosib           570.750
       341   03 Jun 2027 20:29:24.878   03 Jun 2027 20:32:02.186           157.308                Sumatra          4915.875
       342   03 Jun 2027 21:48:00.532   03 Jun 2027 21:48:00.600             0.068               Magadan2             2.125
       343   03 Jun 2027 21:48:28.560   03 Jun 2027 21:49:03.217            34.657                Norilsk          1083.031
       344   03 Jun 2027 21:49:04.022   03 Jun 2027 21:49:24.799            20.777                Norilsk           649.281
       345   03 Jun 2027 21:49:40.984   03 Jun 2027 21:50:07.315            26.331                Norilsk           822.844
       346   03 Jun 2027 21:51:15.065   03 Jun 2027 21:51:59.253            44.188                Irkutsk          1380.875
       347   03 Jun 2027 21:52:25.534   03 Jun 2027 21:53:18.826            53.292                Novosib          1665.375
       348   03 Jun 2027 21:53:44.530   03 Jun 2027 21:54:24.191            39.661                Novosib          1239.406
       349   03 Jun 2027 21:57:19.987   03 Jun 2027 21:57:58.501            38.514                Novosib          1203.563
       350   03 Jun 2027 21:59:14.274   03 Jun 2027 22:01:49.593           155.319                  Delhi          4853.719
       351   03 Jun 2027 23:18:57.082   03 Jun 2027 23:19:49.092            52.010                Anadyr2          1625.313
       352   03 Jun 2027 23:23:30.422   03 Jun 2027 23:25:37.161           126.739               Magadan1          3960.594
       353   03 Jun 2027 23:25:46.146   03 Jun 2027 23:28:09.372           143.226              Murmansk2          4475.813
       354   03 Jun 2027 23:28:32.992   03 Jun 2027 23:30:00.083            87.091              Murmansk1          2721.594
       355   03 Jun 2027 23:30:42.232   03 Jun 2027 23:32:48.653           126.421                 Moscow          3950.656
       356   04 Jun 2027 00:53:41.542   04 Jun 2027 00:53:44.721             3.179                Anadyr1            99.344
       357   04 Jun 2027 00:55:44.261   04 Jun 2027 00:56:37.898            53.637                Anadyr1          1676.156
       358   04 Jun 2027 00:57:16.277   04 Jun 2027 00:57:56.855            40.578               Magadan2          1268.062
       359   04 Jun 2027 00:58:02.944   04 Jun 2027 00:58:34.018            31.074               Magadan2           971.062
       360   04 Jun 2027 00:59:22.634   04 Jun 2027 00:59:49.550            26.916               Magadan1           841.125
       361   04 Jun 2027 01:01:30.639   04 Jun 2027 01:03:49.954           139.315              Murmansk2          4353.594
       362   04 Jun 2027 01:04:52.966   04 Jun 2027 01:05:10.839            17.873                 Moscow           558.531
       363   04 Jun 2027 01:07:06.903   04 Jun 2027 01:07:21.620            14.717                 Moscow           459.906
       364   04 Jun 2027 01:08:06.999   04 Jun 2027 01:08:23.462            16.463                 Moscow           514.469
       365   04 Jun 2027 01:12:17.873   04 Jun 2027 01:12:24.927             7.054                 Moscow           220.438
       366   04 Jun 2027 01:12:30.469   04 Jun 2027 01:13:00.570            30.101                 Moscow           940.656
       367   04 Jun 2027 01:29:14.544   04 Jun 2027 01:30:29.060            74.516               CapeTown          2328.625
       368   04 Jun 2027 01:35:55.447   04 Jun 2027 01:36:42.191            46.744               CapeTown          1460.750
       369   04 Jun 2027 02:25:26.577   04 Jun 2027 02:26:24.070            57.493                Anadyr2          1796.656
       370   04 Jun 2027 02:27:40.427   04 Jun 2027 02:27:44.544             4.117                Anadyr1           128.656
       371   04 Jun 2027 02:27:53.565   04 Jun 2027 02:29:16.255            82.690               Magadan2          2584.062
       372   04 Jun 2027 02:30:41.912   04 Jun 2027 02:31:19.659            37.747               Magadan2          1179.594
       373   04 Jun 2027 02:36:14.706   04 Jun 2027 02:36:37.293            22.587                Norilsk           705.844
       374   04 Jun 2027 02:37:28.775   04 Jun 2027 02:38:33.393            64.618              Murmansk1          2019.313
       375   04 Jun 2027 02:38:38.918   04 Jun 2027 02:38:42.233             3.315              Murmansk1           103.594
       376   04 Jun 2027 02:38:59.403   04 Jun 2027 02:39:09.067             9.664              Murmansk2           302.000
       377   04 Jun 2027 02:40:42.909   04 Jun 2027 02:40:59.242            16.333                 Moscow           510.406
       378   04 Jun 2027 02:41:41.723   04 Jun 2027 02:41:50.967             9.244                 Moscow           288.875
       379   04 Jun 2027 02:42:18.788   04 Jun 2027 02:43:44.045            85.257                 Moscow          2664.281
       380   04 Jun 2027 03:07:18.329   04 Jun 2027 03:09:02.071           103.742               CapeTown          3241.937
       381   04 Jun 2027 04:08:17.343   04 Jun 2027 04:10:13.876           116.533                Anadyr1          3641.656
       382   04 Jun 2027 04:10:13.876   04 Jun 2027 04:10:44.551            30.675                Anadyr2           958.594
       383   04 Jun 2027 04:10:44.551   04 Jun 2027 04:12:38.244           113.693                Anadyr1          3552.906
       384   04 Jun 2027 04:12:39.154   04 Jun 2027 04:13:32.484            53.330               Magadan1          1666.563
       385   04 Jun 2027 05:44:13.878   04 Jun 2027 05:44:24.965            11.087                Irkutsk           346.469
       386   04 Jun 2027 05:45:37.020   04 Jun 2027 05:46:55.472            78.452               Magadan2          2451.625
       387   04 Jun 2027 05:46:55.472   04 Jun 2027 05:47:41.568            46.096               Magadan1          1440.500
       388   04 Jun 2027 05:47:41.677   04 Jun 2027 05:48:49.414            67.737                Anadyr2          2116.781
       389   04 Jun 2027 05:49:15.542   04 Jun 2027 05:49:39.966            24.424               Magadan2           763.250
       390   04 Jun 2027 07:19:49.404   04 Jun 2027 07:20:06.917            17.513               Magadan1           547.281
       391   04 Jun 2027 07:20:16.357   04 Jun 2027 07:20:25.121             8.764                Norilsk           273.875
       392   04 Jun 2027 07:20:30.440   04 Jun 2027 07:21:38.507            68.067                Novosib          2127.094
       393   04 Jun 2027 07:21:56.487   04 Jun 2027 07:22:23.686            27.199               Magadan1           849.969
       394   04 Jun 2027 07:22:39.064   04 Jun 2027 07:22:44.881             5.817                Irkutsk           181.781
       395   04 Jun 2027 07:22:57.032   04 Jun 2027 07:23:32.252            35.220               Magadan1          1100.625
       396   04 Jun 2027 07:23:49.085   04 Jun 2027 07:24:15.387            26.302                Novosib           821.937
       397   04 Jun 2027 07:24:35.233   04 Jun 2027 07:24:50.576            15.343               Magadan1           479.469
       398   04 Jun 2027 07:24:51.596   04 Jun 2027 07:25:15.012            23.416              Murmansk2           731.750
       399   04 Jun 2027 07:25:15.012   04 Jun 2027 07:26:22.342            67.330              Murmansk1          2104.062
       400   04 Jun 2027 08:00:14.847   04 Jun 2027 08:00:33.591            18.744            RioGallegos           585.750
       401   04 Jun 2027 08:01:49.540   04 Jun 2027 08:02:14.654            25.114            RioGallegos           784.812
       402   04 Jun 2027 08:35:19.100   04 Jun 2027 08:36:27.950            68.850                Sumatra          2151.562
       403   04 Jun 2027 08:38:08.780   04 Jun 2027 08:39:01.650            52.870                Sumatra          1652.188
       404   04 Jun 2027 08:47:28.978   04 Jun 2027 08:47:43.981            15.003                  Delhi           468.844
       405   04 Jun 2027 08:49:52.511   04 Jun 2027 08:51:14.189            81.678                  Delhi          2552.438
       406   04 Jun 2027 08:55:26.657   04 Jun 2027 08:55:42.856            16.199                Irkutsk           506.219
       407   04 Jun 2027 08:56:19.714   04 Jun 2027 08:56:25.777             6.063                Novosib           189.469
       408   04 Jun 2027 08:57:08.582   04 Jun 2027 08:57:33.348            24.766                Irkutsk           773.937
       409   04 Jun 2027 08:57:35.520   04 Jun 2027 08:57:58.363            22.843                Novosib           713.844
       410   04 Jun 2027 08:58:15.826   04 Jun 2027 08:59:04.402            48.576              Murmansk1          1518.000
       411   04 Jun 2027 08:59:04.467   04 Jun 2027 08:59:20.743            16.276              Murmansk1           508.625
       412   04 Jun 2027 08:59:24.977   04 Jun 2027 08:59:30.586             5.609                Irkutsk           175.281
       413   04 Jun 2027 08:59:57.239   04 Jun 2027 09:00:38.554            41.315                Norilsk          1291.094
       414   04 Jun 2027 09:00:47.284   04 Jun 2027 09:00:57.284            10.000              Murmansk1           312.500
       415   04 Jun 2027 09:00:58.602   04 Jun 2027 09:01:09.169            10.567              Murmansk2           330.219
       416   04 Jun 2027 09:01:09.169   04 Jun 2027 09:01:15.038             5.869              Murmansk1           183.406
       417   04 Jun 2027 09:01:15.133   04 Jun 2027 09:01:33.540            18.407                 Moscow           575.219
       418   04 Jun 2027 09:03:00.191   04 Jun 2027 09:03:06.158             5.967              Murmansk2           186.469
       419   04 Jun 2027 09:38:52.708   04 Jun 2027 09:39:19.833            27.125            RioGallegos           847.656
       420   04 Jun 2027 09:40:32.674   04 Jun 2027 09:40:57.241            24.567            RioGallegos           767.719
       421   04 Jun 2027 09:41:10.938   04 Jun 2027 09:42:14.031            63.093            RioGallegos          1971.656
       422   04 Jun 2027 10:20:27.233   04 Jun 2027 10:22:02.591            95.358                  Delhi          2979.937
       423   04 Jun 2027 10:33:55.086   04 Jun 2027 10:34:12.162            17.076              Murmansk2           533.625
       424   04 Jun 2027 10:34:20.230   04 Jun 2027 10:34:34.727            14.497                Norilsk           453.031
       425   04 Jun 2027 10:34:35.519   04 Jun 2027 10:35:01.507            25.988              Murmansk1           812.125
       426   04 Jun 2027 10:35:11.424   04 Jun 2027 10:36:03.156            51.732                 Moscow          1616.625
       427   04 Jun 2027 10:36:06.825   04 Jun 2027 10:36:34.711            27.886                 Moscow           871.438
       428   04 Jun 2027 10:36:38.909   04 Jun 2027 10:36:55.493            16.584              Murmansk2           518.250
       429   04 Jun 2027 10:36:57.770   04 Jun 2027 10:37:00.509             2.739                Norilsk            85.594
       430   04 Jun 2027 10:37:01.897   04 Jun 2027 10:37:41.951            40.054                 Moscow          1251.688
       431   04 Jun 2027 11:59:09.007   04 Jun 2027 12:02:01.835           172.828                  Delhi          5400.875
       432   04 Jun 2027 12:07:35.831   04 Jun 2027 12:07:48.821            12.990                Novosib           405.938
       433   04 Jun 2027 12:08:27.907   04 Jun 2027 12:08:28.310             0.403              Murmansk1            12.594
       434   04 Jun 2027 12:08:30.729   04 Jun 2027 12:08:41.218            10.489              Murmansk2           327.781
       435   04 Jun 2027 12:09:34.206   04 Jun 2027 12:10:31.260            57.054              Murmansk2          1782.937
       436   04 Jun 2027 12:14:36.504   04 Jun 2027 12:15:34.579            58.075              Murmansk2          1814.844
       437   04 Jun 2027 13:19:26.216   04 Jun 2027 13:22:04.289           158.073               CapeTown          4939.781
       438   04 Jun 2027 13:24:50.944   04 Jun 2027 13:25:38.170            47.226               CapeTown          1475.812
       439   04 Jun 2027 13:41:01.356   04 Jun 2027 13:41:22.719            21.363                 Moscow           667.594
       440   04 Jun 2027 13:43:48.608   04 Jun 2027 13:44:53.461            64.853              Murmansk2          2026.656
       441   04 Jun 2027 13:45:08.716   04 Jun 2027 13:45:56.046            47.330              Murmansk1          1479.063
       442   04 Jun 2027 13:47:02.316   04 Jun 2027 13:47:59.139            56.823              Murmansk1          1775.719
       443   04 Jun 2027 13:58:32.185   04 Jun 2027 14:02:14.805           222.620                Anadyr2          6956.875
       444   04 Jun 2027 14:02:18.553   04 Jun 2027 14:02:52.830            34.277                Anadyr1          1071.156
       445   04 Jun 2027 14:03:15.653   04 Jun 2027 14:03:28.614            12.961                Anadyr1           405.031
       446   04 Jun 2027 15:22:32.760   04 Jun 2027 15:23:12.919            40.159              Murmansk2          1254.969
       447   04 Jun 2027 15:24:23.831   04 Jun 2027 15:26:04.949           101.118              Murmansk1          3159.938
       448   04 Jun 2027 15:33:49.933   04 Jun 2027 15:34:44.371            54.438                Anadyr2          1701.187
       449   04 Jun 2027 15:35:33.136   04 Jun 2027 15:35:43.699            10.563                Anadyr2           330.094
       450   04 Jun 2027 15:36:04.214   04 Jun 2027 15:36:44.532            40.318                Anadyr1          1259.938
       451   04 Jun 2027 15:38:08.120   04 Jun 2027 15:41:02.406           174.286               Magadan1          5446.437
       452   04 Jun 2027 15:41:15.106   04 Jun 2027 15:43:00.326           105.220               Magadan2          3288.125
       453   04 Jun 2027 17:09:42.379   04 Jun 2027 17:10:46.298            63.919                Anadyr2          1997.469
       454   04 Jun 2027 17:11:14.662   04 Jun 2027 17:11:24.642             9.980                Anadyr1           311.875
       455   04 Jun 2027 17:12:10.362   04 Jun 2027 17:13:39.411            89.049               Magadan2          2782.781
       456   04 Jun 2027 17:19:12.833   04 Jun 2027 17:19:22.985            10.152               Magadan1           317.250
       457   04 Jun 2027 17:21:52.381   04 Jun 2027 17:22:18.709            26.328               Magadan1           822.750
       458   04 Jun 2027 17:23:31.934   04 Jun 2027 17:23:46.256            14.322               Magadan2           447.562
       459   04 Jun 2027 18:45:35.854   04 Jun 2027 18:47:20.205           104.351                Anadyr2          3260.969
       460   04 Jun 2027 18:47:40.298   04 Jun 2027 18:49:17.875            97.577                Anadyr1          3049.281
       461   04 Jun 2027 18:49:21.143   04 Jun 2027 18:51:48.446           147.303                Norilsk          4603.219
       462   04 Jun 2027 18:54:51.233   04 Jun 2027 18:56:46.630           115.397                Irkutsk          3606.156
       463   04 Jun 2027 19:39:55.209   04 Jun 2027 19:42:03.247           128.038            RioGallegos          4001.187
       464   04 Jun 2027 19:50:55.778   04 Jun 2027 19:51:07.948            12.170            RioGallegos           380.313
       465   04 Jun 2027 20:23:57.822   04 Jun 2027 20:25:39.935           102.113               Magadan1          3191.031
       466   04 Jun 2027 20:26:23.219   04 Jun 2027 20:26:59.171            35.952               Magadan1          1123.500
       467   04 Jun 2027 20:27:33.422   04 Jun 2027 20:29:17.843           104.421                Irkutsk          3263.156
       468   04 Jun 2027 20:29:37.233   04 Jun 2027 20:31:13.688            96.455                Novosib          3014.219
       469   04 Jun 2027 20:31:59.140   04 Jun 2027 20:32:52.279            53.139                Novosib          1660.594
       470   04 Jun 2027 20:34:41.255   04 Jun 2027 20:34:53.137            11.882                Novosib           371.312
       471   04 Jun 2027 20:41:14.826   04 Jun 2027 20:42:18.076            63.250                Sumatra          1976.562
       472   04 Jun 2027 20:51:32.773   04 Jun 2027 20:52:19.789            47.016                Sumatra          1469.250
       473   04 Jun 2027 21:57:05.859   04 Jun 2027 21:57:12.234             6.375                Anadyr1           199.219
       474   04 Jun 2027 22:00:02.230   04 Jun 2027 22:01:20.551            78.321               Magadan2          2447.531
       475   04 Jun 2027 22:03:18.149   04 Jun 2027 22:03:48.396            30.247                Irkutsk           945.219
       476   04 Jun 2027 22:04:04.996   04 Jun 2027 22:05:12.885            67.889                Novosib          2121.531
       477   04 Jun 2027 22:10:56.096   04 Jun 2027 22:11:04.633             8.537                Novosib           266.781
       478   04 Jun 2027 22:11:05.890   04 Jun 2027 22:14:40.459           214.569                  Delhi          6705.281
       479   04 Jun 2027 23:31:31.428   04 Jun 2027 23:31:41.620            10.192                Anadyr2           318.500
       480   04 Jun 2027 23:35:18.462   04 Jun 2027 23:35:51.844            33.382               Magadan1          1043.187
       481   04 Jun 2027 23:36:07.177   04 Jun 2027 23:37:37.930            90.753               Magadan1          2836.031
       482   04 Jun 2027 23:37:43.896   04 Jun 2027 23:40:34.410           170.514              Murmansk2          5328.562
