uniorb/output/strategy_2/Drop/Drop_KinoSat_110306.txt

KinoSat_110306
-------------------------
    Access    *     Start Time (UTCG)     *     Stop Time (UTCG)  *   Duration (s)        *       Station  *  Data (Mbytes)
         1   01 Jun 2027 03:46:54.921   01 Jun 2027 03:47:37.492            42.571                Novosib          3282.500
         2   01 Jun 2027 03:47:40.051   01 Jun 2027 03:47:58.178            18.127               Magadan2          1279.500
         3   01 Jun 2027 03:48:00.646   01 Jun 2027 03:48:40.106            39.460                Novosib          1234.000
         4   01 Jun 2027 03:48:42.361   01 Jun 2027 03:49:27.077            44.716                Norilsk          1127.500
         5   01 Jun 2027 03:49:27.846   01 Jun 2027 03:50:23.852            56.006               Magadan2           384.500
         6   01 Jun 2027 03:50:41.055   01 Jun 2027 03:51:43.589            62.534                Novosib          7816.750
         7   01 Jun 2027 03:51:51.442   01 Jun 2027 03:52:49.054            57.612                Norilsk          4711.250
         8   01 Jun 2027 03:52:52.524   01 Jun 2027 03:52:56.562             4.038               Magadan2           504.750
         9   01 Jun 2027 03:52:56.562   01 Jun 2027 03:53:12.813            16.251               Magadan1          1230.250
        10   01 Jun 2027 03:53:21.835   01 Jun 2027 03:54:18.031            56.196                Novosib          4511.000
        11   01 Jun 2027 05:23:29.884   01 Jun 2027 05:23:51.861            21.977                Norilsk          2259.000
        12   01 Jun 2027 05:24:12.822   01 Jun 2027 05:24:22.942            10.120                Norilsk          1265.000
        13   01 Jun 2027 05:24:34.025   01 Jun 2027 05:26:42.645           128.620                Norilsk         14757.000
        14   01 Jun 2027 05:26:44.663   01 Jun 2027 05:26:52.894             8.231                Novosib          1009.000
        15   01 Jun 2027 05:26:54.106   01 Jun 2027 05:27:03.647             9.541                Novosib           606.000
        16   01 Jun 2027 05:27:11.355   01 Jun 2027 05:28:01.717            50.362              Murmansk2          3854.000
        17   01 Jun 2027 05:28:03.373   01 Jun 2027 05:28:10.098             6.725              Murmansk1           828.000
        18   01 Jun 2027 05:28:37.598   01 Jun 2027 05:29:42.425            64.827                Novosib          8103.375
        19   01 Jun 2027 05:29:44.153   01 Jun 2027 05:30:53.875            69.722                 Moscow          6510.625
        20   01 Jun 2027 07:01:50.623   01 Jun 2027 07:02:26.814            36.191                Norilsk          3685.000
        21   01 Jun 2027 07:02:40.684   01 Jun 2027 07:03:49.456            68.772                 Moscow          6935.000
        22   01 Jun 2027 07:03:49.642   01 Jun 2027 07:04:15.880            26.238                 Moscow            93.000
        23   01 Jun 2027 07:04:19.346   01 Jun 2027 07:04:37.219            17.873              Murmansk2          1733.000
        24   01 Jun 2027 07:04:43.844   01 Jun 2027 07:05:47.260            63.416              Murmansk2          3312.500
        25   01 Jun 2027 08:35:11.340   01 Jun 2027 08:35:37.371            26.031                 Moscow          3253.875
        26   01 Jun 2027 08:35:43.924   01 Jun 2027 08:35:55.949            12.025                 Moscow          1503.125
        27   01 Jun 2027 08:36:12.703   01 Jun 2027 08:38:12.098           119.395              Murmansk2         11209.000
        28   01 Jun 2027 08:38:13.587   01 Jun 2027 08:39:29.122            75.535                Novosib           744.500
        29   01 Jun 2027 08:39:31.551   01 Jun 2027 08:39:55.471            23.920                Novosib          1214.500
        30   01 Jun 2027 08:40:01.922   01 Jun 2027 08:40:08.273             6.351                Norilsk           793.875
        31   01 Jun 2027 08:40:24.481   01 Jun 2027 08:42:03.518            99.037                 Moscow         10535.625
        32   01 Jun 2027 08:42:17.873   01 Jun 2027 08:43:25.088            67.215                Norilsk          7177.500
        33   02 Jun 2027 03:58:47.912   02 Jun 2027 03:59:19.836            31.924               Magadan1          2232.000
        34   02 Jun 2027 03:59:25.307   02 Jun 2027 04:00:14.352            49.045               Magadan2          2735.500
        35   02 Jun 2027 04:00:18.169   02 Jun 2027 04:01:01.118            42.949               Magadan1          1908.500
        36   02 Jun 2027 04:01:10.006   02 Jun 2027 04:02:14.651            64.645               Magadan2          4444.000
        37   02 Jun 2027 04:02:21.028   02 Jun 2027 04:02:57.929            36.901                Novosib          3188.500
        38   02 Jun 2027 04:03:03.310   02 Jun 2027 04:03:45.195            41.885                Norilsk          2690.500
        39   02 Jun 2027 04:03:52.091   02 Jun 2027 04:03:56.643             4.552                Norilsk           569.000
        40   02 Jun 2027 04:04:04.562   02 Jun 2027 04:04:45.048            40.486                Novosib          5060.750
        41   02 Jun 2027 04:04:54.014   02 Jun 2027 04:05:21.155            27.141               Magadan2          3392.625
        42   02 Jun 2027 04:05:37.133   02 Jun 2027 04:07:04.341            87.208              Murmansk1         10857.125
        43   02 Jun 2027 05:36:02.780   02 Jun 2027 05:37:33.720            90.940                Norilsk          8206.000
        44   02 Jun 2027 05:37:38.349   02 Jun 2027 05:37:59.926            21.577                Norilsk          2314.500
        45   02 Jun 2027 05:38:22.804   02 Jun 2027 05:39:57.059            94.255                Norilsk         11439.000
        46   02 Jun 2027 05:40:11.938   02 Jun 2027 05:41:19.046            67.108                 Moscow          7439.500
        47   02 Jun 2027 05:41:36.426   02 Jun 2027 05:42:51.836            75.410              Murmansk2          8690.000
        48   02 Jun 2027 07:13:45.031   02 Jun 2027 07:14:05.936            20.905                 Moscow          2246.500
        49   02 Jun 2027 07:14:07.979   02 Jun 2027 07:14:19.810            11.831              Murmansk2          1021.500
        50   02 Jun 2027 07:14:21.102   02 Jun 2027 07:15:14.763            53.661              Murmansk1           646.000
        51   02 Jun 2027 07:15:20.407   02 Jun 2027 07:15:39.257            18.850              Murmansk1          2356.250
        52   02 Jun 2027 07:15:39.257   02 Jun 2027 07:16:07.582            28.325              Murmansk2           465.750
        53   02 Jun 2027 07:16:07.664   02 Jun 2027 07:16:31.275            23.611              Murmansk1            41.000
        54   02 Jun 2027 07:16:32.010   02 Jun 2027 07:16:39.380             7.370              Murmansk2           367.500
        55   02 Jun 2027 07:16:47.200   02 Jun 2027 07:17:29.942            42.742                Novosib          3910.000
        56   02 Jun 2027 07:17:35.626   02 Jun 2027 07:18:03.910            28.284                Norilsk          2842.000
        57   02 Jun 2027 08:47:07.628   02 Jun 2027 08:48:07.830            60.202                 Moscow          6662.000
        58   02 Jun 2027 08:48:24.254   02 Jun 2027 08:49:30.616            66.362              Murmansk2          8212.000
        59   02 Jun 2027 08:49:41.964   02 Jun 2027 08:50:52.628            70.664                 Moscow          5674.000
        60   02 Jun 2027 08:50:53.894   02 Jun 2027 08:51:09.664            15.770              Murmansk2           633.000
        61   02 Jun 2027 08:51:12.534   02 Jun 2027 08:51:38.821            26.287              Murmansk1          1435.000
        62   02 Jun 2027 08:51:40.181   02 Jun 2027 08:52:25.331            45.150                Novosib           680.000
        63   02 Jun 2027 08:52:32.269   02 Jun 2027 08:53:05.328            33.059                 Moscow          3469.000
        64   02 Jun 2027 08:53:11.285   02 Jun 2027 08:54:17.270            65.985              Murmansk2          2978.500
        65   02 Jun 2027 08:54:17.932   02 Jun 2027 08:54:25.267             7.335                Norilsk           331.000
        66   02 Jun 2027 08:54:26.803   02 Jun 2027 08:55:05.621            38.818                Norilsk           768.000
        67   03 Jun 2027 04:11:06.657   03 Jun 2027 04:11:57.411            50.754               Magadan2          6243.000
        68   03 Jun 2027 04:11:58.531   03 Jun 2027 04:12:15.822            17.291               Magadan1           560.000
        69   03 Jun 2027 04:12:31.961   03 Jun 2027 04:13:34.885            62.924                Novosib          7865.500
        70   03 Jun 2027 04:13:40.102   03 Jun 2027 04:14:09.302            29.200                Norilsk          2812.500
        71   03 Jun 2027 04:14:11.862   03 Jun 2027 04:14:35.268            23.406                Norilsk          1280.000
        72   03 Jun 2027 04:14:38.665   03 Jun 2027 04:14:43.968             5.303               Magadan2           662.875
        73   03 Jun 2027 04:14:43.968   03 Jun 2027 04:14:55.342            11.374               Magadan1          1035.625
        74   03 Jun 2027 04:15:02.709   03 Jun 2027 04:15:39.611            36.902                Norilsk          3683.500
        75   03 Jun 2027 04:15:47.301   03 Jun 2027 04:16:28.300            40.999                Norilsk          3845.000
        76   03 Jun 2027 04:16:30.235   03 Jun 2027 04:16:49.751            19.516               Magadan2           967.500
        77   03 Jun 2027 04:16:51.795   03 Jun 2027 04:17:40.089            48.294                Norilsk          1022.000
        78   03 Jun 2027 04:17:46.361   03 Jun 2027 04:18:13.430            27.069                Irkutsk          3136.000
        79   03 Jun 2027 04:18:13.441   03 Jun 2027 04:18:22.910             9.469                Novosib             5.500
        80   03 Jun 2027 05:47:41.905   03 Jun 2027 05:48:04.166            22.261                Novosib          2500.000
        81   03 Jun 2027 05:48:16.040   03 Jun 2027 05:49:35.456            79.416                Norilsk          5937.000
        82   03 Jun 2027 05:49:40.144   03 Jun 2027 05:50:00.594            20.450                Norilsk          2344.000
        83   03 Jun 2027 05:50:08.230   03 Jun 2027 05:50:46.807            38.577                Irkutsk          3818.000
        84   03 Jun 2027 05:50:52.349   03 Jun 2027 05:51:26.963            34.614              Murmansk2          2771.000
        85   03 Jun 2027 05:51:34.346   03 Jun 2027 05:52:10.454            36.108                 Moscow          3691.500
        86   03 Jun 2027 05:52:11.644   03 Jun 2027 05:52:47.895            36.251                 Moscow           595.000
        87   03 Jun 2027 05:52:59.605   03 Jun 2027 05:53:38.804            39.199                Norilsk          4899.875
        88   03 Jun 2027 05:54:00.544   03 Jun 2027 05:54:31.637            31.093                Norilsk          3886.625
        89   03 Jun 2027 05:54:43.515   03 Jun 2027 05:54:51.316             7.801                Novosib           975.125
        90   03 Jun 2027 05:55:07.334   03 Jun 2027 05:55:57.281            49.947              Murmansk2          4836.875
        91   03 Jun 2027 07:25:50.581   03 Jun 2027 07:26:52.177            61.596              Murmansk1          5070.500
        92   03 Jun 2027 07:26:55.853   03 Jun 2027 07:26:59.118             3.265                Novosib           408.125
        93   03 Jun 2027 07:27:16.063   03 Jun 2027 07:27:55.376            39.313              Murmansk1          4914.125
        94   03 Jun 2027 07:27:55.376   03 Jun 2027 07:28:41.441            46.065              Murmansk2          4988.250
        95   03 Jun 2027 07:28:43.201   03 Jun 2027 07:30:06.726            83.525                 Moscow           880.000
        96   03 Jun 2027 08:59:29.657   03 Jun 2027 08:59:54.754            25.097                 Moscow          3137.125
        97   03 Jun 2027 09:00:12.171   03 Jun 2027 09:01:19.204            67.033                 Moscow          8379.125
        98   03 Jun 2027 09:01:21.510   03 Jun 2027 09:01:47.027            25.517              Murmansk2          2052.750
        99   03 Jun 2027 09:02:00.191   03 Jun 2027 09:03:11.079            70.888              Murmansk1          6582.000
       100   03 Jun 2027 09:03:14.166   03 Jun 2027 09:03:38.895            24.729              Murmansk2          1543.500
       101   03 Jun 2027 09:03:41.173   03 Jun 2027 09:04:33.185            52.012              Murmansk1          1139.000
       102   03 Jun 2027 09:04:35.725   03 Jun 2027 09:04:55.174            19.449                 Moscow          1270.000
       103   03 Jun 2027 09:04:58.510   03 Jun 2027 09:05:18.691            20.181              Murmansk1          1668.000
       104   03 Jun 2027 09:05:20.910   03 Jun 2027 09:05:58.971            38.061                 Moscow          1109.500
       105   03 Jun 2027 09:06:08.270   03 Jun 2027 09:07:20.158            71.888              Murmansk1          4649.500
       106   04 Jun 2027 04:22:52.842   04 Jun 2027 04:23:13.574            20.732                Novosib          2179.500
       107   04 Jun 2027 04:23:29.799   04 Jun 2027 04:25:06.770            96.971               Magadan1          8112.500
       108   04 Jun 2027 04:25:07.779   04 Jun 2027 04:25:11.996             4.217               Magadan2           504.500
       109   04 Jun 2027 04:25:27.200   04 Jun 2027 04:27:04.417            97.217                Irkutsk          7602.000
       110   04 Jun 2027 04:27:18.827   04 Jun 2027 04:28:32.713            73.886               Magadan1          7205.000
       111   04 Jun 2027 04:28:34.132   04 Jun 2027 04:28:43.943             9.811              Murmansk2           709.500
       112   04 Jun 2027 04:28:51.858   04 Jun 2027 04:29:17.557            25.699              Murmansk2          3212.375
       113   04 Jun 2027 04:29:17.557   04 Jun 2027 04:29:24.183             6.626              Murmansk1           745.125
       114   04 Jun 2027 04:29:31.908   04 Jun 2027 04:30:25.160            53.252                Norilsk          3862.500
       115   04 Jun 2027 05:59:54.466   04 Jun 2027 06:00:08.209            13.743                Norilsk          1717.875
       116   04 Jun 2027 06:00:08.662   04 Jun 2027 06:01:21.504            72.842                Novosib          3307.625
       117   04 Jun 2027 06:01:31.864   04 Jun 2027 06:01:53.448            21.584                Irkutsk          2698.000
       118   04 Jun 2027 06:01:57.542   04 Jun 2027 06:02:41.681            44.139              Murmansk2          4529.000
       119   04 Jun 2027 06:02:53.731   04 Jun 2027 06:03:52.920            59.189                Novosib          6025.000
       120   04 Jun 2027 06:03:58.484   04 Jun 2027 06:04:42.897            44.413                 Moscow          2782.000
       121   04 Jun 2027 06:04:43.773   04 Jun 2027 06:05:01.010            17.237                Irkutsk           438.000
       122   04 Jun 2027 06:05:01.992   04 Jun 2027 06:05:35.608            33.616                 Moscow           491.000
       123   04 Jun 2027 06:05:50.757   04 Jun 2027 06:06:07.105            16.348                Norilsk          2043.500
       124   04 Jun 2027 06:06:10.414   04 Jun 2027 06:07:45.481            95.067                 Moscow          7185.500
       125   04 Jun 2027 07:37:32.483   04 Jun 2027 07:38:37.200            64.717                Novosib          7033.000
       126   04 Jun 2027 07:38:48.050   04 Jun 2027 07:39:48.286            60.236                Norilsk          5425.000
       127   04 Jun 2027 07:39:52.575   04 Jun 2027 07:40:15.545            22.970                 Moscow          2144.500
       128   04 Jun 2027 07:40:17.319   04 Jun 2027 07:40:38.954            21.635                Norilsk           887.000
       129   04 Jun 2027 07:40:39.289   04 Jun 2027 07:40:53.790            14.501                Novosib           167.500
       130   04 Jun 2027 07:41:08.563   04 Jun 2027 07:42:19.596            71.033                Norilsk          7386.500
       131   04 Jun 2027 09:11:43.559   04 Jun 2027 09:11:59.376            15.817                 Moscow           741.500
       132   04 Jun 2027 09:12:07.872   04 Jun 2027 09:12:53.120            45.248              Murmansk2          4248.000
       133   04 Jun 2027 09:12:56.112   04 Jun 2027 09:13:30.351            34.239                 Moscow           735.000
       134   04 Jun 2027 09:13:33.290   04 Jun 2027 09:14:17.922            44.632                 Moscow          1469.500
       135   04 Jun 2027 09:14:40.235   04 Jun 2027 09:16:31.325           111.090              Murmansk2         11156.500
       136   04 Jun 2027 09:16:33.101   04 Jun 2027 09:16:42.109             9.008              Murmansk2           888.000
       137   04 Jun 2027 09:16:45.891   04 Jun 2027 09:17:09.127            23.236              Murmansk2          1891.000
       138   05 Jun 2027 03:00:20.012   05 Jun 2027 03:01:47.552            87.540                Norilsk         10006.000
       139   05 Jun 2027 03:01:50.082   05 Jun 2027 03:02:33.976            43.894               Magadan2          1265.000
       140   05 Jun 2027 03:02:40.480   05 Jun 2027 03:02:54.661            14.181                Norilsk          1772.625
       141   05 Jun 2027 03:02:58.319   05 Jun 2027 03:03:35.903            37.584               Magadan2          3308.375
       142   05 Jun 2027 03:03:35.951   05 Jun 2027 03:03:59.228            23.277                Anadyr2            24.000
       143   05 Jun 2027 03:04:06.105   05 Jun 2027 03:04:40.409            34.304                Novosib          3438.500
       144   05 Jun 2027 03:04:43.811   05 Jun 2027 03:05:22.603            38.792                Anadyr1          1701.000
       145   05 Jun 2027 03:05:35.416   05 Jun 2027 03:06:14.169            38.753                Norilsk          4844.125
       146   05 Jun 2027 03:06:14.910   05 Jun 2027 03:06:35.410            20.500                Norilsk          1932.875
       147   05 Jun 2027 04:35:17.534   05 Jun 2027 04:35:53.823            36.289                Novosib          3826.500
       148   05 Jun 2027 04:36:02.511   05 Jun 2027 04:36:44.386            41.875                Norilsk          4344.000
       149   05 Jun 2027 04:36:51.727   05 Jun 2027 04:37:12.321            20.594                Norilsk          2574.250
       150   05 Jun 2027 04:37:13.936   05 Jun 2027 04:37:53.407            39.471               Magadan2          1903.750
       151   05 Jun 2027 04:38:05.315   05 Jun 2027 04:39:01.228            55.913               Magadan2          5954.000
       152   05 Jun 2027 04:39:05.578   05 Jun 2027 04:39:36.817            31.239               Magadan2          2175.000
       153   05 Jun 2027 04:39:40.640   05 Jun 2027 04:40:34.230            53.590              Murmansk2          1911.500
       154   05 Jun 2027 04:40:34.885   05 Jun 2027 04:40:59.748            24.863                Novosib           327.500
       155   05 Jun 2027 04:41:00.202   05 Jun 2027 04:41:06.648             6.446              Murmansk2           227.000
       156   05 Jun 2027 04:41:11.077   05 Jun 2027 04:42:03.003            51.926              Murmansk2          2214.500
       157   05 Jun 2027 04:42:26.145   05 Jun 2027 04:43:28.749            62.604              Murmansk2          3643.000
       158   05 Jun 2027 06:12:35.103   05 Jun 2027 06:13:49.068            73.965                Novosib          9245.625
       159   05 Jun 2027 06:13:50.759   05 Jun 2027 06:14:14.049            23.290              Murmansk2          2432.875
       160   05 Jun 2027 06:14:15.337   05 Jun 2027 06:15:03.375            48.038                Irkutsk           644.000
       161   05 Jun 2027 06:15:08.472   05 Jun 2027 06:15:31.554            23.082                Novosib          2548.500
       162   05 Jun 2027 06:15:38.488   05 Jun 2027 06:16:38.485            59.997                Irkutsk          3467.000
       163   05 Jun 2027 06:16:42.189   05 Jun 2027 06:16:46.336             4.147              Murmansk1           518.375
       164   05 Jun 2027 06:16:46.336   05 Jun 2027 06:17:15.451            29.115              Murmansk2          1333.625
       165   05 Jun 2027 06:17:15.901   05 Jun 2027 06:17:41.530            25.629                Norilsk           225.000
       166   05 Jun 2027 06:17:42.035   05 Jun 2027 06:17:49.995             7.960              Murmansk1           252.500
       167   05 Jun 2027 06:17:59.199   05 Jun 2027 06:18:33.524            34.325                Novosib          4290.625
       168   05 Jun 2027 06:18:33.757   05 Jun 2027 06:19:25.539            51.782                 Moscow           311.375
       169   05 Jun 2027 07:49:01.250   05 Jun 2027 07:49:30.518            29.268                 Moscow          1156.500
       170   05 Jun 2027 07:49:33.425   05 Jun 2027 07:49:56.744            23.319              Murmansk1          1453.500
       171   05 Jun 2027 07:50:01.420   05 Jun 2027 07:50:36.679            35.259                Norilsk          2338.000
       172   05 Jun 2027 07:50:39.191   05 Jun 2027 07:50:54.659            15.468                Novosib          1256.000
       173   05 Jun 2027 07:50:55.607   05 Jun 2027 07:51:11.315            15.708                Norilsk           474.000
       174   05 Jun 2027 07:51:13.256   05 Jun 2027 07:51:30.096            16.840              Murmansk1           970.500
       175   05 Jun 2027 07:51:39.453   05 Jun 2027 07:52:22.258            42.805                 Moscow          4678.500
       176   05 Jun 2027 07:52:31.613   05 Jun 2027 07:53:04.448            32.835                 Moscow          4104.375
       177   05 Jun 2027 07:53:20.639   05 Jun 2027 07:54:38.354            77.715              Murmansk1          8668.625
       178   05 Jun 2027 09:24:26.322   05 Jun 2027 09:25:00.901            34.579              Murmansk1          3365.000
       179   05 Jun 2027 09:26:04.836   05 Jun 2027 09:27:14.193            69.357              Murmansk2          4123.500
       180   05 Jun 2027 09:27:17.097   05 Jun 2027 09:27:39.884            22.787              Murmansk2          1452.000
       181   05 Jun 2027 09:27:56.367   05 Jun 2027 09:28:32.606            36.239              Murmansk1          4529.875
       182   05 Jun 2027 09:28:32.606   05 Jun 2027 09:29:11.395            38.789              Murmansk2          3711.625
       183   06 Jun 2027 03:10:27.895   06 Jun 2027 03:11:11.673            43.778               Magadan1          3844.000
       184   06 Jun 2027 03:11:15.410   06 Jun 2027 03:11:48.589            33.179               Magadan2          1868.500
       185   06 Jun 2027 03:11:53.463   06 Jun 2027 03:12:44.761            51.298                Irkutsk          2437.000
       186   06 Jun 2027 03:12:50.107   06 Jun 2027 03:13:00.793            10.686                Novosib          1335.750
       187   06 Jun 2027 03:13:04.683   06 Jun 2027 03:13:39.784            35.101               Magadan2          3282.250
       188   06 Jun 2027 03:13:44.820   06 Jun 2027 03:14:08.020            23.200                Anadyr2          2518.000
       189   06 Jun 2027 03:14:11.978   06 Jun 2027 03:14:46.416            34.438                Anadyr2          1979.000
       190   06 Jun 2027 03:14:50.827   06 Jun 2027 03:15:54.700            63.873                Novosib          2205.500
       191   06 Jun 2027 03:15:55.587   06 Jun 2027 03:16:02.455             6.868               Magadan2           443.500
       192   06 Jun 2027 03:16:05.640   06 Jun 2027 03:16:24.381            18.741                Anadyr2          1592.500
       193   06 Jun 2027 03:16:24.863   06 Jun 2027 03:16:27.570             2.707                Anadyr1           241.000
       194   06 Jun 2027 03:16:28.751   06 Jun 2027 03:16:43.146            14.395                Norilsk           590.500
       195   06 Jun 2027 03:16:43.285   06 Jun 2027 03:16:59.790            16.505                Novosib            69.500
       196   06 Jun 2027 03:17:03.365   06 Jun 2027 03:17:30.173            26.808              Murmansk1          1787.500
       197   06 Jun 2027 03:17:38.622   06 Jun 2027 03:18:08.426            29.804              Murmansk2          3725.500
       198   06 Jun 2027 03:18:08.426   06 Jun 2027 03:18:16.289             7.863              Murmansk1           499.000
       199   06 Jun 2027 04:47:27.945   06 Jun 2027 04:47:58.195            30.250                Novosib          2843.000
       200   06 Jun 2027 04:48:41.330   06 Jun 2027 04:49:00.916            19.586                Norilsk          2448.250
       201   06 Jun 2027 04:49:03.470   06 Jun 2027 04:52:37.155           213.685                Novosib         20396.250
       202   06 Jun 2027 04:52:41.332   06 Jun 2027 04:52:43.139             1.807                Irkutsk           225.875
       203   06 Jun 2027 04:52:47.958   06 Jun 2027 04:53:40.053            52.095              Murmansk2          4272.125
       204   06 Jun 2027 04:53:40.441   06 Jun 2027 04:53:48.999             8.558                Irkutsk           194.000
       205   06 Jun 2027 04:54:03.586   06 Jun 2027 04:55:20.974            77.388              Murmansk1          7293.500
       206   06 Jun 2027 06:24:26.845   06 Jun 2027 06:24:43.354            16.509                  Delhi          2063.625
       207   06 Jun 2027 06:25:03.628   06 Jun 2027 06:26:37.337            93.709                 Moscow         11660.875
       208   06 Jun 2027 06:26:46.056   06 Jun 2027 06:27:32.057            46.001                Irkutsk          4359.500
       209   06 Jun 2027 06:27:41.346   06 Jun 2027 06:28:42.976            61.630              Murmansk1          4644.500
       210   06 Jun 2027 06:28:43.223   06 Jun 2027 06:28:48.596             5.373              Murmansk2           123.500
       211   06 Jun 2027 06:28:59.816   06 Jun 2027 06:29:49.484            49.668                 Moscow          5610.000
       212   06 Jun 2027 08:01:07.828   06 Jun 2027 08:01:24.064            16.236                 Moscow          1407.000
       213   06 Jun 2027 08:01:25.972   06 Jun 2027 08:01:51.648            25.676              Murmansk2           954.000
       214   06 Jun 2027 08:01:52.340   06 Jun 2027 08:02:07.803            15.463                Novosib           346.000
       215   06 Jun 2027 08:02:14.213   06 Jun 2027 08:02:54.394            40.181              Murmansk2          3205.000
       216   06 Jun 2027 08:03:02.902   06 Jun 2027 08:03:40.958            38.056              Murmansk1          4254.000
       217   06 Jun 2027 08:03:45.084   06 Jun 2027 08:04:42.952            57.868              Murmansk2          2063.000
       218   06 Jun 2027 08:04:46.780   06 Jun 2027 08:05:15.350            28.570              Murmansk1          1914.000
       219   06 Jun 2027 08:05:20.035   06 Jun 2027 08:05:46.886            26.851              Murmansk1          2342.500
       220   06 Jun 2027 08:05:55.040   06 Jun 2027 08:06:54.602            59.562                Novosib          4077.000
       221   06 Jun 2027 09:39:40.732   06 Jun 2027 09:40:31.661            50.929              Murmansk2          6366.125
       222   06 Jun 2027 09:40:31.661   06 Jun 2027 09:41:24.622            52.961              Murmansk1          4302.375
       223   07 Jun 2027 03:23:32.633   07 Jun 2027 03:23:48.698            16.065               Magadan2           651.500
       224   07 Jun 2027 03:23:49.496   07 Jun 2027 03:24:09.737            20.241                Irkutsk           399.000
       225   07 Jun 2027 03:24:16.369   07 Jun 2027 03:24:27.304            10.935                Norilsk          1366.875
       226   07 Jun 2027 03:24:39.497   07 Jun 2027 03:25:49.316            69.819                Norilsk          8045.625
       227   07 Jun 2027 03:25:52.467   07 Jun 2027 03:26:08.413            15.946                Novosib          1575.500
       228   07 Jun 2027 03:26:14.113   07 Jun 2027 03:26:44.453            30.340               Magadan2          2850.000
       229   07 Jun 2027 03:26:45.244   07 Jun 2027 03:26:45.983             0.739                Norilsk            92.375
       230   07 Jun 2027 03:26:56.058   07 Jun 2027 03:28:09.119            73.061                Novosib          5340.625
       231   07 Jun 2027 03:28:15.326   07 Jun 2027 03:28:54.401            39.075                Irkutsk          3103.500
       232   07 Jun 2027 03:28:55.731   07 Jun 2027 03:29:27.102            31.371              Murmansk2           665.000
       233   07 Jun 2027 03:29:34.088   07 Jun 2027 03:30:07.672            33.584               Magadan2          3493.000
       234   07 Jun 2027 03:30:12.061   07 Jun 2027 03:30:32.660            20.599                Norilsk          2194.500
       235   07 Jun 2027 05:00:07.319   07 Jun 2027 05:00:49.726            42.407                Norilsk          5300.875
       236   07 Jun 2027 05:01:09.066   07 Jun 2027 05:02:40.186            91.120                Norilsk         11375.625
       237   07 Jun 2027 05:02:57.854   07 Jun 2027 05:04:42.401           104.547                Novosib          8834.000
       238   07 Jun 2027 05:04:43.109   07 Jun 2027 05:04:49.897             6.788              Murmansk2           354.000
       239   07 Jun 2027 05:04:53.322   07 Jun 2027 05:05:35.818            42.496              Murmansk2          1712.500
       240   07 Jun 2027 05:05:40.407   07 Jun 2027 05:06:21.512            41.105                Irkutsk          2294.500
       241   07 Jun 2027 06:37:21.852   07 Jun 2027 06:37:36.459            14.607              Murmansk1           505.000
       242   07 Jun 2027 06:37:42.958   07 Jun 2027 06:38:03.408            20.450                Norilsk          2556.250
       243   07 Jun 2027 06:38:05.373   07 Jun 2027 06:38:15.077             9.704                Norilsk          1213.000
       244   07 Jun 2027 06:38:19.370   07 Jun 2027 06:39:15.841            56.471                Irkutsk          2609.250
       245   07 Jun 2027 06:39:26.958   07 Jun 2027 06:40:12.456            45.498              Murmansk1          5558.500
       246   07 Jun 2027 06:40:17.269   07 Jun 2027 06:40:49.000            31.731                Irkutsk          2406.500
       247   07 Jun 2027 06:40:50.864   07 Jun 2027 06:41:24.393            33.529              Murmansk1           932.000
       248   07 Jun 2027 06:41:25.699   07 Jun 2027 06:42:22.423            56.724              Murmansk1           653.000
       249   07 Jun 2027 08:13:39.221   07 Jun 2027 08:14:34.166            54.945                Norilsk          5619.500
       250   07 Jun 2027 08:14:34.410   07 Jun 2027 08:14:51.864            17.454              Murmansk1           122.000
       251   07 Jun 2027 08:14:54.351   07 Jun 2027 08:15:25.510            31.159                 Moscow          1243.500
       252   07 Jun 2027 08:15:26.128   07 Jun 2027 08:16:14.270            48.142                Norilsk           309.000
       253   07 Jun 2027 08:16:16.446   07 Jun 2027 08:17:10.743            54.297              Murmansk2          1088.000
       254   07 Jun 2027 08:17:17.353   07 Jun 2027 08:17:59.501            42.148                Norilsk          3305.000
       255   08 Jun 2027 03:35:49.115   08 Jun 2027 03:36:43.429            54.314               Magadan1          4774.000
       256   08 Jun 2027 03:36:44.425   08 Jun 2027 03:37:10.964            26.539               Magadan1           498.000
       257   08 Jun 2027 03:37:16.862   08 Jun 2027 03:37:43.951            27.089                Novosib          2949.000
       258   08 Jun 2027 03:37:46.025   08 Jun 2027 03:38:37.897            51.872               Magadan1          1037.000
       259   08 Jun 2027 03:38:43.129   08 Jun 2027 03:40:06.298            83.169                Novosib          2616.000
       260   08 Jun 2027 03:40:09.780   08 Jun 2027 03:40:37.710            27.930               Magadan2          1741.000
       261   08 Jun 2027 03:40:45.003   08 Jun 2027 03:41:41.666            56.663                Norilsk          3646.500
       262   08 Jun 2027 03:41:50.200   08 Jun 2027 03:42:17.103            26.903                Irkutsk          3362.875
       263   08 Jun 2027 03:42:23.036   08 Jun 2027 03:42:35.852            12.816                Norilsk           904.125
       264   08 Jun 2027 05:11:43.517   08 Jun 2027 05:12:19.353            35.836                Norilsk          2849.500
       265   08 Jun 2027 05:12:24.736   08 Jun 2027 05:13:17.804            53.068                Irkutsk          2691.500
       266   08 Jun 2027 05:13:19.517   08 Jun 2027 05:13:49.543            30.026                Novosib           856.500
       267   08 Jun 2027 05:13:49.562   08 Jun 2027 05:13:53.216             3.654                Norilsk             9.500
       268   08 Jun 2027 05:14:06.399   08 Jun 2027 05:15:15.427            69.028                Irkutsk          6591.500
       269   08 Jun 2027 05:15:20.673   08 Jun 2027 05:15:58.417            37.744                Norilsk          2623.000
       270   08 Jun 2027 05:16:10.351   08 Jun 2027 05:16:49.000            38.649                Novosib          4831.125
       271   08 Jun 2027 05:16:51.748   08 Jun 2027 05:17:50.553            58.805              Murmansk2          2509.875
       272   08 Jun 2027 06:49:27.811   08 Jun 2027 06:49:53.652            25.841              Murmansk2           239.500
       273   08 Jun 2027 06:50:06.963   08 Jun 2027 06:50:46.519            39.556                Norilsk          4944.500
       274   08 Jun 2027 06:51:00.833   08 Jun 2027 06:52:27.609            86.776                Norilsk          8868.000
       275   08 Jun 2027 06:52:30.912   08 Jun 2027 06:52:57.176            26.264                Novosib          1651.500
       276   08 Jun 2027 06:53:01.828   08 Jun 2027 06:53:22.196            20.368                 Moscow          2326.000
       277   08 Jun 2027 06:53:32.629   08 Jun 2027 06:54:24.510            51.881                 Moscow          5216.500
       278   08 Jun 2027 08:25:31.836   08 Jun 2027 08:26:35.772            63.936                 Moscow          1267.500
       279   08 Jun 2027 08:26:37.829   08 Jun 2027 08:27:34.589            56.760                Novosib          1028.500
       280   08 Jun 2027 08:27:47.059   08 Jun 2027 08:28:54.246            67.187                Novosib          6235.000
       281   08 Jun 2027 08:29:02.280   08 Jun 2027 08:29:41.601            39.321                Norilsk          4017.000
       282   08 Jun 2027 08:29:45.353   08 Jun 2027 08:29:50.117             4.764                Novosib           512.500
       283   08 Jun 2027 08:29:51.681   08 Jun 2027 08:29:59.731             8.050                Norilsk           782.000
       284   08 Jun 2027 08:30:02.925   08 Jun 2027 08:30:24.515            21.590                 Moscow          1597.000
       285   08 Jun 2027 08:30:30.406   08 Jun 2027 08:31:02.651            32.245                 Moscow          2945.500
       286   09 Jun 2027 03:47:12.464   09 Jun 2027 03:48:18.595            66.131                Novosib          6800.000
       287   09 Jun 2027 03:48:22.554   09 Jun 2027 03:48:51.831            29.277               Magadan2          1979.500
       288   09 Jun 2027 03:48:58.094   09 Jun 2027 03:49:06.509             8.415                Novosib          1051.875
       289   09 Jun 2027 03:49:11.641   09 Jun 2027 03:50:38.501            86.860               Magadan2          4645.625
       290   09 Jun 2027 03:50:45.197   09 Jun 2027 03:50:49.590             4.393                Norilsk           549.125
       291   09 Jun 2027 03:50:55.962   09 Jun 2027 03:51:58.882            62.920                Novosib          5984.875
       292   09 Jun 2027 03:52:06.076   09 Jun 2027 03:52:45.493            39.417                Norilsk          3597.000
       293   09 Jun 2027 03:52:54.725   09 Jun 2027 03:53:40.169            45.444              Murmansk2          4616.000
       294   09 Jun 2027 03:53:56.643   09 Jun 2027 03:55:29.974            93.331              Murmansk2          8237.000
       295   09 Jun 2027 05:23:44.774   09 Jun 2027 05:24:07.986            23.212                Norilsk          2163.000
       296   09 Jun 2027 05:24:28.363   09 Jun 2027 05:24:40.204            11.841                Norilsk          1480.125
       297   09 Jun 2027 05:24:48.599   09 Jun 2027 05:26:40.876           112.277                Norilsk         12905.875
       298   09 Jun 2027 05:26:50.492   09 Jun 2027 05:27:44.128            53.636              Murmansk2          4808.000
       299   09 Jun 2027 05:27:45.022   09 Jun 2027 05:29:07.707            82.685                Irkutsk           447.000
       300   09 Jun 2027 05:29:32.516   09 Jun 2027 05:31:15.681           103.165                Norilsk         12404.500
       301   09 Jun 2027 07:02:08.133   09 Jun 2027 07:02:42.385            34.252                Norilsk          4281.500
       302   09 Jun 2027 07:02:43.616   09 Jun 2027 07:03:14.613            30.997                Novosib          1216.000
       303   09 Jun 2027 07:03:24.307   09 Jun 2027 07:04:14.471            50.164                Irkutsk          4847.000
       304   09 Jun 2027 07:04:21.983   09 Jun 2027 07:04:30.392             8.409                Irkutsk          1051.125
       305   09 Jun 2027 07:04:30.780   09 Jun 2027 07:05:09.382            38.602                 Moscow          2898.875
       306   09 Jun 2027 07:05:10.943   09 Jun 2027 07:05:18.565             7.622                Norilsk           780.500
       307   09 Jun 2027 07:05:24.837   09 Jun 2027 07:05:57.075            32.238                 Moscow          3136.000
       308   09 Jun 2027 08:35:46.985   09 Jun 2027 08:38:13.976           146.991                Novosib         14913.000
       309   09 Jun 2027 08:38:19.825   09 Jun 2027 08:38:56.932            37.107                 Moscow          2924.500
       310   09 Jun 2027 08:38:59.111   09 Jun 2027 08:39:14.754            15.643                Norilsk          1089.500
       311   09 Jun 2027 08:39:16.863   09 Jun 2027 08:39:25.861             8.998              Murmansk1          1054.500
       312   09 Jun 2027 08:39:45.623   09 Jun 2027 08:41:13.359            87.736                Novosib          9881.000
       313   09 Jun 2027 08:41:15.843   09 Jun 2027 08:41:43.635            27.792                Norilsk          1242.000
       314   09 Jun 2027 08:41:55.120   09 Jun 2027 08:42:33.586            38.466              Murmansk2          2167.000
       315   09 Jun 2027 08:42:39.514   09 Jun 2027 08:43:18.497            38.983                Norilsk          2964.000
       316   10 Jun 2027 03:59:01.408   10 Jun 2027 03:59:20.656            19.248               Magadan1          1369.000
       317   10 Jun 2027 03:59:34.605   10 Jun 2027 04:00:30.494            55.889               Magadan2          6974.500
       318   10 Jun 2027 04:00:32.942   10 Jun 2027 04:01:16.667            43.725               Magadan2          1224.000
       319   10 Jun 2027 04:01:26.976   10 Jun 2027 04:02:29.349            62.373               Magadan2          5154.500
       320   10 Jun 2027 04:02:35.829   10 Jun 2027 04:03:18.115            42.286                Norilsk          3240.000
       321   10 Jun 2027 04:03:18.604   10 Jun 2027 04:03:45.901            27.297               Magadan1           244.500
       322   10 Jun 2027 04:03:47.380   10 Jun 2027 04:04:40.099            52.719               Magadan1           739.500
       323   10 Jun 2027 04:04:43.013   10 Jun 2027 04:04:54.950            11.937               Magadan1          1457.000
       324   10 Jun 2027 04:04:55.577   10 Jun 2027 04:05:18.578            23.001                Norilsk           313.500
       325   10 Jun 2027 04:05:29.102   10 Jun 2027 04:06:08.258            39.156              Murmansk1          4894.500
       326   10 Jun 2027 04:06:08.258   10 Jun 2027 04:06:40.173            31.915              Murmansk2           367.500
       327   10 Jun 2027 05:36:18.341   10 Jun 2027 05:37:48.455            90.114                Norilsk          8575.500
       328   10 Jun 2027 05:37:53.381   10 Jun 2027 05:38:14.550            21.169                Norilsk          2463.000
       329   10 Jun 2027 05:38:18.241   10 Jun 2027 05:38:50.082            31.841                Irkutsk          1845.500
       330   10 Jun 2027 05:38:51.523   10 Jun 2027 05:39:04.340            12.817                Irkutsk           720.500
       331   10 Jun 2027 05:39:08.702   10 Jun 2027 05:39:26.632            17.930                Novosib          2181.000
       332   10 Jun 2027 05:39:33.472   10 Jun 2027 05:40:46.404            72.932                Novosib          3420.000
       333   10 Jun 2027 05:40:52.147   10 Jun 2027 05:41:14.146            21.999                 Moscow          2749.875
       334   10 Jun 2027 05:41:30.403   10 Jun 2027 05:42:41.155            70.752              Murmansk1          8250.125
       335   10 Jun 2027 07:14:00.516   10 Jun 2027 07:14:20.493            19.977                 Moscow          2497.125
       336   10 Jun 2027 07:14:26.922   10 Jun 2027 07:15:14.571            47.649                Novosib          3372.875
       337   10 Jun 2027 07:15:19.365   10 Jun 2027 07:16:14.250            54.885                 Moscow          2397.000
       338   10 Jun 2027 07:16:22.237   10 Jun 2027 07:16:57.489            35.252              Murmansk2          3993.500
       339   10 Jun 2027 07:17:01.823   10 Jun 2027 07:17:21.016            19.193                Novosib          2167.000
       340   10 Jun 2027 07:17:21.839   10 Jun 2027 07:18:25.579            63.740                 Moscow           411.500
       341   10 Jun 2027 08:47:23.094   10 Jun 2027 08:48:18.591            55.497                 Moscow          6631.000
       342   10 Jun 2027 08:48:22.728   10 Jun 2027 08:49:26.217            63.489                 Moscow          2068.500
       343   10 Jun 2027 08:49:41.071   10 Jun 2027 08:51:04.394            83.323                Novosib          7427.000
       344   10 Jun 2027 08:51:08.917   10 Jun 2027 08:51:27.559            18.642              Murmansk2          2261.500
       345   10 Jun 2027 08:51:44.394   10 Jun 2027 08:52:51.281            66.887                Novosib          8360.875
       346   10 Jun 2027 08:52:57.711   10 Jun 2027 08:53:27.113            29.402              Murmansk2          3271.625
       347   10 Jun 2027 08:53:36.260   10 Jun 2027 08:53:57.887            21.627                Norilsk          1716.500
       348   10 Jun 2027 08:54:01.042   10 Jun 2027 08:54:33.155            32.113                Norilsk          1577.500
       349   10 Jun 2027 08:54:39.911   10 Jun 2027 08:55:20.281            40.370                Norilsk          3378.000
       350   11 Jun 2027 04:11:23.115   11 Jun 2027 04:12:30.638            67.523               Magadan2          7300.000
       351   11 Jun 2027 04:13:06.004   11 Jun 2027 04:14:45.325            99.321                Novosib         12415.125
       352   11 Jun 2027 04:14:53.334   11 Jun 2027 04:16:31.686            98.352                Norilsk          9272.375
       353   11 Jun 2027 04:16:35.224   11 Jun 2027 04:16:58.632            23.408              Murmansk2          1769.000
       354   11 Jun 2027 04:17:04.651   11 Jun 2027 04:17:16.184            11.533               Magadan1          1441.625
       355   11 Jun 2027 04:17:18.658   11 Jun 2027 04:17:42.420            23.762              Murmansk1          2804.875
       356   11 Jun 2027 04:17:54.923   11 Jun 2027 04:18:38.668            43.745                Norilsk          5468.125
       357   11 Jun 2027 04:18:41.718   11 Jun 2027 04:19:02.842            21.124              Murmansk2           783.375
       358   11 Jun 2027 05:47:56.845   11 Jun 2027 05:48:33.310            36.465                Novosib          2771.500
       359   11 Jun 2027 05:48:39.787   11 Jun 2027 05:49:42.835            63.048                Novosib          3238.500
       360   11 Jun 2027 05:49:47.548   11 Jun 2027 05:50:22.931            35.383                Irkutsk          2356.500
       361   11 Jun 2027 05:50:24.729   11 Jun 2027 05:51:07.465            42.736              Murmansk1           899.000
       362   11 Jun 2027 05:51:12.886   11 Jun 2027 05:51:41.924            29.038              Murmansk2          2710.500
       363   11 Jun 2027 05:51:50.778   11 Jun 2027 05:52:52.961            62.183                Norilsk          4427.000
       364   11 Jun 2027 05:52:55.933   11 Jun 2027 05:53:16.715            20.782                Norilsk          1486.000
       365   11 Jun 2027 05:53:21.135   11 Jun 2027 05:53:46.204            25.069              Murmansk2          2210.000
       366   11 Jun 2027 05:53:47.325   11 Jun 2027 05:54:25.809            38.484                 Moscow           560.500
       367   11 Jun 2027 05:54:29.500   11 Jun 2027 05:55:01.808            32.308              Murmansk2          1845.500
       368   11 Jun 2027 07:26:05.273   11 Jun 2027 07:26:39.128            33.855              Murmansk1          4231.875
       369   11 Jun 2027 07:26:39.128   11 Jun 2027 07:27:09.703            30.575              Murmansk2           740.125
       370   11 Jun 2027 07:27:13.742   11 Jun 2027 07:27:55.830            42.088                Novosib          2019.500
       371   11 Jun 2027 07:28:10.513   11 Jun 2027 07:30:21.652           131.139                 Moscow          7341.500
       372   11 Jun 2027 08:59:44.569   11 Jun 2027 09:00:28.415            43.846                 Moscow          3565.000
       373   11 Jun 2027 09:00:29.221   11 Jun 2027 09:00:50.452            21.231              Murmansk2           403.000
       374   11 Jun 2027 09:00:52.985   11 Jun 2027 09:01:38.374            45.389              Murmansk2          1266.500
       375   11 Jun 2027 09:01:55.844   11 Jun 2027 09:03:22.191            86.347                 Moscow          8735.000
       376   11 Jun 2027 09:03:23.460   11 Jun 2027 09:04:24.712            61.252                 Moscow           634.500
       377   11 Jun 2027 09:04:33.244   11 Jun 2027 09:05:09.907            36.663                 Moscow          4266.000
       378   11 Jun 2027 09:05:14.345   11 Jun 2027 09:05:34.033            19.688              Murmansk1          2219.000
       379   11 Jun 2027 09:05:36.028   11 Jun 2027 09:06:13.689            37.661                 Moscow           997.500
       380   11 Jun 2027 09:06:22.802   11 Jun 2027 09:07:37.335            74.533              Murmansk2          4556.500
       381   12 Jun 2027 04:23:04.665   12 Jun 2027 04:23:15.955            11.290                Novosib           755.000
       382   12 Jun 2027 04:23:18.110   12 Jun 2027 04:24:26.600            68.490                Irkutsk          1077.500
       383   12 Jun 2027 04:24:30.711   12 Jun 2027 04:25:22.293            51.582               Magadan1          2055.500
       384   12 Jun 2027 04:25:22.310   12 Jun 2027 04:25:24.676             2.366               Magadan2             8.500
       385   12 Jun 2027 04:25:29.048   12 Jun 2027 04:25:51.681            22.633               Magadan2          2186.000
       386   12 Jun 2027 04:26:09.989   12 Jun 2027 04:27:27.372            77.383                Novosib          9154.000
       387   12 Jun 2027 04:27:32.022   12 Jun 2027 04:28:48.824            76.802                Novosib          2325.000
       388   12 Jun 2027 04:28:49.333   12 Jun 2027 04:28:58.372             9.039              Murmansk1           254.500
       389   12 Jun 2027 04:29:00.313   12 Jun 2027 04:29:08.877             8.564              Murmansk2           970.500
       390   12 Jun 2027 04:29:09.770   12 Jun 2027 04:29:32.217            22.447              Murmansk1           446.500
       391   12 Jun 2027 04:29:35.840   12 Jun 2027 04:29:57.925            22.085                Norilsk          1811.500
       392   12 Jun 2027 04:30:12.399   12 Jun 2027 04:30:40.009            27.610                Norilsk          3451.250
       393   12 Jun 2027 04:30:41.754   12 Jun 2027 04:30:46.265             4.511                Novosib           563.875
       394   12 Jun 2027 04:30:53.139   12 Jun 2027 04:31:50.524            57.385              Murmansk1          3221.875
       395   12 Jun 2027 06:00:05.019   12 Jun 2027 06:00:23.196            18.177                Novosib          2272.125
       396   12 Jun 2027 06:01:03.946   12 Jun 2027 06:04:04.224           180.278                Norilsk         20827.875
       397   12 Jun 2027 06:04:08.023   12 Jun 2027 06:04:43.096            35.073                Novosib          1899.500
       398   12 Jun 2027 06:04:49.877   12 Jun 2027 06:05:43.662            53.785                Norilsk          3390.500
       399   12 Jun 2027 06:05:53.733   12 Jun 2027 06:06:37.941            44.208                 Moscow          5035.500
       400   12 Jun 2027 07:37:29.686   12 Jun 2027 07:37:54.317            24.631                 Moscow          3078.875
       401   12 Jun 2027 07:37:56.339   12 Jun 2027 07:39:10.707            74.368              Murmansk1          6367.625
       402   12 Jun 2027 07:39:12.020   12 Jun 2027 07:39:27.300            15.280                Novosib           656.500
       403   12 Jun 2027 07:39:32.527   12 Jun 2027 07:39:58.265            25.738              Murmansk1          2613.500
       404   12 Jun 2027 07:40:04.851   12 Jun 2027 07:40:32.171            27.320                Norilsk          3293.000
       405   12 Jun 2027 07:40:40.447   12 Jun 2027 07:41:41.290            60.843              Murmansk2          4138.000
       406   12 Jun 2027 07:41:45.761   12 Jun 2027 07:42:20.518            34.757                 Moscow          2235.500
       407   12 Jun 2027 09:11:58.286   12 Jun 2027 09:12:14.048            15.762                 Moscow           638.500
       408   12 Jun 2027 09:12:41.284   12 Jun 2027 09:13:45.393            64.109                 Moscow          8013.625
       409   12 Jun 2027 09:13:47.845   12 Jun 2027 09:15:35.367           107.522                 Moscow          6830.375
       410   12 Jun 2027 09:15:50.751   12 Jun 2027 09:16:56.811            66.060              Murmansk2          7692.000
       411   12 Jun 2027 09:17:01.738   12 Jun 2027 09:17:24.495            22.757              Murmansk2          2463.500
       412   13 Jun 2027 03:00:24.282   13 Jun 2027 03:02:02.547            98.265                Norilsk         12141.000
       413   13 Jun 2027 03:02:05.302   13 Jun 2027 03:02:44.402            39.100                Novosib          1377.500
       414   13 Jun 2027 03:02:48.642   13 Jun 2027 03:03:14.405            25.763               Magadan1          2120.000
       415   13 Jun 2027 03:03:19.467   13 Jun 2027 03:03:23.398             3.931                Irkutsk           491.375
       416   13 Jun 2027 03:03:33.099   13 Jun 2027 03:04:39.330            66.231               Magadan2          6890.125
       417   13 Jun 2027 03:04:43.160   13 Jun 2027 03:05:08.981            25.821                Novosib          1915.000
       418   13 Jun 2027 03:05:13.909   13 Jun 2027 03:06:10.386            56.477                Irkutsk          2464.000
       419   13 Jun 2027 03:06:11.306   13 Jun 2027 03:06:25.731            14.425              Murmansk2           460.000
       420   13 Jun 2027 03:06:31.283   13 Jun 2027 03:06:54.181            22.898              Murmansk1          2776.000
       421   13 Jun 2027 04:35:32.559   13 Jun 2027 04:36:07.979            35.420                Novosib          3930.000
       422   13 Jun 2027 04:36:19.777   13 Jun 2027 04:37:07.929            48.152                Norilsk          5899.000
       423   13 Jun 2027 04:37:10.672   13 Jun 2027 04:37:25.024            14.352               Magadan2          1371.500
       424   13 Jun 2027 04:37:31.015   13 Jun 2027 04:38:08.423            37.408               Magadan1          2995.500
       425   13 Jun 2027 04:38:20.319   13 Jun 2027 04:39:17.369            57.050               Magadan2          5948.000
       426   13 Jun 2027 04:39:20.360   13 Jun 2027 04:39:34.648            14.288               Magadan1          1495.500
       427   13 Jun 2027 04:39:42.216   13 Jun 2027 04:40:05.673            23.457                Novosib          2932.125
       428   13 Jun 2027 04:40:08.188   13 Jun 2027 04:40:49.421            41.233              Murmansk2          2109.375
       429   13 Jun 2027 04:40:53.742   13 Jun 2027 04:41:42.523            48.781                Irkutsk          2160.500
       430   13 Jun 2027 04:41:53.314   13 Jun 2027 04:42:41.513            48.199                Norilsk          5395.500
       431   13 Jun 2027 06:12:47.777   13 Jun 2027 06:14:08.016            80.239                Novosib          9754.500
       432   13 Jun 2027 06:14:15.593   13 Jun 2027 06:15:14.838            59.245                Norilsk          3788.500
       433   13 Jun 2027 06:15:16.075   13 Jun 2027 06:15:37.557            21.482                 Moscow           618.500
       434   13 Jun 2027 06:15:41.299   13 Jun 2027 06:15:58.836            17.537              Murmansk1          1871.000
       435   13 Jun 2027 06:16:14.291   13 Jun 2027 06:17:32.235            77.944                Norilsk          7727.500
       436   13 Jun 2027 06:17:36.664   13 Jun 2027 06:17:57.086            20.422                 Moscow          2214.500
       437   13 Jun 2027 06:17:57.359   13 Jun 2027 06:17:59.540             2.181                Norilsk           136.500
       438   13 Jun 2027 06:18:04.878   13 Jun 2027 06:18:28.655            23.777              Murmansk1          2669.000
       439   13 Jun 2027 07:49:16.178   13 Jun 2027 07:49:45.212            29.034                 Moscow           999.000
       440   13 Jun 2027 07:49:48.141   13 Jun 2027 07:49:58.223            10.082              Murmansk1          1260.250
       441   13 Jun 2027 07:49:58.962   13 Jun 2027 07:50:35.758            36.796                Novosib           573.750
       442   13 Jun 2027 07:50:52.337   13 Jun 2027 07:52:17.748            85.411                Norilsk          8289.500
       443   13 Jun 2027 07:52:26.356   13 Jun 2027 07:53:16.368            50.012                Novosib          4304.000
       444   13 Jun 2027 07:53:17.319   13 Jun 2027 07:54:15.481            58.162                Norilsk           475.500
       445   13 Jun 2027 09:24:40.889   13 Jun 2027 09:25:22.527            41.638                 Moscow          3033.500
       446   13 Jun 2027 09:26:19.409   13 Jun 2027 09:27:28.928            69.519              Murmansk2          3960.500
       447   13 Jun 2027 09:27:32.118   13 Jun 2027 09:27:54.510            22.392              Murmansk1          1595.000
       448   13 Jun 2027 09:28:11.577   13 Jun 2027 09:29:26.427            74.850              Murmansk2          8533.500
