uniorb/output/strategy_2/Drop/Drop_KinoSat_110708.txt

KinoSat_110708
-------------------------
    Access    *     Start Time (UTCG)     *     Stop Time (UTCG)  *   Duration (s)        *       Station  *  Data (Mbytes)
         1   01 Jun 2027 03:10:21.471   01 Jun 2027 03:13:27.124           185.653                Anadyr2          5801.656
         2   01 Jun 2027 03:13:34.003   01 Jun 2027 03:13:36.351             2.348               Magadan2            73.375
         3   01 Jun 2027 03:13:36.351   01 Jun 2027 03:13:49.494            13.143               Magadan1           410.719
         4   01 Jun 2027 03:13:49.494   01 Jun 2027 03:14:24.697            35.203               Magadan2          1100.094
         5   01 Jun 2027 03:14:29.727   01 Jun 2027 03:14:36.605             6.878               Magadan1           214.937
         6   01 Jun 2027 03:14:46.626   01 Jun 2027 03:16:26.047            99.421               Magadan2          3106.906
         7   01 Jun 2027 03:16:26.356   01 Jun 2027 03:16:42.579            16.223                Anadyr1           506.969
         8   01 Jun 2027 04:47:15.917   01 Jun 2027 04:48:41.811            85.894                Irkutsk          2684.188
         9   01 Jun 2027 04:50:44.825   01 Jun 2027 04:51:16.091            31.266               Magadan1           977.062
        10   01 Jun 2027 04:51:20.420   01 Jun 2027 04:52:57.961            97.541                Anadyr2          3048.156
        11   01 Jun 2027 04:53:24.236   01 Jun 2027 04:53:28.088             3.852                Norilsk           120.375
        12   01 Jun 2027 05:28:52.569   01 Jun 2027 05:30:57.517           124.948            RioGallegos          3904.625
        13   01 Jun 2027 06:23:22.079   01 Jun 2027 06:24:17.861            55.782                Novosib          1743.188
        14   01 Jun 2027 06:25:51.298   01 Jun 2027 06:26:02.298            11.000                Novosib           343.750
        15   01 Jun 2027 06:26:25.874   01 Jun 2027 06:28:09.151           103.277               Magadan1          3227.406
        16   01 Jun 2027 06:28:15.290   01 Jun 2027 06:29:42.744            87.454              Murmansk1          2732.937
        17   01 Jun 2027 06:29:45.024   01 Jun 2027 06:30:53.940            68.916                Norilsk          2153.625
        18   01 Jun 2027 06:31:18.823   01 Jun 2027 06:31:21.097             2.274              Murmansk1            71.063
        19   01 Jun 2027 06:31:35.871   01 Jun 2027 06:31:45.323             9.452              Murmansk2           295.375
        20   01 Jun 2027 06:32:43.882   01 Jun 2027 06:32:46.689             2.807                Norilsk            87.719
        21   01 Jun 2027 06:33:15.819   01 Jun 2027 06:33:54.507            38.688                Norilsk          1209.000
        22   01 Jun 2027 06:35:14.215   01 Jun 2027 06:35:41.169            26.954              Murmansk1           842.312
        23   01 Jun 2027 07:03:41.607   01 Jun 2027 07:05:31.670           110.063            RioGallegos          3439.469
        24   01 Jun 2027 07:05:42.363   01 Jun 2027 07:06:55.178            72.815            RioGallegos          2275.469
        25   01 Jun 2027 07:08:10.961   01 Jun 2027 07:08:24.807            13.846            RioGallegos           432.688
        26   01 Jun 2027 07:38:40.345   01 Jun 2027 07:42:20.615           220.270                Sumatra          6883.438
        27   01 Jun 2027 07:49:57.097   01 Jun 2027 07:52:08.079           130.982                  Delhi          4093.187
        28   01 Jun 2027 07:56:14.820   01 Jun 2027 07:57:31.770            76.950                  Delhi          2404.688
        29   01 Jun 2027 08:00:25.705   01 Jun 2027 08:01:13.545            47.840                Novosib          1495.000
        30   01 Jun 2027 08:02:12.513   01 Jun 2027 08:03:25.308            72.795                Irkutsk          2274.844
        31   01 Jun 2027 08:03:27.657   01 Jun 2027 08:04:24.447            56.790                Novosib          1774.688
        32   01 Jun 2027 08:04:38.808   01 Jun 2027 08:06:30.432           111.624                Novosib          3488.250
        33   01 Jun 2027 08:06:38.852   01 Jun 2027 08:06:58.709            19.857              Murmansk2           620.531
        34   01 Jun 2027 08:43:43.887   01 Jun 2027 08:44:00.672            16.785            RioGallegos           524.531
        35   01 Jun 2027 09:17:05.128   01 Jun 2027 09:17:57.314            52.186                Sumatra          1630.812
        36   01 Jun 2027 09:18:50.745   01 Jun 2027 09:19:10.375            19.630                Sumatra           613.438
        37   01 Jun 2027 09:20:16.122   01 Jun 2027 09:20:48.714            32.592                Sumatra          1018.500
        38   01 Jun 2027 09:22:44.950   01 Jun 2027 09:25:09.132           144.182                  Delhi          4505.687
        39   01 Jun 2027 09:38:48.789   01 Jun 2027 09:39:42.582            53.793              Murmansk2          1681.031
        40   01 Jun 2027 09:39:46.739   01 Jun 2027 09:42:13.370           146.631                Novosib          4582.219
        41   01 Jun 2027 09:43:10.874   01 Jun 2027 09:43:46.150            35.276                 Moscow          1102.375
        42   01 Jun 2027 11:11:10.485   01 Jun 2027 11:11:40.727            30.242              Murmansk2           945.062
        43   01 Jun 2027 11:11:44.147   01 Jun 2027 11:13:00.284            76.137                Novosib          2379.281
        44   01 Jun 2027 11:13:13.068   01 Jun 2027 11:14:44.970            91.902                 Moscow          2871.938
        45   01 Jun 2027 11:14:58.614   01 Jun 2027 11:18:23.034           204.420              Murmansk1          6388.125
        46   01 Jun 2027 11:18:26.605   01 Jun 2027 11:18:45.104            18.499                 Moscow           578.094
        47   01 Jun 2027 12:22:34.269   01 Jun 2027 12:25:30.394           176.125               CapeTown          5503.906
        48   01 Jun 2027 12:29:24.341   01 Jun 2027 12:31:03.971            99.630               CapeTown          3113.437
        49   01 Jun 2027 12:43:58.320   01 Jun 2027 12:44:25.213            26.893                 Moscow           840.406
        50   01 Jun 2027 12:47:18.812   01 Jun 2027 12:48:59.266           100.454              Murmansk1          3139.188
        51   01 Jun 2027 12:48:59.266   01 Jun 2027 12:49:52.839            53.573              Murmansk2          1674.156
        52   01 Jun 2027 13:01:53.548   01 Jun 2027 13:08:02.556           369.008                Anadyr1         11531.500
        53   01 Jun 2027 14:28:51.414   01 Jun 2027 14:29:33.418            42.004              Murmansk1          1312.625
        54   01 Jun 2027 14:37:14.698   01 Jun 2027 14:38:47.533            92.835                Anadyr2          2901.094
        55   01 Jun 2027 14:38:51.707   01 Jun 2027 14:41:08.313           136.606                Anadyr1          4268.938
        56   01 Jun 2027 14:41:18.490   01 Jun 2027 14:44:31.304           192.814               Magadan1          6025.438
        57   01 Jun 2027 14:45:44.112   01 Jun 2027 14:46:57.985            73.873               Magadan2          2308.531
        58   01 Jun 2027 16:13:07.561   01 Jun 2027 16:14:27.629            80.068                Anadyr1          2502.125
        59   01 Jun 2027 16:14:55.711   01 Jun 2027 16:14:55.876             0.165                Anadyr2             5.156
        60   01 Jun 2027 16:15:34.122   01 Jun 2027 16:17:30.152           116.030               Magadan2          3625.938
        61   01 Jun 2027 16:17:43.407   01 Jun 2027 16:19:02.400            78.993               Magadan1          2468.531
        62   01 Jun 2027 17:49:00.478   01 Jun 2027 17:50:22.968            82.490                Anadyr1          2577.812
        63   01 Jun 2027 17:50:43.614   01 Jun 2027 17:52:04.663            81.049                Anadyr2          2532.781
        64   01 Jun 2027 17:52:09.891   01 Jun 2027 17:57:02.662           292.771                Norilsk          9149.094
        65   01 Jun 2027 17:57:42.357   01 Jun 2027 18:00:10.515           148.158                Irkutsk          4629.938
        66   01 Jun 2027 18:01:20.037   01 Jun 2027 18:02:04.748            44.711                Irkutsk          1397.219
        67   01 Jun 2027 18:44:03.896   01 Jun 2027 18:44:46.911            43.015            RioGallegos          1344.219
        68   01 Jun 2027 18:45:12.536   01 Jun 2027 18:46:18.582            66.046            RioGallegos          2063.938
        69   01 Jun 2027 19:27:23.371   01 Jun 2027 19:28:28.468            65.097               Magadan1          2034.281
        70   01 Jun 2027 19:30:17.511   01 Jun 2027 19:30:50.151            32.640               Magadan1          1020.000
        71   01 Jun 2027 19:30:56.521   01 Jun 2027 19:31:25.104            28.583                Irkutsk           893.219
        72   01 Jun 2027 19:32:02.569   01 Jun 2027 19:32:19.296            16.727                Norilsk           522.719
        73   01 Jun 2027 19:32:43.414   01 Jun 2027 19:39:38.113           414.699                Novosib         12959.344
        74   01 Jun 2027 19:45:42.510   01 Jun 2027 19:46:35.996            53.486                Sumatra          1671.438
        75   01 Jun 2027 19:47:41.320   01 Jun 2027 19:47:54.749            13.429                Sumatra           419.656
        76   01 Jun 2027 21:06:45.624   01 Jun 2027 21:07:17.199            31.575                Novosib           986.719
        77   01 Jun 2027 21:08:56.379   01 Jun 2027 21:10:23.356            86.977                Novosib          2718.031
        78   01 Jun 2027 21:14:19.122   01 Jun 2027 21:18:13.274           234.152                  Delhi          7317.250
        79   01 Jun 2027 22:41:08.217   01 Jun 2027 22:47:27.236           379.019              Murmansk2         11844.344
        80   01 Jun 2027 22:47:46.016   01 Jun 2027 22:50:34.556           168.540                 Moscow          5266.875
        81   01 Jun 2027 22:51:04.880   01 Jun 2027 22:52:08.071            63.191                 Moscow          1974.719
        82   01 Jun 2027 23:14:25.531   01 Jun 2027 23:16:13.646           108.115               CapeTown          3378.594
        83   01 Jun 2027 23:16:37.609   01 Jun 2027 23:17:20.899            43.290               CapeTown          1352.812
        84   02 Jun 2027 00:20:15.139   02 Jun 2027 00:22:02.184           107.045                 Moscow          3345.156
        85   02 Jun 2027 00:44:19.076   02 Jun 2027 00:46:59.687           160.611               CapeTown          5019.094
        86   02 Jun 2027 01:42:45.903   02 Jun 2027 01:44:53.705           127.802               Magadan2          3993.813
        87   02 Jun 2027 01:52:55.473   02 Jun 2027 01:53:22.181            26.708              Murmansk2           834.625
        88   02 Jun 2027 01:55:46.064   02 Jun 2027 01:55:54.141             8.077              Murmansk2           252.406
        89   02 Jun 2027 01:56:12.088   02 Jun 2027 01:57:11.366            59.278                 Moscow          1852.437
        90   02 Jun 2027 02:00:35.030   02 Jun 2027 02:00:39.248             4.218                 Moscow           131.812
        91   02 Jun 2027 02:06:59.964   02 Jun 2027 02:07:52.853            52.889                 Moscow          1652.781
        92   02 Jun 2027 02:21:28.335   02 Jun 2027 02:22:19.892            51.557               CapeTown          1611.156
        93   02 Jun 2027 02:27:56.447   02 Jun 2027 02:28:19.220            22.773               CapeTown           711.656
        94   02 Jun 2027 03:16:55.817   02 Jun 2027 03:18:06.177            70.360               Magadan1          2198.750
        95   02 Jun 2027 03:21:22.396   02 Jun 2027 03:22:12.481            50.085               Magadan1          1565.156
        96   02 Jun 2027 03:23:05.709   02 Jun 2027 03:23:32.865            27.156                Anadyr1           848.625
        97   02 Jun 2027 03:24:03.875   02 Jun 2027 03:24:47.977            44.102               Magadan1          1378.188
        98   02 Jun 2027 03:25:03.808   02 Jun 2027 03:29:35.751           271.943                Anadyr2          8498.219
        99   02 Jun 2027 04:59:19.741   02 Jun 2027 05:01:40.600           140.859                Anadyr2          4401.844
       100   02 Jun 2027 05:01:53.516   02 Jun 2027 05:02:19.455            25.939               Magadan1           810.594
       101   02 Jun 2027 05:02:25.350   02 Jun 2027 05:03:04.530            39.180                Anadyr1          1224.375
       102   02 Jun 2027 05:03:18.017   02 Jun 2027 05:04:17.342            59.325               Magadan2          1853.906
       103   02 Jun 2027 05:04:17.342   02 Jun 2027 05:04:31.976            14.634               Magadan1           457.313
       104   02 Jun 2027 05:04:46.432   02 Jun 2027 05:04:47.783             1.351                Anadyr2            42.219
       105   02 Jun 2027 05:05:07.881   02 Jun 2027 05:05:10.115             2.234               Magadan2            69.813
       106   02 Jun 2027 05:05:24.728   02 Jun 2027 05:05:24.894             0.166                Norilsk             5.188
       107   02 Jun 2027 05:40:34.329   02 Jun 2027 05:44:11.606           217.277            RioGallegos          6789.906
       108   02 Jun 2027 06:34:49.586   02 Jun 2027 06:35:37.160            47.574                Irkutsk          1486.688
       109   02 Jun 2027 06:37:07.158   02 Jun 2027 06:37:52.521            45.363                Irkutsk          1417.594
       110   02 Jun 2027 06:37:57.348   02 Jun 2027 06:38:23.761            26.413                Novosib           825.406
       111   02 Jun 2027 06:38:25.471   02 Jun 2027 06:38:49.129            23.658               Magadan1           739.313
       112   02 Jun 2027 06:39:13.002   02 Jun 2027 06:39:35.269            22.267               Magadan2           695.844
       113   02 Jun 2027 06:39:35.269   02 Jun 2027 06:39:50.262            14.993               Magadan1           468.531
       114   02 Jun 2027 06:40:06.282   02 Jun 2027 06:41:01.875            55.593                Irkutsk          1737.281
       115   02 Jun 2027 06:41:10.672   02 Jun 2027 06:41:17.180             6.508                Norilsk           203.375
       116   02 Jun 2027 07:15:49.403   02 Jun 2027 07:17:10.358            80.955            RioGallegos          2529.844
       117   02 Jun 2027 07:18:54.383   02 Jun 2027 07:20:01.629            67.246            RioGallegos          2101.437
       118   02 Jun 2027 07:50:35.415   02 Jun 2027 07:53:33.013           177.598                Sumatra          5549.938
       119   02 Jun 2027 08:01:06.741   02 Jun 2027 08:02:41.786            95.045                  Delhi          2970.156
       120   02 Jun 2027 08:03:37.886   02 Jun 2027 08:03:45.695             7.809                  Delhi           244.031
       121   02 Jun 2027 08:12:25.683   02 Jun 2027 08:13:41.025            75.342                Norilsk          2354.438
       122   02 Jun 2027 08:13:47.622   02 Jun 2027 08:13:55.441             7.819                Norilsk           244.344
       123   02 Jun 2027 08:14:00.058   02 Jun 2027 08:14:00.346             0.288                Irkutsk             9.000
       124   02 Jun 2027 08:14:17.622   02 Jun 2027 08:14:20.272             2.650                Novosib            82.813
       125   02 Jun 2027 08:14:24.859   02 Jun 2027 08:14:39.316            14.457                Norilsk           451.781
       126   02 Jun 2027 08:14:49.651   02 Jun 2027 08:15:06.693            17.042              Murmansk2           532.563
       127   02 Jun 2027 08:15:06.693   02 Jun 2027 08:16:33.117            86.424              Murmansk1          2700.750
       128   02 Jun 2027 08:16:35.632   02 Jun 2027 08:17:26.582            50.950              Murmansk1          1592.188
       129   02 Jun 2027 08:17:41.303   02 Jun 2027 08:17:54.673            13.370                 Moscow           417.813
       130   02 Jun 2027 08:55:31.780   02 Jun 2027 08:55:54.200            22.420            RioGallegos           700.625
       131   02 Jun 2027 08:58:28.429   02 Jun 2027 08:58:52.526            24.097            RioGallegos           753.031
       132   02 Jun 2027 09:31:02.190   02 Jun 2027 09:32:31.061            88.871                Sumatra          2777.219
       133   02 Jun 2027 09:34:49.626   02 Jun 2027 09:36:28.661            99.035                  Delhi          3094.844
       134   02 Jun 2027 09:49:00.439   02 Jun 2027 09:49:58.165            57.726                Norilsk          1803.937
       135   02 Jun 2027 09:50:06.807   02 Jun 2027 09:50:20.976            14.169              Murmansk2           442.781
       136   02 Jun 2027 09:50:42.161   02 Jun 2027 09:50:53.512            11.351                 Moscow           354.719
       137   02 Jun 2027 09:51:03.551   02 Jun 2027 09:51:39.763            36.212              Murmansk1          1131.625
       138   02 Jun 2027 09:51:43.836   02 Jun 2027 09:51:44.319             0.483                Norilsk            15.094
       139   02 Jun 2027 09:51:49.069   02 Jun 2027 09:52:25.123            36.054                Novosib          1126.688
       140   02 Jun 2027 09:52:34.373   02 Jun 2027 09:52:50.684            16.311                Novosib           509.719
       141   02 Jun 2027 09:53:32.904   02 Jun 2027 09:54:08.633            35.729                Novosib          1116.531
       142   02 Jun 2027 11:22:28.778   02 Jun 2027 11:23:33.553            64.775                 Moscow          2024.219
       143   02 Jun 2027 11:23:39.399   02 Jun 2027 11:24:31.537            52.138                 Moscow          1629.312
       144   02 Jun 2027 11:24:40.096   02 Jun 2027 11:25:22.821            42.725              Murmansk1          1335.156
       145   02 Jun 2027 11:25:39.122   02 Jun 2027 11:26:26.142            47.020                 Moscow          1469.375
       146   02 Jun 2027 11:26:28.332   02 Jun 2027 11:26:51.684            23.352              Murmansk1           729.750
       147   02 Jun 2027 11:27:05.145   02 Jun 2027 11:27:18.650            13.505              Murmansk2           422.031
       148   02 Jun 2027 11:27:18.650   02 Jun 2027 11:27:28.023             9.373              Murmansk1           292.906
       149   02 Jun 2027 11:27:32.766   02 Jun 2027 11:27:57.893            25.127                Norilsk           785.219
       150   02 Jun 2027 11:27:59.648   02 Jun 2027 11:28:49.565            49.917                Norilsk          1559.906
       151   02 Jun 2027 11:29:06.631   02 Jun 2027 11:29:38.378            31.747              Murmansk2           992.094
       152   02 Jun 2027 11:32:32.508   02 Jun 2027 11:32:56.374            23.866              Murmansk1           745.812
       153   02 Jun 2027 12:34:00.457   02 Jun 2027 12:35:21.060            80.603               CapeTown          2518.844
       154   02 Jun 2027 12:36:05.379   02 Jun 2027 12:38:48.782           163.403               CapeTown          5106.344
       155   02 Jun 2027 12:39:40.903   02 Jun 2027 12:41:02.912            82.009               CapeTown          2562.781
       156   02 Jun 2027 12:59:34.294   02 Jun 2027 13:00:02.132            27.838              Murmansk1           869.938
       157   02 Jun 2027 13:00:21.286   02 Jun 2027 13:00:35.101            13.815              Murmansk2           431.719
       158   02 Jun 2027 13:00:59.125   02 Jun 2027 13:01:05.048             5.923              Murmansk2           185.094
       159   02 Jun 2027 13:04:09.369   02 Jun 2027 13:04:21.593            12.224              Murmansk1           382.000
       160   02 Jun 2027 13:13:45.928   02 Jun 2027 13:18:47.066           301.138                Anadyr2          9410.562
       161   02 Jun 2027 14:38:45.585   02 Jun 2027 14:39:03.139            17.554              Murmansk1           548.563
       162   02 Jun 2027 14:39:10.945   02 Jun 2027 14:39:28.035            17.090              Murmansk1           534.063
       163   02 Jun 2027 14:40:24.079   02 Jun 2027 14:40:53.157            29.078              Murmansk2           908.687
       164   02 Jun 2027 14:41:09.652   02 Jun 2027 14:41:33.017            23.365              Murmansk2           730.156
       165   02 Jun 2027 14:49:14.917   02 Jun 2027 14:51:40.488           145.571                Anadyr1          4549.094
       166   02 Jun 2027 14:52:50.949   02 Jun 2027 14:59:48.145           417.196               Magadan2         13037.375
       167   02 Jun 2027 16:27:32.067   02 Jun 2027 16:29:51.276           139.209               Magadan1          4350.281
       168   02 Jun 2027 16:31:43.781   02 Jun 2027 16:32:20.390            36.609               Magadan1          1144.031
       169   02 Jun 2027 18:01:00.429   02 Jun 2027 18:02:24.147            83.718                Anadyr2          2616.188
       170   02 Jun 2027 18:02:29.394   02 Jun 2027 18:04:06.142            96.748                Anadyr1          3023.375
       171   02 Jun 2027 18:04:35.535   02 Jun 2027 18:05:52.070            76.535               Magadan2          2391.719
       172   02 Jun 2027 18:06:05.034   02 Jun 2027 18:09:29.922           204.888                Norilsk          6402.750
       173   02 Jun 2027 18:10:21.842   02 Jun 2027 18:13:35.092           193.250                Irkutsk          6039.062
       174   02 Jun 2027 18:15:07.135   02 Jun 2027 18:15:27.301            20.166                Irkutsk           630.188
       175   02 Jun 2027 18:25:14.575   02 Jun 2027 18:29:18.288           243.713                Sumatra          7616.031
       176   02 Jun 2027 19:43:55.909   02 Jun 2027 19:48:36.157           280.248                Novosib          8757.750
       177   02 Jun 2027 19:49:35.708   02 Jun 2027 19:51:01.953            86.245                Novosib          2695.156
       178   02 Jun 2027 21:18:36.522   02 Jun 2027 21:21:19.725           163.203              Murmansk1          5100.094
       179   02 Jun 2027 21:26:10.199   02 Jun 2027 21:27:30.891            80.692                  Delhi          2521.625
       180   02 Jun 2027 21:29:00.882   02 Jun 2027 21:29:19.157            18.275                  Delhi           571.094
       181   02 Jun 2027 21:33:43.442   02 Jun 2027 21:35:10.799            87.357                  Delhi          2729.906
       182   02 Jun 2027 22:53:07.162   02 Jun 2027 22:58:37.797           330.635              Murmansk1         10332.344
       183   02 Jun 2027 22:59:42.841   02 Jun 2027 23:03:11.420           208.579                 Moscow          6518.094
       184   02 Jun 2027 23:24:37.904   02 Jun 2027 23:26:11.267            93.363               CapeTown          2917.594
       185   02 Jun 2027 23:27:01.700   02 Jun 2027 23:28:53.531           111.831               CapeTown          3494.719
       186   03 Jun 2027 00:40:02.481   03 Jun 2027 00:40:25.060            22.579                 Moscow           705.594
       187   03 Jun 2027 00:40:55.485   03 Jun 2027 00:41:22.808            27.323                 Moscow           853.844
       188   03 Jun 2027 00:44:26.807   03 Jun 2027 00:45:03.469            36.662                 Moscow          1145.688
       189   03 Jun 2027 00:56:10.699   03 Jun 2027 00:57:30.931            80.232               CapeTown          2507.250
       190   03 Jun 2027 01:52:49.140   03 Jun 2027 01:53:31.632            42.492                Anadyr2          1327.875
       191   03 Jun 2027 01:54:24.807   03 Jun 2027 01:55:17.560            52.753               Magadan2          1648.531
       192   03 Jun 2027 01:55:42.332   03 Jun 2027 01:56:11.372            29.040               Magadan1           907.500
       193   03 Jun 2027 01:56:55.726   03 Jun 2027 01:57:42.928            47.202               Magadan2          1475.063
       194   03 Jun 2027 02:04:56.753   03 Jun 2027 02:05:51.971            55.218              Murmansk2          1725.563
       195   03 Jun 2027 02:05:51.971   03 Jun 2027 02:06:15.471            23.500              Murmansk1           734.375
       196   03 Jun 2027 02:07:40.970   03 Jun 2027 02:08:23.592            42.622              Murmansk2          1331.938
       197   03 Jun 2027 02:08:41.016   03 Jun 2027 02:09:27.821            46.805                 Moscow          1462.656
       198   03 Jun 2027 02:14:35.916   03 Jun 2027 02:14:44.628             8.712                 Moscow           272.250
       199   03 Jun 2027 02:16:34.335   03 Jun 2027 02:16:51.615            17.280                 Moscow           540.000
       200   03 Jun 2027 02:19:03.677   03 Jun 2027 02:19:11.773             8.096                 Moscow           253.000
       201   03 Jun 2027 02:19:40.409   03 Jun 2027 02:19:43.390             2.981                 Moscow            93.156
       202   03 Jun 2027 02:34:12.320   03 Jun 2027 02:34:48.226            35.906               CapeTown          1122.062
       203   03 Jun 2027 02:38:06.513   03 Jun 2027 02:38:18.018            11.505               CapeTown           359.531
       204   03 Jun 2027 02:42:10.989   03 Jun 2027 02:43:04.475            53.486               CapeTown          1671.438
       205   03 Jun 2027 03:34:13.250   03 Jun 2027 03:34:13.514             0.264               Magadan1             8.250
       206   03 Jun 2027 03:34:37.067   03 Jun 2027 03:34:49.690            12.623               Magadan2           394.469
       207   03 Jun 2027 03:34:55.766   03 Jun 2027 03:36:29.378            93.612               Magadan1          2925.375
       208   03 Jun 2027 03:36:29.378   03 Jun 2027 03:36:54.048            24.670               Magadan2           770.938
       209   03 Jun 2027 03:37:04.938   03 Jun 2027 03:37:28.523            23.585                Anadyr1           737.031
       210   03 Jun 2027 03:37:28.523   03 Jun 2027 03:39:54.667           146.144                Anadyr2          4567.000
       211   03 Jun 2027 03:40:08.112   03 Jun 2027 03:40:19.691            11.579               Magadan2           361.844
       212   03 Jun 2027 03:40:19.691   03 Jun 2027 03:41:22.903            63.212               Magadan1          1975.375
       213   03 Jun 2027 05:07:57.208   03 Jun 2027 05:08:24.259            27.051                Irkutsk           845.344
       214   03 Jun 2027 05:11:00.833   03 Jun 2027 05:13:51.050           170.217                Anadyr1          5319.281
       215   03 Jun 2027 05:13:51.953   03 Jun 2027 05:14:56.792            64.839                Irkutsk          2026.219
       216   03 Jun 2027 05:14:59.828   03 Jun 2027 05:15:17.051            17.223               Magadan1           538.219
       217   03 Jun 2027 05:15:22.454   03 Jun 2027 05:15:28.814             6.360               Magadan1           198.750
       218   03 Jun 2027 05:16:26.507   03 Jun 2027 05:17:08.020            41.513               Magadan2          1297.281
       219   03 Jun 2027 05:17:21.092   03 Jun 2027 05:17:26.609             5.517                Norilsk           172.406
       220   03 Jun 2027 05:17:38.405   03 Jun 2027 05:18:11.270            32.865              Murmansk1          1027.031
       221   03 Jun 2027 05:19:13.262   03 Jun 2027 05:19:33.635            20.373                Norilsk           636.656
       222   03 Jun 2027 05:52:19.324   03 Jun 2027 05:56:06.493           227.169            RioGallegos          7099.031
       223   03 Jun 2027 06:00:28.079   03 Jun 2027 06:00:32.955             4.876            RioGallegos           152.375
       224   03 Jun 2027 06:00:55.262   03 Jun 2027 06:01:44.161            48.899            RioGallegos          1528.094
       225   03 Jun 2027 06:30:20.039   03 Jun 2027 06:31:57.608            97.569                Sumatra          3049.031
       226   03 Jun 2027 06:33:10.990   03 Jun 2027 06:35:26.187           135.197                Sumatra          4224.906
       227   03 Jun 2027 06:46:21.712   03 Jun 2027 06:46:47.879            26.167                Novosib           817.719
       228   03 Jun 2027 06:46:54.642   03 Jun 2027 06:47:30.857            36.215               Magadan2          1131.719
       229   03 Jun 2027 06:47:39.077   03 Jun 2027 06:48:15.297            36.220               Magadan2          1131.875
       230   03 Jun 2027 06:48:21.985   03 Jun 2027 06:48:38.306            16.321               Magadan1           510.031
       231   03 Jun 2027 06:48:46.914   03 Jun 2027 06:49:22.707            35.793                Irkutsk          1118.531
       232   03 Jun 2027 06:49:52.084   03 Jun 2027 06:50:29.789            37.705                Irkutsk          1178.281
       233   03 Jun 2027 06:50:31.740   03 Jun 2027 06:50:33.032             1.292               Magadan2            40.375
       234   03 Jun 2027 06:50:34.980   03 Jun 2027 06:50:43.534             8.554                Novosib           267.313
       235   03 Jun 2027 06:50:46.251   03 Jun 2027 06:52:03.504            77.253                Irkutsk          2414.156
       236   03 Jun 2027 06:52:15.138   03 Jun 2027 06:52:40.554            25.416                Irkutsk           794.250
       237   03 Jun 2027 06:52:49.505   03 Jun 2027 06:53:14.191            24.686                Novosib           771.437
       238   03 Jun 2027 06:53:30.807   03 Jun 2027 06:54:14.339            43.532              Murmansk2          1360.375
       239   03 Jun 2027 06:54:14.339   03 Jun 2027 06:55:13.371            59.032              Murmansk1          1844.750
       240   03 Jun 2027 07:28:00.880   03 Jun 2027 07:28:12.107            11.227            RioGallegos           350.844
       241   03 Jun 2027 08:02:36.082   03 Jun 2027 08:03:09.929            33.847                Sumatra          1057.719
       242   03 Jun 2027 08:03:53.067   03 Jun 2027 08:04:58.861            65.794                Sumatra          2056.062
       243   03 Jun 2027 08:12:27.867   03 Jun 2027 08:15:29.433           181.566                  Delhi          5673.937
       244   03 Jun 2027 08:18:11.869   03 Jun 2027 08:19:34.352            82.483                  Delhi          2577.594
       245   03 Jun 2027 08:22:45.761   03 Jun 2027 08:22:58.596            12.835                  Delhi           401.094
       246   03 Jun 2027 08:23:33.722   03 Jun 2027 08:23:39.567             5.845                Norilsk           182.656
       247   03 Jun 2027 08:24:00.236   03 Jun 2027 08:24:44.307            44.071                Irkutsk          1377.219
       248   03 Jun 2027 08:24:58.169   03 Jun 2027 08:25:14.354            16.185                Novosib           505.781
       249   03 Jun 2027 08:25:16.299   03 Jun 2027 08:26:04.874            48.575                 Moscow          1517.969
       250   03 Jun 2027 08:26:14.333   03 Jun 2027 08:26:32.489            18.156              Murmansk2           567.375
       251   03 Jun 2027 08:26:34.730   03 Jun 2027 08:26:58.215            23.485              Murmansk2           733.906
       252   03 Jun 2027 08:26:58.215   03 Jun 2027 08:27:15.528            17.313              Murmansk1           541.031
       253   03 Jun 2027 08:27:19.184   03 Jun 2027 08:27:26.387             7.203                Norilsk           225.094
       254   03 Jun 2027 08:27:26.480   03 Jun 2027 08:27:53.355            26.875                 Moscow           839.844
       255   03 Jun 2027 08:28:17.507   03 Jun 2027 08:28:24.601             7.094                Norilsk           221.688
       256   03 Jun 2027 08:28:28.023   03 Jun 2027 08:29:22.878            54.855              Murmansk1          1714.219
       257   03 Jun 2027 08:29:47.503   03 Jun 2027 08:30:10.405            22.902                 Moscow           715.687
       258   03 Jun 2027 09:08:47.453   03 Jun 2027 09:08:51.614             4.161            RioGallegos           130.031
       259   03 Jun 2027 09:09:43.478   03 Jun 2027 09:10:53.959            70.481            RioGallegos          2202.531
       260   03 Jun 2027 09:46:59.933   03 Jun 2027 09:48:29.020            89.087                  Delhi          2783.969
       261   03 Jun 2027 09:49:48.134   03 Jun 2027 09:51:08.531            80.397                  Delhi          2512.406
       262   03 Jun 2027 10:00:36.946   03 Jun 2027 10:00:38.148             1.202                Novosib            37.563
       263   03 Jun 2027 10:00:46.031   03 Jun 2027 10:01:09.971            23.940              Murmansk2           748.125
       264   03 Jun 2027 10:01:09.971   03 Jun 2027 10:01:10.194             0.223              Murmansk1             6.969
       265   03 Jun 2027 10:01:21.124   03 Jun 2027 10:02:06.252            45.128              Murmansk1          1410.250
       266   03 Jun 2027 10:02:09.540   03 Jun 2027 10:02:45.384            35.844                Novosib          1120.125
       267   03 Jun 2027 10:03:04.163   03 Jun 2027 10:04:02.075            57.912                 Moscow          1809.750
       268   03 Jun 2027 10:04:03.710   03 Jun 2027 10:04:26.175            22.465                 Moscow           702.031
       269   03 Jun 2027 10:04:39.607   03 Jun 2027 10:05:17.606            37.999                Norilsk          1187.469
       270   03 Jun 2027 10:05:32.045   03 Jun 2027 10:05:39.783             7.738              Murmansk2           241.812
       271   03 Jun 2027 11:36:40.327   03 Jun 2027 11:37:07.842            27.515              Murmansk1           859.844
       272   03 Jun 2027 11:37:08.747   03 Jun 2027 11:37:30.452            21.705                 Moscow           678.281
       273   03 Jun 2027 11:37:39.398   03 Jun 2027 11:37:59.358            19.960              Murmansk1           623.750
       274   03 Jun 2027 11:38:02.275   03 Jun 2027 11:38:43.422            41.147              Murmansk1          1285.844
       275   03 Jun 2027 11:39:13.391   03 Jun 2027 11:39:19.385             5.994              Murmansk1           187.312
       276   03 Jun 2027 11:39:20.925   03 Jun 2027 11:39:34.523            13.598                Norilsk           424.938
       277   03 Jun 2027 11:39:38.908   03 Jun 2027 11:40:02.262            23.354              Murmansk1           729.812
       278   03 Jun 2027 11:40:20.622   03 Jun 2027 11:41:04.058            43.436              Murmansk2          1357.375
       279   03 Jun 2027 11:44:13.544   03 Jun 2027 11:44:17.801             4.257              Murmansk2           133.031
       280   03 Jun 2027 12:45:36.217   03 Jun 2027 12:48:34.925           178.708               CapeTown          5584.625
       281   03 Jun 2027 12:49:56.345   03 Jun 2027 12:52:08.444           132.099               CapeTown          4128.094
       282   03 Jun 2027 13:11:51.819   03 Jun 2027 13:13:47.044           115.225              Murmansk2          3600.781
       283   03 Jun 2027 13:19:41.452   03 Jun 2027 13:19:50.628             9.176              Murmansk1           286.750
       284   03 Jun 2027 13:25:40.363   03 Jun 2027 13:28:07.285           146.922                Anadyr2          4591.313
       285   03 Jun 2027 13:28:44.967   03 Jun 2027 13:31:12.995           148.028                Anadyr1          4625.875
       286   03 Jun 2027 14:51:27.484   03 Jun 2027 14:51:41.432            13.948              Murmansk2           435.875
       287   03 Jun 2027 14:53:10.970   03 Jun 2027 14:53:30.357            19.387              Murmansk1           605.844
       288   03 Jun 2027 14:54:51.227   03 Jun 2027 14:55:03.876            12.649              Murmansk2           395.281
       289   03 Jun 2027 14:55:32.197   03 Jun 2027 14:55:49.884            17.687              Murmansk2           552.719
       290   03 Jun 2027 14:57:11.890   03 Jun 2027 14:58:10.356            58.466              Murmansk2          1827.063
       291   03 Jun 2027 15:01:15.452   03 Jun 2027 15:01:28.377            12.925                Anadyr2           403.906
       292   03 Jun 2027 15:02:34.000   03 Jun 2027 15:02:42.810             8.810                Anadyr2           275.312
       293   03 Jun 2027 15:03:30.177   03 Jun 2027 15:04:47.594            77.417                Anadyr2          2419.281
       294   03 Jun 2027 15:04:49.298   03 Jun 2027 15:08:57.695           248.397               Magadan2          7762.406
       295   03 Jun 2027 15:08:57.695   03 Jun 2027 15:10:51.615           113.920               Magadan1          3560.000
       296   03 Jun 2027 16:37:52.308   03 Jun 2027 16:38:18.417            26.109                Anadyr2           815.906
       297   03 Jun 2027 16:39:30.802   03 Jun 2027 16:41:12.880           102.078               Magadan1          3189.938
       298   03 Jun 2027 16:41:51.548   03 Jun 2027 16:43:59.502           127.954               Magadan2          3998.563
       299   03 Jun 2027 17:34:06.432   03 Jun 2027 17:36:21.736           135.304            RioGallegos          4228.250
       300   03 Jun 2027 18:13:00.000   03 Jun 2027 18:13:18.324            18.324                Anadyr1           572.625
       301   03 Jun 2027 18:13:25.382   03 Jun 2027 18:13:36.563            11.181                Anadyr1           349.406
       302   03 Jun 2027 18:13:46.158   03 Jun 2027 18:14:14.036            27.878                Anadyr1           871.188
       303   03 Jun 2027 18:15:13.856   03 Jun 2027 18:19:20.698           246.842                Norilsk          7713.812
       304   03 Jun 2027 18:20:20.431   03 Jun 2027 18:24:41.481           261.050                Irkutsk          8157.813
       305   03 Jun 2027 18:24:58.450   03 Jun 2027 18:25:43.576            45.126                Irkutsk          1410.187
       306   03 Jun 2027 18:27:09.437   03 Jun 2027 18:27:22.253            12.816                Irkutsk           400.500
       307   03 Jun 2027 18:35:40.500   03 Jun 2027 18:37:44.755           124.255                Sumatra          3882.969
       308   03 Jun 2027 18:39:25.341   03 Jun 2027 18:41:24.177           118.836                Sumatra          3713.625
       309   03 Jun 2027 19:58:19.774   03 Jun 2027 20:00:49.156           149.382                Novosib          4668.188
       310   03 Jun 2027 20:06:49.236   03 Jun 2027 20:07:41.704            52.468                  Delhi          1639.625
       311   03 Jun 2027 20:08:57.170   03 Jun 2027 20:09:37.056            39.886                  Delhi          1246.437
       312   03 Jun 2027 21:30:05.724   03 Jun 2027 21:34:33.933           268.209              Murmansk1          8381.531
       313   03 Jun 2027 21:47:29.630   03 Jun 2027 21:47:44.515            14.885                  Delhi           465.156
       314   03 Jun 2027 23:01:56.518   03 Jun 2027 23:02:25.568            29.050               Magadan1           907.813
       315   03 Jun 2027 23:02:36.275   03 Jun 2027 23:03:46.093            69.818               Magadan2          2181.812
       316   03 Jun 2027 23:05:06.769   03 Jun 2027 23:06:52.890           106.121              Murmansk1          3316.281
       317   03 Jun 2027 23:08:09.990   03 Jun 2027 23:11:09.434           179.444              Murmansk1          5607.625
       318   03 Jun 2027 23:11:53.895   03 Jun 2027 23:13:17.024            83.129                 Moscow          2597.781
       319   03 Jun 2027 23:14:53.962   03 Jun 2027 23:15:14.938            20.976                 Moscow           655.500
       320   03 Jun 2027 23:35:31.332   03 Jun 2027 23:38:23.428           172.096               CapeTown          5378.000
       321   03 Jun 2027 23:39:02.038   03 Jun 2027 23:41:03.558           121.520               CapeTown          3797.500
       322   03 Jun 2027 23:43:11.613   03 Jun 2027 23:43:26.581            14.968               CapeTown           467.750
       323   04 Jun 2027 00:44:14.336   04 Jun 2027 00:44:44.582            30.246                 Moscow           945.187
       324   04 Jun 2027 00:47:02.919   04 Jun 2027 00:47:30.049            27.130                 Moscow           847.813
       325   04 Jun 2027 00:47:49.369   04 Jun 2027 00:47:56.987             7.618                 Moscow           238.063
       326   04 Jun 2027 00:51:40.007   04 Jun 2027 00:51:45.618             5.611                 Moscow           175.344
       327   04 Jun 2027 00:52:37.221   04 Jun 2027 00:52:38.885             1.664                 Moscow            52.000
       328   04 Jun 2027 00:52:54.908   04 Jun 2027 00:53:02.138             7.230                 Moscow           225.938
       329   04 Jun 2027 00:55:23.440   04 Jun 2027 00:55:38.973            15.533                 Moscow           485.406
       330   04 Jun 2027 00:56:22.456   04 Jun 2027 00:57:07.771            45.315                 Moscow          1416.094
       331   04 Jun 2027 01:08:07.276   04 Jun 2027 01:08:30.377            23.101               CapeTown           721.906
       332   04 Jun 2027 01:12:00.093   04 Jun 2027 01:12:42.902            42.809               CapeTown          1337.781
       333   04 Jun 2027 01:16:52.489   04 Jun 2027 01:17:26.959            34.470               CapeTown          1077.188
       334   04 Jun 2027 02:04:51.447   04 Jun 2027 02:05:24.558            33.111                Anadyr1          1034.719
       335   04 Jun 2027 02:06:05.555   04 Jun 2027 02:06:46.877            41.322               Magadan1          1291.313
       336   04 Jun 2027 02:06:51.764   04 Jun 2027 02:07:45.035            53.271               Magadan2          1664.719
       337   04 Jun 2027 02:13:23.825   04 Jun 2027 02:14:32.538            68.713               Magadan2          2147.281
       338   04 Jun 2027 02:16:57.868   04 Jun 2027 02:17:37.958            40.090              Murmansk2          1252.813
       339   04 Jun 2027 02:19:35.158   04 Jun 2027 02:20:56.604            81.446              Murmansk1          2545.188
       340   04 Jun 2027 02:24:43.995   04 Jun 2027 02:24:50.636             6.641                 Moscow           207.531
       341   04 Jun 2027 02:26:18.535   04 Jun 2027 02:27:03.408            44.873                 Moscow          1402.281
       342   04 Jun 2027 02:47:12.929   04 Jun 2027 02:48:25.009            72.080               CapeTown          2252.500
       343   04 Jun 2027 03:47:10.494   04 Jun 2027 03:48:33.635            83.141               Magadan2          2598.156
       344   04 Jun 2027 03:48:43.860   04 Jun 2027 03:49:12.081            28.221               Magadan1           881.906
       345   04 Jun 2027 03:49:28.790   04 Jun 2027 03:51:56.698           147.908                Anadyr2          4622.125
       346   04 Jun 2027 05:23:38.721   04 Jun 2027 05:24:03.552            24.831                Irkutsk           775.969
       347   04 Jun 2027 05:24:38.700   04 Jun 2027 05:26:40.644           121.944               Magadan1          3810.750
       348   04 Jun 2027 05:26:45.956   04 Jun 2027 05:29:04.956           139.000               Magadan2          4343.750
       349   04 Jun 2027 06:41:09.136   04 Jun 2027 06:43:33.926           144.790                Sumatra          4524.687
       350   04 Jun 2027 06:47:23.562   04 Jun 2027 06:49:12.379           108.817                Sumatra          3400.531
       351   04 Jun 2027 06:59:16.078   04 Jun 2027 06:59:33.436            17.358               Magadan1           542.437
       352   04 Jun 2027 06:59:47.348   04 Jun 2027 07:00:51.264            63.916                Irkutsk          1997.375
       353   04 Jun 2027 07:01:07.070   04 Jun 2027 07:01:14.408             7.338                Norilsk           229.313
       354   04 Jun 2027 07:01:25.957   04 Jun 2027 07:01:32.342             6.385                Norilsk           199.531
       355   04 Jun 2027 07:02:00.962   04 Jun 2027 07:03:06.499            65.537                Irkutsk          2048.031
       356   04 Jun 2027 07:03:13.003   04 Jun 2027 07:03:48.786            35.783                Norilsk          1118.219
       357   04 Jun 2027 07:03:51.463   04 Jun 2027 07:04:19.424            27.961              Murmansk2           873.781
       358   04 Jun 2027 07:04:30.244   04 Jun 2027 07:05:12.089            41.845                Novosib          1307.656
       359   04 Jun 2027 07:05:37.452   04 Jun 2027 07:06:03.148            25.696              Murmansk1           803.000
       360   04 Jun 2027 07:11:52.738   04 Jun 2027 07:11:55.962             3.224              Murmansk2           100.750
       361   04 Jun 2027 07:40:16.300   04 Jun 2027 07:40:47.274            30.974            RioGallegos           967.937
       362   04 Jun 2027 07:41:47.286   04 Jun 2027 07:42:22.626            35.340            RioGallegos          1104.375
       363   04 Jun 2027 08:14:42.395   04 Jun 2027 08:16:34.237           111.842                Sumatra          3495.062
       364   04 Jun 2027 08:23:57.610   04 Jun 2027 08:25:10.899            73.289                  Delhi          2290.281
       365   04 Jun 2027 08:25:28.082   04 Jun 2027 08:27:18.798           110.716                  Delhi          3459.875
       366   04 Jun 2027 08:35:09.988   04 Jun 2027 08:35:16.379             6.391                  Delhi           199.719
       367   04 Jun 2027 08:35:35.367   04 Jun 2027 08:35:39.263             3.896                Norilsk           121.750
       368   04 Jun 2027 08:35:39.347   04 Jun 2027 08:35:41.326             1.979                Novosib            61.844
       369   04 Jun 2027 08:35:42.127   04 Jun 2027 08:36:15.566            33.439                Norilsk          1044.969
       370   04 Jun 2027 08:36:32.923   04 Jun 2027 08:37:21.011            48.088              Murmansk1          1502.750
       371   04 Jun 2027 08:37:21.011   04 Jun 2027 08:37:35.477            14.466              Murmansk2           452.063
       372   04 Jun 2027 08:37:40.745   04 Jun 2027 08:38:11.170            30.425                Novosib           950.781
       373   04 Jun 2027 08:38:17.651   04 Jun 2027 08:38:31.280            13.629              Murmansk1           425.906
       374   04 Jun 2027 08:38:33.508   04 Jun 2027 08:38:44.048            10.540                Norilsk           329.375
       375   04 Jun 2027 08:38:47.856   04 Jun 2027 08:39:17.558            29.702                Novosib           928.188
       376   04 Jun 2027 08:39:21.532   04 Jun 2027 08:39:29.811             8.279                Novosib           258.719
       377   04 Jun 2027 08:39:44.352   04 Jun 2027 08:40:59.863            75.511                Novosib          2359.719
       378   04 Jun 2027 08:41:30.895   04 Jun 2027 08:41:54.340            23.445                 Moscow           732.656
       379   04 Jun 2027 09:59:16.391   04 Jun 2027 10:01:41.961           145.570                  Delhi          4549.062
       380   04 Jun 2027 10:12:03.821   04 Jun 2027 10:12:47.142            43.321              Murmansk2          1353.781
       381   04 Jun 2027 10:12:47.682   04 Jun 2027 10:12:57.435             9.753              Murmansk2           304.781
       382   04 Jun 2027 10:13:07.222   04 Jun 2027 10:14:12.675            65.453                 Moscow          2045.406
       383   04 Jun 2027 10:14:32.173   04 Jun 2027 10:15:05.816            33.643              Murmansk1          1051.344
       384   04 Jun 2027 10:15:22.642   04 Jun 2027 10:15:27.922             5.280                Norilsk           165.000
       385   04 Jun 2027 10:15:33.929   04 Jun 2027 10:15:35.730             1.801              Murmansk1            56.281
       386   04 Jun 2027 10:15:37.799   04 Jun 2027 10:15:51.124            13.325                Novosib           416.406
       387   04 Jun 2027 10:16:11.750   04 Jun 2027 10:16:36.465            24.715              Murmansk2           772.344
       388   04 Jun 2027 10:16:36.465   04 Jun 2027 10:16:45.098             8.633              Murmansk1           269.781
       389   04 Jun 2027 10:17:19.068   04 Jun 2027 10:17:47.812            28.744                Norilsk           898.250
       390   04 Jun 2027 11:47:10.824   04 Jun 2027 11:47:22.634            11.810              Murmansk2           369.062
       391   04 Jun 2027 11:47:31.911   04 Jun 2027 11:47:47.174            15.263                 Moscow           476.969
       392   04 Jun 2027 11:47:55.345   04 Jun 2027 11:48:02.474             7.129              Murmansk2           222.781
       393   04 Jun 2027 11:48:29.595   04 Jun 2027 11:49:09.341            39.746              Murmansk2          1242.063
       394   04 Jun 2027 11:49:18.971   04 Jun 2027 11:49:43.874            24.903                 Moscow           778.219
       395   04 Jun 2027 11:49:50.455   04 Jun 2027 11:50:00.952            10.497              Murmansk2           328.031
       396   04 Jun 2027 11:50:11.761   04 Jun 2027 11:51:20.339            68.578              Murmansk2          2143.062
       397   04 Jun 2027 11:51:23.415   04 Jun 2027 11:51:35.734            12.319              Murmansk1           384.969
       398   04 Jun 2027 11:51:53.199   04 Jun 2027 11:52:09.075            15.876                Norilsk           496.125
       399   04 Jun 2027 12:57:18.536   04 Jun 2027 13:00:47.347           208.811               CapeTown          6525.344
       400   04 Jun 2027 13:01:04.888   04 Jun 2027 13:02:24.423            79.535               CapeTown          2485.469
       401   04 Jun 2027 13:08:30.873   04 Jun 2027 13:08:54.937            24.064               CapeTown           752.000
       402   04 Jun 2027 13:24:11.469   04 Jun 2027 13:26:24.329           132.860              Murmansk1          4151.875
       403   04 Jun 2027 13:29:08.754   04 Jun 2027 13:29:24.351            15.597              Murmansk2           487.406
       404   04 Jun 2027 13:30:55.924   04 Jun 2027 13:31:21.185            25.261              Murmansk2           789.406
       405   04 Jun 2027 13:33:04.815   04 Jun 2027 13:33:38.326            33.511              Murmansk2          1047.219
       406   04 Jun 2027 13:37:36.314   04 Jun 2027 13:39:44.621           128.307                Anadyr2          4009.594
       407   04 Jun 2027 13:40:46.257   04 Jun 2027 13:42:10.178            83.921                Anadyr1          2622.531
       408   04 Jun 2027 13:43:54.377   04 Jun 2027 13:44:10.955            16.578                Anadyr1           518.062
       409   04 Jun 2027 13:45:36.232   04 Jun 2027 13:46:03.675            27.443                Anadyr2           857.594
       410   04 Jun 2027 13:46:03.675   04 Jun 2027 13:46:08.293             4.618                Anadyr1           144.313
       411   04 Jun 2027 13:46:08.293   04 Jun 2027 13:47:59.045           110.752                Anadyr2          3461.000
       412   04 Jun 2027 15:10:41.337   04 Jun 2027 15:11:02.431            21.094              Murmansk2           659.188
       413   04 Jun 2027 15:13:16.245   04 Jun 2027 15:14:41.635            85.390                Anadyr1          2668.437
       414   04 Jun 2027 15:15:40.485   04 Jun 2027 15:16:10.188            29.703                Anadyr2           928.219
       415   04 Jun 2027 15:16:18.990   04 Jun 2027 15:21:27.278           308.288               Magadan2          9634.000
       416   04 Jun 2027 15:21:27.278   04 Jun 2027 15:23:48.453           141.175               Magadan1          4411.719
       417   04 Jun 2027 16:51:30.201   04 Jun 2027 16:53:07.334            97.133               Magadan2          3035.406
       418   04 Jun 2027 17:45:07.556   04 Jun 2027 17:48:05.371           177.815            RioGallegos          5556.719
       419   04 Jun 2027 17:49:42.979   04 Jun 2027 17:51:14.625            91.646            RioGallegos          2863.938
       420   04 Jun 2027 18:27:10.385   04 Jun 2027 18:31:20.379           249.994                Norilsk          7812.313
       421   04 Jun 2027 18:31:58.992   04 Jun 2027 18:32:44.892            45.900                Irkutsk          1434.375
       422   04 Jun 2027 18:34:01.572   04 Jun 2027 18:36:43.078           161.506                Irkutsk          5047.063
       423   04 Jun 2027 18:46:43.289   04 Jun 2027 18:51:00.670           257.381                Sumatra          8043.156
       424   04 Jun 2027 18:53:24.339   04 Jun 2027 18:55:06.756           102.417                Sumatra          3200.531
       425   04 Jun 2027 20:14:22.768   04 Jun 2027 20:15:07.121            44.353                Novosib          1386.031
       426   04 Jun 2027 20:17:02.036   04 Jun 2027 20:19:16.779           134.743                  Delhi          4210.719
       427   04 Jun 2027 20:22:56.217   04 Jun 2027 20:23:38.224            42.007                  Delhi          1312.719
       428   04 Jun 2027 21:41:49.479   04 Jun 2027 21:45:41.089           231.610              Murmansk1          7237.813
       429   04 Jun 2027 21:46:13.684   04 Jun 2027 21:47:31.539            77.855              Murmansk2          2432.969
       430   04 Jun 2027 23:13:30.811   04 Jun 2027 23:15:22.688           111.877               Magadan1          3496.156
       431   04 Jun 2027 23:17:06.894   04 Jun 2027 23:18:39.064            92.170              Murmansk2          2880.312
       432   04 Jun 2027 23:18:46.991   04 Jun 2027 23:19:09.936            22.945              Murmansk1           717.031
       433   04 Jun 2027 23:20:33.714   04 Jun 2027 23:21:13.862            40.148              Murmansk2          1254.625
       434   04 Jun 2027 23:21:23.152   04 Jun 2027 23:22:32.816            69.664              Murmansk1          2177.000
       435   04 Jun 2027 23:22:33.890   04 Jun 2027 23:23:57.377            83.487                 Moscow          2608.969
       436   04 Jun 2027 23:28:40.487   04 Jun 2027 23:29:04.826            24.339                 Moscow           760.594
       437   04 Jun 2027 23:29:08.570   04 Jun 2027 23:29:14.935             6.365                 Moscow           198.906
       438   04 Jun 2027 23:46:41.262   04 Jun 2027 23:48:28.499           107.237               CapeTown          3351.156
       439   04 Jun 2027 23:50:59.560   04 Jun 2027 23:52:57.224           117.664               CapeTown          3677.000
       440   04 Jun 2027 23:53:46.094   04 Jun 2027 23:54:18.953            32.859               CapeTown          1026.844
       441   05 Jun 2027 00:53:02.341   05 Jun 2027 00:54:20.845            78.504              Murmansk2          2453.250
       442   05 Jun 2027 00:56:15.010   05 Jun 2027 00:57:04.055            49.045                 Moscow          1532.656
       443   05 Jun 2027 00:59:49.089   05 Jun 2027 01:00:04.789            15.700                 Moscow           490.625
       444   05 Jun 2027 01:08:00.738   05 Jun 2027 01:09:09.130            68.392                 Moscow          2137.250
       445   05 Jun 2027 01:23:51.079   05 Jun 2027 01:24:16.381            25.302               CapeTown           790.688
       446   05 Jun 2027 02:16:55.736   05 Jun 2027 02:18:19.685            83.949                Anadyr2          2623.406
       447   05 Jun 2027 02:18:32.509   05 Jun 2027 02:19:47.724            75.215               Magadan2          2350.469
       448   05 Jun 2027 02:21:14.784   05 Jun 2027 02:21:18.890             4.106               Magadan1           128.313
       449   05 Jun 2027 02:23:06.297   05 Jun 2027 02:23:32.369            26.072               Magadan1           814.750
       450   05 Jun 2027 02:25:26.694   05 Jun 2027 02:25:44.386            17.692                Norilsk           552.875
       451   05 Jun 2027 02:26:34.648   05 Jun 2027 02:26:38.719             4.071               Magadan1           127.219
       452   05 Jun 2027 02:28:58.796   05 Jun 2027 02:30:11.391            72.595              Murmansk1          2268.594
       453   05 Jun 2027 02:31:15.479   05 Jun 2027 02:31:54.972            39.493              Murmansk1          1234.156
       454   05 Jun 2027 02:32:25.086   05 Jun 2027 02:32:41.832            16.746                 Moscow           523.313
       455   05 Jun 2027 02:34:04.332   05 Jun 2027 02:34:52.048            47.716                 Moscow          1491.125
       456   05 Jun 2027 02:39:42.806   05 Jun 2027 02:39:49.580             6.774                 Moscow           211.688
       457   05 Jun 2027 02:40:02.968   05 Jun 2027 02:40:12.240             9.272                 Moscow           289.750
       458   05 Jun 2027 02:41:34.281   05 Jun 2027 02:41:46.255            11.974                 Moscow           374.188
       459   05 Jun 2027 03:00:49.531   05 Jun 2027 03:02:06.974            77.443               CapeTown          2420.094
       460   05 Jun 2027 04:00:05.879   05 Jun 2027 04:00:21.777            15.898               Magadan2           496.813
       461   05 Jun 2027 04:00:40.948   05 Jun 2027 04:03:44.941           183.993                Anadyr1          5749.781
       462   05 Jun 2027 04:03:55.658   05 Jun 2027 04:04:22.901            27.243               Magadan1           851.344
       463   05 Jun 2027 05:36:24.424   05 Jun 2027 05:39:31.763           187.339                Anadyr2          5854.344
       464   05 Jun 2027 05:39:39.292   05 Jun 2027 05:41:00.714            81.422               Magadan1          2544.437
       465   05 Jun 2027 05:41:41.512   05 Jun 2027 05:42:04.546            23.034              Murmansk1           719.812
       466   05 Jun 2027 05:42:44.484   05 Jun 2027 05:42:50.331             5.847                Norilsk           182.719
       467   05 Jun 2027 05:44:40.120   05 Jun 2027 05:45:04.333            24.213              Murmansk2           756.656
       468   05 Jun 2027 06:15:58.853   05 Jun 2027 06:20:01.509           242.656            RioGallegos          7583.000
       469   05 Jun 2027 06:20:43.079   05 Jun 2027 06:21:10.686            27.607            RioGallegos           862.719
       470   05 Jun 2027 06:21:49.013   05 Jun 2027 06:22:50.271            61.258            RioGallegos          1914.312
       471   05 Jun 2027 06:24:21.457   05 Jun 2027 06:25:09.350            47.893            RioGallegos          1496.656
       472   05 Jun 2027 06:25:22.167   05 Jun 2027 06:25:28.740             6.573            RioGallegos           205.406
       473   05 Jun 2027 06:52:21.560   05 Jun 2027 06:55:17.612           176.052                Sumatra          5501.625
       474   05 Jun 2027 06:58:54.917   05 Jun 2027 07:00:03.178            68.261                Sumatra          2133.156
       475   05 Jun 2027 07:11:46.435   05 Jun 2027 07:12:33.476            47.041                Irkutsk          1470.031
       476   05 Jun 2027 07:12:41.858   05 Jun 2027 07:13:03.503            21.645                Novosib           676.406
       477   05 Jun 2027 07:13:19.557   05 Jun 2027 07:14:09.633            50.076                Novosib          1564.875
       478   05 Jun 2027 07:14:16.284   05 Jun 2027 07:14:22.201             5.917              Murmansk2           184.906
       479   05 Jun 2027 07:14:22.201   05 Jun 2027 07:14:34.482            12.281              Murmansk1           383.781
       480   05 Jun 2027 07:14:42.407   05 Jun 2027 07:15:46.469            64.062                Norilsk          2001.937
       481   05 Jun 2027 07:15:49.955   05 Jun 2027 07:16:20.343            30.388              Murmansk2           949.625
       482   05 Jun 2027 07:16:20.343   05 Jun 2027 07:16:37.522            17.179              Murmansk1           536.844
