uniorb/output/strategy_2/Drop/Drop_KinoSat_110504.txt

KinoSat_110504
-------------------------
    Access    *     Start Time (UTCG)     *     Stop Time (UTCG)  *   Duration (s)        *       Station  *  Data (Mbytes)
         1   01 Jun 2027 03:55:05.690   01 Jun 2027 03:56:36.886            91.196               Magadan1          5680.000
         2   01 Jun 2027 03:56:38.112   01 Jun 2027 03:56:52.465            14.353               Magadan1           613.000
         3   01 Jun 2027 03:56:59.315   01 Jun 2027 03:57:52.722            53.407               Magadan2          3425.000
         4   01 Jun 2027 03:57:54.720   01 Jun 2027 03:58:07.571            12.851               Magadan2           999.000
         5   01 Jun 2027 03:58:15.391   01 Jun 2027 03:58:51.849            36.458                Irkutsk          3910.000
         6   01 Jun 2027 03:58:55.338   01 Jun 2027 03:59:12.608            17.270                Norilsk          1744.500
         7   01 Jun 2027 03:59:14.867   01 Jun 2027 03:59:42.843            27.976                Norilsk          1129.500
         8   01 Jun 2027 03:59:45.577   01 Jun 2027 04:00:17.940            32.363                Anadyr2          1367.000
         9   01 Jun 2027 04:00:19.656   01 Jun 2027 04:00:30.734            11.078                Novosib           858.000
        10   01 Jun 2027 04:00:32.962   01 Jun 2027 04:00:59.629            26.667                Anadyr1          1114.000
        11   01 Jun 2027 04:01:05.015   01 Jun 2027 04:01:58.770            53.755               Magadan2          2693.000
        12   01 Jun 2027 04:01:59.175   01 Jun 2027 04:02:21.362            22.187               Magadan2           202.500
        13   01 Jun 2027 04:02:27.996   01 Jun 2027 04:02:58.843            30.847               Magadan1          3317.000
        14   01 Jun 2027 04:03:20.289   01 Jun 2027 04:03:24.154             3.865                Norilsk           483.125
        15   01 Jun 2027 04:03:25.125   01 Jun 2027 04:03:58.506            33.381              Murmansk2          3513.875
        16   01 Jun 2027 05:32:44.561   01 Jun 2027 05:32:56.463            11.902               Magadan2           813.500
        17   01 Jun 2027 05:33:10.221   01 Jun 2027 05:33:33.652            23.431                Novosib          2928.875
        18   01 Jun 2027 05:33:39.190   01 Jun 2027 05:34:34.471            55.281                Norilsk          6719.125
        19   01 Jun 2027 05:34:39.562   01 Jun 2027 05:35:15.880            36.318               Magadan2          2545.500
        20   01 Jun 2027 05:35:16.175   01 Jun 2027 05:35:37.692            21.517               Magadan2           147.500
        21   01 Jun 2027 05:35:37.974   01 Jun 2027 05:36:33.405            55.431               Magadan2           141.000
        22   01 Jun 2027 05:36:37.306   01 Jun 2027 05:36:43.180             5.874                Norilsk           734.250
        23   01 Jun 2027 05:36:44.839   01 Jun 2027 05:37:09.576            24.737                Novosib          2045.750
        24   01 Jun 2027 05:37:17.567   01 Jun 2027 05:38:08.425            50.858               Magadan2          3995.500
        25   01 Jun 2027 05:38:13.824   01 Jun 2027 05:38:52.387            38.563              Murmansk2          2699.500
        26   01 Jun 2027 05:39:11.890   01 Jun 2027 05:40:56.792           104.902              Murmansk2          9751.500
        27   01 Jun 2027 07:09:41.309   01 Jun 2027 07:10:43.073            61.764                Irkutsk          6959.000
        28   01 Jun 2027 07:10:48.629   01 Jun 2027 07:11:21.438            32.809                Norilsk          2778.000
        29   01 Jun 2027 07:11:29.978   01 Jun 2027 07:12:22.200            52.222                Norilsk          4270.000
        30   01 Jun 2027 07:12:24.873   01 Jun 2027 07:12:49.018            24.145              Murmansk2          1336.500
        31   01 Jun 2027 07:12:55.080   01 Jun 2027 07:13:43.001            47.921              Murmansk2          3031.000
        32   01 Jun 2027 07:13:44.428   01 Jun 2027 07:14:08.278            23.850              Murmansk2           713.500
        33   01 Jun 2027 07:14:13.144   01 Jun 2027 07:15:17.028            63.884              Murmansk2          2433.000
        34   01 Jun 2027 07:15:18.533   01 Jun 2027 07:15:41.321            22.788              Murmansk1           752.500
        35   01 Jun 2027 07:15:42.666   01 Jun 2027 07:16:37.185            54.519              Murmansk2           672.500
        36   01 Jun 2027 08:47:36.584   01 Jun 2027 08:47:48.655            12.071              Murmansk1           874.500
        37   01 Jun 2027 08:48:04.505   01 Jun 2027 08:49:37.665            93.160                Norilsk          7925.000
        38   01 Jun 2027 08:49:38.413   01 Jun 2027 08:49:59.408            20.995                 Moscow           374.000
        39   01 Jun 2027 08:50:06.051   01 Jun 2027 08:50:36.111            30.060                 Moscow          3321.500
        40   01 Jun 2027 08:50:48.260   01 Jun 2027 08:51:48.997            60.737              Murmansk1          6074.500
        41   01 Jun 2027 10:21:36.496   01 Jun 2027 10:22:20.649            44.153                 Moscow          5295.000
        42   01 Jun 2027 10:22:50.172   01 Jun 2027 10:24:52.848           122.676              Murmansk2         14761.500
        43   01 Jun 2027 10:24:59.275   01 Jun 2027 10:25:47.226            47.951              Murmansk2          3213.500
        44   01 Jun 2027 10:25:53.629   01 Jun 2027 10:27:04.661            71.032                Norilsk          3201.500
        45   01 Jun 2027 10:27:08.377   01 Jun 2027 10:27:35.668            27.291                Norilsk          1858.000
        46   01 Jun 2027 10:27:37.421   01 Jun 2027 10:27:45.728             8.307                 Moscow           876.500
        47   02 Jun 2027 04:07:43.894   02 Jun 2027 04:08:40.500            56.606               Magadan1           584.000
        48   02 Jun 2027 04:08:48.265   02 Jun 2027 04:09:34.756            46.491               Magadan2          3882.500
        49   02 Jun 2027 04:09:38.674   02 Jun 2027 04:10:26.280            47.606               Magadan2          1959.000
        50   02 Jun 2027 04:10:37.843   02 Jun 2027 04:11:58.306            80.463               Magadan1          5781.500
        51   02 Jun 2027 04:12:01.239   02 Jun 2027 04:12:18.086            16.847               Magadan1          1466.500
        52   02 Jun 2027 04:12:20.617   02 Jun 2027 04:12:57.837            37.220               Magadan2          1265.500
        53   02 Jun 2027 04:13:01.143   02 Jun 2027 04:13:20.666            19.523                Anadyr1          1653.000
        54   02 Jun 2027 04:13:22.639   02 Jun 2027 04:14:02.655            40.016                Norilsk           986.500
        55   02 Jun 2027 04:14:14.428   02 Jun 2027 04:14:55.392            40.964                Novosib          5120.500
        56   02 Jun 2027 04:14:57.702   02 Jun 2027 04:15:21.825            24.123                Anadyr1          1921.000
        57   02 Jun 2027 04:15:26.660   02 Jun 2027 04:15:52.272            25.612               Magadan1          2417.500
        58   02 Jun 2027 04:15:57.628   02 Jun 2027 04:16:11.518            13.890                Novosib          1736.250
        59   02 Jun 2027 04:16:19.456   02 Jun 2027 04:17:10.767            51.311              Murmansk1          1501.750
        60   02 Jun 2027 05:44:59.216   02 Jun 2027 05:45:36.507            37.291                Irkutsk          4661.375
        61   02 Jun 2027 05:45:42.986   02 Jun 2027 05:46:41.271            58.285               Magadan1          3516.125
        62   02 Jun 2027 05:46:45.840   02 Jun 2027 05:47:05.065            19.225               Magadan1          2284.500
        63   02 Jun 2027 05:47:06.107   02 Jun 2027 05:47:21.116            15.009               Magadan1           521.000
        64   02 Jun 2027 05:47:28.628   02 Jun 2027 05:47:34.978             6.350                Norilsk           793.750
        65   02 Jun 2027 05:47:41.882   02 Jun 2027 05:48:19.362            37.480                Irkutsk          4685.000
        66   02 Jun 2027 05:48:20.536   02 Jun 2027 05:48:44.198            23.662                Norilsk          2316.250
        67   02 Jun 2027 05:48:47.709   02 Jun 2027 05:49:12.550            24.841               Magadan2          1755.500
        68   02 Jun 2027 05:49:16.293   02 Jun 2027 05:49:31.327            15.034                Irkutsk          1871.500
        69   02 Jun 2027 05:49:39.580   02 Jun 2027 05:50:15.793            36.213              Murmansk2          4126.500
        70   02 Jun 2027 05:50:35.599   02 Jun 2027 05:51:56.852            81.253                Norilsk          9903.000
        71   02 Jun 2027 05:52:05.879   02 Jun 2027 05:52:48.173            42.294                Norilsk          4513.500
        72   02 Jun 2027 07:21:57.218   02 Jun 2027 07:22:50.560            53.342                Irkutsk          2782.000
        73   02 Jun 2027 07:22:51.074   02 Jun 2027 07:23:37.961            46.887                Novosib           257.000
        74   02 Jun 2027 07:23:44.378   02 Jun 2027 07:24:26.189            41.811              Murmansk2          3208.500
        75   02 Jun 2027 07:24:33.885   02 Jun 2027 07:25:15.154            41.269                Novosib          3848.000
        76   02 Jun 2027 07:25:32.303   02 Jun 2027 07:27:09.379            97.076              Murmansk2          8574.500
        77   02 Jun 2027 07:27:09.529   02 Jun 2027 07:27:12.254             2.725                Novosib            75.000
        78   02 Jun 2027 07:27:24.230   02 Jun 2027 07:27:40.510            16.280                Irkutsk          2035.000
        79   02 Jun 2027 07:27:41.806   02 Jun 2027 07:29:15.041            93.235                 Moscow          4601.000
        80   02 Jun 2027 08:58:55.104   02 Jun 2027 08:59:30.812            35.708                Norilsk          3106.500
        81   02 Jun 2027 08:59:31.818   02 Jun 2027 09:00:02.304            30.486                Norilsk           503.000
        82   02 Jun 2027 09:00:22.323   02 Jun 2027 09:01:19.893            57.570                Norilsk          7196.250
        83   02 Jun 2027 09:01:35.094   02 Jun 2027 09:03:23.950           108.856                Novosib         10413.750
        84   02 Jun 2027 09:03:33.450   02 Jun 2027 09:04:38.942            65.492                 Moscow          4750.000
        85   02 Jun 2027 10:34:10.651   02 Jun 2027 10:35:33.652            83.001              Murmansk1          9011.500
        86   02 Jun 2027 10:35:35.588   02 Jun 2027 10:36:32.666            57.078                 Moscow           968.000
        87   02 Jun 2027 10:36:38.771   02 Jun 2027 10:37:06.990            28.219              Murmansk2          3052.500
        88   02 Jun 2027 10:37:29.320   02 Jun 2027 10:39:04.137            94.817                 Moscow         11165.000
        89   03 Jun 2027 04:19:44.643   03 Jun 2027 04:20:24.376            39.733               Magadan1          1704.500
        90   03 Jun 2027 04:20:26.114   03 Jun 2027 04:20:43.148            17.034               Magadan2           869.000
        91   03 Jun 2027 04:20:55.117   03 Jun 2027 04:21:57.902            62.785                Irkutsk          5984.500
        92   03 Jun 2027 04:22:14.879   03 Jun 2027 04:23:00.610            45.731                Norilsk          5716.375
        93   03 Jun 2027 04:23:01.237   03 Jun 2027 04:23:43.428            42.191                Irkutsk          3085.625
        94   03 Jun 2027 04:23:50.208   03 Jun 2027 04:24:32.059            41.851               Magadan2          3390.000
        95   03 Jun 2027 04:24:37.701   03 Jun 2027 04:25:10.146            32.445                Norilsk          2821.000
        96   03 Jun 2027 04:25:17.212   03 Jun 2027 04:26:10.573            53.361               Magadan1          3533.000
        97   03 Jun 2027 04:26:14.266   03 Jun 2027 04:26:32.210            17.944               Magadan1          1846.500
        98   03 Jun 2027 04:26:38.381   03 Jun 2027 04:27:26.938            48.557               Magadan1          3085.500
        99   03 Jun 2027 04:27:30.600   03 Jun 2027 04:27:47.494            16.894               Magadan2          1831.000
       100   03 Jun 2027 04:27:51.826   03 Jun 2027 04:28:01.351             9.525                Novosib          1190.625
       101   03 Jun 2027 04:28:01.534   03 Jun 2027 04:28:15.764            14.230              Murmansk1          1066.875
       102   03 Jun 2027 05:57:20.516   03 Jun 2027 05:57:44.246            23.730                Norilsk          2701.500
       103   03 Jun 2027 05:57:49.572   03 Jun 2027 05:58:24.217            34.645                Norilsk          2663.000
       104   03 Jun 2027 05:58:24.873   03 Jun 2027 05:59:06.697            41.824                Irkutsk           328.000
       105   03 Jun 2027 05:59:07.270   03 Jun 2027 05:59:13.403             6.133                Novosib           286.500
       106   03 Jun 2027 05:59:15.986   03 Jun 2027 05:59:35.838            19.852                Norilsk          1291.500
       107   03 Jun 2027 05:59:46.985   03 Jun 2027 06:00:35.181            48.196                Norilsk          5573.500
       108   03 Jun 2027 06:00:45.418   03 Jun 2027 06:01:38.806            53.388                Norilsk          5118.500
       109   03 Jun 2027 06:01:39.020   03 Jun 2027 06:02:34.485            55.465                Irkutsk           107.000
       110   03 Jun 2027 06:02:36.252   03 Jun 2027 06:03:03.995            27.743                Norilsk           883.500
       111   03 Jun 2027 06:03:13.073   03 Jun 2027 06:03:26.484            13.411                Novosib          1676.375
       112   03 Jun 2027 06:03:27.020   03 Jun 2027 06:03:53.868            26.848                Irkutsk          3130.625
       113   03 Jun 2027 06:04:07.375   03 Jun 2027 06:04:48.389            41.014                Norilsk          1715.000
       114   03 Jun 2027 07:34:37.333   03 Jun 2027 07:36:43.357           126.024                Norilsk         14099.500
       115   03 Jun 2027 07:36:51.710   03 Jun 2027 07:37:36.185            44.475              Murmansk1          4176.500
       116   03 Jun 2027 07:37:44.013   03 Jun 2027 07:38:17.193            33.180              Murmansk1          3914.000
       117   03 Jun 2027 07:38:19.582   03 Jun 2027 07:39:02.480            42.898              Murmansk1          1194.500
       118   03 Jun 2027 07:39:15.806   03 Jun 2027 07:39:30.940            15.134                Irkutsk          1891.750
       119   03 Jun 2027 07:39:34.414   03 Jun 2027 07:40:17.041            42.627              Murmansk2          5328.375
       120   03 Jun 2027 07:40:17.041   03 Jun 2027 07:40:33.209            16.168              Murmansk1          1179.875
       121   03 Jun 2027 09:11:03.158   03 Jun 2027 09:11:47.684            44.526                Novosib           220.500
       122   03 Jun 2027 09:11:51.404   03 Jun 2027 09:12:15.959            24.555              Murmansk2          1860.000
       123   03 Jun 2027 09:12:20.613   03 Jun 2027 09:13:39.959            79.346                Norilsk          2327.000
       124   03 Jun 2027 09:13:41.128   03 Jun 2027 09:14:16.398            35.270                Norilsk           584.500
       125   03 Jun 2027 09:14:16.886   03 Jun 2027 09:14:22.813             5.927              Murmansk2           244.000
       126   03 Jun 2027 09:14:32.507   03 Jun 2027 09:15:36.283            63.776              Murmansk2          4847.000
       127   03 Jun 2027 10:48:44.141   03 Jun 2027 10:49:28.736            44.595                 Moscow           901.000
       128   03 Jun 2027 10:49:30.384   03 Jun 2027 10:49:38.739             8.355              Murmansk1           824.000
       129   03 Jun 2027 10:50:01.235   03 Jun 2027 10:51:47.262           106.027                 Moscow         11248.000
       130   04 Jun 2027 03:00:08.051   04 Jun 2027 03:01:07.505            59.454                Norilsk          4025.500
       131   04 Jun 2027 03:01:09.888   04 Jun 2027 03:02:03.970            54.082               Magadan2          1191.500
       132   04 Jun 2027 04:33:12.841   04 Jun 2027 04:33:33.219            20.378               Magadan2          1468.500
       133   04 Jun 2027 04:33:52.153   04 Jun 2027 04:35:41.328           109.175               Magadan1          9467.000
       134   04 Jun 2027 04:35:45.907   04 Jun 2027 04:36:35.017            49.110               Magadan1          2289.500
       135   04 Jun 2027 04:36:37.021   04 Jun 2027 04:37:42.553            65.532                Irkutsk          1002.000
       136   04 Jun 2027 04:37:44.606   04 Jun 2027 04:38:01.235            16.629                Norilsk          1026.500
       137   04 Jun 2027 04:38:09.280   04 Jun 2027 04:38:32.598            23.318                Novosib          2914.750
       138   04 Jun 2027 04:38:32.749   04 Jun 2027 04:39:12.863            40.114               Magadan2          1183.250
       139   04 Jun 2027 04:39:13.781   04 Jun 2027 04:39:19.191             5.410               Magadan1           459.000
       140   04 Jun 2027 04:39:24.089   04 Jun 2027 04:40:04.044            39.955               Magadan1          2449.000
       141   04 Jun 2027 04:40:05.490   04 Jun 2027 04:40:15.654            10.164                Norilsk           723.000
       142   04 Jun 2027 06:09:34.168   04 Jun 2027 06:10:21.392            47.224                Novosib          5838.000
       143   04 Jun 2027 06:11:04.757   04 Jun 2027 06:14:06.754           181.997                Irkutsk         21682.500
       144   04 Jun 2027 06:14:07.342   04 Jun 2027 06:14:17.235             9.893                Norilsk           294.000
       145   04 Jun 2027 06:14:24.183   04 Jun 2027 06:15:11.059            46.876                Irkutsk          3474.000
       146   04 Jun 2027 06:15:11.451   04 Jun 2027 06:15:20.700             9.249                Novosib           196.000
       147   04 Jun 2027 06:15:21.077   04 Jun 2027 06:15:39.061            17.984                Norilsk           188.500
       148   04 Jun 2027 06:15:39.397   04 Jun 2027 06:15:41.246             1.849                Novosib           168.000
       149   04 Jun 2027 06:15:47.753   04 Jun 2027 06:16:20.587            32.834              Murmansk2          3253.500
       150   04 Jun 2027 07:47:06.665   04 Jun 2027 07:48:05.758            59.093                 Moscow           436.500
       151   04 Jun 2027 07:48:06.559   04 Jun 2027 07:48:29.842            23.283                Novosib           400.500
       152   04 Jun 2027 07:48:32.135   04 Jun 2027 07:48:47.364            15.229                Norilsk          1146.500
       153   04 Jun 2027 07:48:48.150   04 Jun 2027 07:49:19.516            31.366                Novosib           393.000
       154   04 Jun 2027 07:49:31.836   04 Jun 2027 07:50:34.344            62.508                Novosib          6160.000
       155   04 Jun 2027 07:50:36.232   04 Jun 2027 07:51:41.125            64.893                 Moscow           944.000
       156   04 Jun 2027 09:23:15.099   04 Jun 2027 09:23:41.306            26.207              Murmansk1          1511.500
       157   04 Jun 2027 09:23:52.031   04 Jun 2027 09:24:41.085            49.054                Novosib          5362.500
       158   04 Jun 2027 09:24:48.395   04 Jun 2027 09:25:56.072            67.677              Murmansk1          3655.000
       159   04 Jun 2027 09:26:10.393   04 Jun 2027 09:27:29.020            78.627              Murmansk2          7160.500
       160   04 Jun 2027 09:27:34.483   04 Jun 2027 09:28:15.010            40.527                Novosib          2493.500
       161   05 Jun 2027 03:10:27.888   05 Jun 2027 03:11:01.193            33.305                Irkutsk          2753.500
       162   05 Jun 2027 03:11:02.402   05 Jun 2027 03:11:09.387             6.985                Anadyr2           604.500
       163   05 Jun 2027 03:11:12.034   05 Jun 2027 03:11:42.666            30.632                Anadyr1          1323.500
       164   05 Jun 2027 03:11:43.607   05 Jun 2027 03:12:22.029            38.422                Irkutsk           470.500
       165   05 Jun 2027 03:12:26.081   05 Jun 2027 03:12:55.905            29.824                Norilsk          2026.000
       166   05 Jun 2027 03:12:56.692   05 Jun 2027 03:13:12.477            15.785               Magadan2           393.500
       167   05 Jun 2027 03:13:21.569   05 Jun 2027 03:13:57.282            35.713               Magadan2          4464.125
       168   05 Jun 2027 03:13:57.282   05 Jun 2027 03:14:20.578            23.296               Magadan1            81.875
       169   05 Jun 2027 04:45:32.603   05 Jun 2027 04:46:17.830            45.227                Norilsk            87.500
       170   05 Jun 2027 04:46:18.567   05 Jun 2027 04:46:46.048            27.481               Magadan2           368.500
       171   05 Jun 2027 04:46:50.084   05 Jun 2027 04:47:11.816            21.732               Magadan1          2018.000
       172   05 Jun 2027 04:47:13.214   05 Jun 2027 04:47:23.307            10.093                Irkutsk           699.000
       173   05 Jun 2027 04:47:25.751   05 Jun 2027 04:47:53.482            27.731               Magadan1          1222.000
       174   05 Jun 2027 04:48:14.143   05 Jun 2027 04:49:49.808            95.665                Novosib         10330.500
       175   05 Jun 2027 04:49:55.181   05 Jun 2027 04:50:37.470            42.289                Norilsk          2686.500
       176   05 Jun 2027 04:50:37.630   05 Jun 2027 04:50:42.983             5.353               Magadan2            80.000
       177   05 Jun 2027 04:50:44.785   05 Jun 2027 04:51:08.415            23.630              Murmansk1           901.000
       178   05 Jun 2027 04:51:23.601   05 Jun 2027 04:51:57.222            33.621               Magadan1          4202.625
       179   05 Jun 2027 04:52:02.465   05 Jun 2027 04:52:15.851            13.386                Norilsk          1673.250
       180   05 Jun 2027 04:52:21.028   05 Jun 2027 04:52:57.109            36.081              Murmansk2          4338.625
       181   05 Jun 2027 06:22:09.074   05 Jun 2027 06:22:54.951            45.877                Norilsk          5672.500
       182   05 Jun 2027 06:23:01.559   05 Jun 2027 06:23:36.725            35.166                Irkutsk          3304.000
       183   05 Jun 2027 06:23:49.133   05 Jun 2027 06:24:55.926            66.793                Norilsk          6204.000
       184   05 Jun 2027 06:25:02.758   05 Jun 2027 06:25:50.414            47.656              Murmansk2          3416.000
       185   05 Jun 2027 06:25:52.498   05 Jun 2027 06:26:05.193            12.695                Norilsk          1042.000
       186   05 Jun 2027 06:26:09.694   05 Jun 2027 06:26:44.370            34.676                Novosib          2250.500
       187   05 Jun 2027 06:26:59.057   05 Jun 2027 06:28:10.759            71.702                Novosib          7343.500
       188   05 Jun 2027 07:59:22.450   05 Jun 2027 08:00:53.931            91.481                Irkutsk          5002.500
       189   05 Jun 2027 08:00:54.281   05 Jun 2027 08:01:21.691            27.410              Murmansk2           175.000
       190   05 Jun 2027 08:01:31.627   05 Jun 2027 08:02:50.887            79.260              Murmansk1          4968.000
       191   05 Jun 2027 08:02:55.939   05 Jun 2027 08:03:22.627            26.688              Murmansk2          2526.000
       192   05 Jun 2027 08:03:35.354   05 Jun 2027 08:04:31.719            56.365                Novosib          6363.500
       193   05 Jun 2027 09:35:32.022   05 Jun 2027 09:36:04.945            32.923              Murmansk1          2566.000
       194   05 Jun 2027 09:36:07.912   05 Jun 2027 09:36:45.242            37.330                 Moscow          1483.500
       195   05 Jun 2027 09:36:45.788   05 Jun 2027 09:37:39.916            54.128                Norilsk           273.000
       196   05 Jun 2027 09:37:40.269   05 Jun 2027 09:38:20.461            40.192                Novosib           176.500
       197   05 Jun 2027 09:38:28.210   05 Jun 2027 09:39:22.849            54.639              Murmansk1          3874.500
       198   05 Jun 2027 09:39:23.186   05 Jun 2027 09:39:54.378            31.192                Novosib           168.500
       199   05 Jun 2027 09:39:55.176   05 Jun 2027 09:40:05.587            10.411                Norilsk           399.000
       200   05 Jun 2027 09:40:09.680   05 Jun 2027 09:40:21.890            12.210                 Moscow          1526.250
       201   05 Jun 2027 09:40:28.772   05 Jun 2027 09:40:57.580            28.808              Murmansk2            82.750
       202   06 Jun 2027 03:22:19.778   06 Jun 2027 03:22:42.061            22.283               Magadan1          2242.500
       203   06 Jun 2027 03:22:43.885   06 Jun 2027 03:22:58.233            14.348                Anadyr2           912.000
       204   06 Jun 2027 03:23:01.086   06 Jun 2027 03:23:13.455            12.369                Anadyr2          1426.500
       205   06 Jun 2027 03:23:23.499   06 Jun 2027 03:24:08.322            44.823               Magadan1          5022.000
       206   06 Jun 2027 03:24:11.206   06 Jun 2027 03:24:35.337            24.131               Magadan2          1442.000
       207   06 Jun 2027 03:24:43.884   06 Jun 2027 03:25:53.731            69.847                Irkutsk          4273.500
       208   06 Jun 2027 03:25:58.452   06 Jun 2027 03:27:07.978            69.526                Anadyr2          2360.500
       209   06 Jun 2027 04:57:11.586   06 Jun 2027 04:57:27.790            16.204                Novosib            76.500
       210   06 Jun 2027 04:57:57.739   06 Jun 2027 05:00:40.975           163.236               Magadan2         14974.500
       211   06 Jun 2027 05:00:41.101   06 Jun 2027 05:01:36.058            54.957                Irkutsk            63.000
       212   06 Jun 2027 05:01:44.758   06 Jun 2027 05:02:28.068            43.310                Norilsk          4350.000
       213   06 Jun 2027 05:02:35.998   06 Jun 2027 05:03:35.336            59.338              Murmansk1          3965.000
       214   06 Jun 2027 05:03:37.423   06 Jun 2027 05:04:04.755            27.332              Murmansk2          1043.500
       215   06 Jun 2027 05:04:05.858   06 Jun 2027 05:04:15.761             9.903                Norilsk           551.500
       216   06 Jun 2027 05:04:16.325   06 Jun 2027 05:04:36.313            19.988                Norilsk           282.000
       217   06 Jun 2027 06:34:07.035   06 Jun 2027 06:36:46.894           159.859                Novosib         18416.000
       218   06 Jun 2027 06:36:49.258   06 Jun 2027 06:37:14.535            25.277                Irkutsk          1182.000
       219   06 Jun 2027 06:37:15.226   06 Jun 2027 06:37:56.194            40.968                Novosib           345.500
       220   06 Jun 2027 06:37:56.561   06 Jun 2027 06:38:03.522             6.961                Norilsk           183.500
       221   06 Jun 2027 06:38:04.266   06 Jun 2027 06:38:26.200            21.934                Irkutsk           372.000
       222   06 Jun 2027 06:38:30.115   06 Jun 2027 06:39:00.872            30.757                Norilsk          1957.500
       223   06 Jun 2027 06:39:01.482   06 Jun 2027 06:39:43.969            42.487              Murmansk1           305.000
       224   06 Jun 2027 06:39:48.714   06 Jun 2027 06:40:40.092            51.378                Novosib          2372.500
       225   06 Jun 2027 08:11:51.291   06 Jun 2027 08:12:10.545            19.254                Norilsk          2406.750
       226   06 Jun 2027 08:12:11.114   06 Jun 2027 08:12:28.507            17.393              Murmansk2           734.250
       227   06 Jun 2027 08:12:31.176   06 Jun 2027 08:13:04.954            33.778                 Moscow          1334.500
       228   06 Jun 2027 08:13:05.231   06 Jun 2027 08:13:11.444             6.213              Murmansk2           138.500
       229   06 Jun 2027 08:13:19.444   06 Jun 2027 08:14:06.189            46.745                Irkutsk          4000.000
       230   06 Jun 2027 08:14:07.826   06 Jun 2027 08:14:26.116            18.290                Irkutsk           818.500
       231   06 Jun 2027 08:14:27.573   06 Jun 2027 08:14:58.529            30.956                Novosib           728.500
       232   06 Jun 2027 08:15:06.452   06 Jun 2027 08:15:42.685            36.233                 Moscow          3961.500
       233   06 Jun 2027 09:47:21.866   06 Jun 2027 09:48:51.721            89.855              Murmansk2          8058.500
       234   06 Jun 2027 09:48:53.590   06 Jun 2027 09:49:16.094            22.504              Murmansk2           934.500
       235   06 Jun 2027 09:49:31.141   06 Jun 2027 09:51:11.096            99.955              Murmansk2          7523.500
       236   06 Jun 2027 09:51:17.832   06 Jun 2027 09:51:47.240            29.408              Murmansk2          3020.500
       237   06 Jun 2027 09:51:51.129   06 Jun 2027 09:52:11.382            20.253                Norilsk          1944.500
       238   06 Jun 2027 09:52:12.724   06 Jun 2027 09:52:33.013            20.289                Norilsk           671.000
       239   06 Jun 2027 09:52:36.289   06 Jun 2027 09:53:24.350            48.061                Norilsk          1638.000
       240   07 Jun 2027 03:32:42.289   07 Jun 2027 03:33:38.641            56.352                Irkutsk          4163.500
       241   07 Jun 2027 03:34:01.941   07 Jun 2027 03:34:20.594            18.653               Magadan2          1380.000
       242   07 Jun 2027 03:34:21.453   07 Jun 2027 03:34:44.845            23.392               Magadan2           429.500
       243   07 Jun 2027 03:34:50.192   07 Jun 2027 03:35:03.860            13.668                Irkutsk          1708.500
       244   07 Jun 2027 03:35:04.150   07 Jun 2027 03:35:21.153            17.003               Magadan2          1110.000
       245   07 Jun 2027 03:35:23.288   07 Jun 2027 03:36:12.267            48.979               Magadan1          1067.500
       246   07 Jun 2027 03:36:17.596   07 Jun 2027 03:37:12.963            55.367                Anadyr1          2664.500
       247   07 Jun 2027 03:37:13.905   07 Jun 2027 03:37:25.313            11.408                Anadyr2           471.000
       248   07 Jun 2027 03:37:35.946   07 Jun 2027 03:39:09.375            93.429                Anadyr2          5316.500
       249   07 Jun 2027 05:08:47.175   07 Jun 2027 05:08:58.414            11.239                Norilsk          1202.000
       250   07 Jun 2027 05:09:03.632   07 Jun 2027 05:09:25.713            22.081               Magadan2          2609.000
       251   07 Jun 2027 05:09:55.990   07 Jun 2027 05:11:48.584           112.594                Norilsk         14074.250
       252   07 Jun 2027 05:11:55.671   07 Jun 2027 05:12:32.680            37.009                Irkutsk          4607.750
       253   07 Jun 2027 05:12:37.514   07 Jun 2027 05:13:40.138            62.624                Novosib          2417.000
       254   07 Jun 2027 05:13:49.594   07 Jun 2027 05:14:43.638            54.044               Magadan2          4728.000
       255   07 Jun 2027 05:14:46.767   07 Jun 2027 05:15:07.337            20.570               Magadan2          1564.500
       256   07 Jun 2027 05:15:14.542   07 Jun 2027 05:16:05.269            50.727                Norilsk          3602.500
       257   07 Jun 2027 05:16:17.060   07 Jun 2027 05:17:29.381            72.321                Norilsk          5895.500
       258   07 Jun 2027 06:46:10.986   07 Jun 2027 06:47:41.168            90.182                Norilsk         10761.000
       259   07 Jun 2027 06:47:46.832   07 Jun 2027 06:48:21.866            35.034                Norilsk          2832.000
       260   07 Jun 2027 06:48:35.233   07 Jun 2027 06:49:11.515            36.282                Norilsk          4535.250
       261   07 Jun 2027 06:49:12.143   07 Jun 2027 06:49:43.361            31.218              Murmansk2          2462.250
       262   07 Jun 2027 06:49:45.610   07 Jun 2027 06:49:50.635             5.025                Norilsk           628.125
       263   07 Jun 2027 06:49:58.887   07 Jun 2027 06:50:36.998            38.111                Irkutsk          4622.375
       264   07 Jun 2027 06:50:42.255   07 Jun 2027 06:52:26.140           103.885                Novosib          2628.500
       265   07 Jun 2027 08:24:00.347   07 Jun 2027 08:24:55.577            55.230                Norilsk          5897.000
       266   07 Jun 2027 08:24:56.327   07 Jun 2027 08:24:58.284             1.957              Murmansk2           244.625
       267   07 Jun 2027 08:24:58.284   07 Jun 2027 08:25:01.882             3.598              Murmansk1           130.375
       268   07 Jun 2027 08:25:06.476   07 Jun 2027 08:25:35.526            29.050                Novosib          2297.000
       269   07 Jun 2027 08:25:36.745   07 Jun 2027 08:25:50.431            13.686                Irkutsk           609.500
       270   07 Jun 2027 08:26:01.093   07 Jun 2027 08:27:00.199            59.106                Norilsk          5331.000
       271   07 Jun 2027 08:27:06.572   07 Jun 2027 08:27:43.363            36.791              Murmansk2          3186.500
       272   07 Jun 2027 08:27:47.561   07 Jun 2027 08:28:09.156            21.595                Norilsk            84.000
       273   07 Jun 2027 09:57:28.838   07 Jun 2027 09:59:47.912           139.074                 Moscow         15672.500
       274   07 Jun 2027 09:59:56.682   07 Jun 2027 10:00:53.399            56.717              Murmansk1          4385.000
       275   07 Jun 2027 10:00:54.302   07 Jun 2027 10:01:17.288            22.986              Murmansk2           451.500
       276   07 Jun 2027 10:01:18.402   07 Jun 2027 10:01:28.502            10.100              Murmansk1           557.000
       277   07 Jun 2027 10:01:35.605   07 Jun 2027 10:02:13.992            38.387              Murmansk1          3551.500
       278   07 Jun 2027 10:02:13.998   07 Jun 2027 10:02:33.102            19.104              Murmansk2             3.000
       279   07 Jun 2027 10:02:53.043   07 Jun 2027 10:03:15.332            22.289                Novosib          2786.125
       280   07 Jun 2027 10:03:27.897   07 Jun 2027 10:05:39.473           131.576              Murmansk1         12732.875
       281   08 Jun 2027 03:43:52.428   08 Jun 2027 03:44:52.493            60.065               Magadan2          5965.000
       282   08 Jun 2027 03:44:59.334   08 Jun 2027 03:45:35.743            36.409               Magadan1          3420.500
       283   08 Jun 2027 03:45:51.993   08 Jun 2027 03:47:06.974            74.981                Anadyr1          4206.000
       284   08 Jun 2027 03:47:12.393   08 Jun 2027 03:48:53.828           101.435                Irkutsk          2709.500
       285   08 Jun 2027 03:48:55.015   08 Jun 2027 03:49:19.603            24.588                Norilsk           593.500
       286   08 Jun 2027 03:49:19.968   08 Jun 2027 03:50:18.958            58.990                Irkutsk           182.500
       287   08 Jun 2027 03:50:19.700   08 Jun 2027 03:50:41.311            21.611                Norilsk           371.000
       288   08 Jun 2027 03:50:45.273   08 Jun 2027 03:51:09.548            24.275                Novosib          1886.000
       289   08 Jun 2027 03:51:36.439   08 Jun 2027 03:52:12.584            36.145              Murmansk1           661.500
       290   08 Jun 2027 05:21:03.924   08 Jun 2027 05:21:11.093             7.169               Magadan2           747.000
       291   08 Jun 2027 05:21:21.581   08 Jun 2027 05:22:04.872            43.291                Norilsk          5244.000
       292   08 Jun 2027 05:22:14.867   08 Jun 2027 05:22:55.639            40.772                Norilsk          4997.500
       293   08 Jun 2027 05:22:56.950   08 Jun 2027 05:23:02.421             5.471                Novosib           655.500
       294   08 Jun 2027 05:23:16.015   08 Jun 2027 05:24:24.732            68.717               Magadan1          6797.000
       295   08 Jun 2027 05:24:35.631   08 Jun 2027 05:25:25.403            49.772                Norilsk          5449.500
       296   08 Jun 2027 05:25:31.328   08 Jun 2027 05:25:55.820            24.492                Novosib          2962.500
       297   08 Jun 2027 05:26:06.800   08 Jun 2027 05:26:34.222            27.422                Novosib          3427.750
       298   08 Jun 2027 05:26:46.496   08 Jun 2027 05:27:54.121            67.625                Irkutsk          8199.250
       299   08 Jun 2027 05:27:54.368   08 Jun 2027 05:28:04.660            10.292                Norilsk           123.500
       300   08 Jun 2027 05:28:07.869   08 Jun 2027 05:28:13.871             6.002                Norilsk           750.250
       301   08 Jun 2027 05:28:18.028   08 Jun 2027 05:28:51.660            33.632                Norilsk          2932.750
       302   08 Jun 2027 06:57:51.902   08 Jun 2027 06:58:05.276            13.374                Irkutsk           444.000
       303   08 Jun 2027 06:58:09.020   08 Jun 2027 06:58:50.266            41.246                Norilsk          1872.000
       304   08 Jun 2027 06:58:56.084   08 Jun 2027 07:00:11.517            75.433                Novosib          2909.000
       305   08 Jun 2027 07:00:17.606   08 Jun 2027 07:00:35.967            18.361                Norilsk          2295.125
       306   08 Jun 2027 07:00:40.921   08 Jun 2027 07:01:10.740            29.819              Murmansk2          3226.375
       307   08 Jun 2027 07:01:19.156   08 Jun 2027 07:02:01.917            42.761              Murmansk1          4208.000
       308   08 Jun 2027 07:02:04.299   08 Jun 2027 07:02:17.142            12.843                 Moscow          1191.000
       309   08 Jun 2027 07:02:17.899   08 Jun 2027 07:02:29.093            11.194              Murmansk2           378.500
       310   08 Jun 2027 07:02:35.610   08 Jun 2027 07:03:40.030            64.420              Murmansk2          3258.500
       311   08 Jun 2027 07:03:56.474   08 Jun 2027 07:05:05.290            68.816                Norilsk          8222.000
       312   08 Jun 2027 08:35:48.878   08 Jun 2027 08:36:04.811            15.933                Novosib           385.000
       313   08 Jun 2027 08:36:05.004   08 Jun 2027 08:36:16.264            11.260              Murmansk2            96.500
       314   08 Jun 2027 08:36:18.103   08 Jun 2027 08:36:48.838            30.735                Irkutsk           919.500
       315   08 Jun 2027 08:36:50.090   08 Jun 2027 08:37:51.150            61.060                Norilsk           626.000
       316   08 Jun 2027 08:37:59.186   08 Jun 2027 08:38:40.981            41.795                Norilsk          4018.000
       317   08 Jun 2027 08:38:45.595   08 Jun 2027 08:39:16.899            31.304              Murmansk2          2307.000
       318   08 Jun 2027 08:39:19.491   08 Jun 2027 08:39:34.582            15.091                Norilsk          1296.000
       319   08 Jun 2027 08:39:37.145   08 Jun 2027 08:39:42.426             5.281                Norilsk           660.125
       320   08 Jun 2027 08:39:52.023   08 Jun 2027 08:41:07.255            75.232                Novosib          2963.875
       321   08 Jun 2027 10:09:45.965   08 Jun 2027 10:09:49.375             3.410                 Moscow           426.250
       322   08 Jun 2027 10:09:57.111   08 Jun 2027 10:11:53.494           116.383              Murmansk2         13951.750
       323   08 Jun 2027 10:12:02.959   08 Jun 2027 10:12:51.661            48.702                 Moscow          4732.500
       324   08 Jun 2027 10:12:54.644   08 Jun 2027 10:13:17.705            23.061              Murmansk1          1491.500
       325   08 Jun 2027 10:13:18.620   08 Jun 2027 10:13:25.124             6.504              Murmansk2           457.500
       326   08 Jun 2027 10:13:26.634   08 Jun 2027 10:13:42.165            15.531                Norilsk           755.000
       327   08 Jun 2027 10:13:50.752   08 Jun 2027 10:15:30.389            99.637                Norilsk          4293.500
       328   08 Jun 2027 10:15:35.168   08 Jun 2027 10:16:07.467            32.299                Norilsk          2389.500
       329   08 Jun 2027 10:16:19.891   08 Jun 2027 10:17:40.707            80.816              Murmansk2          6212.000
       330   09 Jun 2027 03:55:21.912   09 Jun 2027 03:56:50.668            88.756               Magadan1          6606.500
       331   09 Jun 2027 03:56:54.560   09 Jun 2027 03:57:14.377            19.817               Magadan2          1946.000
       332   09 Jun 2027 03:57:21.332   09 Jun 2027 03:58:08.209            46.877               Magadan1          3477.500
       333   09 Jun 2027 03:58:08.782   09 Jun 2027 03:58:22.250            13.468               Magadan2           286.500
       334   09 Jun 2027 03:58:29.992   09 Jun 2027 03:58:43.487            13.495                Irkutsk          1686.875
       335   09 Jun 2027 03:58:50.540   09 Jun 2027 04:00:10.210            79.670               Magadan2          5710.625
       336   09 Jun 2027 04:00:13.199   09 Jun 2027 04:00:29.189            15.990               Magadan2          1494.500
       337   09 Jun 2027 04:00:33.055   09 Jun 2027 04:00:48.937            15.882                Anadyr1          1933.000
       338   09 Jun 2027 04:00:49.471   09 Jun 2027 04:01:15.681            26.210                Anadyr1           267.000
       339   09 Jun 2027 04:01:21.516   09 Jun 2027 04:02:13.620            52.104               Magadan2          2917.500
       340   09 Jun 2027 04:02:13.940   09 Jun 2027 04:02:35.978            22.038               Magadan2           160.000
       341   09 Jun 2027 04:02:36.276   09 Jun 2027 04:03:48.134            71.858                Irkutsk           149.000
       342   09 Jun 2027 04:03:52.932   09 Jun 2027 04:04:00.622             7.690                Anadyr2           961.250
       343   09 Jun 2027 04:04:03.599   09 Jun 2027 04:04:30.195            26.596               Magadan1          2926.250
       344   09 Jun 2027 05:33:01.020   09 Jun 2027 05:33:25.153            24.133               Magadan2          1734.000
       345   09 Jun 2027 05:33:27.222   09 Jun 2027 05:34:33.866            66.644                Irkutsk          1034.500
       346   09 Jun 2027 05:34:40.038   09 Jun 2027 05:35:22.055            42.017                Irkutsk          3086.000
       347   09 Jun 2027 05:35:22.645   09 Jun 2027 05:35:27.504             4.859                Norilsk           295.000
       348   09 Jun 2027 05:35:30.692   09 Jun 2027 05:35:52.513            21.821               Magadan2          1594.000
       349   09 Jun 2027 05:35:53.134   09 Jun 2027 05:36:49.529            56.395               Magadan1           310.500
       350   09 Jun 2027 05:36:52.009   09 Jun 2027 05:37:11.484            19.475                Norilsk          1240.000
       351   09 Jun 2027 05:37:12.952   09 Jun 2027 05:38:22.011            69.059                Irkutsk           734.000
       352   09 Jun 2027 05:38:23.420   09 Jun 2027 05:38:46.501            23.081               Magadan1           704.500
       353   09 Jun 2027 05:38:48.561   09 Jun 2027 05:38:51.959             3.398                Novosib           424.750
       354   09 Jun 2027 05:39:00.876   09 Jun 2027 05:39:14.226            13.350                Norilsk          1668.750
       355   09 Jun 2027 05:39:27.650   09 Jun 2027 05:41:11.339           103.689              Murmansk1         10107.000
       356   09 Jun 2027 07:09:55.764   09 Jun 2027 07:11:00.379            64.615                Irkutsk          6914.500
       357   09 Jun 2027 07:11:03.484   09 Jun 2027 07:11:20.497            17.013                Norilsk          1552.500
       358   09 Jun 2027 07:11:22.575   09 Jun 2027 07:11:38.896            16.321                Norilsk          1039.000
       359   09 Jun 2027 07:11:53.746   09 Jun 2027 07:12:40.791            47.045                Irkutsk          5880.625
       360   09 Jun 2027 07:12:42.423   09 Jun 2027 07:13:04.028            21.605              Murmansk2          2360.375
       361   09 Jun 2027 07:13:09.775   09 Jun 2027 07:13:57.570            47.795              Murmansk2          2873.500
       362   09 Jun 2027 07:13:59.885   09 Jun 2027 07:14:17.412            17.527              Murmansk1          1157.500
       363   09 Jun 2027 07:14:21.726   09 Jun 2027 07:14:50.962            29.236                 Moscow          2157.000
       364   09 Jun 2027 07:15:02.147   09 Jun 2027 07:16:20.864            78.717                Novosib          5592.500
       365   09 Jun 2027 07:16:28.951   09 Jun 2027 07:17:14.087            45.136              Murmansk2          3401.500
       366   09 Jun 2027 08:47:52.637   09 Jun 2027 08:48:26.846            34.209              Murmansk2          1483.500
       367   09 Jun 2027 08:48:28.227   09 Jun 2027 08:48:44.944            16.717              Murmansk2           690.500
       368   09 Jun 2027 08:48:58.652   09 Jun 2027 08:50:24.955            86.303              Murmansk1          6854.000
       369   09 Jun 2027 08:50:30.864   09 Jun 2027 08:51:04.092            33.228              Murmansk1          2954.500
       370   09 Jun 2027 08:51:11.973   09 Jun 2027 08:52:05.601            53.628                Norilsk          3940.500
       371   09 Jun 2027 10:21:51.128   09 Jun 2027 10:22:35.436            44.308                 Moscow          5229.500
       372   09 Jun 2027 10:22:41.465   09 Jun 2027 10:23:16.591            35.126                 Moscow          3014.500
       373   09 Jun 2027 10:23:32.896   09 Jun 2027 10:25:25.841           112.945                 Moscow          8152.500
       374   09 Jun 2027 10:25:28.238   09 Jun 2027 10:26:19.496            51.258                 Moscow          1198.500
       375   09 Jun 2027 10:26:23.984   09 Jun 2027 10:27:00.048            36.064                 Moscow          2244.000
       376   09 Jun 2027 10:27:19.044   09 Jun 2027 10:28:44.165            85.121                Norilsk          9498.000
       377   10 Jun 2027 04:07:58.624   10 Jun 2027 04:08:56.957            58.333               Magadan2           721.500
       378   10 Jun 2027 04:09:03.137   10 Jun 2027 04:09:16.740            13.603               Magadan1          1700.375
       379   10 Jun 2027 04:09:42.846   10 Jun 2027 04:10:35.633            52.787                Norilsk          6598.375
       380   10 Jun 2027 04:10:41.347   10 Jun 2027 04:12:12.940            91.593               Magadan1         10701.250
       381   10 Jun 2027 04:12:16.118   10 Jun 2027 04:12:32.923            16.805               Magadan2          1589.000
       382   10 Jun 2027 04:12:37.335   10 Jun 2027 04:13:14.954            37.619               Magadan1          2206.000
       383   10 Jun 2027 04:13:17.200   10 Jun 2027 04:13:35.477            18.277                Anadyr2          1123.000
       384   10 Jun 2027 04:13:39.435   10 Jun 2027 04:14:19.786            40.351                Norilsk          1979.000
       385   10 Jun 2027 04:14:29.302   10 Jun 2027 04:15:09.819            40.517                Novosib          4758.000
       386   10 Jun 2027 04:15:12.923   10 Jun 2027 04:15:37.888            24.965                Anadyr2          1552.000
       387   10 Jun 2027 04:15:42.148   10 Jun 2027 04:16:08.099            25.951               Magadan1          2130.000
       388   10 Jun 2027 04:16:15.847   10 Jun 2027 04:17:28.034            72.187              Murmansk1          3874.000
       389   10 Jun 2027 05:45:13.706   10 Jun 2027 05:45:50.614            36.908                Irkutsk          4613.500
       390   10 Jun 2027 05:45:58.701   10 Jun 2027 05:46:56.759            58.058               Magadan1          4307.500
       391   10 Jun 2027 05:47:01.044   10 Jun 2027 05:47:19.533            18.489               Magadan1          2142.500
       392   10 Jun 2027 05:47:21.013   10 Jun 2027 05:47:36.495            15.482               Magadan1           740.000
       393   10 Jun 2027 05:47:49.605   10 Jun 2027 05:48:50.743            61.138                Norilsk          6555.000
       394   10 Jun 2027 05:48:52.164   10 Jun 2027 05:49:00.611             8.447               Magadan1           710.500
       395   10 Jun 2027 05:49:03.236   10 Jun 2027 05:49:28.100            24.864               Magadan1          1312.500
       396   10 Jun 2027 05:49:31.290   10 Jun 2027 05:49:45.389            14.099                Irkutsk          1595.000
       397   10 Jun 2027 05:49:54.055   10 Jun 2027 05:50:07.733            13.678              Murmansk2          1709.750
       398   10 Jun 2027 05:50:07.733   10 Jun 2027 05:50:33.908            26.175              Murmansk1          2623.250
       399   10 Jun 2027 05:50:52.725   10 Jun 2027 05:51:52.751            60.026                Norilsk          7503.250
       400   10 Jun 2027 05:51:54.216   10 Jun 2027 05:52:20.536            26.320                Norilsk          2637.750
       401   10 Jun 2027 05:52:35.676   10 Jun 2027 05:52:58.882            23.206              Murmansk1          1408.500
       402   10 Jun 2027 07:22:12.970   10 Jun 2027 07:23:05.809            52.839                Irkutsk          3227.500
       403   10 Jun 2027 07:23:07.057   10 Jun 2027 07:23:52.589            45.532                Novosib           624.000
       404   10 Jun 2027 07:23:58.845   10 Jun 2027 07:24:43.719            44.874              Murmansk2          3128.000
       405   10 Jun 2027 07:24:48.512   10 Jun 2027 07:25:29.834            41.322                Novosib          2396.500
       406   10 Jun 2027 07:25:47.642   10 Jun 2027 07:27:47.530           119.888                Norilsk          8904.000
       407   10 Jun 2027 07:27:52.342   10 Jun 2027 07:28:20.039            27.697                Norilsk          2406.000
       408   10 Jun 2027 08:59:09.785   10 Jun 2027 08:59:45.440            35.655                Norilsk          2953.500
       409   10 Jun 2027 08:59:47.544   10 Jun 2027 09:00:17.690            30.146                Norilsk          1052.000
       410   10 Jun 2027 09:00:25.275   10 Jun 2027 09:01:00.044            34.769              Murmansk2          3792.500
       411   10 Jun 2027 09:01:03.368   10 Jun 2027 09:01:28.014            24.646              Murmansk2          1662.000
       412   10 Jun 2027 09:01:36.139   10 Jun 2027 09:02:34.482            58.343                Novosib          4062.500
       413   10 Jun 2027 09:02:36.036   10 Jun 2027 09:02:51.310            15.274              Murmansk2           777.000
       414   10 Jun 2027 09:03:05.134   10 Jun 2027 09:04:08.690            63.556                Norilsk          6912.000
       415   10 Jun 2027 10:34:26.389   10 Jun 2027 10:35:48.819            82.430              Murmansk1          9498.500
       416   10 Jun 2027 10:35:50.180   10 Jun 2027 10:36:48.560            58.380                 Moscow           680.500
       417   10 Jun 2027 10:36:53.754   10 Jun 2027 10:37:21.625            27.871              Murmansk1          2597.000
       418   10 Jun 2027 10:37:50.807   10 Jun 2027 10:39:57.535           126.728                 Moscow         14591.000
       419   11 Jun 2027 04:18:51.267   11 Jun 2027 04:19:18.890            27.623               Magadan1          3452.875
       420   11 Jun 2027 04:19:18.890   11 Jun 2027 04:19:59.366            40.476               Magadan2          3983.125
       421   11 Jun 2027 04:20:01.456   11 Jun 2027 04:20:55.650            54.194                Irkutsk          1045.000
       422   11 Jun 2027 04:20:59.610   11 Jun 2027 04:21:18.927            19.317               Magadan1          1980.000
       423   11 Jun 2027 04:21:25.965   11 Jun 2027 04:22:05.018            39.053               Magadan1          3519.000
       424   11 Jun 2027 04:22:11.809   11 Jun 2027 04:22:30.789            18.980                Irkutsk          2372.500
       425   11 Jun 2027 04:22:54.128   11 Jun 2027 04:23:30.164            36.036                Norilsk          4504.500
       426   11 Jun 2027 04:23:40.168   11 Jun 2027 04:24:14.088            33.920                Novosib          4240.000
       427   11 Jun 2027 04:24:15.281   11 Jun 2027 04:25:34.297            79.016                Anadyr2          9546.500
       428   11 Jun 2027 04:25:35.750   11 Jun 2027 04:26:54.254            78.504                Irkutsk           726.500
       429   11 Jun 2027 04:26:59.156   11 Jun 2027 04:27:41.854            42.698               Magadan2          2451.000
       430   11 Jun 2027 04:27:46.860   11 Jun 2027 04:28:23.719            36.859               Magadan2          2503.000
       431   11 Jun 2027 04:28:27.113   11 Jun 2027 04:29:08.436            41.323                Novosib          1242.500
       432   11 Jun 2027 05:57:37.258   11 Jun 2027 05:58:16.323            39.065                Irkutsk          3670.500
       433   11 Jun 2027 05:58:39.317   11 Jun 2027 06:00:13.438            94.121                Norilsk         11497.000
       434   11 Jun 2027 06:00:25.615   11 Jun 2027 06:01:35.882            70.267                Norilsk          6088.500
       435   11 Jun 2027 06:01:39.852   11 Jun 2027 06:02:17.447            37.595                Novosib          1985.000
       436   11 Jun 2027 06:02:31.893   11 Jun 2027 06:03:45.160            73.267              Murmansk1          7223.000
       437   11 Jun 2027 06:03:54.337   11 Jun 2027 06:04:46.784            52.447              Murmansk1          4588.500
       438   11 Jun 2027 07:34:52.232   11 Jun 2027 07:36:39.449           107.217                Norilsk         12618.000
       439   11 Jun 2027 07:36:40.437   11 Jun 2027 07:37:00.231            19.794                Norilsk           494.000
       440   11 Jun 2027 07:37:06.725   11 Jun 2027 07:37:35.253            28.528              Murmansk1          3247.000
       441   11 Jun 2027 07:37:40.876   11 Jun 2027 07:38:01.236            20.360                Norilsk          2545.000
       442   11 Jun 2027 07:38:03.321   11 Jun 2027 07:38:30.293            26.972                Norilsk          1309.000
       443   11 Jun 2027 07:38:34.366   11 Jun 2027 07:39:17.114            42.748              Murmansk1          2036.500
       444   11 Jun 2027 07:39:30.657   11 Jun 2027 07:39:45.421            14.764                Irkutsk          1845.500
       445   11 Jun 2027 07:39:50.993   11 Jun 2027 07:40:17.450            26.457                Norilsk          3307.125
       446   11 Jun 2027 07:40:19.685   11 Jun 2027 07:41:09.329            49.644                 Moscow          4404.875
       447   11 Jun 2027 09:11:18.066   11 Jun 2027 09:12:03.282            45.216                Novosib           336.000
       448   11 Jun 2027 09:12:05.964   11 Jun 2027 09:12:31.016            25.052              Murmansk2          1341.000
       449   11 Jun 2027 09:12:37.554   11 Jun 2027 09:13:56.164            78.610                Norilsk          3269.000
       450   11 Jun 2027 09:13:56.227   11 Jun 2027 09:14:32.141            35.914                Norilsk            31.500
       451   11 Jun 2027 09:14:35.438   11 Jun 2027 09:15:19.189            43.751                Novosib          1648.500
       452   11 Jun 2027 09:15:24.212   11 Jun 2027 09:15:50.563            26.351                Novosib          2511.500
       453   11 Jun 2027 10:48:57.868   11 Jun 2027 10:49:23.241            25.373              Murmansk2           270.000
       454   11 Jun 2027 10:49:46.100   11 Jun 2027 10:51:22.076            95.976              Murmansk2         11429.500
       455   12 Jun 2027 03:00:01.442   12 Jun 2027 03:00:36.604            35.162                Anadyr2           721.000
       456   12 Jun 2027 03:00:36.768   12 Jun 2027 03:01:26.259            49.491                Anadyr2            82.000
       457   12 Jun 2027 03:01:30.265   12 Jun 2027 03:02:18.534            48.269               Magadan1          2003.000
       458   12 Jun 2027 04:33:28.260   12 Jun 2027 04:33:55.009            26.749                Norilsk          1715.500
       459   12 Jun 2027 04:34:07.047   12 Jun 2027 04:34:58.936            51.889               Magadan1          6019.000
       460   12 Jun 2027 04:35:04.547   12 Jun 2027 04:35:30.863            26.316                Norilsk          2805.500
       461   12 Jun 2027 04:35:40.146   12 Jun 2027 04:36:23.932            43.786                Novosib          4641.500
       462   12 Jun 2027 04:36:30.204   12 Jun 2027 04:36:54.416            24.212                Norilsk          3026.500
       463   12 Jun 2027 04:37:00.953   12 Jun 2027 04:37:25.986            25.033               Magadan2          3129.125
       464   12 Jun 2027 04:37:25.986   12 Jun 2027 04:37:42.013            16.027               Magadan1           248.875
       465   12 Jun 2027 04:37:49.281   12 Jun 2027 04:38:24.269            34.988                Novosib          3634.000
       466   12 Jun 2027 04:38:32.310   12 Jun 2027 04:39:25.584            53.274                Irkutsk          4020.500
       467   12 Jun 2027 04:39:27.854   12 Jun 2027 04:39:39.051            11.197               Magadan2          1135.000
       468   12 Jun 2027 04:39:44.924   12 Jun 2027 04:40:23.889            38.965                Novosib          2936.500
       469   12 Jun 2027 06:09:49.214   12 Jun 2027 06:10:34.277            45.063                Novosib          5632.875
       470   12 Jun 2027 06:10:35.154   12 Jun 2027 06:11:21.648            46.494                Norilsk           765.625
       471   12 Jun 2027 06:11:23.619   12 Jun 2027 06:12:03.976            40.357                Irkutsk           985.500
       472   12 Jun 2027 06:12:11.982   12 Jun 2027 06:12:49.417            37.435                Norilsk          4003.000
       473   12 Jun 2027 06:12:51.407   12 Jun 2027 06:13:13.505            22.098                Irkutsk           995.000
       474   12 Jun 2027 06:13:19.679   12 Jun 2027 06:13:52.127            32.448                Novosib          3087.000
       475   12 Jun 2027 06:13:55.034   12 Jun 2027 06:14:08.767            13.733              Murmansk2          1453.500
       476   12 Jun 2027 06:14:13.458   12 Jun 2027 06:14:34.236            20.778                Norilsk          2345.500
       477   12 Jun 2027 06:14:38.207   12 Jun 2027 06:15:07.184            28.977              Murmansk2          1985.500
       478   12 Jun 2027 06:15:08.879   12 Jun 2027 06:15:33.569            24.690                Norilsk           847.500
       479   12 Jun 2027 06:15:33.885   12 Jun 2027 06:16:29.630            55.745                Irkutsk           158.000
       480   12 Jun 2027 07:47:26.881   12 Jun 2027 07:48:06.361            39.480                Norilsk          2977.000
       481   12 Jun 2027 07:48:10.254   12 Jun 2027 07:48:45.558            35.304              Murmansk2          1946.500
       482   12 Jun 2027 07:48:49.028   12 Jun 2027 07:49:32.727            43.699                Norilsk          1735.000
