uniorb/output/strategy_2/Drop/Drop_KinoSat_111909.txt

KinoSat_111909
-------------------------
    Access    *     Start Time (UTCG)     *     Stop Time (UTCG)  *   Duration (s)        *       Station  *  Data (Mbytes)
         1   01 Jun 2027 04:01:20.931   01 Jun 2027 04:01:27.209             6.278                Norilsk           196.187
         2   01 Jun 2027 04:01:29.639   01 Jun 2027 04:03:33.883           124.244                Irkutsk          3882.625
         3   01 Jun 2027 04:04:17.094   01 Jun 2027 04:04:58.733            41.639                Norilsk          1301.219
         4   01 Jun 2027 04:05:17.205   01 Jun 2027 04:07:20.275           123.070                Irkutsk          3845.937
         5   01 Jun 2027 04:09:57.934   01 Jun 2027 04:10:10.353            12.419                Novosib           388.094
         6   01 Jun 2027 05:40:04.440   01 Jun 2027 05:40:16.096            11.656                Novosib           364.250
         7   01 Jun 2027 05:40:29.175   01 Jun 2027 05:42:08.944            99.769                Norilsk          3117.781
         8   01 Jun 2027 05:42:40.421   01 Jun 2027 05:42:50.103             9.682              Murmansk1           302.563
         9   01 Jun 2027 05:43:24.928   01 Jun 2027 05:43:26.759             1.831                Novosib            57.219
        10   01 Jun 2027 05:43:32.300   01 Jun 2027 05:44:54.895            82.595              Murmansk2          2581.094
        11   01 Jun 2027 05:45:23.767   01 Jun 2027 05:46:45.499            81.732                 Moscow          2554.125
        12   01 Jun 2027 05:47:18.707   01 Jun 2027 05:48:33.662            74.955                 Moscow          2342.344
        13   01 Jun 2027 05:59:58.648   01 Jun 2027 06:04:20.993           262.345               CapeTown          8198.281
        14   01 Jun 2027 06:06:10.251   01 Jun 2027 06:07:35.870            85.619               CapeTown          2675.594
        15   01 Jun 2027 06:08:10.795   01 Jun 2027 06:09:25.595            74.800               CapeTown          2337.500
        16   01 Jun 2027 06:10:26.614   01 Jun 2027 06:12:09.159           102.545               CapeTown          3204.531
        17   01 Jun 2027 07:04:19.687   01 Jun 2027 07:05:18.145            58.458                Anadyr2          1826.812
        18   01 Jun 2027 07:05:18.145   01 Jun 2027 07:05:26.340             8.195                Anadyr1           256.094
        19   01 Jun 2027 07:07:02.766   01 Jun 2027 07:07:45.395            42.629               Magadan2          1332.156
        20   01 Jun 2027 07:15:41.321   01 Jun 2027 07:15:42.666             1.345              Murmansk2            42.031
        21   01 Jun 2027 07:16:58.858   01 Jun 2027 07:17:59.757            60.899              Murmansk1          1903.094
        22   01 Jun 2027 07:18:09.238   01 Jun 2027 07:19:41.213            91.975              Murmansk2          2874.219
        23   01 Jun 2027 07:20:32.732   01 Jun 2027 07:21:06.025            33.293                 Moscow          1040.406
        24   01 Jun 2027 07:21:28.595   01 Jun 2027 07:22:07.356            38.761                 Moscow          1211.281
        25   01 Jun 2027 07:23:48.157   01 Jun 2027 07:23:57.078             8.921                 Moscow           278.781
        26   01 Jun 2027 07:40:34.734   01 Jun 2027 07:41:53.259            78.525               CapeTown          2453.906
        27   01 Jun 2027 07:43:08.108   01 Jun 2027 07:47:09.462           241.354               CapeTown          7542.312
        28   01 Jun 2027 08:40:33.069   01 Jun 2027 08:45:15.477           282.408                Anadyr1          8825.250
        29   01 Jun 2027 08:50:36.111   01 Jun 2027 08:51:26.268            50.157                 Moscow          1567.406
        30   01 Jun 2027 08:52:17.890   01 Jun 2027 08:52:41.238            23.348                 Moscow           729.625
        31   01 Jun 2027 10:09:03.741   01 Jun 2027 10:11:16.092           132.351               Magadan1          4135.969
        32   01 Jun 2027 10:12:29.390   01 Jun 2027 10:13:00.084            30.694               Magadan2           959.187
        33   01 Jun 2027 10:13:00.084   01 Jun 2027 10:13:51.714            51.630               Magadan1          1613.438
        34   01 Jun 2027 10:14:14.178   01 Jun 2027 10:20:31.862           377.684                Anadyr2         11802.625
        35   01 Jun 2027 11:48:14.073   01 Jun 2027 11:55:35.712           441.639               Magadan2         13801.219
        36   01 Jun 2027 14:11:03.219   01 Jun 2027 14:18:21.117           437.898            RioGallegos         13684.313
        37   01 Jun 2027 14:46:22.533   01 Jun 2027 14:49:45.586           203.053                Sumatra          6345.406
        38   01 Jun 2027 15:02:16.755   01 Jun 2027 15:05:00.369           163.614                Irkutsk          5112.937
        39   01 Jun 2027 16:43:26.355   01 Jun 2027 16:45:50.881           144.526                Norilsk          4516.438
        40   01 Jun 2027 16:46:32.906   01 Jun 2027 16:49:22.316           169.410                Norilsk          5294.063
        41   01 Jun 2027 19:54:17.289   01 Jun 2027 19:55:20.816            63.527              Murmansk2          1985.219
        42   01 Jun 2027 19:57:03.611   01 Jun 2027 19:59:46.956           163.345              Murmansk1          5104.531
        43   01 Jun 2027 20:00:24.791   01 Jun 2027 20:02:57.108           152.317              Murmansk2          4759.906
        44   01 Jun 2027 21:03:19.528   01 Jun 2027 21:07:21.656           242.128               CapeTown          7566.500
        45   02 Jun 2027 00:20:00.785   02 Jun 2027 00:20:58.852            58.067            RioGallegos          1814.594
        46   02 Jun 2027 00:22:17.757   02 Jun 2027 00:22:40.082            22.325            RioGallegos           697.656
        47   02 Jun 2027 00:52:07.720   02 Jun 2027 00:53:12.270            64.550                Anadyr1          2017.188
        48   02 Jun 2027 00:54:25.606   02 Jun 2027 00:54:49.011            23.405                Anadyr2           731.406
        49   02 Jun 2027 00:54:49.011   02 Jun 2027 00:55:03.385            14.374                Anadyr1           449.187
        50   02 Jun 2027 00:55:06.399   02 Jun 2027 00:56:05.775            59.376               Magadan2          1855.500
        51   02 Jun 2027 00:56:16.900   02 Jun 2027 00:56:34.047            17.147               Magadan2           535.844
        52   02 Jun 2027 00:56:52.581   02 Jun 2027 00:57:39.403            46.822               Magadan2          1463.187
        53   02 Jun 2027 00:59:58.324   02 Jun 2027 01:00:43.766            45.442               Magadan2          1420.062
        54   02 Jun 2027 01:02:39.457   02 Jun 2027 01:02:41.406             1.949               Magadan1            60.906
        55   02 Jun 2027 01:02:48.125   02 Jun 2027 01:02:58.004             9.879                Novosib           308.719
        56   02 Jun 2027 01:03:05.413   02 Jun 2027 01:04:05.899            60.486               Magadan1          1890.188
        57   02 Jun 2027 01:07:43.776   02 Jun 2027 01:08:05.736            21.960                Novosib           686.250
        58   02 Jun 2027 01:09:20.080   02 Jun 2027 01:09:37.758            17.678                Irkutsk           552.438
        59   02 Jun 2027 01:09:54.440   02 Jun 2027 01:11:03.493            69.053                Irkutsk          2157.906
        60   02 Jun 2027 01:16:20.034   02 Jun 2027 01:16:32.433            12.399                Sumatra           387.469
        61   02 Jun 2027 01:18:04.499   02 Jun 2027 01:18:56.814            52.315                Sumatra          1634.844
        62   02 Jun 2027 01:20:54.197   02 Jun 2027 01:21:48.869            54.672                Sumatra          1708.500
        63   02 Jun 2027 01:23:34.242   02 Jun 2027 01:24:56.907            82.665                Sumatra          2583.281
        64   02 Jun 2027 01:58:38.574   02 Jun 2027 01:59:02.471            23.897            RioGallegos           746.781
        65   02 Jun 2027 02:29:26.861   02 Jun 2027 02:29:38.713            11.852                Anadyr2           370.375
        66   02 Jun 2027 02:29:52.815   02 Jun 2027 02:30:00.861             8.046                Anadyr1           251.438
        67   02 Jun 2027 02:30:10.482   02 Jun 2027 02:31:07.415            56.933                Anadyr1          1779.156
        68   02 Jun 2027 02:32:50.126   02 Jun 2027 02:33:20.048            29.922                Norilsk           935.062
        69   02 Jun 2027 02:34:04.516   02 Jun 2027 02:34:17.244            12.728              Murmansk1           397.750
        70   02 Jun 2027 02:35:39.329   02 Jun 2027 02:35:43.130             3.801                Norilsk           118.781
        71   02 Jun 2027 02:36:00.969   02 Jun 2027 02:36:29.730            28.761                Irkutsk           898.781
        72   02 Jun 2027 02:37:35.811   02 Jun 2027 02:38:29.205            53.394                Irkutsk          1668.562
        73   02 Jun 2027 02:40:19.971   02 Jun 2027 02:41:14.839            54.868                Irkutsk          1714.625
        74   02 Jun 2027 02:45:03.431   02 Jun 2027 02:45:13.071             9.640                Novosib           301.250
        75   02 Jun 2027 02:45:52.973   02 Jun 2027 02:47:50.509           117.536                  Delhi          3673.000
        76   02 Jun 2027 03:23:11.901   02 Jun 2027 03:24:14.104            62.203            RioGallegos          1943.844
        77   02 Jun 2027 03:24:46.141   02 Jun 2027 03:24:53.293             7.152            RioGallegos           223.500
        78   02 Jun 2027 03:26:11.617   02 Jun 2027 03:26:12.993             1.376            RioGallegos            43.000
        79   02 Jun 2027 03:26:51.522   02 Jun 2027 03:27:23.635            32.113            RioGallegos          1003.531
        80   02 Jun 2027 03:28:34.166   02 Jun 2027 03:28:54.354            20.188            RioGallegos           630.875
        81   02 Jun 2027 03:29:20.781   02 Jun 2027 03:30:40.302            79.521            RioGallegos          2485.031
        82   02 Jun 2027 04:12:33.430   02 Jun 2027 04:12:45.547            12.117                Irkutsk           378.656
        83   02 Jun 2027 04:14:40.680   02 Jun 2027 04:15:04.227            23.547              Murmansk2           735.844
        84   02 Jun 2027 04:15:05.181   02 Jun 2027 04:15:14.164             8.983                Irkutsk           280.719
        85   02 Jun 2027 04:15:43.785   02 Jun 2027 04:15:46.190             2.405                Irkutsk            75.156
        86   02 Jun 2027 04:16:00.089   02 Jun 2027 04:16:19.456            19.367              Murmansk1           605.219
        87   02 Jun 2027 04:16:24.437   02 Jun 2027 04:18:38.738           134.301                Irkutsk          4196.906
        88   02 Jun 2027 04:18:39.602   02 Jun 2027 04:18:46.624             7.022              Murmansk2           219.437
        89   02 Jun 2027 04:18:52.735   02 Jun 2027 04:18:55.729             2.994                Norilsk            93.562
        90   02 Jun 2027 04:21:40.262   02 Jun 2027 04:22:19.414            39.152                Novosib          1223.500
        91   02 Jun 2027 04:27:16.557   02 Jun 2027 04:28:00.862            44.305                  Delhi          1384.531
        92   02 Jun 2027 05:51:56.852   02 Jun 2027 05:52:05.879             9.027                Norilsk           282.094
        93   02 Jun 2027 05:52:23.762   02 Jun 2027 05:52:23.805             0.043                Novosib             1.344
        94   02 Jun 2027 05:52:48.173   02 Jun 2027 05:53:33.714            45.541                Norilsk          1423.156
        95   02 Jun 2027 05:53:51.864   02 Jun 2027 05:54:02.691            10.827                Norilsk           338.344
        96   02 Jun 2027 05:54:12.375   02 Jun 2027 05:57:07.648           175.273              Murmansk2          5477.281
        97   02 Jun 2027 05:57:26.986   02 Jun 2027 05:57:29.531             2.545                 Moscow            79.531
        98   02 Jun 2027 05:58:40.175   02 Jun 2027 05:58:43.975             3.800                 Moscow           118.750
        99   02 Jun 2027 05:59:04.004   02 Jun 2027 06:00:41.656            97.652                 Moscow          3051.625
       100   02 Jun 2027 06:16:52.635   02 Jun 2027 06:17:52.092            59.457               CapeTown          1858.031
       101   02 Jun 2027 06:18:47.421   02 Jun 2027 06:19:49.019            61.598               CapeTown          1924.937
       102   02 Jun 2027 06:20:23.609   02 Jun 2027 06:24:32.817           249.208               CapeTown          7787.750
       103   02 Jun 2027 07:15:14.092   02 Jun 2027 07:15:36.575            22.483               Magadan1           702.594
       104   02 Jun 2027 07:15:58.811   02 Jun 2027 07:16:22.370            23.559               Magadan1           736.219
       105   02 Jun 2027 07:16:32.222   02 Jun 2027 07:16:55.659            23.437               Magadan1           732.406
       106   02 Jun 2027 08:50:12.411   02 Jun 2027 08:50:19.077             6.666                Anadyr1           208.312
       107   02 Jun 2027 08:51:17.415   02 Jun 2027 08:52:02.580            45.165               Magadan2          1411.406
       108   02 Jun 2027 08:52:19.812   02 Jun 2027 08:57:15.532           295.720                Anadyr1          9241.250
       109   02 Jun 2027 09:02:52.596   02 Jun 2027 09:03:33.450            40.854                 Moscow          1276.688
       110   02 Jun 2027 09:04:38.942   02 Jun 2027 09:04:58.479            19.537                 Moscow           610.531
       111   02 Jun 2027 10:24:18.029   02 Jun 2027 10:25:45.480            87.451               Magadan2          2732.844
       112   02 Jun 2027 10:25:52.529   02 Jun 2027 10:32:19.204           386.675                Anadyr1         12083.594
       113   02 Jun 2027 12:01:14.647   02 Jun 2027 12:07:10.491           355.844               Magadan2         11120.125
       114   02 Jun 2027 13:32:37.096   02 Jun 2027 13:32:50.388            13.292                Irkutsk           415.375
       115   02 Jun 2027 13:34:47.692   02 Jun 2027 13:37:33.921           166.229                Irkutsk          5194.656
       116   02 Jun 2027 14:24:12.932   02 Jun 2027 14:29:39.836           326.904            RioGallegos         10215.750
       117   02 Jun 2027 15:15:34.956   02 Jun 2027 15:15:38.389             3.433                Novosib           107.281
       118   02 Jun 2027 15:17:46.347   02 Jun 2027 15:18:36.901            50.554                Norilsk          1579.813
       119   02 Jun 2027 15:18:47.017   02 Jun 2027 15:20:36.590           109.573                Novosib          3424.156
       120   02 Jun 2027 16:46:50.130   02 Jun 2027 16:48:07.871            77.741                 Moscow          2429.406
       121   02 Jun 2027 16:48:59.982   02 Jun 2027 16:49:33.977            33.995                 Moscow          1062.344
       122   02 Jun 2027 16:51:56.192   02 Jun 2027 16:52:54.024            57.832              Murmansk2          1807.250
       123   02 Jun 2027 16:54:34.097   02 Jun 2027 17:00:32.417           358.320                Norilsk         11197.500
       124   02 Jun 2027 18:24:23.529   02 Jun 2027 18:25:20.542            57.013                 Moscow          1781.656
       125   02 Jun 2027 18:27:27.795   02 Jun 2027 18:28:10.384            42.589              Murmansk2          1330.906
       126   02 Jun 2027 18:29:02.924   02 Jun 2027 18:29:42.670            39.746                 Moscow          1242.063
       127   02 Jun 2027 18:37:13.822   02 Jun 2027 18:38:07.578            53.756              Murmansk2          1679.875
       128   02 Jun 2027 18:38:18.970   02 Jun 2027 18:39:13.085            54.115              Murmansk2          1691.094
       129   02 Jun 2027 19:36:23.066   02 Jun 2027 19:37:35.265            72.199               CapeTown          2256.219
       130   02 Jun 2027 19:40:35.676   02 Jun 2027 19:40:39.577             3.901               CapeTown           121.906
       131   02 Jun 2027 19:41:56.848   02 Jun 2027 19:42:15.858            19.010               CapeTown           594.062
       132   02 Jun 2027 19:45:09.632   02 Jun 2027 19:45:19.374             9.742               CapeTown           304.438
       133   02 Jun 2027 20:06:55.745   02 Jun 2027 20:08:26.103            90.358              Murmansk2          2823.688
       134   02 Jun 2027 20:08:39.866   02 Jun 2027 20:14:54.095           374.229              Murmansk1         11694.656
       135   02 Jun 2027 21:52:49.386   02 Jun 2027 21:54:36.342           106.956                Anadyr1          3342.375
       136   02 Jun 2027 21:54:47.414   02 Jun 2027 21:55:57.827            70.413                Anadyr2          2200.406
       137   02 Jun 2027 21:56:01.792   02 Jun 2027 21:58:35.172           153.380               Magadan1          4793.125
       138   02 Jun 2027 21:59:51.704   02 Jun 2027 22:00:01.325             9.621               Magadan2           300.656
       139   02 Jun 2027 22:00:10.740   02 Jun 2027 22:00:41.300            30.560               Magadan2           955.000
       140   02 Jun 2027 22:04:02.798   02 Jun 2027 22:04:09.643             6.845               Magadan2           213.906
       141   02 Jun 2027 22:49:43.945   02 Jun 2027 22:51:46.997           123.052            RioGallegos          3845.375
       142   02 Jun 2027 23:28:40.635   02 Jun 2027 23:31:23.665           163.030                Anadyr2          5094.687
       143   02 Jun 2027 23:31:40.296   02 Jun 2027 23:33:41.686           121.390               Magadan1          3793.437
       144   02 Jun 2027 23:35:19.748   02 Jun 2027 23:35:50.889            31.141               Magadan2           973.156
       145   02 Jun 2027 23:35:57.635   02 Jun 2027 23:36:59.912            62.277                Irkutsk          1946.156
       146   02 Jun 2027 23:38:23.464   02 Jun 2027 23:39:06.922            43.458                Irkutsk          1358.063
       147   02 Jun 2027 23:39:31.000   02 Jun 2027 23:40:06.451            35.451                Irkutsk          1107.844
       148   02 Jun 2027 23:51:25.017   02 Jun 2027 23:53:12.560           107.543                Sumatra          3360.719
       149   03 Jun 2027 00:23:15.913   03 Jun 2027 00:23:52.201            36.288            RioGallegos          1134.000
       150   03 Jun 2027 00:27:33.096   03 Jun 2027 00:28:12.414            39.318            RioGallegos          1228.687
       151   03 Jun 2027 00:33:22.771   03 Jun 2027 00:33:58.977            36.206            RioGallegos          1131.438
       152   03 Jun 2027 01:04:02.144   03 Jun 2027 01:04:03.278             1.134                Anadyr2            35.438
       153   03 Jun 2027 01:04:10.961   03 Jun 2027 01:04:16.609             5.648                Anadyr1           176.500
       154   03 Jun 2027 01:04:34.837   03 Jun 2027 01:05:05.691            30.854                Anadyr1           964.187
       155   03 Jun 2027 01:05:39.337   03 Jun 2027 01:06:18.429            39.092                Anadyr1          1221.625
       156   03 Jun 2027 01:06:31.939   03 Jun 2027 01:07:37.743            65.804                Norilsk          2056.375
       157   03 Jun 2027 01:07:39.396   03 Jun 2027 01:08:41.419            62.023               Magadan1          1938.219
       158   03 Jun 2027 01:08:41.419   03 Jun 2027 01:08:57.977            16.558               Magadan2           517.438
       159   03 Jun 2027 01:10:29.482   03 Jun 2027 01:13:31.672           182.190                Irkutsk          5693.437
       160   03 Jun 2027 01:22:39.530   03 Jun 2027 01:23:16.669            37.139                  Delhi          1160.594
       161   03 Jun 2027 01:24:16.993   03 Jun 2027 01:25:43.111            86.118                Sumatra          2691.188
       162   03 Jun 2027 01:27:21.966   03 Jun 2027 01:28:39.200            77.234                Sumatra          2413.563
       163   03 Jun 2027 02:07:47.460   03 Jun 2027 02:08:09.698            22.238            RioGallegos           694.937
       164   03 Jun 2027 02:39:35.430   03 Jun 2027 02:39:56.827            21.397                Anadyr2           668.656
       165   03 Jun 2027 02:40:46.366   03 Jun 2027 02:40:52.838             6.472                Anadyr1           202.250
       166   03 Jun 2027 02:42:32.835   03 Jun 2027 02:44:13.915           101.080                Norilsk          3158.750
       167   03 Jun 2027 02:44:41.354   03 Jun 2027 02:45:14.463            33.109                Norilsk          1034.656
       168   03 Jun 2027 02:45:37.425   03 Jun 2027 02:46:19.051            41.626              Murmansk1          1300.812
       169   03 Jun 2027 02:46:21.928   03 Jun 2027 02:47:18.273            56.345                Novosib          1760.781
       170   03 Jun 2027 02:48:46.382   03 Jun 2027 02:49:11.456            25.074                Irkutsk           783.563
       171   03 Jun 2027 02:51:59.074   03 Jun 2027 02:53:38.485            99.411                Irkutsk          3106.594
       172   03 Jun 2027 03:35:27.097   03 Jun 2027 03:37:16.317           109.220            RioGallegos          3413.125
       173   03 Jun 2027 03:42:18.277   03 Jun 2027 03:43:10.493            52.216            RioGallegos          1631.750
       174   03 Jun 2027 04:28:21.229   03 Jun 2027 04:31:14.642           173.413              Murmansk1          5419.156
       175   03 Jun 2027 04:33:49.900   03 Jun 2027 04:35:58.189           128.289                  Delhi          4009.031
       176   03 Jun 2027 06:01:24.734   03 Jun 2027 06:02:02.729            37.995                Novosib          1187.344
       177   03 Jun 2027 06:04:48.389   03 Jun 2027 06:05:52.299            63.910                Norilsk          1997.188
       178   03 Jun 2027 06:05:58.212   03 Jun 2027 06:08:06.509           128.297              Murmansk2          4009.281
       179   03 Jun 2027 06:23:46.379   03 Jun 2027 06:26:59.229           192.850               CapeTown          6026.563
       180   03 Jun 2027 07:26:53.583   03 Jun 2027 07:27:35.530            41.947                Anadyr1          1310.844
       181   03 Jun 2027 07:27:41.640   03 Jun 2027 07:27:45.968             4.328                Anadyr2           135.250
       182   03 Jun 2027 07:28:06.469   03 Jun 2027 07:28:09.426             2.957               Magadan1            92.406
       183   03 Jun 2027 07:28:12.962   03 Jun 2027 07:28:25.725            12.763               Magadan2           398.844
       184   03 Jun 2027 07:28:25.725   03 Jun 2027 07:28:59.056            33.331               Magadan1          1041.594
       185   03 Jun 2027 07:29:17.219   03 Jun 2027 07:29:30.206            12.987                Anadyr1           405.844
       186   03 Jun 2027 07:29:35.842   03 Jun 2027 07:30:40.256            64.414               Magadan2          2012.938
       187   03 Jun 2027 08:02:44.329   03 Jun 2027 08:06:54.134           249.805               CapeTown          7806.406
       188   03 Jun 2027 09:02:57.518   03 Jun 2027 09:05:24.308           146.790                Anadyr1          4587.187
       189   03 Jun 2027 09:05:43.667   03 Jun 2027 09:07:04.842            81.175               Magadan1          2536.719
       190   03 Jun 2027 09:07:42.074   03 Jun 2027 09:07:48.148             6.074                Anadyr1           189.813
       191   03 Jun 2027 09:48:03.426   03 Jun 2027 09:48:25.745            22.319            RioGallegos           697.469
       192   03 Jun 2027 09:52:18.592   03 Jun 2027 09:52:23.458             4.866            RioGallegos           152.063
       193   03 Jun 2027 09:53:57.282   03 Jun 2027 09:54:06.987             9.705            RioGallegos           303.281
       194   03 Jun 2027 10:35:13.731   03 Jun 2027 10:37:57.231           163.500               Magadan2          5109.375
       195   03 Jun 2027 10:38:16.582   03 Jun 2027 10:40:59.267           162.685               Magadan2          5083.906
       196   03 Jun 2027 10:40:59.851   03 Jun 2027 10:44:00.106           180.255                Anadyr2          5632.969
       197   03 Jun 2027 10:44:55.142   03 Jun 2027 10:45:21.145            26.003              Murmansk1           812.594
       198   03 Jun 2027 10:47:32.068   03 Jun 2027 10:47:37.283             5.215              Murmansk1           162.969
       199   03 Jun 2027 11:19:47.889   03 Jun 2027 11:20:30.801            42.912            RioGallegos          1341.000
       200   03 Jun 2027 11:24:29.205   03 Jun 2027 11:25:13.842            44.637            RioGallegos          1394.906
       201   03 Jun 2027 11:56:52.342   03 Jun 2027 11:58:49.664           117.322                Sumatra          3666.312
       202   03 Jun 2027 12:09:11.043   03 Jun 2027 12:10:03.896            52.853                Irkutsk          1651.656
       203   03 Jun 2027 12:12:24.438   03 Jun 2027 12:13:05.370            40.932                Novosib          1279.125
       204   03 Jun 2027 12:14:36.349   03 Jun 2027 12:18:09.752           213.403               Magadan1          6668.844
       205   03 Jun 2027 13:30:20.922   03 Jun 2027 13:33:19.235           178.313                Sumatra          5572.281
       206   03 Jun 2027 13:38:46.341   03 Jun 2027 13:40:04.514            78.173                Sumatra          2442.906
       207   03 Jun 2027 13:45:50.222   03 Jun 2027 13:46:43.918            53.696                Irkutsk          1678.000
       208   03 Jun 2027 14:38:22.012   03 Jun 2027 14:40:04.927           102.915            RioGallegos          3216.094
       209   03 Jun 2027 15:14:53.764   03 Jun 2027 15:15:34.746            40.982                  Delhi          1280.687
       210   03 Jun 2027 15:17:22.870   03 Jun 2027 15:19:54.782           151.912                  Delhi          4747.250
       211   03 Jun 2027 15:22:59.474   03 Jun 2027 15:24:04.360            64.886                Novosib          2027.687
       212   03 Jun 2027 15:26:56.408   03 Jun 2027 15:27:28.000            31.592                Norilsk           987.250
       213   03 Jun 2027 15:27:29.345   03 Jun 2027 15:28:22.103            52.758                Novosib          1648.688
       214   03 Jun 2027 15:30:17.718   03 Jun 2027 15:31:46.968            89.250                Novosib          2789.062
       215   03 Jun 2027 16:58:52.528   03 Jun 2027 17:00:06.115            73.587                 Moscow          2299.594
       216   03 Jun 2027 17:02:22.792   03 Jun 2027 17:03:12.948            50.156              Murmansk1          1567.375
       217   03 Jun 2027 17:05:40.335   03 Jun 2027 17:05:53.786            13.451              Murmansk2           420.344
       218   03 Jun 2027 17:07:21.945   03 Jun 2027 17:11:43.323           261.378                Norilsk          8168.063
       219   03 Jun 2027 18:36:56.089   03 Jun 2027 18:38:38.822           102.733                 Moscow          3210.406
       220   03 Jun 2027 18:39:47.649   03 Jun 2027 18:43:07.225           199.576              Murmansk2          6236.750
       221   03 Jun 2027 19:01:44.306   03 Jun 2027 19:02:13.555            29.249                Anadyr2           914.031
       222   03 Jun 2027 19:48:32.487   03 Jun 2027 19:51:03.727           151.240               CapeTown          4726.250
       223   03 Jun 2027 20:19:38.087   03 Jun 2027 20:24:08.808           270.721              Murmansk2          8460.031
       224   03 Jun 2027 20:25:26.154   03 Jun 2027 20:25:34.324             8.170              Murmansk1           255.313
       225   03 Jun 2027 22:04:51.178   03 Jun 2027 22:10:01.970           310.792                Anadyr1          9712.250
       226   03 Jun 2027 22:10:05.238   03 Jun 2027 22:11:33.018            87.780               Magadan2          2743.125
       227   03 Jun 2027 22:11:33.018   03 Jun 2027 22:12:52.364            79.346               Magadan1          2479.562
       228   03 Jun 2027 22:16:04.204   03 Jun 2027 22:16:12.402             8.198               Magadan1           256.187
       229   03 Jun 2027 22:16:12.402   03 Jun 2027 22:16:38.816            26.414               Magadan2           825.438
       230   03 Jun 2027 23:00:44.830   03 Jun 2027 23:03:27.450           162.620            RioGallegos          5081.875
       231   03 Jun 2027 23:40:40.340   03 Jun 2027 23:42:36.503           116.163                Anadyr2          3630.094
       232   03 Jun 2027 23:42:45.537   03 Jun 2027 23:44:15.055            89.518                Norilsk          2797.437
       233   03 Jun 2027 23:44:40.030   03 Jun 2027 23:46:00.614            80.584               Magadan1          2518.250
       234   03 Jun 2027 23:47:36.540   03 Jun 2027 23:48:10.955            34.415                Irkutsk          1075.469
       235   03 Jun 2027 23:49:32.814   03 Jun 2027 23:50:03.645            30.831                Irkutsk           963.469
       236   03 Jun 2027 23:52:05.419   03 Jun 2027 23:52:12.089             6.670                Irkutsk           208.438
       237   03 Jun 2027 23:52:52.533   03 Jun 2027 23:54:23.076            90.543                Irkutsk          2829.469
       238   04 Jun 2027 00:02:25.653   04 Jun 2027 00:04:22.250           116.597                Sumatra          3643.656
       239   04 Jun 2027 00:42:41.783   04 Jun 2027 00:42:52.573            10.790            RioGallegos           337.188
       240   04 Jun 2027 01:15:55.435   04 Jun 2027 01:16:19.853            24.418                Anadyr2           763.063
       241   04 Jun 2027 01:16:58.193   04 Jun 2027 01:18:30.292            92.099                Anadyr2          2878.094
       242   04 Jun 2027 01:18:34.011   04 Jun 2027 01:20:28.177           114.166                Norilsk          3567.688
       243   04 Jun 2027 01:20:32.391   04 Jun 2027 01:20:58.442            26.051               Magadan2           814.094
       244   04 Jun 2027 01:22:29.066   04 Jun 2027 01:25:00.691           151.625                Irkutsk          4738.281
       245   04 Jun 2027 01:32:12.619   04 Jun 2027 01:32:26.287            13.668                Novosib           427.125
       246   04 Jun 2027 01:32:43.408   04 Jun 2027 01:34:17.455            94.047                  Delhi          2938.969
       247   04 Jun 2027 01:36:26.372   04 Jun 2027 01:36:27.839             1.467                Sumatra            45.844
       248   04 Jun 2027 01:39:15.021   04 Jun 2027 01:41:06.859           111.838                Sumatra          3494.937
       249   04 Jun 2027 02:16:11.457   04 Jun 2027 02:16:22.067            10.610            RioGallegos           331.562
       250   04 Jun 2027 02:18:38.692   04 Jun 2027 02:19:06.720            28.028            RioGallegos           875.875
       251   04 Jun 2027 02:22:32.226   04 Jun 2027 02:22:38.951             6.725            RioGallegos           210.156
       252   04 Jun 2027 02:49:59.863   04 Jun 2027 02:50:15.984            16.121                Anadyr1           503.781
       253   04 Jun 2027 02:51:58.084   04 Jun 2027 02:52:38.955            40.871                Anadyr1          1277.219
       254   04 Jun 2027 02:54:35.179   04 Jun 2027 02:55:11.234            36.055                Norilsk          1126.719
       255   04 Jun 2027 02:55:41.448   04 Jun 2027 02:56:09.584            28.136                Norilsk           879.250
       256   04 Jun 2027 02:57:22.905   04 Jun 2027 02:58:20.860            57.955              Murmansk1          1811.094
       257   04 Jun 2027 02:58:22.606   04 Jun 2027 02:59:14.525            51.919                Novosib          1622.469
       258   04 Jun 2027 02:59:14.728   04 Jun 2027 03:00:03.429            48.701                Irkutsk          1521.906
       259   04 Jun 2027 03:00:53.601   04 Jun 2027 03:01:30.914            37.313              Murmansk2          1166.031
       260   04 Jun 2027 03:02:09.111   04 Jun 2027 03:02:51.771            42.660                Novosib          1333.125
       261   04 Jun 2027 03:03:10.915   04 Jun 2027 03:03:48.663            37.748                Norilsk          1179.625
       262   04 Jun 2027 03:03:58.277   04 Jun 2027 03:06:14.984           136.707                Irkutsk          4272.094
       263   04 Jun 2027 03:06:18.196   04 Jun 2027 03:08:42.770           144.574                  Delhi          4517.938
       264   04 Jun 2027 03:09:36.145   04 Jun 2027 03:10:00.573            24.428                Irkutsk           763.375
       265   04 Jun 2027 03:47:46.022   04 Jun 2027 03:52:58.604           312.582            RioGallegos          9768.187
       266   04 Jun 2027 04:39:11.505   04 Jun 2027 04:39:34.541            23.036                Irkutsk           719.875
       267   04 Jun 2027 04:39:54.195   04 Jun 2027 04:40:01.772             7.577                Irkutsk           236.781
       268   04 Jun 2027 04:40:02.809   04 Jun 2027 04:42:56.946           174.137              Murmansk1          5441.781
       269   04 Jun 2027 04:43:47.921   04 Jun 2027 04:48:22.640           274.719                  Delhi          8584.969
       270   04 Jun 2027 06:16:20.587   04 Jun 2027 06:17:09.773            49.186              Murmansk1          1537.063
       271   04 Jun 2027 06:17:14.973   04 Jun 2027 06:17:41.484            26.511                Norilsk           828.469
       272   04 Jun 2027 06:17:46.863   04 Jun 2027 06:18:49.893            63.030                 Moscow          1969.688
       273   04 Jun 2027 06:18:57.956   04 Jun 2027 06:19:39.230            41.274                 Moscow          1289.812
       274   04 Jun 2027 06:20:55.729   04 Jun 2027 06:21:27.568            31.839              Murmansk1           994.969
       275   04 Jun 2027 06:35:47.840   04 Jun 2027 06:39:00.625           192.785               CapeTown          6024.531
       276   04 Jun 2027 07:38:46.913   04 Jun 2027 07:39:43.053            56.140                Anadyr2          1754.375
       277   04 Jun 2027 07:39:45.568   04 Jun 2027 07:40:05.775            20.207               Magadan2           631.469
       278   04 Jun 2027 07:40:12.021   04 Jun 2027 07:40:16.979             4.958                Anadyr1           154.937
       279   04 Jun 2027 07:40:17.064   04 Jun 2027 07:40:35.085            18.021               Magadan2           563.156
       280   04 Jun 2027 07:40:47.636   04 Jun 2027 07:41:07.815            20.179               Magadan1           630.594
       281   04 Jun 2027 07:41:15.777   04 Jun 2027 07:42:13.704            57.927                Anadyr1          1810.219
       282   04 Jun 2027 07:42:38.132   04 Jun 2027 07:42:51.769            13.637               Magadan1           426.156
       283   04 Jun 2027 07:53:39.757   04 Jun 2027 07:54:42.910            63.153                 Moscow          1973.531
       284   04 Jun 2027 08:16:15.395   04 Jun 2027 08:19:40.368           204.973               CapeTown          6405.406
       285   04 Jun 2027 09:15:12.600   04 Jun 2027 09:15:58.950            46.350                Anadyr2          1448.438
       286   04 Jun 2027 09:16:17.993   04 Jun 2027 09:17:08.848            50.855               Magadan2          1589.219
       287   04 Jun 2027 09:17:08.848   04 Jun 2027 09:19:04.673           115.825               Magadan1          3619.531
       288   04 Jun 2027 09:28:22.914   04 Jun 2027 09:28:32.182             9.268                 Moscow           289.625
       289   04 Jun 2027 10:47:39.700   04 Jun 2027 10:50:30.847           171.147               Magadan1          5348.344
       290   04 Jun 2027 10:50:45.908   04 Jun 2027 10:51:49.008            63.100               Magadan2          1971.875
       291   04 Jun 2027 10:52:11.099   04 Jun 2027 10:52:25.154            14.055                Irkutsk           439.219
       292   04 Jun 2027 10:52:31.362   04 Jun 2027 10:52:50.255            18.893                Irkutsk           590.406
       293   04 Jun 2027 10:52:55.278   04 Jun 2027 10:54:06.766            71.488                Novosib          2234.000
       294   04 Jun 2027 10:54:50.302   04 Jun 2027 10:55:06.570            16.268                Irkutsk           508.375
       295   04 Jun 2027 10:55:24.201   04 Jun 2027 10:56:00.424            36.223               Magadan1          1131.969
       296   04 Jun 2027 10:56:00.424   04 Jun 2027 10:56:42.535            42.111               Magadan2          1315.969
       297   04 Jun 2027 11:31:39.143   04 Jun 2027 11:32:47.987            68.844            RioGallegos          2151.375
       298   04 Jun 2027 12:08:03.356   04 Jun 2027 12:08:13.242             9.886                Sumatra           308.937
       299   04 Jun 2027 12:09:48.628   04 Jun 2027 12:10:41.877            53.249                Sumatra          1664.031
       300   04 Jun 2027 12:19:54.149   04 Jun 2027 12:21:48.024           113.875                Irkutsk          3558.594
       301   04 Jun 2027 12:22:33.894   04 Jun 2027 12:22:46.018            12.124                Novosib           378.875
       302   04 Jun 2027 12:24:49.515   04 Jun 2027 12:26:16.044            86.529                Norilsk          2704.031
       303   04 Jun 2027 12:27:51.161   04 Jun 2027 12:27:56.346             5.185                Norilsk           162.031
       304   04 Jun 2027 12:29:58.610   04 Jun 2027 12:30:16.498            17.888              Murmansk2           559.000
       305   04 Jun 2027 12:37:11.439   04 Jun 2027 12:38:00.236            48.797              Murmansk1          1524.906
       306   04 Jun 2027 13:08:13.117   04 Jun 2027 13:08:28.751            15.634            RioGallegos           488.563
       307   04 Jun 2027 13:10:15.010   04 Jun 2027 13:13:10.759           175.749            RioGallegos          5492.156
       308   04 Jun 2027 13:42:33.434   04 Jun 2027 13:43:01.981            28.547                Sumatra           892.094
       309   04 Jun 2027 13:51:06.091   04 Jun 2027 13:52:22.445            76.354                Sumatra          2386.062
       310   04 Jun 2027 13:57:30.877   04 Jun 2027 13:58:56.691            85.814                Irkutsk          2681.688
       311   04 Jun 2027 14:01:50.523   04 Jun 2027 14:02:25.446            34.923                Irkutsk          1091.344
       312   04 Jun 2027 15:27:17.195   04 Jun 2027 15:31:59.958           282.763                  Delhi          8836.344
       313   04 Jun 2027 15:35:33.248   04 Jun 2027 15:37:29.917           116.669                Novosib          3645.906
       314   04 Jun 2027 15:39:22.534   04 Jun 2027 15:40:22.668            60.134                Norilsk          1879.187
       315   04 Jun 2027 17:10:57.948   04 Jun 2027 17:14:11.562           193.614                 Moscow          6050.438
       316   04 Jun 2027 17:15:48.053   04 Jun 2027 17:17:24.963            96.910              Murmansk2          3028.437
       317   04 Jun 2027 17:20:16.091   04 Jun 2027 17:21:39.634            83.543                Norilsk          2610.719
       318   04 Jun 2027 17:22:54.748   04 Jun 2027 17:24:27.552            92.804                Norilsk          2900.125
       319   04 Jun 2027 18:49:34.793   04 Jun 2027 18:52:23.804           169.011                 Moscow          5281.594
       320   04 Jun 2027 18:52:25.596   04 Jun 2027 18:52:30.575             4.979              Murmansk1           155.594
       321   04 Jun 2027 18:55:16.036   04 Jun 2027 18:56:28.679            72.643              Murmansk2          2270.094
       322   04 Jun 2027 19:01:12.497   04 Jun 2027 19:01:21.463             8.966              Murmansk1           280.188
       323   04 Jun 2027 19:01:36.813   04 Jun 2027 19:01:50.875            14.062              Murmansk2           439.438
       324   04 Jun 2027 19:14:50.704   04 Jun 2027 19:15:21.558            30.854                Anadyr2           964.187
       325   04 Jun 2027 19:16:04.010   04 Jun 2027 19:16:05.132             1.122                Anadyr2            35.063
       326   04 Jun 2027 20:00:45.282   04 Jun 2027 20:02:45.487           120.205               CapeTown          3756.406
       327   04 Jun 2027 20:05:20.203   04 Jun 2027 20:05:23.463             3.260               CapeTown           101.875
       328   04 Jun 2027 20:32:25.162   04 Jun 2027 20:36:48.116           262.954              Murmansk2          8217.313
       329   04 Jun 2027 20:37:27.051   04 Jun 2027 20:38:41.885            74.834              Murmansk1          2338.562
       330   04 Jun 2027 20:47:12.803   04 Jun 2027 20:47:19.613             6.810               Magadan2           212.813
       331   04 Jun 2027 20:51:32.925   04 Jun 2027 20:52:01.799            28.874               Magadan1           902.312
       332   04 Jun 2027 22:16:52.861   04 Jun 2027 22:20:43.250           230.389                Anadyr1          7199.656
       333   04 Jun 2027 22:20:53.925   04 Jun 2027 22:24:46.804           232.879               Magadan2          7277.469
       334   04 Jun 2027 23:12:11.221   04 Jun 2027 23:15:13.140           181.919            RioGallegos          5684.969
       335   04 Jun 2027 23:18:36.435   04 Jun 2027 23:19:08.671            32.236            RioGallegos          1007.375
       336   04 Jun 2027 23:52:39.534   04 Jun 2027 23:54:05.820            86.286                Anadyr2          2696.437
       337   04 Jun 2027 23:54:10.804   04 Jun 2027 23:54:15.961             5.157                Anadyr2           161.156
       338   04 Jun 2027 23:54:44.213   04 Jun 2027 23:55:55.808            71.595                Norilsk          2237.344
       339   04 Jun 2027 23:56:06.580   04 Jun 2027 23:56:16.092             9.512                Norilsk           297.250
       340   04 Jun 2027 23:56:19.145   04 Jun 2027 23:56:30.105            10.960               Magadan1           342.500
       341   04 Jun 2027 23:56:47.305   04 Jun 2027 23:57:41.096            53.791               Magadan2          1680.969
       342   04 Jun 2027 23:59:21.267   05 Jun 2027 00:00:25.583            64.316                Irkutsk          2009.875
       343   05 Jun 2027 00:01:42.753   05 Jun 2027 00:03:32.920           110.167                Irkutsk          3442.719
       344   05 Jun 2027 00:14:11.638   05 Jun 2027 00:15:05.276            53.638                Sumatra          1676.188
       345   05 Jun 2027 00:18:37.114   05 Jun 2027 00:19:06.084            28.970                Sumatra           905.312
       346   05 Jun 2027 00:46:37.615   05 Jun 2027 00:47:52.349            74.734            RioGallegos          2335.437
       347   05 Jun 2027 00:55:11.097   05 Jun 2027 00:56:11.379            60.282            RioGallegos          1883.813
       348   05 Jun 2027 01:27:47.511   05 Jun 2027 01:28:01.576            14.065                Anadyr1           439.531
       349   05 Jun 2027 01:28:57.537   05 Jun 2027 01:29:21.363            23.826                Anadyr2           744.562
       350   05 Jun 2027 01:29:38.573   05 Jun 2027 01:29:54.453            15.880                Anadyr2           496.250
       351   05 Jun 2027 01:30:34.479   05 Jun 2027 01:30:47.004            12.525                Anadyr1           391.406
       352   05 Jun 2027 01:31:07.012   05 Jun 2027 01:32:30.406            83.394                Norilsk          2606.062
       353   05 Jun 2027 01:32:59.592   05 Jun 2027 01:33:46.552            46.960               Magadan1          1467.500
       354   05 Jun 2027 01:34:29.661   05 Jun 2027 01:37:00.597           150.936                Irkutsk          4716.750
       355   05 Jun 2027 01:43:48.075   05 Jun 2027 01:46:07.815           139.740                  Delhi          4366.875
       356   05 Jun 2027 01:51:01.909   05 Jun 2027 01:53:43.288           161.379                Sumatra          5043.094
       357   05 Jun 2027 03:11:15.886   05 Jun 2027 03:11:57.799            41.913               Magadan2          1309.781
       358   05 Jun 2027 03:14:29.029   05 Jun 2027 03:15:01.840            32.811              Murmansk2          1025.344
       359   05 Jun 2027 03:15:04.876   05 Jun 2027 03:15:29.814            24.938                Norilsk           779.313
       360   05 Jun 2027 03:15:37.448   05 Jun 2027 03:16:00.590            23.142                Irkutsk           723.188
       361   05 Jun 2027 03:16:09.770   05 Jun 2027 03:16:13.353             3.583                Norilsk           111.969
       362   05 Jun 2027 03:16:39.541   05 Jun 2027 03:17:33.459            53.918                Norilsk          1684.937
       363   05 Jun 2027 03:17:44.570   05 Jun 2027 03:18:43.930            59.360                Novosib          1855.000
       364   05 Jun 2027 03:19:11.124   05 Jun 2027 03:19:22.270            11.146                Irkutsk           348.313
       365   05 Jun 2027 03:19:59.727   05 Jun 2027 03:20:13.896            14.169                Novosib           442.781
       366   05 Jun 2027 03:20:26.820   05 Jun 2027 03:20:32.764             5.944                Irkutsk           185.750
       367   05 Jun 2027 03:20:39.363   05 Jun 2027 03:21:38.600            59.237                Irkutsk          1851.156
       368   05 Jun 2027 03:24:19.283   05 Jun 2027 03:26:34.561           135.278                  Delhi          4227.437
       369   05 Jun 2027 04:00:11.191   05 Jun 2027 04:05:14.616           303.425            RioGallegos          9482.031
       370   05 Jun 2027 04:50:13.031   05 Jun 2027 04:50:21.893             8.862              Murmansk2           276.937
       371   05 Jun 2027 04:50:26.393   05 Jun 2027 04:50:32.017             5.624              Murmansk2           175.750
       372   05 Jun 2027 04:50:37.470   05 Jun 2027 04:50:53.342            15.872                Norilsk           496.000
       373   05 Jun 2027 04:51:08.415   05 Jun 2027 04:51:37.991            29.576              Murmansk1           924.250
       374   05 Jun 2027 04:51:50.914   05 Jun 2027 04:52:21.028            30.114              Murmansk1           941.063
       375   05 Jun 2027 04:52:57.109   05 Jun 2027 04:54:01.655            64.546              Murmansk1          2017.062
       376   05 Jun 2027 04:54:06.839   05 Jun 2027 04:54:28.107            21.268                Novosib           664.625
       377   05 Jun 2027 04:54:29.711   05 Jun 2027 04:55:02.046            32.335                Norilsk          1010.469
       378   05 Jun 2027 04:55:11.277   05 Jun 2027 04:55:39.507            28.230              Murmansk2           882.187
       379   05 Jun 2027 04:57:04.235   05 Jun 2027 05:00:51.527           227.292                  Delhi          7102.875
       380   05 Jun 2027 06:28:09.478   05 Jun 2027 06:29:21.718            72.240              Murmansk1          2257.500
       381   05 Jun 2027 06:29:22.690   05 Jun 2027 06:29:50.149            27.459              Murmansk1           858.094
       382   05 Jun 2027 06:29:58.721   05 Jun 2027 06:31:26.486            87.765              Murmansk2          2742.656
       383   05 Jun 2027 06:47:54.478   05 Jun 2027 06:50:42.149           167.671               CapeTown          5239.719
       384   05 Jun 2027 07:50:37.643   05 Jun 2027 07:51:44.239            66.596                Anadyr1          2081.125
       385   05 Jun 2027 07:52:00.862   05 Jun 2027 07:52:05.444             4.582               Magadan2           143.188
       386   05 Jun 2027 07:52:41.399   05 Jun 2027 07:53:04.449            23.050                Anadyr2           720.313
       387   05 Jun 2027 07:53:34.050   05 Jun 2027 07:54:21.926            47.876                Anadyr1          1496.125
       388   05 Jun 2027 08:08:47.012   05 Jun 2027 08:09:51.234            64.222                 Moscow          2006.938
       389   05 Jun 2027 09:22:33.758   05 Jun 2027 09:23:00.960            27.202               Magadan2           850.062
       390   05 Jun 2027 09:24:26.951   05 Jun 2027 09:25:34.066            67.115                Anadyr2          2097.344
       391   05 Jun 2027 09:27:18.331   05 Jun 2027 09:29:24.551           126.220                Anadyr1          3944.375
       392   05 Jun 2027 09:29:29.874   05 Jun 2027 09:33:11.809           221.935                Anadyr2          6935.469
       393   05 Jun 2027 11:02:37.540   05 Jun 2027 11:02:54.019            16.479               Magadan2           514.969
       394   05 Jun 2027 11:02:54.019   05 Jun 2027 11:07:54.633           300.614               Magadan1          9394.188
       395   05 Jun 2027 11:08:29.797   05 Jun 2027 11:08:35.418             5.621                Irkutsk           175.656
       396   05 Jun 2027 11:08:38.055   05 Jun 2027 11:08:42.570             4.515                Norilsk           141.094
       397   05 Jun 2027 11:08:45.316   05 Jun 2027 11:08:46.249             0.933              Murmansk1            29.156
       398   05 Jun 2027 11:08:57.106   05 Jun 2027 11:09:36.874            39.768                Novosib          1242.750
       399   05 Jun 2027 11:43:33.628   05 Jun 2027 11:44:47.638            74.010            RioGallegos          2312.812
       400   05 Jun 2027 12:19:28.547   05 Jun 2027 12:19:59.787            31.240                Sumatra           976.250
       401   05 Jun 2027 12:29:11.968   05 Jun 2027 12:30:08.495            56.527                Sumatra          1766.469
       402   05 Jun 2027 12:31:55.684   05 Jun 2027 12:33:06.990            71.306                Irkutsk          2228.313
       403   05 Jun 2027 12:33:26.170   05 Jun 2027 12:35:11.651           105.481                Irkutsk          3296.281
       404   05 Jun 2027 12:36:49.316   05 Jun 2027 12:37:11.380            22.064                Norilsk           689.500
       405   05 Jun 2027 12:39:58.446   05 Jun 2027 12:40:10.387            11.941                Norilsk           373.156
       406   05 Jun 2027 12:41:44.412   05 Jun 2027 12:42:02.744            18.332                Norilsk           572.875
       407   05 Jun 2027 13:20:37.615   05 Jun 2027 13:21:25.250            47.635            RioGallegos          1488.594
       408   05 Jun 2027 13:22:19.558   05 Jun 2027 13:25:40.499           200.941            RioGallegos          6279.406
       409   05 Jun 2027 13:54:52.917   05 Jun 2027 13:56:52.795           119.878                Sumatra          3746.188
       410   05 Jun 2027 14:10:06.531   05 Jun 2027 14:13:27.983           201.452                Irkutsk          6295.375
       411   05 Jun 2027 15:39:49.164   05 Jun 2027 15:44:41.771           292.607                  Delhi          9143.969
       412   05 Jun 2027 15:48:13.439   05 Jun 2027 15:50:19.850           126.411                Novosib          3950.344
       413   05 Jun 2027 15:53:49.761   05 Jun 2027 15:54:23.918            34.157                Novosib          1067.406
       414   05 Jun 2027 17:23:58.916   05 Jun 2027 17:26:11.783           132.867                 Moscow          4152.094
       415   05 Jun 2027 17:33:21.117   05 Jun 2027 17:36:28.088           186.971                Norilsk          5842.844
       416   05 Jun 2027 18:36:36.674   05 Jun 2027 18:37:37.670            60.996               CapeTown          1906.125
       417   05 Jun 2027 19:02:21.250   05 Jun 2027 19:06:47.599           266.349                 Moscow          8323.406
       418   05 Jun 2027 19:09:29.895   05 Jun 2027 19:09:38.988             9.093              Murmansk1           284.156
       419   05 Jun 2027 19:14:29.305   05 Jun 2027 19:14:42.706            13.401              Murmansk1           418.781
       420   05 Jun 2027 20:13:02.102   05 Jun 2027 20:14:45.771           103.669               CapeTown          3239.656
       421   05 Jun 2027 20:15:53.530   05 Jun 2027 20:17:17.405            83.875               CapeTown          2621.094
       422   05 Jun 2027 20:45:18.598   05 Jun 2027 20:50:30.204           311.606              Murmansk2          9737.688
       423   05 Jun 2027 21:06:05.543   05 Jun 2027 21:06:18.788            13.245               Magadan1           413.906
       424   05 Jun 2027 22:28:54.400   05 Jun 2027 22:32:44.188           229.788                Anadyr2          7180.875
       425   05 Jun 2027 22:32:48.375   05 Jun 2027 22:36:34.714           226.339               Magadan2          7073.094
       426   05 Jun 2027 22:42:08.293   05 Jun 2027 22:42:29.950            21.657               Magadan1           676.781
       427   05 Jun 2027 23:23:48.421   05 Jun 2027 23:26:06.130           137.709            RioGallegos          4303.406
       428   05 Jun 2027 23:26:29.682   05 Jun 2027 23:27:02.537            32.855            RioGallegos          1026.719
       429   05 Jun 2027 23:30:07.878   05 Jun 2027 23:30:18.611            10.733            RioGallegos           335.406
       430   05 Jun 2027 23:32:25.336   05 Jun 2027 23:32:58.121            32.785            RioGallegos          1024.531
       431   06 Jun 2027 00:04:38.134   06 Jun 2027 00:06:06.165            88.031                Anadyr2          2750.969
       432   06 Jun 2027 00:06:43.828   06 Jun 2027 00:08:31.714           107.886                Norilsk          3371.438
       433   06 Jun 2027 00:09:17.058   06 Jun 2027 00:10:11.915            54.857               Magadan1          1714.281
       434   06 Jun 2027 00:11:09.974   06 Jun 2027 00:12:25.509            75.535                Irkutsk          2360.469
       435   06 Jun 2027 00:13:17.499   06 Jun 2027 00:13:25.815             8.316                Irkutsk           259.875
       436   06 Jun 2027 00:15:40.427   06 Jun 2027 00:15:47.080             6.653                Irkutsk           207.906
       437   06 Jun 2027 00:19:25.782   06 Jun 2027 00:19:57.995            32.213                Irkutsk          1006.656
       438   06 Jun 2027 00:25:15.016   06 Jun 2027 00:26:29.327            74.311                Sumatra          2322.219
       439   06 Jun 2027 00:28:23.272   06 Jun 2027 00:29:05.497            42.225                Sumatra          1319.531
       440   06 Jun 2027 00:31:56.203   06 Jun 2027 00:31:58.105             1.902                Sumatra            59.438
       441   06 Jun 2027 00:33:45.071   06 Jun 2027 00:34:32.135            47.064                Sumatra          1470.750
       442   06 Jun 2027 01:00:35.286   06 Jun 2027 01:01:04.241            28.955            RioGallegos           904.844
       443   06 Jun 2027 01:06:04.983   06 Jun 2027 01:06:19.744            14.761            RioGallegos           461.281
       444   06 Jun 2027 01:08:35.184   06 Jun 2027 01:08:45.835            10.651            RioGallegos           332.844
       445   06 Jun 2027 01:11:05.072   06 Jun 2027 01:11:28.433            23.361            RioGallegos           730.031
       446   06 Jun 2027 01:39:38.299   06 Jun 2027 01:40:56.102            77.803                Anadyr2          2431.344
       447   06 Jun 2027 01:41:33.242   06 Jun 2027 01:41:47.609            14.367                Anadyr1           448.969
       448   06 Jun 2027 01:41:59.155   06 Jun 2027 01:42:27.346            28.191                Anadyr2           880.969
       449   06 Jun 2027 01:43:03.095   06 Jun 2027 01:44:08.183            65.088                Norilsk          2034.000
       450   06 Jun 2027 01:44:20.968   06 Jun 2027 01:44:31.316            10.348               Magadan2           323.375
       451   06 Jun 2027 01:45:16.645   06 Jun 2027 01:46:07.049            50.404               Magadan2          1575.125
       452   06 Jun 2027 01:46:31.173   06 Jun 2027 01:48:50.764           139.591                Irkutsk          4362.219
       453   06 Jun 2027 01:54:45.619   06 Jun 2027 01:55:25.959            40.340                Irkutsk          1260.625
       454   06 Jun 2027 02:01:05.731   06 Jun 2027 02:04:56.511           230.780                Sumatra          7211.875
       455   06 Jun 2027 03:23:23.499   06 Jun 2027 03:23:26.623             3.124               Magadan2            97.625
       456   06 Jun 2027 03:26:19.206   06 Jun 2027 03:27:40.383            81.177              Murmansk2          2536.781
       457   06 Jun 2027 03:27:40.383   06 Jun 2027 03:28:08.980            28.597              Murmansk1           893.656
       458   06 Jun 2027 03:28:09.861   06 Jun 2027 03:29:03.912            54.051                Norilsk          1689.094
       459   06 Jun 2027 03:29:20.071   06 Jun 2027 03:31:23.731           123.660                Novosib          3864.375
       460   06 Jun 2027 03:31:29.809   06 Jun 2027 03:32:02.094            32.285                Irkutsk          1008.906
       461   06 Jun 2027 03:32:02.167   06 Jun 2027 03:32:21.991            19.824                Novosib           619.500
       462   06 Jun 2027 03:32:49.948   06 Jun 2027 03:35:26.166           156.218                  Delhi          4881.812
       463   06 Jun 2027 04:12:50.014   06 Jun 2027 04:16:18.980           208.966            RioGallegos          6530.188
       464   06 Jun 2027 05:03:06.755   06 Jun 2027 05:03:37.423            30.668              Murmansk2           958.375
       465   06 Jun 2027 05:04:04.186   06 Jun 2027 05:04:05.858             1.672                Norilsk            52.250
       466   06 Jun 2027 05:04:15.524   06 Jun 2027 05:05:29.714            74.190                Novosib          2318.438
       467   06 Jun 2027 05:05:32.092   06 Jun 2027 05:06:07.805            35.713                Norilsk          1116.031
       468   06 Jun 2027 05:06:10.669   06 Jun 2027 05:07:07.940            57.271                 Moscow          1789.719
       469   06 Jun 2027 05:07:14.359   06 Jun 2027 05:08:14.212            59.853              Murmansk1          1870.406
       470   06 Jun 2027 05:25:12.793   06 Jun 2027 05:25:46.589            33.796               CapeTown          1056.125
       471   06 Jun 2027 05:29:55.404   06 Jun 2027 05:29:57.429             2.025               CapeTown            63.281
       472   06 Jun 2027 06:37:56.194   06 Jun 2027 06:38:17.743            21.549                Novosib           673.406
       473   06 Jun 2027 06:38:49.314   06 Jun 2027 06:39:48.714            59.400                Novosib          1856.250
       474   06 Jun 2027 06:40:03.771   06 Jun 2027 06:40:23.446            19.675                 Moscow           614.844
       475   06 Jun 2027 06:40:25.508   06 Jun 2027 06:41:31.810            66.302              Murmansk1          2071.938
       476   06 Jun 2027 06:41:37.816   06 Jun 2027 06:42:00.013            22.197                 Moscow           693.656
       477   06 Jun 2027 06:42:21.197   06 Jun 2027 06:42:22.757             1.560              Murmansk2            48.750
       478   06 Jun 2027 06:42:22.757   06 Jun 2027 06:43:43.723            80.966              Murmansk1          2530.187
       479   06 Jun 2027 07:00:06.611   06 Jun 2027 07:00:07.509             0.898               CapeTown            28.063
       480   06 Jun 2027 07:01:41.566   06 Jun 2027 07:04:51.149           189.583               CapeTown          5924.469
       481   06 Jun 2027 08:02:55.359   06 Jun 2027 08:03:26.070            30.711               Magadan2           959.719
       482   06 Jun 2027 08:03:45.142   06 Jun 2027 08:04:49.291            64.149                Anadyr2          2004.656
