uniorb/output/strategy_2/Drop/Drop_KinoSat_110102.txt

KinoSat_110102
-------------------------
    Access    *     Start Time (UTCG)     *     Stop Time (UTCG)  *   Duration (s)        *       Station  *  Data (Mbytes)
         1   01 Jun 2027 03:00:09.650   01 Jun 2027 03:00:12.057             2.407                Norilsk           300.875
         2   01 Jun 2027 03:00:13.544   01 Jun 2027 03:00:58.708            45.164               Magadan2          5267.625
         3   01 Jun 2027 03:01:06.164   01 Jun 2027 03:01:41.989            35.825               Magadan2          3728.000
         4   01 Jun 2027 03:01:42.749   01 Jun 2027 03:01:48.740             5.991                Novosib           380.000
         5   01 Jun 2027 03:01:52.018   01 Jun 2027 03:02:25.482            33.464                Norilsk          1639.000
         6   01 Jun 2027 03:02:26.641   01 Jun 2027 03:02:41.562            14.921               Magadan2           579.500
         7   01 Jun 2027 03:02:46.871   01 Jun 2027 03:03:23.219            36.348                Norilsk          2654.500
         8   01 Jun 2027 03:03:26.731   01 Jun 2027 03:03:57.061            30.330                Novosib          1756.000
         9   01 Jun 2027 03:04:06.675   01 Jun 2027 03:05:27.290            80.615                Norilsk          4807.000
        10   01 Jun 2027 03:05:38.131   01 Jun 2027 03:06:21.741            43.610              Murmansk1          5420.500
        11   01 Jun 2027 04:35:40.329   01 Jun 2027 04:36:09.489            29.160                  Delhi          1864.000
        12   01 Jun 2027 04:36:35.679   01 Jun 2027 04:38:29.230           113.551                Norilsk         13095.000
        13   01 Jun 2027 04:38:31.774   01 Jun 2027 04:38:44.322            12.548                 Moscow          1272.000
        14   01 Jun 2027 04:38:50.251   01 Jun 2027 04:39:43.343            53.092                 Moscow          2964.500
        15   01 Jun 2027 04:39:43.580   01 Jun 2027 04:40:05.731            22.151                 Moscow           118.500
        16   01 Jun 2027 04:40:06.376   01 Jun 2027 04:40:56.210            49.834                 Moscow           322.500
        17   01 Jun 2027 04:40:59.321   01 Jun 2027 04:41:54.980            55.659              Murmansk1          1555.500
        18   01 Jun 2027 04:42:18.881   01 Jun 2027 04:43:50.317            91.436                 Moscow         10312.000
        19   01 Jun 2027 06:13:39.604   01 Jun 2027 06:14:45.056            65.452                Novosib          6333.500
        20   01 Jun 2027 06:14:50.738   01 Jun 2027 06:15:18.831            28.093              Murmansk1          2841.000
        21   01 Jun 2027 06:15:24.193   01 Jun 2027 06:15:57.229            33.036                Novosib          2681.000
        22   01 Jun 2027 06:15:58.987   01 Jun 2027 06:16:11.793            12.806                 Moscow           879.000
        23   01 Jun 2027 06:16:23.576   01 Jun 2027 06:17:26.981            63.405                Novosib          5891.500
        24   01 Jun 2027 06:17:30.283   01 Jun 2027 06:18:04.335            34.052                 Moscow          1651.000
        25   01 Jun 2027 07:49:26.066   01 Jun 2027 07:49:48.866            22.800              Murmansk2           226.000
        26   01 Jun 2027 07:50:09.253   01 Jun 2027 07:51:46.616            97.363              Murmansk2         10193.500
        27   01 Jun 2027 07:51:48.371   01 Jun 2027 07:52:35.665            47.294              Murmansk2           877.500
        28   01 Jun 2027 07:52:36.138   01 Jun 2027 07:53:13.320            37.182              Murmansk2           236.500
        29   01 Jun 2027 07:53:29.021   01 Jun 2027 07:54:35.753            66.732              Murmansk1          7850.500
        30   02 Jun 2027 03:11:16.434   02 Jun 2027 03:12:10.492            54.058                Norilsk          6757.250
        31   02 Jun 2027 03:12:20.795   02 Jun 2027 03:13:31.562            70.767               Magadan2          6109.750
        32   02 Jun 2027 03:13:32.737   02 Jun 2027 03:13:40.814             8.077                Norilsk           587.500
        33   02 Jun 2027 03:13:42.917   02 Jun 2027 03:14:09.449            26.532               Magadan2          1051.500
        34   02 Jun 2027 03:14:25.595   02 Jun 2027 03:15:25.241            59.646                Norilsk          7455.750
        35   02 Jun 2027 03:15:31.030   02 Jun 2027 03:15:41.195            10.165               Magadan1          1270.625
        36   02 Jun 2027 03:15:41.195   02 Jun 2027 03:15:48.804             7.609               Magadan2           951.125
        37   02 Jun 2027 03:15:56.897   02 Jun 2027 03:16:41.406            44.509              Murmansk2          5336.500
        38   02 Jun 2027 03:16:45.346   02 Jun 2027 03:17:21.885            36.539              Murmansk2          1970.000
        39   02 Jun 2027 03:17:30.304   02 Jun 2027 03:18:01.136            30.832              Murmansk2          3854.000
        40   02 Jun 2027 03:18:01.136   02 Jun 2027 03:18:09.027             7.891              Murmansk1           355.500
        41   02 Jun 2027 03:18:12.239   02 Jun 2027 03:18:25.182            12.943              Murmansk1          1606.000
        42   02 Jun 2027 04:48:53.173   02 Jun 2027 04:51:36.435           163.262                Norilsk         19938.000
        43   02 Jun 2027 04:51:40.336   02 Jun 2027 04:51:56.351            16.015              Murmansk2          1950.500
        44   02 Jun 2027 04:52:07.206   02 Jun 2027 04:53:01.880            54.674                 Moscow          5427.500
        45   02 Jun 2027 04:53:05.643   02 Jun 2027 04:53:54.098            48.455                 Moscow          1881.500
        46   02 Jun 2027 04:53:55.596   02 Jun 2027 04:54:06.720            11.124              Murmansk1           749.000
        47   02 Jun 2027 06:25:10.545   02 Jun 2027 06:26:08.811            58.266                Norilsk          7211.000
        48   02 Jun 2027 06:26:10.989   02 Jun 2027 06:26:52.395            41.406              Murmansk1          1089.000
        49   02 Jun 2027 06:26:52.693   02 Jun 2027 06:27:15.305            22.612                Norilsk           149.000
        50   02 Jun 2027 06:27:19.005   02 Jun 2027 06:27:34.012            15.007              Murmansk1          1850.000
        51   02 Jun 2027 06:27:37.383   02 Jun 2027 06:28:06.073            28.690                 Moscow          1685.500
        52   02 Jun 2027 06:28:07.203   02 Jun 2027 06:28:25.456            18.253                Novosib           565.000
        53   02 Jun 2027 06:28:29.128   02 Jun 2027 06:28:54.945            25.817                Novosib          1836.000
        54   02 Jun 2027 06:28:56.435   02 Jun 2027 06:29:24.970            28.535                Norilsk           745.000
        55   02 Jun 2027 06:29:26.874   02 Jun 2027 06:30:03.486            36.612              Murmansk2           952.000
        56   02 Jun 2027 08:00:15.095   02 Jun 2027 08:00:38.826            23.731                 Moscow          2960.500
        57   02 Jun 2027 08:01:57.296   02 Jun 2027 08:02:29.781            32.485                 Moscow          1983.500
        58   02 Jun 2027 08:02:37.682   02 Jun 2027 08:03:09.542            31.860              Murmansk2          3950.500
        59   02 Jun 2027 08:03:13.016   02 Jun 2027 08:03:33.695            20.679              Murmansk1          1737.000
        60   02 Jun 2027 08:03:37.609   02 Jun 2027 08:03:49.442            11.833              Murmansk1          1479.125
        61   02 Jun 2027 08:03:49.442   02 Jun 2027 08:05:08.021            78.579              Murmansk2           477.875
        62   03 Jun 2027 03:23:32.781   03 Jun 2027 03:24:43.264            70.483                Novosib          5311.000
        63   03 Jun 2027 03:24:48.446   03 Jun 2027 03:25:41.814            53.368                Norilsk          2591.000
        64   03 Jun 2027 03:25:45.016   03 Jun 2027 03:26:01.216            16.200                Novosib          1601.000
        65   03 Jun 2027 03:26:12.221   03 Jun 2027 03:27:02.269            50.048                Irkutsk          5502.500
        66   03 Jun 2027 03:27:14.368   03 Jun 2027 03:28:19.436            65.068                Novosib          6049.500
        67   03 Jun 2027 03:28:34.381   03 Jun 2027 03:30:17.373           102.992                Novosib          7472.500
        68   03 Jun 2027 05:00:34.531   03 Jun 2027 05:01:36.579            62.048                Norilsk          7267.000
        69   03 Jun 2027 05:01:40.094   03 Jun 2027 05:02:06.929            26.835                Norilsk          1757.500
        70   03 Jun 2027 05:02:12.450   03 Jun 2027 05:02:38.741            26.291              Murmansk1          2760.500
        71   03 Jun 2027 05:02:50.446   03 Jun 2027 05:03:42.170            51.724                Novosib          5852.500
        72   03 Jun 2027 05:03:43.594   03 Jun 2027 05:03:48.082             4.488                Irkutsk           561.000
        73   03 Jun 2027 05:04:00.590   03 Jun 2027 05:04:44.462            43.872                Norilsk          5484.000
        74   03 Jun 2027 05:04:52.331   03 Jun 2027 05:05:33.032            40.701                Irkutsk          4855.500
        75   03 Jun 2027 06:37:14.574   03 Jun 2027 06:37:58.718            44.144              Murmansk2          4421.500
        76   03 Jun 2027 06:38:06.264   03 Jun 2027 06:38:43.521            37.257                Norilsk          3773.000
        77   03 Jun 2027 06:38:48.907   03 Jun 2027 06:39:12.345            23.438                 Moscow          2693.000
        78   03 Jun 2027 06:39:19.463   03 Jun 2027 06:40:04.142            44.679              Murmansk1          3559.000
        79   03 Jun 2027 06:40:11.632   03 Jun 2027 06:40:45.379            33.747                Norilsk          3745.000
        80   03 Jun 2027 06:40:48.874   03 Jun 2027 06:41:16.953            28.079              Murmansk2          1747.500
        81   03 Jun 2027 06:41:18.353   03 Jun 2027 06:42:01.240            42.887              Murmansk1           700.000
        82   03 Jun 2027 08:15:17.762   03 Jun 2027 08:16:26.379            68.617                 Moscow           216.500
        83   04 Jun 2027 03:35:50.012   04 Jun 2027 03:36:07.793            17.781                Novosib           635.000
        84   04 Jun 2027 03:36:18.626   04 Jun 2027 03:37:08.506            49.880                Novosib          5416.500
        85   04 Jun 2027 03:37:10.154   04 Jun 2027 03:37:22.491            12.337                Irkutsk           824.000
        86   04 Jun 2027 03:37:28.126   04 Jun 2027 03:39:06.200            98.074                Irkutsk          2817.500
        87   04 Jun 2027 03:39:15.669   04 Jun 2027 03:39:41.063            25.394                Norilsk          3174.250
        88   04 Jun 2027 03:39:50.714   04 Jun 2027 03:41:23.114            92.400                Irkutsk          6385.750
        89   04 Jun 2027 03:41:34.028   04 Jun 2027 03:42:15.636            41.608                Norilsk          5201.000
        90   04 Jun 2027 03:42:24.843   04 Jun 2027 03:42:49.646            24.803                Novosib           256.000
        91   04 Jun 2027 05:13:22.607   04 Jun 2027 05:14:02.079            39.472              Murmansk1           539.500
        92   04 Jun 2027 05:14:06.724   04 Jun 2027 05:14:31.739            25.015                Norilsk          2322.500
        93   04 Jun 2027 05:14:35.221   04 Jun 2027 05:14:57.589            22.368              Murmansk1          1741.000
        94   04 Jun 2027 05:15:00.807   04 Jun 2027 05:15:13.428            12.621                Norilsk          1577.625
        95   04 Jun 2027 05:15:16.982   04 Jun 2027 05:15:41.810            24.828                 Moscow          1808.375
        96   04 Jun 2027 05:15:46.792   04 Jun 2027 05:16:09.168            22.376                Irkutsk          2491.000
        97   04 Jun 2027 05:16:10.774   04 Jun 2027 05:16:26.037            15.263                 Moscow           803.000
        98   04 Jun 2027 05:16:41.912   04 Jun 2027 05:16:53.417            11.505                Novosib          1438.125
        99   04 Jun 2027 05:16:58.323   04 Jun 2027 05:18:20.567            82.244                Norilsk          8952.375
       100   04 Jun 2027 06:49:34.949   04 Jun 2027 06:50:38.745            63.796                Norilsk          4729.000
       101   04 Jun 2027 06:50:46.694   04 Jun 2027 06:51:33.647            46.953                 Moscow          3974.500
       102   04 Jun 2027 06:51:45.322   04 Jun 2027 06:52:54.943            69.621                 Moscow          5837.500
       103   04 Jun 2027 06:52:59.346   04 Jun 2027 06:54:40.952           101.606                Novosib          2201.500
       104   05 Jun 2027 03:48:08.790   05 Jun 2027 03:48:50.396            41.606                Irkutsk          5200.750
       105   05 Jun 2027 03:48:58.592   05 Jun 2027 03:49:53.776            55.184                Novosib          5125.250
       106   05 Jun 2027 03:50:05.842   05 Jun 2027 03:50:37.730            31.888                Norilsk          3986.000
       107   05 Jun 2027 03:50:40.539   05 Jun 2027 03:51:12.580            32.041                Norilsk          3451.500
       108   05 Jun 2027 03:51:13.506   05 Jun 2027 03:51:29.725            16.219                Irkutsk           463.000
       109   05 Jun 2027 03:51:31.693   05 Jun 2027 03:51:45.251            13.558              Murmansk1           984.000
       110   05 Jun 2027 03:51:52.132   05 Jun 2027 03:52:46.033            53.901                Novosib          3440.500
       111   05 Jun 2027 03:52:46.372   05 Jun 2027 03:53:06.286            19.914              Murmansk2           169.500
       112   05 Jun 2027 03:53:22.509   05 Jun 2027 03:54:29.142            66.633                Norilsk          8111.500
       113   05 Jun 2027 05:25:31.575   05 Jun 2027 05:26:05.394            33.819                Irkutsk          1844.000
       114   05 Jun 2027 05:26:13.318   05 Jun 2027 05:26:59.717            46.399              Murmansk1          3962.000
       115   05 Jun 2027 05:27:00.322   05 Jun 2027 05:27:11.031            10.709                Novosib           302.500
       116   05 Jun 2027 05:27:18.939   05 Jun 2027 05:28:09.026            50.087              Murmansk2          3954.000
       117   05 Jun 2027 05:28:09.156   05 Jun 2027 05:28:28.186            19.030                Norilsk            65.000
       118   05 Jun 2027 05:28:31.569   05 Jun 2027 05:29:15.284            43.715                 Moscow          1691.500
       119   05 Jun 2027 05:29:25.295   05 Jun 2027 05:29:49.333            24.038                Novosib          3004.750
       120   05 Jun 2027 05:29:51.221   05 Jun 2027 05:30:40.357            49.136                 Moscow          2944.750
       121   05 Jun 2027 07:01:33.339   05 Jun 2027 07:02:17.920            44.581              Murmansk2          2374.500
       122   05 Jun 2027 07:02:22.487   05 Jun 2027 07:02:47.604            25.117                 Moscow          2283.500
       123   05 Jun 2027 07:02:54.250   05 Jun 2027 07:03:30.364            36.114                Norilsk          3323.000
       124   05 Jun 2027 07:03:42.150   05 Jun 2027 07:05:02.961            80.811                Norilsk          5893.000
       125   05 Jun 2027 07:05:04.326   05 Jun 2027 07:05:56.453            52.127              Murmansk1           682.500
       126   05 Jun 2027 07:06:13.818   05 Jun 2027 07:07:44.331            90.513                Norilsk          8682.500
       127   06 Jun 2027 03:59:46.330   06 Jun 2027 04:00:40.959            54.629                Irkutsk          3348.000
       128   06 Jun 2027 04:00:52.087   06 Jun 2027 04:01:45.938            53.851                Norilsk          5564.000
       129   06 Jun 2027 04:01:46.727   06 Jun 2027 04:02:28.406            41.679                Novosib           394.500
       130   06 Jun 2027 04:02:28.535   06 Jun 2027 04:02:42.508            13.973                Norilsk            64.500
       131   06 Jun 2027 04:02:42.607   06 Jun 2027 04:03:24.357            41.750                Irkutsk            49.500
       132   06 Jun 2027 04:03:25.579   06 Jun 2027 04:03:43.877            18.298                Novosib           611.000
       133   06 Jun 2027 04:03:52.516   06 Jun 2027 04:04:37.069            44.553                Norilsk          4319.500
       134   06 Jun 2027 04:04:40.676   06 Jun 2027 04:05:03.280            22.604              Murmansk1          1803.500
       135   06 Jun 2027 04:05:10.942   06 Jun 2027 04:05:50.706            39.764                Norilsk          3831.000
       136   06 Jun 2027 04:05:56.169   06 Jun 2027 04:06:29.930            33.761                Novosib          2731.500
       137   06 Jun 2027 05:38:07.239   06 Jun 2027 05:38:50.240            43.001                Norilsk          5106.000
       138   06 Jun 2027 05:38:57.206   06 Jun 2027 05:39:31.784            34.578                Irkutsk          3483.000
       139   06 Jun 2027 05:39:34.305   06 Jun 2027 05:40:34.189            59.884                Irkutsk          1260.500
       140   06 Jun 2027 05:40:39.081   06 Jun 2027 05:41:00.207            21.126                Novosib          2446.000
       141   06 Jun 2027 05:41:07.132   06 Jun 2027 05:42:00.176            53.044                 Moscow          3462.500
       142   06 Jun 2027 07:12:02.083   06 Jun 2027 07:12:19.365            17.282              Murmansk1          1919.000
       143   06 Jun 2027 07:12:37.881   06 Jun 2027 07:13:52.847            74.966                Novosib          9258.000
       144   06 Jun 2027 07:14:07.588   06 Jun 2027 07:14:59.682            52.094              Murmansk2          6511.750
       145   06 Jun 2027 07:14:59.682   06 Jun 2027 07:15:22.267            22.585              Murmansk1           858.750
       146   06 Jun 2027 07:15:27.755   06 Jun 2027 07:16:14.950            47.195              Murmansk2          2744.000
       147   06 Jun 2027 07:16:15.309   06 Jun 2027 07:16:34.659            19.350              Murmansk2           179.500
       148   06 Jun 2027 07:16:38.723   06 Jun 2027 07:16:58.982            20.259              Murmansk1          2032.000
       149   06 Jun 2027 07:17:05.980   06 Jun 2027 07:18:18.143            72.163                 Moscow          3499.000
       150   06 Jun 2027 07:18:26.224   06 Jun 2027 07:18:59.947            33.723                Norilsk          4040.500
       151   07 Jun 2027 04:12:04.618   07 Jun 2027 04:12:39.245            34.627                Novosib          1969.500
       152   07 Jun 2027 04:12:56.972   07 Jun 2027 04:14:37.950           100.978                Novosib          8863.500
       153   07 Jun 2027 04:14:38.669   07 Jun 2027 04:14:46.075             7.406              Murmansk1           359.500
       154   07 Jun 2027 04:14:57.092   07 Jun 2027 04:16:46.343           109.251                Novosib          5508.500
       155   07 Jun 2027 04:16:50.276   07 Jun 2027 04:17:11.374            21.098              Murmansk1          1966.500
       156   07 Jun 2027 04:17:18.935   07 Jun 2027 04:17:59.544            40.609                 Moscow          3780.500
       157   07 Jun 2027 04:18:05.361   07 Jun 2027 04:18:33.841            28.480              Murmansk1          2908.500
       158   07 Jun 2027 05:50:01.395   07 Jun 2027 05:50:39.602            38.207              Murmansk1          3320.500
       159   07 Jun 2027 05:50:51.897   07 Jun 2027 05:51:43.260            51.363                Norilsk          6147.500
       160   07 Jun 2027 05:51:44.915   07 Jun 2027 05:51:58.946            14.031              Murmansk1           827.500
       161   07 Jun 2027 05:52:01.172   07 Jun 2027 05:52:15.495            14.323                Norilsk          1113.000
       162   07 Jun 2027 05:52:17.386   07 Jun 2027 05:52:20.208             2.822                 Moscow           352.750
       163   07 Jun 2027 05:52:25.308   07 Jun 2027 05:52:51.074            25.766              Murmansk1          3142.750
       164   07 Jun 2027 05:52:55.791   07 Jun 2027 05:53:23.526            27.735                 Moscow          2358.500
       165   07 Jun 2027 05:53:28.467   07 Jun 2027 05:53:52.459            23.992                Novosib          2470.500
       166   07 Jun 2027 05:54:17.011   07 Jun 2027 05:54:22.182             5.171                 Moscow           591.500
       167   07 Jun 2027 07:23:21.811   07 Jun 2027 07:24:47.916            86.105                 Moscow         10305.500
       168   07 Jun 2027 07:24:49.111   07 Jun 2027 07:24:54.526             5.415              Murmansk1           597.500
       169   07 Jun 2027 07:25:01.269   07 Jun 2027 07:26:08.197            66.928                Novosib          3371.500
       170   07 Jun 2027 07:26:30.308   07 Jun 2027 07:28:03.095            92.787              Murmansk1         11055.500
       171   07 Jun 2027 07:28:03.152   07 Jun 2027 07:28:15.393            12.241                 Moscow            28.500
       172   07 Jun 2027 07:28:19.012   07 Jun 2027 07:28:51.653            32.641                Norilsk          1809.500
       173   07 Jun 2027 07:28:51.927   07 Jun 2027 07:30:14.191            82.264                 Moscow           137.000
       174   07 Jun 2027 07:30:20.874   07 Jun 2027 07:31:43.444            82.570                 Moscow          3341.500
       175   08 Jun 2027 04:23:52.590   08 Jun 2027 04:23:57.910             5.320                Novosib           275.000
       176   08 Jun 2027 04:23:58.584   08 Jun 2027 04:24:00.654             2.070                  Delhi           258.750
       177   08 Jun 2027 04:24:15.452   08 Jun 2027 04:25:31.586            76.134                Norilsk          7477.250
       178   08 Jun 2027 04:25:34.613   08 Jun 2027 04:25:38.044             3.431                Irkutsk           428.875
       179   08 Jun 2027 04:25:48.394   08 Jun 2027 04:26:45.888            57.494                Norilsk          6259.625
       180   08 Jun 2027 04:26:47.830   08 Jun 2027 04:27:00.685            12.855              Murmansk2           971.000
       181   08 Jun 2027 04:27:05.445   08 Jun 2027 04:27:19.188            13.743                Novosib          1717.875
       182   08 Jun 2027 04:27:35.283   08 Jun 2027 04:29:30.947           115.664                 Moscow          8709.625
       183   08 Jun 2027 04:29:49.907   08 Jun 2027 04:31:16.070            86.163                Norilsk          9480.000
       184   08 Jun 2027 06:02:00.646   08 Jun 2027 06:02:25.197            24.551                Irkutsk          2929.000
       185   08 Jun 2027 06:02:27.791   08 Jun 2027 06:03:17.888            50.097                 Moscow          1297.000
       186   08 Jun 2027 06:03:20.096   08 Jun 2027 06:03:56.690            36.594                Norilsk          1104.000
       187   08 Jun 2027 06:04:00.471   08 Jun 2027 06:04:35.733            35.262                Novosib          1890.500
       188   08 Jun 2027 06:04:42.402   08 Jun 2027 06:05:35.499            53.097                Norilsk          3334.500
       189   08 Jun 2027 06:05:44.675   08 Jun 2027 06:06:29.788            45.113                 Moscow          4588.000
       190   08 Jun 2027 07:35:39.317   08 Jun 2027 07:36:58.932            79.615                 Moscow          4078.500
       191   08 Jun 2027 07:37:01.689   08 Jun 2027 07:37:21.211            19.522                 Moscow          1378.500
       192   08 Jun 2027 07:37:46.992   08 Jun 2027 07:39:51.879           124.887                 Moscow         12890.500
       193   08 Jun 2027 07:39:56.569   08 Jun 2027 07:40:19.314            22.745                Norilsk          2345.000
       194   08 Jun 2027 07:40:22.908   08 Jun 2027 07:41:01.762            38.854                 Moscow          1797.000
       195   08 Jun 2027 07:41:02.710   08 Jun 2027 07:42:08.609            65.899                Norilsk           474.000
       196   08 Jun 2027 07:42:13.023   08 Jun 2027 07:42:37.839            24.816                 Moscow          2207.000
       197   08 Jun 2027 07:42:38.201   08 Jun 2027 07:42:40.332             2.131                Norilsk           181.000
       198   08 Jun 2027 07:42:47.033   08 Jun 2027 07:43:41.175            54.142              Murmansk2          3350.500
       199   09 Jun 2027 03:00:01.696   09 Jun 2027 03:00:57.501            55.805                Novosib           848.000
       200   09 Jun 2027 03:00:58.701   09 Jun 2027 03:01:10.690            11.989               Magadan2           600.000
       201   09 Jun 2027 03:01:13.396   09 Jun 2027 03:01:25.255            11.859               Magadan1          1353.000
       202   09 Jun 2027 03:01:26.839   09 Jun 2027 03:01:46.295            19.456               Magadan1           792.000
       203   09 Jun 2027 03:01:55.048   09 Jun 2027 03:02:42.066            47.018                Norilsk          4376.500
       204   09 Jun 2027 03:02:49.550   09 Jun 2027 03:03:38.133            48.583                Norilsk          3742.000
       205   09 Jun 2027 03:03:42.635   09 Jun 2027 03:04:15.143            32.508                Novosib          2251.000
       206   09 Jun 2027 03:04:32.045   09 Jun 2027 03:04:51.340            19.295               Magadan2          2411.875
       207   09 Jun 2027 03:04:54.610   09 Jun 2027 03:06:02.755            68.145                Irkutsk          7674.125
       208   09 Jun 2027 03:06:06.128   09 Jun 2027 03:06:22.300            16.172              Murmansk2          1686.500
       209   09 Jun 2027 03:06:31.109   09 Jun 2027 03:07:06.843            35.734              Murmansk2          4004.500
       210   09 Jun 2027 04:36:00.902   09 Jun 2027 04:37:06.840            65.938                Novosib          4406.000
       211   09 Jun 2027 04:37:20.061   09 Jun 2027 04:37:49.145            29.084                Norilsk          3635.500
       212   09 Jun 2027 04:37:51.178   09 Jun 2027 04:38:28.108            36.930                Novosib          3991.500
       213   09 Jun 2027 04:38:33.819   09 Jun 2027 04:39:02.790            28.971                Novosib          2855.500
       214   09 Jun 2027 04:39:05.425   09 Jun 2027 04:39:16.500            11.075                 Moscow          1317.500
       215   09 Jun 2027 04:39:31.510   09 Jun 2027 04:41:09.592            98.082                 Moscow          7505.000
       216   09 Jun 2027 04:41:09.726   09 Jun 2027 04:41:13.972             4.246              Murmansk1            67.000
       217   09 Jun 2027 04:41:18.148   09 Jun 2027 04:41:45.319            27.171                Norilsk          2088.000
       218   09 Jun 2027 04:41:49.344   09 Jun 2027 04:41:57.885             8.541                Novosib          1067.625
       219   09 Jun 2027 04:42:01.323   09 Jun 2027 04:42:34.086            32.763                Norilsk          2663.875
       220   09 Jun 2027 06:13:46.519   09 Jun 2027 06:14:07.331            20.812                Norilsk          2122.500
       221   09 Jun 2027 06:14:18.512   09 Jun 2027 06:15:15.808            57.296                Novosib          5590.500
       222   09 Jun 2027 06:15:19.407   09 Jun 2027 06:15:33.808            14.401              Murmansk2          1799.500
       223   09 Jun 2027 06:15:38.914   09 Jun 2027 06:16:12.287            33.373                Novosib          2553.000
       224   09 Jun 2027 06:16:13.924   09 Jun 2027 06:16:28.978            15.054                 Moscow           818.500
       225   09 Jun 2027 06:16:29.181   09 Jun 2027 06:16:39.849            10.668                Norilsk           101.500
       226   09 Jun 2027 06:16:49.455   09 Jun 2027 06:17:49.445            59.990                Norilsk          4803.000
       227   09 Jun 2027 06:17:50.961   09 Jun 2027 06:17:57.437             6.476              Murmansk2           758.000
       228   09 Jun 2027 06:18:06.286   09 Jun 2027 06:18:43.929            37.643                Novosib          2793.500
       229   09 Jun 2027 07:49:50.985   09 Jun 2027 07:51:02.690            71.705              Murmansk2          4913.500
       230   09 Jun 2027 07:51:21.364   09 Jun 2027 07:52:50.474            89.110              Murmansk2          9337.000
       231   09 Jun 2027 07:52:51.721   09 Jun 2027 07:53:13.279            21.558                 Moscow           623.500
       232   09 Jun 2027 07:53:27.962   09 Jun 2027 07:54:37.158            69.196              Murmansk2          7341.500
       233   10 Jun 2027 03:11:32.295   10 Jun 2027 03:12:56.772            84.477                Norilsk          7862.500
       234   10 Jun 2027 03:12:59.031   10 Jun 2027 03:13:09.104            10.073                Novosib          1129.500
       235   10 Jun 2027 03:13:11.992   10 Jun 2027 03:13:48.004            36.012               Magadan2          1444.000
       236   10 Jun 2027 03:13:50.931   10 Jun 2027 03:13:52.878             1.947                Irkutsk           243.375
       237   10 Jun 2027 03:13:55.813   10 Jun 2027 03:14:42.158            46.345                Norilsk          2687.625
       238   10 Jun 2027 03:14:42.766   10 Jun 2027 03:14:59.424            16.658                Novosib           304.000
       239   10 Jun 2027 03:15:07.618   10 Jun 2027 03:15:45.922            38.304               Magadan2          4097.000
       240   10 Jun 2027 03:15:55.907   10 Jun 2027 03:16:02.353             6.446               Magadan2           805.750
       241   10 Jun 2027 03:16:02.759   10 Jun 2027 03:16:17.990            15.231                Novosib          1903.875
       242   10 Jun 2027 03:16:25.599   10 Jun 2027 03:17:37.258            71.659                Norilsk          6290.375
       243   10 Jun 2027 03:17:38.459   10 Jun 2027 03:17:46.949             8.490              Murmansk2           600.500
       244   10 Jun 2027 03:17:58.292   10 Jun 2027 03:18:52.886            54.594                Novosib          5671.500
       245   10 Jun 2027 04:48:49.416   10 Jun 2027 04:49:08.660            19.244                Norilsk          2405.500
       246   10 Jun 2027 04:49:12.566   10 Jun 2027 04:50:10.682            58.116                Novosib          7264.500
       247   10 Jun 2027 04:50:18.752   10 Jun 2027 04:51:15.767            57.015                 Moscow          6764.000
       248   10 Jun 2027 04:51:16.608   10 Jun 2027 04:51:33.983            17.375                Norilsk           420.500
       249   10 Jun 2027 04:51:35.305   10 Jun 2027 04:51:51.178            15.873                Norilsk           661.000
       250   10 Jun 2027 04:51:55.602   10 Jun 2027 04:52:13.900            18.298              Murmansk2          2212.000
       251   10 Jun 2027 04:52:24.167   10 Jun 2027 04:53:16.546            52.379                 Moscow          5133.500
       252   10 Jun 2027 04:53:21.537   10 Jun 2027 04:54:10.256            48.719                 Moscow          2495.500
       253   10 Jun 2027 04:54:11.573   10 Jun 2027 04:54:21.197             9.624              Murmansk2           658.500
       254   10 Jun 2027 06:25:25.782   10 Jun 2027 06:26:26.489            60.707                Norilsk          7131.000
       255   10 Jun 2027 06:26:31.185   10 Jun 2027 06:27:18.505            47.320                 Moscow          2348.000
       256   10 Jun 2027 06:27:26.039   10 Jun 2027 06:28:20.998            54.959                 Moscow          3767.000
       257   10 Jun 2027 06:28:22.223   10 Jun 2027 06:28:41.792            19.569                Novosib           612.500
       258   10 Jun 2027 06:28:50.493   10 Jun 2027 06:29:41.550            51.057              Murmansk1          4350.500
       259   10 Jun 2027 06:29:44.701   10 Jun 2027 06:30:19.093            34.392              Murmansk2          1575.500
       260   10 Jun 2027 08:00:29.324   10 Jun 2027 08:00:55.295            25.971                 Moscow          1331.000
       261   10 Jun 2027 08:02:11.339   10 Jun 2027 08:02:48.011            36.672                 Moscow          1479.500
       262   10 Jun 2027 08:03:03.113   10 Jun 2027 08:03:52.557            49.444              Murmansk2          6180.500
       263   10 Jun 2027 08:03:52.557   10 Jun 2027 08:04:04.042            11.485              Murmansk1          1370.500
       264   10 Jun 2027 08:04:33.471   10 Jun 2027 08:06:40.185           126.714                 Moscow         14714.500
       265   11 Jun 2027 03:23:48.989   11 Jun 2027 03:25:01.161            72.172                Novosib          6042.000
       266   11 Jun 2027 03:25:04.261   11 Jun 2027 03:25:16.678            12.417                Novosib          1550.000
       267   11 Jun 2027 03:25:31.258   11 Jun 2027 03:25:39.426             8.168                Irkutsk          1021.000
       268   11 Jun 2027 03:25:45.296   11 Jun 2027 03:27:04.670            79.374                Novosib          9204.000
       269   11 Jun 2027 03:27:15.031   11 Jun 2027 03:28:00.607            45.576                Norilsk          5180.500
       270   11 Jun 2027 03:28:17.508   11 Jun 2027 03:29:35.669            78.161              Murmansk2          8450.500
       271   11 Jun 2027 03:29:41.573   11 Jun 2027 03:30:41.216            59.643                Novosib          2952.000
       272   11 Jun 2027 05:00:54.140   11 Jun 2027 05:02:06.446            72.306                Irkutsk          9038.250
       273   11 Jun 2027 05:02:13.463   11 Jun 2027 05:03:15.107            61.644                Irkutsk          4127.750
       274   11 Jun 2027 05:03:21.713   11 Jun 2027 05:03:53.253            31.540                Norilsk          3303.000
       275   11 Jun 2027 05:03:53.266   11 Jun 2027 05:04:25.695            32.429                 Moscow             6.500
       276   11 Jun 2027 05:04:31.715   11 Jun 2027 05:04:58.990            27.275                Norilsk          3010.000
       277   11 Jun 2027 05:05:02.347   11 Jun 2027 05:05:45.171            42.824              Murmansk1          1678.500
       278   11 Jun 2027 06:37:29.129   11 Jun 2027 06:38:13.770            44.641              Murmansk2          4375.000
       279   11 Jun 2027 06:38:23.888   11 Jun 2027 06:38:59.044            35.156                Norilsk          4394.500
       280   11 Jun 2027 06:39:04.979   11 Jun 2027 06:39:45.608            40.629                 Moscow          3632.000
       281   11 Jun 2027 06:39:46.405   11 Jun 2027 06:40:20.767            34.362              Murmansk2           398.500
       282   11 Jun 2027 06:40:27.350   11 Jun 2027 06:41:46.343            78.993                 Moscow          3291.500
       283   11 Jun 2027 06:42:04.728   11 Jun 2027 06:43:00.944            56.216                 Moscow          6953.000
       284   11 Jun 2027 08:15:33.251   11 Jun 2027 08:16:41.082            67.831                 Moscow           608.000
       285   12 Jun 2027 03:36:21.693   12 Jun 2027 03:37:58.023            96.330                Norilsk          8470.000
       286   12 Jun 2027 03:38:00.757   12 Jun 2027 03:39:21.300            80.543                Irkutsk          1367.000
       287   12 Jun 2027 03:39:30.433   12 Jun 2027 03:40:20.288            49.855                Norilsk          4566.500
       288   12 Jun 2027 03:40:20.895   12 Jun 2027 03:40:44.092            23.197              Murmansk2           303.500
       289   12 Jun 2027 03:40:44.168   12 Jun 2027 03:40:59.436            15.268                Novosib            38.000
       290   12 Jun 2027 03:41:01.257   12 Jun 2027 03:41:28.504            27.247              Murmansk2           910.500
       291   12 Jun 2027 03:41:31.866   12 Jun 2027 03:42:01.358            29.492                Novosib          1681.000
       292   12 Jun 2027 03:42:02.107   12 Jun 2027 03:42:19.600            17.493                Irkutsk           374.500
       293   12 Jun 2027 03:42:24.495   12 Jun 2027 03:42:35.777            11.282                Irkutsk          1410.250
       294   12 Jun 2027 03:42:42.938   12 Jun 2027 03:43:06.646            23.708                Novosib          1037.250
       295   12 Jun 2027 05:13:37.365   12 Jun 2027 05:14:16.571            39.206              Murmansk2           492.000
       296   12 Jun 2027 05:14:21.341   12 Jun 2027 05:14:49.671            28.330                Norilsk          2385.000
       297   12 Jun 2027 05:14:49.979   12 Jun 2027 05:15:15.210            25.231              Murmansk1           154.000
       298   12 Jun 2027 05:15:16.368   12 Jun 2027 05:16:19.510            63.142                Novosib           579.000
       299   12 Jun 2027 05:16:21.792   12 Jun 2027 05:16:41.695            19.903                 Moscow          1141.000
       300   12 Jun 2027 05:16:56.086   12 Jun 2027 05:17:07.987            11.901                Novosib          1487.625
       301   12 Jun 2027 05:17:13.226   12 Jun 2027 05:18:36.941            83.715                Norilsk          8327.375
       302   12 Jun 2027 06:49:49.766   12 Jun 2027 06:50:14.281            24.515                Norilsk          3064.375
       303   12 Jun 2027 06:50:36.308   12 Jun 2027 06:52:16.302            99.994              Murmansk1         12334.125
       304   12 Jun 2027 06:52:29.308   12 Jun 2027 06:53:28.021            58.713                Novosib          6503.000
       305   12 Jun 2027 06:53:28.878   12 Jun 2027 06:53:41.189            12.311                 Moscow           428.500
       306   12 Jun 2027 06:53:42.202   12 Jun 2027 06:54:33.405            51.203                 Moscow           506.500
       307   13 Jun 2027 03:48:18.530   13 Jun 2027 03:49:08.643            50.113                Norilsk          3520.000
       308   13 Jun 2027 03:49:14.421   13 Jun 2027 03:50:07.790            53.369                Novosib          2889.000
       309   13 Jun 2027 03:50:21.331   13 Jun 2027 03:51:27.365            66.034                Norilsk          6770.500
       310   13 Jun 2027 03:51:28.679   13 Jun 2027 03:51:43.613            14.934                Irkutsk           657.000
       311   13 Jun 2027 03:51:44.444   13 Jun 2027 03:52:06.503            22.059                Novosib           415.500
       312   13 Jun 2027 03:52:21.538   13 Jun 2027 03:53:13.106            51.568                Norilsk          6446.000
       313   13 Jun 2027 03:53:16.058   13 Jun 2027 03:53:46.829            30.771                Novosib          2547.500
       314   13 Jun 2027 03:53:47.442   13 Jun 2027 03:54:03.919            16.477              Murmansk2           306.500
       315   13 Jun 2027 03:54:09.558   13 Jun 2027 03:54:46.388            36.830              Murmansk2          1341.500
       316   13 Jun 2027 05:25:50.955   13 Jun 2027 05:26:29.540            38.585              Murmansk1          4470.000
       317   13 Jun 2027 05:26:31.741   13 Jun 2027 05:26:45.683            13.942                 Moscow          1100.500
       318   13 Jun 2027 05:26:45.809   13 Jun 2027 05:26:54.470             8.661              Murmansk1            63.000
       319   13 Jun 2027 05:27:07.584   13 Jun 2027 05:28:26.046            78.462                Norilsk          6557.000
       320   13 Jun 2027 05:28:30.476   13 Jun 2027 05:28:50.213            19.737                 Moscow          2215.000
       321   13 Jun 2027 05:28:59.508   13 Jun 2027 05:29:43.592            44.084                Novosib          4647.500
       322   13 Jun 2027 05:29:47.621   13 Jun 2027 05:30:04.853            17.232              Murmansk2          2014.500
       323   13 Jun 2027 05:30:12.535   13 Jun 2027 05:30:59.699            47.164              Murmansk2          3841.000
       324   13 Jun 2027 07:01:48.380   13 Jun 2027 07:02:32.586            44.206              Murmansk1          2608.500
       325   13 Jun 2027 07:02:34.292   13 Jun 2027 07:02:46.095            11.803              Murmansk2           853.000
       326   13 Jun 2027 07:02:50.168   13 Jun 2027 07:03:08.981            18.813                Norilsk          2036.500
       327   13 Jun 2027 07:03:15.773   13 Jun 2027 07:03:43.333            27.560              Murmansk1          3396.000
       328   13 Jun 2027 07:03:46.018   13 Jun 2027 07:03:56.934            10.916                Norilsk          1342.500
       329   13 Jun 2027 07:03:57.017   13 Jun 2027 07:04:02.703             5.686                Novosib            41.500
       330   13 Jun 2027 07:04:04.686   13 Jun 2027 07:04:34.382            29.696                Norilsk           991.500
       331   13 Jun 2027 07:04:38.233   13 Jun 2027 07:04:52.981            14.748                 Moscow          1843.500
       332   13 Jun 2027 07:05:04.399   13 Jun 2027 07:06:10.562            66.163              Murmansk2          5791.000
       333   13 Jun 2027 07:06:11.058   13 Jun 2027 07:06:34.353            23.295              Murmansk2           248.000
       334   13 Jun 2027 07:06:38.194   13 Jun 2027 07:07:32.810            54.616                 Moscow          1920.500
