uniorb/output/strategy_2/Drop/Drop_KinoSat_110709.txt

KinoSat_110709
-------------------------
    Access    *     Start Time (UTCG)     *     Stop Time (UTCG)  *   Duration (s)        *       Station  *  Data (Mbytes)
         1   01 Jun 2027 03:01:31.758   01 Jun 2027 03:01:41.989            10.231               Magadan1           319.719
         2   01 Jun 2027 03:02:01.530   01 Jun 2027 03:03:51.803           110.273                Anadyr1          3446.031
         3   01 Jun 2027 03:04:13.851   01 Jun 2027 03:06:54.669           160.818                Anadyr2          5025.563
         4   01 Jun 2027 04:38:32.043   01 Jun 2027 04:38:54.970            22.927                Irkutsk           716.469
         5   01 Jun 2027 04:40:40.623   01 Jun 2027 04:40:59.121            18.498               Magadan1           578.062
         6   01 Jun 2027 04:41:01.122   01 Jun 2027 04:41:10.140             9.018                Anadyr2           281.813
         7   01 Jun 2027 04:41:17.090   01 Jun 2027 04:41:27.324            10.234                Anadyr1           319.813
         8   01 Jun 2027 04:41:27.324   01 Jun 2027 04:41:47.784            20.460                Anadyr2           639.375
         9   01 Jun 2027 04:42:19.229   01 Jun 2027 04:42:22.501             3.272                Norilsk           102.250
        10   01 Jun 2027 04:42:33.816   01 Jun 2027 04:43:14.747            40.931                Norilsk          1279.094
        11   01 Jun 2027 05:19:34.986   01 Jun 2027 05:22:54.240           199.254            RioGallegos          6226.687
        12   01 Jun 2027 06:14:58.854   01 Jun 2027 06:16:49.682           110.828               Magadan1          3463.375
        13   01 Jun 2027 06:16:53.063   01 Jun 2027 06:17:00.072             7.009               Magadan2           219.031
        14   01 Jun 2027 06:17:21.470   01 Jun 2027 06:18:33.198            71.728                Irkutsk          2241.500
        15   01 Jun 2027 06:18:39.639   01 Jun 2027 06:19:28.685            49.046              Murmansk2          1532.688
        16   01 Jun 2027 06:19:40.870   01 Jun 2027 06:19:59.950            19.080                Novosib           596.250
        17   01 Jun 2027 06:20:01.910   01 Jun 2027 06:20:09.172             7.262                Norilsk           226.938
        18   01 Jun 2027 06:20:11.484   01 Jun 2027 06:20:21.430             9.946                Norilsk           310.813
        19   01 Jun 2027 06:20:23.046   01 Jun 2027 06:20:30.395             7.349                Novosib           229.656
        20   01 Jun 2027 06:20:34.120   01 Jun 2027 06:20:48.874            14.754              Murmansk1           461.062
        21   01 Jun 2027 06:20:56.452   01 Jun 2027 06:21:23.619            27.167                Norilsk           848.969
        22   01 Jun 2027 06:24:26.627   01 Jun 2027 06:24:29.380             2.753              Murmansk1            86.031
        23   01 Jun 2027 06:54:03.373   01 Jun 2027 06:55:53.673           110.300            RioGallegos          3446.875
        24   01 Jun 2027 07:29:13.928   01 Jun 2027 07:33:16.538           242.610                Sumatra          7581.562
        25   01 Jun 2027 07:41:15.224   01 Jun 2027 07:42:56.365           101.141                  Delhi          3160.656
        26   01 Jun 2027 07:51:11.765   01 Jun 2027 07:51:34.915            23.150                Irkutsk           723.438
        27   01 Jun 2027 07:51:46.616   01 Jun 2027 07:51:48.371             1.755              Murmansk2            54.844
        28   01 Jun 2027 07:51:48.371   01 Jun 2027 07:52:35.665            47.294              Murmansk1          1477.938
        29   01 Jun 2027 07:52:37.222   01 Jun 2027 07:54:06.698            89.476                Irkutsk          2796.125
        30   01 Jun 2027 07:54:32.250   01 Jun 2027 07:56:17.008           104.758                 Moscow          3273.687
        31   01 Jun 2027 07:59:30.137   01 Jun 2027 07:59:41.347            11.210                Norilsk           350.313
        32   01 Jun 2027 08:32:25.155   01 Jun 2027 08:33:01.250            36.095            RioGallegos          1127.969
        33   01 Jun 2027 08:34:06.767   01 Jun 2027 08:34:49.395            42.628            RioGallegos          1332.125
        34   01 Jun 2027 08:35:18.369   01 Jun 2027 08:35:34.035            15.666            RioGallegos           489.563
        35   01 Jun 2027 09:06:41.435   01 Jun 2027 09:08:38.591           117.156                Sumatra          3661.125
        36   01 Jun 2027 09:13:10.548   01 Jun 2027 09:15:58.157           167.609                  Delhi          5237.781
        37   01 Jun 2027 09:29:32.520   01 Jun 2027 09:30:52.332            79.812                Novosib          2494.125
        38   01 Jun 2027 09:30:53.981   01 Jun 2027 09:31:25.306            31.325              Murmansk1           978.906
        39   01 Jun 2027 09:31:25.306   01 Jun 2027 09:32:03.362            38.056              Murmansk2          1189.250
        40   01 Jun 2027 09:32:06.927   01 Jun 2027 09:32:29.118            22.191                Norilsk           693.469
        41   01 Jun 2027 09:32:33.824   01 Jun 2027 09:33:11.918            38.094                 Moscow          1190.438
        42   01 Jun 2027 10:52:21.830   01 Jun 2027 10:53:26.368            64.538                  Delhi          2016.812
        43   01 Jun 2027 10:55:13.205   01 Jun 2027 10:55:50.838            37.633                  Delhi          1176.031
        44   01 Jun 2027 11:01:48.688   01 Jun 2027 11:01:53.061             4.373              Murmansk1           136.656
        45   01 Jun 2027 11:01:53.138   01 Jun 2027 11:02:10.467            17.329                Novosib           541.531
        46   01 Jun 2027 11:02:25.194   01 Jun 2027 11:05:09.780           164.586                 Moscow          5143.313
        47   01 Jun 2027 11:05:11.760   01 Jun 2027 11:05:20.057             8.297              Murmansk2           259.281
        48   01 Jun 2027 11:05:29.215   01 Jun 2027 11:07:33.928           124.713              Murmansk2          3897.281
        49   01 Jun 2027 11:07:45.814   01 Jun 2027 11:08:01.379            15.565              Murmansk1           486.406
        50   01 Jun 2027 11:08:01.379   01 Jun 2027 11:09:46.007           104.628              Murmansk2          3269.625
        51   01 Jun 2027 12:13:37.941   01 Jun 2027 12:16:09.020           151.079               CapeTown          4721.219
        52   01 Jun 2027 12:34:08.440   01 Jun 2027 12:34:48.570            40.130                 Moscow          1254.063
        53   01 Jun 2027 12:37:33.334   01 Jun 2027 12:41:15.513           222.179              Murmansk2          6943.094
        54   01 Jun 2027 12:41:36.614   01 Jun 2027 12:41:56.362            19.748              Murmansk2           617.125
        55   01 Jun 2027 12:52:27.148   01 Jun 2027 12:56:18.040           230.892                Anadyr1          7215.375
        56   01 Jun 2027 12:57:53.578   01 Jun 2027 12:58:33.682            40.104                Anadyr2          1253.250
        57   01 Jun 2027 14:16:10.050   01 Jun 2027 14:16:15.317             5.267              Murmansk2           164.594
        58   01 Jun 2027 14:17:25.843   01 Jun 2027 14:17:55.940            30.097              Murmansk1           940.531
        59   01 Jun 2027 14:27:40.277   01 Jun 2027 14:31:47.369           247.092                Anadyr2          7721.625
        60   01 Jun 2027 14:32:19.738   01 Jun 2027 14:35:06.760           167.022               Magadan1          5219.438
        61   01 Jun 2027 14:35:55.107   01 Jun 2027 14:36:18.167            23.060               Magadan2           720.625
        62   01 Jun 2027 16:03:31.951   01 Jun 2027 16:04:52.437            80.486                Anadyr1          2515.187
        63   01 Jun 2027 16:05:28.663   01 Jun 2027 16:06:36.470            67.807                Anadyr2          2118.969
        64   01 Jun 2027 16:07:26.397   01 Jun 2027 16:10:09.622           163.225               Magadan1          5100.781
        65   01 Jun 2027 16:11:18.732   01 Jun 2027 16:12:19.174            60.442               Magadan2          1888.812
        66   01 Jun 2027 16:14:17.753   01 Jun 2027 16:14:23.363             5.610               Magadan1           175.313
        67   01 Jun 2027 17:39:25.743   01 Jun 2027 17:42:36.208           190.465                Anadyr2          5952.031
        68   01 Jun 2027 17:42:44.635   01 Jun 2027 17:43:55.026            70.391                Norilsk          2199.719
        69   01 Jun 2027 17:43:55.732   01 Jun 2027 17:45:16.163            80.431               Magadan2          2513.469
        70   01 Jun 2027 17:45:31.941   01 Jun 2027 17:45:51.726            19.785                Norilsk           618.281
        71   01 Jun 2027 18:33:49.545   01 Jun 2027 18:37:26.975           217.430            RioGallegos          6794.687
        72   01 Jun 2027 19:14:59.821   01 Jun 2027 19:16:37.020            97.199                Anadyr2          3037.469
        73   01 Jun 2027 19:17:17.789   01 Jun 2027 19:18:49.516            91.727                Norilsk          2866.469
        74   01 Jun 2027 19:19:03.728   01 Jun 2027 19:19:37.431            33.703               Magadan2          1053.219
        75   01 Jun 2027 19:20:52.961   01 Jun 2027 19:20:58.509             5.548               Magadan1           173.375
        76   01 Jun 2027 19:21:09.514   01 Jun 2027 19:21:33.768            24.254               Magadan1           757.937
        77   01 Jun 2027 19:21:55.641   01 Jun 2027 19:22:09.003            13.362                Irkutsk           417.563
        78   01 Jun 2027 19:23:09.551   01 Jun 2027 19:29:12.807           363.256                Novosib         11351.750
        79   01 Jun 2027 19:35:08.401   01 Jun 2027 19:39:04.026           235.625                Sumatra          7363.281
        80   01 Jun 2027 20:59:28.550   01 Jun 2027 21:00:45.999            77.449                Novosib          2420.281
        81   01 Jun 2027 21:04:54.875   01 Jun 2027 21:09:53.240           298.365                  Delhi          9323.906
        82   01 Jun 2027 22:31:35.140   01 Jun 2027 22:33:37.908           122.768              Murmansk2          3836.500
        83   01 Jun 2027 22:33:42.167   01 Jun 2027 22:36:04.995           142.828                Novosib          4463.375
        84   01 Jun 2027 22:36:14.855   01 Jun 2027 22:42:56.397           401.542                 Moscow         12548.188
        85   02 Jun 2027 00:08:21.832   02 Jun 2027 00:09:19.071            57.239              Murmansk2          1788.719
        86   02 Jun 2027 00:10:41.880   02 Jun 2027 00:12:52.438           130.558                 Moscow          4079.937
        87   02 Jun 2027 00:34:54.888   02 Jun 2027 00:38:46.284           231.396               CapeTown          7231.125
        88   02 Jun 2027 01:35:58.635   02 Jun 2027 01:36:38.813            40.178               Magadan2          1255.562
        89   02 Jun 2027 01:43:44.477   02 Jun 2027 01:44:37.855            53.378              Murmansk2          1668.063
        90   02 Jun 2027 02:11:26.683   02 Jun 2027 02:11:44.126            17.443               CapeTown           545.094
        91   02 Jun 2027 02:15:47.490   02 Jun 2027 02:16:05.935            18.445               CapeTown           576.406
        92   02 Jun 2027 03:08:52.326   02 Jun 2027 03:09:18.201            25.875                Anadyr1           808.594
        93   02 Jun 2027 03:12:13.297   02 Jun 2027 03:12:48.550            35.253               Magadan1          1101.656
        94   02 Jun 2027 03:13:31.562   02 Jun 2027 03:13:42.917            11.355               Magadan2           354.844
        95   02 Jun 2027 03:13:47.557   02 Jun 2027 03:14:51.506            63.949               Magadan1          1998.406
        96   02 Jun 2027 03:15:13.663   02 Jun 2027 03:15:31.030            17.367               Magadan2           542.719
        97   02 Jun 2027 03:15:48.804   02 Jun 2027 03:19:38.284           229.480               Magadan2          7171.250
        98   02 Jun 2027 03:19:50.697   02 Jun 2027 03:20:01.355            10.658                Anadyr1           333.063
        99   02 Jun 2027 04:49:43.244   02 Jun 2027 04:50:56.012            72.768                Irkutsk          2274.000
       100   02 Jun 2027 04:51:30.151   02 Jun 2027 04:52:13.729            43.578               Magadan1          1361.812
       101   02 Jun 2027 04:52:29.790   02 Jun 2027 04:52:53.785            23.995               Magadan2           749.844
       102   02 Jun 2027 04:52:58.931   02 Jun 2027 04:53:45.871            46.940                Anadyr1          1466.875
       103   02 Jun 2027 04:53:45.871   02 Jun 2027 04:55:11.070            85.199                Anadyr2          2662.469
       104   02 Jun 2027 05:31:14.102   02 Jun 2027 05:32:32.919            78.817            RioGallegos          2463.031
       105   02 Jun 2027 05:33:09.724   02 Jun 2027 05:33:43.620            33.896            RioGallegos          1059.250
       106   02 Jun 2027 06:26:29.575   02 Jun 2027 06:26:35.101             5.526               Magadan1           172.687
       107   02 Jun 2027 06:26:35.101   02 Jun 2027 06:26:57.183            22.082               Magadan2           690.063
       108   02 Jun 2027 06:27:09.802   02 Jun 2027 06:28:52.195           102.393               Magadan2          3199.781
       109   02 Jun 2027 06:28:52.195   02 Jun 2027 06:28:52.235             0.040               Magadan1             1.250
       110   02 Jun 2027 06:29:02.935   02 Jun 2027 06:30:24.085            81.150               Magadan1          2535.937
       111   02 Jun 2027 06:30:32.799   02 Jun 2027 06:31:24.538            51.739                Irkutsk          1616.844
       112   02 Jun 2027 06:32:20.606   02 Jun 2027 06:32:49.310            28.704                Norilsk           897.000
       113   02 Jun 2027 07:41:04.366   02 Jun 2027 07:42:16.584            72.218                Sumatra          2256.812
       114   02 Jun 2027 07:43:06.643   02 Jun 2027 07:44:04.680            58.037                Sumatra          1813.656
       115   02 Jun 2027 07:52:11.278   02 Jun 2027 07:54:28.513           137.235                  Delhi          4288.594
       116   02 Jun 2027 08:04:41.292   02 Jun 2027 08:04:41.437             0.145                Irkutsk             4.531
       117   02 Jun 2027 08:04:42.073   02 Jun 2027 08:06:14.611            92.538                Irkutsk          2891.813
       118   02 Jun 2027 08:06:23.146   02 Jun 2027 08:07:07.748            44.602              Murmansk2          1393.812
       119   02 Jun 2027 08:07:54.376   02 Jun 2027 08:09:02.619            68.243              Murmansk1          2132.594
       120   02 Jun 2027 08:45:11.564   02 Jun 2027 08:45:59.985            48.421            RioGallegos          1513.156
       121   02 Jun 2027 08:48:19.354   02 Jun 2027 08:48:24.770             5.416            RioGallegos           169.250
       122   02 Jun 2027 08:53:14.533   02 Jun 2027 08:53:24.084             9.551            RioGallegos           298.469
       123   02 Jun 2027 09:19:46.600   02 Jun 2027 09:20:19.570            32.970                Sumatra          1030.313
       124   02 Jun 2027 09:21:14.549   02 Jun 2027 09:22:45.380            90.831                Sumatra          2838.469
       125   02 Jun 2027 09:25:10.929   02 Jun 2027 09:26:10.524            59.595                  Delhi          1862.344
       126   02 Jun 2027 09:27:14.235   02 Jun 2027 09:27:29.415            15.180                  Delhi           474.375
       127   02 Jun 2027 09:39:33.416   02 Jun 2027 09:39:36.659             3.243              Murmansk1           101.344
       128   02 Jun 2027 09:39:45.069   02 Jun 2027 09:40:35.799            50.730                 Moscow          1585.313
       129   02 Jun 2027 09:40:47.607   02 Jun 2027 09:41:36.729            49.122                Norilsk          1535.063
       130   02 Jun 2027 09:41:39.921   02 Jun 2027 09:42:43.913            63.992              Murmansk1          1999.750
       131   02 Jun 2027 09:42:55.328   02 Jun 2027 09:43:02.381             7.053                Novosib           220.406
       132   02 Jun 2027 09:43:12.530   02 Jun 2027 09:43:28.789            16.259              Murmansk2           508.094
       133   02 Jun 2027 09:43:41.076   02 Jun 2027 09:44:06.684            25.608                Norilsk           800.250
       134   02 Jun 2027 11:06:21.550   02 Jun 2027 11:08:07.908           106.358                  Delhi          3323.687
       135   02 Jun 2027 11:12:52.605   02 Jun 2027 11:13:07.981            15.376                 Moscow           480.500
       136   02 Jun 2027 11:13:40.575   02 Jun 2027 11:14:04.208            23.633              Murmansk1           738.531
       137   02 Jun 2027 11:14:04.208   02 Jun 2027 11:14:38.523            34.315              Murmansk2          1072.344
       138   02 Jun 2027 11:14:43.484   02 Jun 2027 11:14:47.853             4.369              Murmansk2           136.531
       139   02 Jun 2027 11:15:05.100   02 Jun 2027 11:15:30.403            25.303              Murmansk1           790.719
       140   02 Jun 2027 11:15:30.403   02 Jun 2027 11:15:50.052            19.649              Murmansk2           614.031
       141   02 Jun 2027 11:16:22.187   02 Jun 2027 11:16:25.934             3.747              Murmansk1           117.094
       142   02 Jun 2027 11:16:40.311   02 Jun 2027 11:18:13.852            93.541                 Moscow          2923.156
       143   02 Jun 2027 11:18:20.808   02 Jun 2027 11:18:33.436            12.628                Norilsk           394.625
       144   02 Jun 2027 11:18:47.286   02 Jun 2027 11:19:11.919            24.633                 Moscow           769.781
       145   02 Jun 2027 11:19:30.024   02 Jun 2027 11:20:03.170            33.146                 Moscow          1035.812
       146   02 Jun 2027 12:24:51.927   02 Jun 2027 12:27:53.048           181.121               CapeTown          5660.031
       147   02 Jun 2027 12:31:49.338   02 Jun 2027 12:32:48.188            58.850               CapeTown          1839.063
       148   02 Jun 2027 12:49:47.243   02 Jun 2027 12:52:17.841           150.598              Murmansk1          4706.188
       149   02 Jun 2027 12:59:55.336   02 Jun 2027 13:00:00.353             5.017              Murmansk2           156.781
       150   02 Jun 2027 13:04:17.286   02 Jun 2027 13:10:27.995           370.709                Anadyr1         11584.656
       151   02 Jun 2027 14:29:54.556   02 Jun 2027 14:31:17.317            82.761              Murmansk2          2586.281
       152   02 Jun 2027 14:39:40.186   02 Jun 2027 14:41:43.897           123.711                Anadyr2          3865.969
       153   02 Jun 2027 14:42:03.817   02 Jun 2027 14:42:11.589             7.772                Anadyr2           242.875
       154   02 Jun 2027 14:43:01.161   02 Jun 2027 14:43:15.810            14.649                Anadyr2           457.781
       155   02 Jun 2027 14:43:37.358   02 Jun 2027 14:49:37.218           359.860               Magadan2         11245.625
       156   02 Jun 2027 16:17:59.110   02 Jun 2027 16:19:10.416            71.306               Magadan2          2228.313
       157   02 Jun 2027 16:19:10.416   02 Jun 2027 16:20:12.908            62.492               Magadan1          1952.875
       158   02 Jun 2027 16:22:09.198   02 Jun 2027 16:23:01.223            52.025               Magadan1          1625.781
       159   02 Jun 2027 16:26:25.399   02 Jun 2027 16:27:32.067            66.668               Magadan1          2083.375
       160   02 Jun 2027 17:51:25.967   02 Jun 2027 17:52:07.825            41.858                Anadyr2          1308.063
       161   02 Jun 2027 17:52:44.722   02 Jun 2027 17:52:48.721             3.999                Anadyr2           124.969
       162   02 Jun 2027 17:53:06.327   02 Jun 2027 17:53:36.780            30.453                Anadyr1           951.656
       163   02 Jun 2027 17:53:45.246   02 Jun 2027 17:55:13.508            88.262               Magadan2          2758.187
       164   02 Jun 2027 17:55:24.627   02 Jun 2027 17:59:38.349           253.722                Norilsk          7928.813
       165   02 Jun 2027 17:59:54.626   02 Jun 2027 18:02:32.558           157.932                Irkutsk          4935.375
       166   02 Jun 2027 19:30:08.967   02 Jun 2027 19:30:46.444            37.477                Norilsk          1171.156
       167   02 Jun 2027 19:33:21.211   02 Jun 2027 19:34:49.211            88.000                Irkutsk          2750.000
       168   02 Jun 2027 19:35:09.238   02 Jun 2027 19:41:45.229           395.991                Novosib         12374.719
       169   02 Jun 2027 19:48:01.693   02 Jun 2027 19:49:36.345            94.652                Sumatra          2957.875
       170   02 Jun 2027 21:11:02.279   02 Jun 2027 21:11:26.468            24.189                Novosib           755.906
       171   02 Jun 2027 21:12:00.715   02 Jun 2027 21:12:44.194            43.479                Novosib          1358.719
       172   02 Jun 2027 21:16:42.463   02 Jun 2027 21:19:13.683           151.220                  Delhi          4725.625
       173   02 Jun 2027 21:27:30.891   02 Jun 2027 21:29:00.882            89.991                  Delhi          2812.219
       174   02 Jun 2027 22:43:33.418   02 Jun 2027 22:49:55.204           381.786              Murmansk2         11930.812
       175   02 Jun 2027 22:50:12.203   02 Jun 2027 22:54:23.341           251.138                 Moscow          7848.062
       176   02 Jun 2027 23:16:21.809   02 Jun 2027 23:17:06.656            44.847               CapeTown          1401.469
       177   02 Jun 2027 23:18:19.017   02 Jun 2027 23:19:05.805            46.788               CapeTown          1462.125
       178   02 Jun 2027 23:19:53.185   02 Jun 2027 23:20:10.112            16.927               CapeTown           528.969
       179   03 Jun 2027 00:22:52.654   03 Jun 2027 00:23:33.065            40.411                 Moscow          1262.844
       180   03 Jun 2027 00:26:23.540   03 Jun 2027 00:26:43.222            19.682                 Moscow           615.063
       181   03 Jun 2027 00:32:19.271   03 Jun 2027 00:33:54.953            95.682                 Moscow          2990.063
       182   03 Jun 2027 00:46:42.458   03 Jun 2027 00:48:31.467           109.009               CapeTown          3406.531
       183   03 Jun 2027 01:45:44.097   03 Jun 2027 01:46:05.647            21.550               Magadan1           673.438
       184   03 Jun 2027 01:46:38.484   03 Jun 2027 01:46:52.068            13.584               Magadan1           424.500
       185   03 Jun 2027 01:47:28.532   03 Jun 2027 01:48:22.086            53.554               Magadan1          1673.563
       186   03 Jun 2027 01:55:21.215   03 Jun 2027 01:56:19.243            58.028              Murmansk2          1813.375
       187   03 Jun 2027 01:57:24.548   03 Jun 2027 01:58:10.573            46.025              Murmansk2          1438.281
       188   03 Jun 2027 01:58:38.297   03 Jun 2027 01:59:42.371            64.074                 Moscow          2002.312
       189   03 Jun 2027 02:04:41.744   03 Jun 2027 02:04:44.473             2.729                 Moscow            85.281
       190   03 Jun 2027 02:07:23.714   03 Jun 2027 02:07:41.231            17.517                 Moscow           547.406
       191   03 Jun 2027 02:10:10.362   03 Jun 2027 02:10:15.983             5.621                 Moscow           175.656
       192   03 Jun 2027 02:24:01.670   03 Jun 2027 02:24:41.100            39.430               CapeTown          1232.188
       193   03 Jun 2027 02:26:48.976   03 Jun 2027 02:26:57.792             8.816               CapeTown           275.500
       194   03 Jun 2027 02:28:23.838   03 Jun 2027 02:28:24.117             0.279               CapeTown             8.719
       195   03 Jun 2027 02:28:57.610   03 Jun 2027 02:29:20.929            23.319               CapeTown           728.719
       196   03 Jun 2027 02:33:26.944   03 Jun 2027 02:33:46.198            19.254               CapeTown           601.687
       197   03 Jun 2027 03:23:49.779   03 Jun 2027 03:24:38.342            48.563                Anadyr2          1517.594
       198   03 Jun 2027 03:25:00.389   03 Jun 2027 03:25:24.798            24.409               Magadan1           762.781
       199   03 Jun 2027 03:26:06.846   03 Jun 2027 03:26:29.581            22.735               Magadan2           710.469
       200   03 Jun 2027 03:26:37.563   03 Jun 2027 03:27:29.626            52.063                Anadyr2          1626.969
       201   03 Jun 2027 03:27:42.805   03 Jun 2027 03:29:38.480           115.675                Anadyr2          3614.844
       202   03 Jun 2027 03:30:00.360   03 Jun 2027 03:31:46.993           106.633               Magadan2          3332.281
       203   03 Jun 2027 03:31:48.466   03 Jun 2027 03:32:01.143            12.677                Anadyr1           396.156
       204   03 Jun 2027 05:01:26.017   03 Jun 2027 05:03:46.393           140.376                Anadyr1          4386.750
       205   03 Jun 2027 05:04:08.119   03 Jun 2027 05:07:10.748           182.629                Anadyr1          5707.156
       206   03 Jun 2027 05:07:12.206   03 Jun 2027 05:07:32.345            20.139                Novosib           629.344
       207   03 Jun 2027 05:42:56.519   03 Jun 2027 05:44:34.273            97.754            RioGallegos          3054.812
       208   03 Jun 2027 05:45:16.050   03 Jun 2027 05:45:57.994            41.944            RioGallegos          1310.750
       209   03 Jun 2027 05:46:11.035   03 Jun 2027 05:46:24.885            13.850            RioGallegos           432.812
       210   03 Jun 2027 06:22:30.287   03 Jun 2027 06:22:48.458            18.171                Sumatra           567.844
       211   03 Jun 2027 06:23:50.079   03 Jun 2027 06:24:32.815            42.736                Sumatra          1335.500
       212   03 Jun 2027 06:36:29.092   03 Jun 2027 06:37:25.740            56.648                Novosib          1770.250
       213   03 Jun 2027 06:38:10.818   03 Jun 2027 06:38:31.343            20.525               Magadan2           641.406
       214   03 Jun 2027 06:38:39.412   03 Jun 2027 06:39:05.359            25.947                Novosib           810.844
       215   03 Jun 2027 06:39:06.126   03 Jun 2027 06:39:35.151            29.025               Magadan1           907.031
       216   03 Jun 2027 06:39:48.590   03 Jun 2027 06:40:11.632            23.042                Norilsk           720.062
       217   03 Jun 2027 06:40:14.294   03 Jun 2027 06:40:15.826             1.532                Novosib            47.875
       218   03 Jun 2027 06:40:37.789   03 Jun 2027 06:40:44.407             6.618                Novosib           206.812
       219   03 Jun 2027 06:40:45.379   03 Jun 2027 06:41:16.968            31.589                Norilsk           987.156
       220   03 Jun 2027 06:41:22.448   03 Jun 2027 06:41:47.827            25.379                Norilsk           793.094
       221   03 Jun 2027 06:41:48.093   03 Jun 2027 06:42:31.365            43.272                Irkutsk          1352.250
       222   03 Jun 2027 06:42:55.724   03 Jun 2027 06:43:14.032            18.308                Novosib           572.125
       223   03 Jun 2027 06:43:17.693   03 Jun 2027 06:43:27.979            10.286                Irkutsk           321.438
       224   03 Jun 2027 06:43:33.141   03 Jun 2027 06:43:50.118            16.977              Murmansk1           530.531
       225   03 Jun 2027 06:46:00.586   03 Jun 2027 06:46:27.652            27.066              Murmansk1           845.812
       226   03 Jun 2027 06:48:54.523   03 Jun 2027 06:49:04.802            10.279              Murmansk2           321.219
       227   03 Jun 2027 07:18:16.885   03 Jun 2027 07:19:23.781            66.896            RioGallegos          2090.500
       228   03 Jun 2027 07:53:00.577   03 Jun 2027 07:54:54.089           113.512                Sumatra          3547.250
       229   03 Jun 2027 08:03:23.580   03 Jun 2027 08:06:07.415           163.835                  Delhi          5119.844
       230   03 Jun 2027 08:08:28.278   03 Jun 2027 08:09:58.622            90.344                  Delhi          2823.250
       231   03 Jun 2027 08:13:29.728   03 Jun 2027 08:13:31.671             1.943                Irkutsk            60.719
       232   03 Jun 2027 08:13:49.737   03 Jun 2027 08:13:52.527             2.790                Novosib            87.188
       233   03 Jun 2027 08:13:55.761   03 Jun 2027 08:14:37.898            42.137                Novosib          1316.781
       234   03 Jun 2027 08:14:48.034   03 Jun 2027 08:15:17.770            29.736                Norilsk           929.250
       235   03 Jun 2027 08:15:20.868   03 Jun 2027 08:16:08.269            47.401              Murmansk1          1481.281
       236   03 Jun 2027 08:16:12.240   03 Jun 2027 08:16:22.102             9.862                Irkutsk           308.188
       237   03 Jun 2027 08:16:33.818   03 Jun 2027 08:16:50.945            17.127                Norilsk           535.219
       238   03 Jun 2027 08:17:01.150   03 Jun 2027 08:17:27.619            26.469                Irkutsk           827.156
       239   03 Jun 2027 08:17:30.750   03 Jun 2027 08:17:57.268            26.518              Murmansk1           828.687
       240   03 Jun 2027 08:18:00.494   03 Jun 2027 08:18:31.939            31.445                Novosib           982.656
       241   03 Jun 2027 08:18:46.836   03 Jun 2027 08:19:07.430            20.594                Norilsk           643.562
       242   03 Jun 2027 08:19:25.542   03 Jun 2027 08:19:47.644            22.102                Novosib           690.688
       243   03 Jun 2027 08:19:51.705   03 Jun 2027 08:20:32.534            40.829              Murmansk1          1275.906
       244   03 Jun 2027 08:20:56.563   03 Jun 2027 08:21:19.624            23.061                 Moscow           720.656
       245   03 Jun 2027 08:58:10.440   03 Jun 2027 08:59:14.889            64.449            RioGallegos          2014.031
       246   03 Jun 2027 09:37:16.708   03 Jun 2027 09:39:07.273           110.565                  Delhi          3455.156
       247   03 Jun 2027 09:40:59.447   03 Jun 2027 09:41:24.532            25.085                  Delhi           783.906
       248   03 Jun 2027 09:51:10.163   03 Jun 2027 09:51:24.211            14.048              Murmansk1           439.000
       249   03 Jun 2027 09:51:34.471   03 Jun 2027 09:51:55.698            21.227              Murmansk1           663.344
       250   03 Jun 2027 09:51:57.990   03 Jun 2027 09:52:23.449            25.459                Norilsk           795.594
       251   03 Jun 2027 09:52:23.677   03 Jun 2027 09:52:37.202            13.525                 Moscow           422.656
       252   03 Jun 2027 09:53:08.464   03 Jun 2027 09:53:09.639             1.175                 Moscow            36.719
       253   03 Jun 2027 09:53:19.656   03 Jun 2027 09:53:50.554            30.898                Novosib           965.563
       254   03 Jun 2027 09:53:51.599   03 Jun 2027 09:54:25.938            34.339                 Moscow          1073.094
       255   03 Jun 2027 09:54:33.132   03 Jun 2027 09:54:59.796            26.664              Murmansk1           833.250
       256   03 Jun 2027 09:55:04.739   03 Jun 2027 09:55:10.557             5.818                Norilsk           181.812
       257   03 Jun 2027 09:55:18.608   03 Jun 2027 09:55:26.557             7.949              Murmansk2           248.406
       258   03 Jun 2027 09:55:26.557   03 Jun 2027 09:55:56.410            29.853              Murmansk1           932.906
       259   03 Jun 2027 11:21:37.061   03 Jun 2027 11:21:56.718            19.657                 Moscow           614.281
       260   03 Jun 2027 11:24:54.610   03 Jun 2027 11:26:00.540            65.930                 Moscow          2060.312
       261   03 Jun 2027 11:26:04.932   03 Jun 2027 11:26:33.625            28.693              Murmansk2           896.656
       262   03 Jun 2027 11:26:33.625   03 Jun 2027 11:26:37.516             3.891              Murmansk1           121.594
       263   03 Jun 2027 11:26:41.547   03 Jun 2027 11:27:05.646            24.099              Murmansk1           753.094
       264   03 Jun 2027 11:27:32.038   03 Jun 2027 11:28:23.613            51.575              Murmansk2          1611.719
       265   03 Jun 2027 11:28:37.699   03 Jun 2027 11:28:52.021            14.322              Murmansk1           447.562
       266   03 Jun 2027 11:28:52.021   03 Jun 2027 11:29:15.625            23.604              Murmansk2           737.625
       267   03 Jun 2027 11:29:32.130   03 Jun 2027 11:30:27.737            55.607              Murmansk2          1737.719
       268   03 Jun 2027 11:31:04.643   03 Jun 2027 11:31:11.412             6.769                 Moscow           211.531
       269   03 Jun 2027 11:31:32.025   03 Jun 2027 11:32:04.079            32.054              Murmansk2          1001.688
       270   03 Jun 2027 12:36:20.405   03 Jun 2027 12:38:52.889           152.484               CapeTown          4765.125
       271   03 Jun 2027 12:39:01.615   03 Jun 2027 12:41:29.857           148.242               CapeTown          4632.562
       272   03 Jun 2027 13:02:03.130   03 Jun 2027 13:03:59.583           116.453              Murmansk2          3639.156
       273   03 Jun 2027 13:16:10.134   03 Jun 2027 13:21:18.008           307.874                Anadyr1          9621.063
       274   03 Jun 2027 14:41:53.655   03 Jun 2027 14:43:19.046            85.391              Murmansk2          2668.469
       275   03 Jun 2027 14:49:26.073   03 Jun 2027 14:49:39.241            13.168              Murmansk2           411.500
       276   03 Jun 2027 14:51:40.474   03 Jun 2027 14:54:06.287           145.813                Anadyr1          4556.656
       277   03 Jun 2027 14:55:12.128   03 Jun 2027 14:58:56.133           224.005               Magadan1          7000.156
       278   03 Jun 2027 14:58:56.133   03 Jun 2027 15:01:57.461           181.328               Magadan2          5666.500
       279   03 Jun 2027 16:29:57.230   03 Jun 2027 16:31:49.997           112.767               Magadan1          3523.969
       280   03 Jun 2027 16:31:49.997   03 Jun 2027 16:32:16.988            26.991               Magadan2           843.469
       281   03 Jun 2027 16:34:41.804   03 Jun 2027 16:35:29.806            48.002               Magadan1          1500.063
       282   03 Jun 2027 18:03:25.846   03 Jun 2027 18:05:59.701           153.855                Anadyr1          4807.969
       283   03 Jun 2027 18:06:08.801   03 Jun 2027 18:06:24.401            15.600                Anadyr1           487.500
       284   03 Jun 2027 18:06:30.273   03 Jun 2027 18:10:38.778           248.505                Norilsk          7765.781
       285   03 Jun 2027 18:11:09.471   03 Jun 2027 18:14:18.229           188.758                Irkutsk          5898.688
       286   03 Jun 2027 18:16:02.548   03 Jun 2027 18:17:33.007            90.459                Irkutsk          2826.844
       287   03 Jun 2027 18:27:15.401   03 Jun 2027 18:29:26.610           131.209                Sumatra          4100.281
       288   03 Jun 2027 18:31:53.525   03 Jun 2027 18:32:32.085            38.560                Sumatra          1205.000
       289   03 Jun 2027 19:46:17.700   03 Jun 2027 19:51:07.672           289.972                Novosib          9061.625
       290   03 Jun 2027 19:52:02.607   03 Jun 2027 19:53:27.854            85.247                Novosib          2663.969
       291   03 Jun 2027 21:20:53.507   03 Jun 2027 21:24:02.593           189.086              Murmansk2          5908.938
       292   03 Jun 2027 21:28:34.353   03 Jun 2027 21:30:09.789            95.436                  Delhi          2982.375
       293   03 Jun 2027 22:53:43.766   03 Jun 2027 22:54:35.472            51.706                Norilsk          1615.812
       294   03 Jun 2027 22:55:32.505   03 Jun 2027 22:57:14.175           101.670              Murmansk2          3177.188
       295   03 Jun 2027 22:57:22.250   03 Jun 2027 23:01:02.782           220.532              Murmansk1          6891.625
       296   03 Jun 2027 23:02:06.532   03 Jun 2027 23:02:17.945            11.413              Murmansk2           356.656
       297   03 Jun 2027 23:02:20.997   03 Jun 2027 23:05:37.832           196.835                 Moscow          6151.094
       298   03 Jun 2027 23:26:48.074   03 Jun 2027 23:28:30.017           101.943               CapeTown          3185.719
       299   03 Jun 2027 23:29:13.973   03 Jun 2027 23:29:27.456            13.483               CapeTown           421.344
       300   03 Jun 2027 23:31:22.965   03 Jun 2027 23:33:18.664           115.699               CapeTown          3615.594
       301   04 Jun 2027 00:34:39.755   04 Jun 2027 00:34:48.999             9.244                 Moscow           288.875
       302   04 Jun 2027 00:38:55.886   04 Jun 2027 00:39:00.122             4.236                 Moscow           132.375
       303   04 Jun 2027 00:42:35.534   04 Jun 2027 00:42:53.617            18.083                 Moscow           565.094
       304   04 Jun 2027 00:43:42.881   04 Jun 2027 00:44:14.336            31.455                 Moscow           982.969
       305   04 Jun 2027 00:58:35.087   04 Jun 2027 00:59:42.651            67.564               CapeTown          2111.375
       306   04 Jun 2027 01:02:09.026   04 Jun 2027 01:02:57.750            48.724               CapeTown          1522.625
       307   04 Jun 2027 01:55:14.917   04 Jun 2027 01:55:57.287            42.370                Anadyr1          1324.063
       308   04 Jun 2027 01:56:46.254   04 Jun 2027 01:57:36.784            50.530               Magadan1          1579.062
       309   04 Jun 2027 01:58:08.351   04 Jun 2027 01:58:36.659            28.308               Magadan2           884.625
       310   04 Jun 2027 01:59:07.787   04 Jun 2027 01:59:21.674            13.887               Magadan2           433.969
       311   04 Jun 2027 02:01:24.765   04 Jun 2027 02:01:36.255            11.490               Magadan1           359.063
       312   04 Jun 2027 02:02:57.011   04 Jun 2027 02:03:17.990            20.979               Magadan2           655.594
       313   04 Jun 2027 02:07:22.465   04 Jun 2027 02:08:36.468            74.003              Murmansk1          2312.594
       314   04 Jun 2027 02:10:05.340   04 Jun 2027 02:10:21.558            16.218              Murmansk1           506.813
       315   04 Jun 2027 02:10:42.245   04 Jun 2027 02:12:06.313            84.068                 Moscow          2627.125
       316   04 Jun 2027 02:17:16.296   04 Jun 2027 02:17:30.250            13.954                 Moscow           436.062
       317   04 Jun 2027 02:20:38.124   04 Jun 2027 02:20:47.360             9.236                 Moscow           288.625
       318   04 Jun 2027 02:21:56.810   04 Jun 2027 02:22:03.828             7.018                 Moscow           219.313
       319   04 Jun 2027 02:36:48.379   04 Jun 2027 02:37:46.941            58.562               CapeTown          1830.063
       320   04 Jun 2027 02:40:33.834   04 Jun 2027 02:40:49.165            15.331               CapeTown           479.094
       321   04 Jun 2027 02:44:36.795   04 Jun 2027 02:45:22.185            45.390               CapeTown          1418.437
       322   04 Jun 2027 03:36:22.016   04 Jun 2027 03:36:38.855            16.839                Anadyr1           526.219
       323   04 Jun 2027 03:36:38.855   04 Jun 2027 03:39:28.922           170.067                Anadyr2          5314.594
       324   04 Jun 2027 03:39:35.826   04 Jun 2027 03:40:01.977            26.151               Magadan1           817.219
       325   04 Jun 2027 03:40:05.457   04 Jun 2027 03:40:11.530             6.073                Anadyr1           189.781
       326   04 Jun 2027 03:40:11.530   04 Jun 2027 03:44:00.438           228.908                Anadyr2          7153.375
       327   04 Jun 2027 04:28:18.210   04 Jun 2027 04:30:03.796           105.586            RioGallegos          3299.563
       328   04 Jun 2027 05:13:26.432   04 Jun 2027 05:15:22.253           115.821                Anadyr1          3619.406
       329   04 Jun 2027 05:15:26.673   04 Jun 2027 05:16:19.031            52.358                Anadyr2          1636.187
       330   04 Jun 2027 05:16:19.031   04 Jun 2027 05:16:24.740             5.709                Anadyr1           178.406
       331   04 Jun 2027 05:16:40.900   04 Jun 2027 05:18:55.140           134.240                Anadyr2          4195.000
       332   04 Jun 2027 05:19:00.769   04 Jun 2027 05:19:32.955            32.186               Magadan1          1005.813
       333   04 Jun 2027 05:19:52.635   04 Jun 2027 05:20:41.434            48.799                Norilsk          1524.969
       334   04 Jun 2027 05:56:34.692   04 Jun 2027 05:57:21.426            46.734            RioGallegos          1460.438
       335   04 Jun 2027 05:57:53.154   04 Jun 2027 05:58:09.918            16.764            RioGallegos           523.875
       336   04 Jun 2027 05:58:27.512   04 Jun 2027 05:58:31.315             3.803            RioGallegos           118.844
       337   04 Jun 2027 06:01:46.177   04 Jun 2027 06:02:33.456            47.279            RioGallegos          1477.469
       338   04 Jun 2027 06:03:24.019   04 Jun 2027 06:04:07.506            43.487            RioGallegos          1358.969
       339   04 Jun 2027 06:04:35.674   04 Jun 2027 06:04:41.588             5.914            RioGallegos           184.812
       340   04 Jun 2027 06:04:58.591   04 Jun 2027 06:06:08.824            70.233            RioGallegos          2194.781
       341   04 Jun 2027 06:32:28.325   04 Jun 2027 06:34:17.643           109.318                Sumatra          3416.188
       342   04 Jun 2027 06:35:42.534   04 Jun 2027 06:37:50.671           128.137                Sumatra          4004.281
       343   04 Jun 2027 06:48:32.272   04 Jun 2027 06:49:07.053            34.781                Irkutsk          1086.906
       344   04 Jun 2027 06:49:52.515   04 Jun 2027 06:50:03.386            10.871               Magadan1           339.719
       345   04 Jun 2027 06:50:12.835   04 Jun 2027 06:51:49.000            96.165                Irkutsk          3005.156
       346   04 Jun 2027 06:52:06.424   04 Jun 2027 06:52:20.114            13.690                Norilsk           427.812
       347   04 Jun 2027 06:52:34.655   04 Jun 2027 06:52:54.363            19.708                Norilsk           615.875
       348   04 Jun 2027 06:52:55.665   04 Jun 2027 06:53:08.219            12.554               Magadan1           392.312
       349   04 Jun 2027 06:53:10.805   04 Jun 2027 06:53:58.438            47.633              Murmansk1          1488.531
       350   04 Jun 2027 06:53:58.438   04 Jun 2027 06:54:17.404            18.966              Murmansk2           592.687
       351   04 Jun 2027 06:54:28.753   04 Jun 2027 06:54:36.832             8.079                Irkutsk           252.469
       352   04 Jun 2027 06:54:40.561   04 Jun 2027 06:54:48.657             8.096                Irkutsk           253.000
       353   04 Jun 2027 06:55:03.524   04 Jun 2027 06:55:10.884             7.360                Novosib           230.000
       354   04 Jun 2027 06:55:26.057   04 Jun 2027 06:55:58.130            32.073              Murmansk2          1002.281
       355   04 Jun 2027 06:56:40.530   04 Jun 2027 06:57:35.538            55.008              Murmansk1          1719.000
       356   04 Jun 2027 07:00:55.419   04 Jun 2027 07:01:03.396             7.977              Murmansk2           249.281
       357   04 Jun 2027 07:30:29.136   04 Jun 2027 07:31:10.403            41.267            RioGallegos          1289.594
       358   04 Jun 2027 08:05:02.363   04 Jun 2027 08:05:20.727            18.364                Sumatra           573.875
       359   04 Jun 2027 08:06:31.471   04 Jun 2027 08:07:18.699            47.228                Sumatra          1475.875
       360   04 Jun 2027 08:08:09.198   04 Jun 2027 08:08:36.916            27.718                Sumatra           866.187
       361   04 Jun 2027 08:14:46.611   04 Jun 2027 08:17:28.279           161.668                  Delhi          5052.125
       362   04 Jun 2027 08:20:39.229   04 Jun 2027 08:21:47.950            68.721                  Delhi          2147.531
       363   04 Jun 2027 08:25:10.899   04 Jun 2027 08:25:28.082            17.183                  Delhi           536.969
       364   04 Jun 2027 08:25:56.513   04 Jun 2027 08:25:59.529             3.016                Norilsk            94.250
       365   04 Jun 2027 08:26:30.561   04 Jun 2027 08:26:48.651            18.090                Novosib           565.313
       366   04 Jun 2027 08:27:08.245   04 Jun 2027 08:28:04.553            56.308              Murmansk2          1759.625
       367   04 Jun 2027 08:28:11.578   04 Jun 2027 08:28:30.811            19.233                 Moscow           601.031
       368   04 Jun 2027 08:28:39.724   04 Jun 2027 08:29:44.739            65.015              Murmansk1          2031.719
       369   04 Jun 2027 08:29:53.401   04 Jun 2027 08:30:17.215            23.814                 Moscow           744.188
       370   04 Jun 2027 08:30:27.003   04 Jun 2027 08:30:44.983            17.980              Murmansk1           561.875
       371   04 Jun 2027 08:30:52.076   04 Jun 2027 08:31:59.796            67.720              Murmansk1          2116.250
       372   04 Jun 2027 09:11:32.639   04 Jun 2027 09:12:19.644            47.005            RioGallegos          1468.906
       373   04 Jun 2027 09:13:24.095   04 Jun 2027 09:13:37.720            13.625            RioGallegos           425.781
       374   04 Jun 2027 09:49:28.200   04 Jun 2027 09:52:14.842           166.642                  Delhi          5207.562
       375   04 Jun 2027 10:02:28.830   04 Jun 2027 10:02:30.326             1.496                Norilsk            46.750
       376   04 Jun 2027 10:02:31.036   04 Jun 2027 10:04:00.443            89.407                 Moscow          2793.969
       377   04 Jun 2027 10:04:07.199   04 Jun 2027 10:04:22.705            15.506                Norilsk           484.563
       378   04 Jun 2027 10:04:30.543   04 Jun 2027 10:05:31.593            61.050              Murmansk1          1907.812
       379   04 Jun 2027 10:05:46.659   04 Jun 2027 10:06:01.466            14.807                Norilsk           462.719
       380   04 Jun 2027 10:06:02.597   04 Jun 2027 10:06:21.733            19.136              Murmansk1           598.000
       381   04 Jun 2027 10:06:21.733   04 Jun 2027 10:06:26.496             4.763              Murmansk2           148.844
       382   04 Jun 2027 10:06:32.424   04 Jun 2027 10:07:56.221            83.797                 Moscow          2618.656
       383   04 Jun 2027 11:37:05.949   04 Jun 2027 11:37:43.854            37.905              Murmansk2          1184.531
       384   04 Jun 2027 11:37:47.879   04 Jun 2027 11:38:29.964            42.085              Murmansk1          1315.156
       385   04 Jun 2027 11:39:05.789   04 Jun 2027 11:39:33.614            27.825              Murmansk1           869.531
       386   04 Jun 2027 11:39:35.573   04 Jun 2027 11:39:53.856            18.283                 Moscow           571.344
       387   04 Jun 2027 11:40:13.489   04 Jun 2027 11:40:25.144            11.655              Murmansk2           364.219
       388   04 Jun 2027 11:40:25.555   04 Jun 2027 11:40:43.447            17.892              Murmansk2           559.125
       389   04 Jun 2027 11:41:05.866   04 Jun 2027 11:41:37.086            31.220                 Moscow           975.625
       390   04 Jun 2027 11:41:40.731   04 Jun 2027 11:41:45.062             4.331              Murmansk1           135.344
       391   04 Jun 2027 11:41:46.823   04 Jun 2027 11:42:00.594            13.771                Norilsk           430.344
       392   04 Jun 2027 11:42:03.836   04 Jun 2027 11:42:27.895            24.059              Murmansk2           751.844
       393   04 Jun 2027 11:42:57.784   04 Jun 2027 11:43:27.332            29.548              Murmansk1           923.375
       394   04 Jun 2027 12:47:57.661   04 Jun 2027 12:51:02.607           184.946               CapeTown          5779.563
       395   04 Jun 2027 12:52:37.046   04 Jun 2027 12:54:25.599           108.553               CapeTown          3392.281
       396   04 Jun 2027 13:14:21.077   04 Jun 2027 13:14:37.559            16.482              Murmansk1           515.063
       397   04 Jun 2027 13:14:52.308   04 Jun 2027 13:16:00.831            68.523              Murmansk2          2141.344
       398   04 Jun 2027 13:19:22.322   04 Jun 2027 13:19:39.803            17.481              Murmansk2           546.281
       399   04 Jun 2027 13:22:06.540   04 Jun 2027 13:22:25.306            18.766              Murmansk2           586.437
       400   04 Jun 2027 13:23:20.108   04 Jun 2027 13:23:30.460            10.352              Murmansk2           323.500
       401   04 Jun 2027 13:28:04.912   04 Jun 2027 13:30:27.267           142.355                Anadyr1          4448.594
       402   04 Jun 2027 13:31:10.719   04 Jun 2027 13:32:10.077            59.358                Anadyr2          1854.938
       403   04 Jun 2027 13:33:43.301   04 Jun 2027 13:34:23.571            40.270                Anadyr1          1258.438
       404   04 Jun 2027 13:36:28.841   04 Jun 2027 13:38:00.525            91.684                Anadyr1          2865.125
       405   04 Jun 2027 14:58:04.417   04 Jun 2027 14:58:18.025            13.608              Murmansk1           425.250
       406   04 Jun 2027 14:59:14.829   04 Jun 2027 14:59:37.465            22.636              Murmansk2           707.375
       407   04 Jun 2027 15:01:05.503   04 Jun 2027 15:01:27.136            21.633              Murmansk1           676.031
       408   04 Jun 2027 15:03:41.065   04 Jun 2027 15:06:04.262           143.197                Anadyr1          4474.906
       409   04 Jun 2027 15:06:54.808   04 Jun 2027 15:14:12.774           437.966               Magadan1         13686.437
       410   04 Jun 2027 16:41:56.103   04 Jun 2027 16:43:37.127           101.024               Magadan1          3157.000
       411   04 Jun 2027 16:44:23.976   04 Jun 2027 16:44:45.717            21.741               Magadan2           679.406
       412   04 Jun 2027 16:45:29.110   04 Jun 2027 16:46:09.878            40.768               Magadan2          1274.000
       413   04 Jun 2027 17:36:16.134   04 Jun 2027 17:38:43.504           147.370            RioGallegos          4605.313
       414   04 Jun 2027 17:39:49.231   04 Jun 2027 17:39:59.183             9.952            RioGallegos           311.000
       415   04 Jun 2027 18:15:25.333   04 Jun 2027 18:16:01.087            35.754                Anadyr2          1117.312
       416   04 Jun 2027 18:16:17.783   04 Jun 2027 18:16:36.292            18.509                Anadyr2           578.406
       417   04 Jun 2027 18:17:38.500   04 Jun 2027 18:21:46.045           247.545                Norilsk          7735.781
       418   04 Jun 2027 18:22:40.992   04 Jun 2027 18:26:07.454           206.462                Irkutsk          6451.937
       419   04 Jun 2027 18:27:13.392   04 Jun 2027 18:29:32.412           139.020                Irkutsk          4344.375
       420   04 Jun 2027 18:37:52.543   04 Jun 2027 18:40:05.630           133.087                Sumatra          4158.969
       421   04 Jun 2027 18:43:49.224   04 Jun 2027 18:44:36.478            47.254                Sumatra          1476.687
       422   04 Jun 2027 18:45:20.267   04 Jun 2027 18:45:48.385            28.118                Sumatra           878.688
       423   04 Jun 2027 20:00:46.085   04 Jun 2027 20:01:48.844            62.759                Novosib          1961.219
       424   04 Jun 2027 20:03:11.820   04 Jun 2027 20:04:07.900            56.080                Novosib          1752.500
       425   04 Jun 2027 20:08:42.096   04 Jun 2027 20:10:14.816            92.720                  Delhi          2897.500
       426   04 Jun 2027 20:11:22.867   04 Jun 2027 20:12:38.119            75.252                  Delhi          2351.625
       427   04 Jun 2027 21:32:27.209   04 Jun 2027 21:37:11.888           284.679              Murmansk2          8896.219
       428   04 Jun 2027 23:04:47.422   04 Jun 2027 23:04:57.057             9.635               Magadan1           301.094
       429   04 Jun 2027 23:06:21.149   04 Jun 2027 23:06:28.534             7.385               Magadan1           230.781
       430   04 Jun 2027 23:06:28.534   04 Jun 2027 23:06:31.669             3.135               Magadan2            97.969
       431   04 Jun 2027 23:06:41.553   04 Jun 2027 23:06:53.912            12.359               Magadan2           386.219
       432   04 Jun 2027 23:07:32.229   04 Jun 2027 23:09:08.006            95.777              Murmansk2          2993.031
       433   04 Jun 2027 23:09:08.423   04 Jun 2027 23:13:39.015           270.592              Murmansk1          8456.000
       434   04 Jun 2027 23:14:20.275   04 Jun 2027 23:16:30.454           130.179                 Moscow          4068.094
       435   04 Jun 2027 23:37:45.658   04 Jun 2027 23:40:00.919           135.261               CapeTown          4226.906
       436   04 Jun 2027 23:43:27.348   04 Jun 2027 23:45:34.299           126.951               CapeTown          3967.219
       437   05 Jun 2027 00:46:39.890   05 Jun 2027 00:47:17.256            37.366                 Moscow          1167.688
       438   05 Jun 2027 00:53:46.588   05 Jun 2027 00:54:03.952            17.364                 Moscow           542.625
       439   05 Jun 2027 00:55:28.371   05 Jun 2027 00:56:15.010            46.639                 Moscow          1457.469
       440   05 Jun 2027 01:13:00.065   05 Jun 2027 01:13:02.048             1.983               CapeTown            61.969
       441   05 Jun 2027 01:13:46.314   05 Jun 2027 01:14:21.174            34.860               CapeTown          1089.375
       442   05 Jun 2027 01:19:24.332   05 Jun 2027 01:19:43.950            19.618               CapeTown           613.063
       443   05 Jun 2027 01:21:19.960   05 Jun 2027 01:22:17.386            57.426               CapeTown          1794.562
       444   05 Jun 2027 02:07:47.857   05 Jun 2027 02:07:58.087            10.230                Anadyr1           319.688
       445   05 Jun 2027 02:08:27.376   05 Jun 2027 02:09:24.165            56.789               Magadan2          1774.656
       446   05 Jun 2027 02:10:11.054   05 Jun 2027 02:10:25.439            14.385               Magadan2           449.531
       447   05 Jun 2027 02:10:37.226   05 Jun 2027 02:10:49.193            11.967               Magadan2           373.969
       448   05 Jun 2027 02:13:03.504   05 Jun 2027 02:13:17.638            14.134               Magadan1           441.687
       449   05 Jun 2027 02:14:32.756   05 Jun 2027 02:14:38.044             5.288               Magadan1           165.250
       450   05 Jun 2027 02:15:58.509   05 Jun 2027 02:16:04.153             5.644                Norilsk           176.375
       451   05 Jun 2027 02:17:05.329   05 Jun 2027 02:18:00.542            55.213               Magadan2          1725.406
       452   05 Jun 2027 02:19:23.543   05 Jun 2027 02:19:44.039            20.496              Murmansk2           640.500
       453   05 Jun 2027 02:20:18.017   05 Jun 2027 02:20:43.015            24.998              Murmansk2           781.187
       454   05 Jun 2027 02:21:59.386   05 Jun 2027 02:22:41.114            41.728              Murmansk2          1304.000
       455   05 Jun 2027 02:22:46.665   05 Jun 2027 02:23:13.691            27.026                 Moscow           844.563
       456   05 Jun 2027 02:28:46.018   05 Jun 2027 02:29:39.322            53.304                 Moscow          1665.750
       457   05 Jun 2027 02:49:53.722   05 Jun 2027 02:50:29.732            36.010               CapeTown          1125.313
       458   05 Jun 2027 02:52:40.775   05 Jun 2027 02:52:54.560            13.785               CapeTown           430.781
       459   05 Jun 2027 03:50:31.178   05 Jun 2027 03:52:17.393           106.215               Magadan1          3319.219
       460   05 Jun 2027 03:53:20.111   05 Jun 2027 03:55:14.185           114.074               Magadan1          3564.812
       461   05 Jun 2027 03:55:14.185   05 Jun 2027 03:55:14.284             0.099               Magadan2             3.094
       462   05 Jun 2027 03:55:19.547   05 Jun 2027 03:55:59.129            39.582                Anadyr2          1236.938
       463   05 Jun 2027 04:39:15.325   05 Jun 2027 04:42:18.657           183.332            RioGallegos          5729.125
       464   05 Jun 2027 05:23:21.827   05 Jun 2027 05:23:58.465            36.638                Irkutsk          1144.938
       465   05 Jun 2027 05:25:52.631   05 Jun 2027 05:26:52.570            59.939                Novosib          1873.094
       466   05 Jun 2027 05:27:19.256   05 Jun 2027 05:27:37.759            18.503                Irkutsk           578.219
       467   05 Jun 2027 05:27:42.324   05 Jun 2027 05:28:07.500            25.176                Novosib           786.750
       468   05 Jun 2027 05:28:32.284   05 Jun 2027 05:30:30.982           118.698                Anadyr2          3709.313
       469   05 Jun 2027 05:30:40.011   05 Jun 2027 05:31:10.023            30.012                Irkutsk           937.875
       470   05 Jun 2027 05:31:39.685   05 Jun 2027 05:32:32.425            52.740              Murmansk2          1648.125
       471   05 Jun 2027 05:32:43.228   05 Jun 2027 05:33:19.565            36.337              Murmansk1          1135.531
       472   05 Jun 2027 05:33:25.138   05 Jun 2027 05:33:46.972            21.834                Norilsk           682.313
       473   05 Jun 2027 05:35:18.703   05 Jun 2027 05:35:46.453            27.750              Murmansk1           867.188
       474   05 Jun 2027 06:06:30.978   05 Jun 2027 06:10:13.115           222.137            RioGallegos          6941.781
       475   05 Jun 2027 06:14:42.437   05 Jun 2027 06:15:38.153            55.716            RioGallegos          1741.125
       476   05 Jun 2027 06:43:23.627   05 Jun 2027 06:45:55.558           151.931                Sumatra          4747.844
       477   05 Jun 2027 06:47:31.112   05 Jun 2027 06:49:49.168           138.056                Sumatra          4314.250
       478   05 Jun 2027 06:51:51.213   05 Jun 2027 06:52:14.397            23.184                Sumatra           724.500
       479   05 Jun 2027 07:02:23.737   05 Jun 2027 07:03:05.312            41.575               Magadan1          1299.219
       480   05 Jun 2027 07:03:16.262   05 Jun 2027 07:03:19.707             3.445               Magadan1           107.656
       481   05 Jun 2027 07:03:30.364   05 Jun 2027 07:03:42.150            11.786                Norilsk           368.313
       482   05 Jun 2027 07:03:48.319   05 Jun 2027 07:04:55.535            67.216                Novosib          2100.500
