uniorb/output/strategy_2/Drop/Drop_KinoSat_111008.txt

KinoSat_111008
-------------------------
    Access    *     Start Time (UTCG)     *     Stop Time (UTCG)  *   Duration (s)        *       Station  *  Data (Mbytes)
         1   01 Jun 2027 03:00:38.155   01 Jun 2027 03:02:05.220            87.065                Anadyr2          2720.781
         2   01 Jun 2027 03:02:41.562   01 Jun 2027 03:02:50.277             8.715               Magadan1           272.344
         3   01 Jun 2027 03:03:11.353   01 Jun 2027 03:03:12.647             1.294               Magadan2            40.438
         4   01 Jun 2027 03:03:27.938   01 Jun 2027 03:03:51.803            23.865                Anadyr2           745.781
         5   01 Jun 2027 03:04:13.851   01 Jun 2027 03:04:24.210            10.359                Anadyr1           323.719
         6   01 Jun 2027 03:13:15.174   01 Jun 2027 03:13:27.462            12.288                 Moscow           384.000
         7   01 Jun 2027 03:13:30.123   01 Jun 2027 03:14:10.127            40.004              Murmansk2          1250.125
         8   01 Jun 2027 03:14:10.127   01 Jun 2027 03:14:15.472             5.345              Murmansk1           167.031
         9   01 Jun 2027 03:15:36.266   01 Jun 2027 03:15:47.676            11.410              Murmansk1           356.562
        10   01 Jun 2027 03:15:51.278   01 Jun 2027 03:16:23.561            32.283              Murmansk2          1008.844
        11   01 Jun 2027 03:16:45.287   01 Jun 2027 03:17:31.578            46.291              Murmansk1          1446.594
        12   01 Jun 2027 04:28:40.530   01 Jun 2027 04:29:48.272            67.742               Magadan2          2116.938
        13   01 Jun 2027 04:34:25.139   01 Jun 2027 04:34:50.735            25.596                Anadyr2           799.875
        14   01 Jun 2027 04:35:01.079   01 Jun 2027 04:37:24.342           143.263                Anadyr2          4476.969
        15   01 Jun 2027 04:37:43.005   01 Jun 2027 04:39:47.935           124.930                Anadyr2          3904.063
        16   01 Jun 2027 04:39:47.935   01 Jun 2027 04:41:01.122            73.187                Anadyr1          2287.094
        17   01 Jun 2027 06:13:01.737   01 Jun 2027 06:13:58.128            56.391               Magadan2          1762.219
        18   01 Jun 2027 06:14:07.992   01 Jun 2027 06:14:55.886            47.894                Irkutsk          1496.688
        19   01 Jun 2027 07:47:08.315   01 Jun 2027 07:47:50.914            42.599               Magadan2          1331.219
        20   01 Jun 2027 07:48:16.008   01 Jun 2027 07:49:16.204            60.196               Magadan2          1881.125
        21   01 Jun 2027 07:49:38.711   01 Jun 2027 07:51:58.036           139.325               Magadan1          4353.906
        22   01 Jun 2027 07:52:25.893   01 Jun 2027 07:52:37.222            11.329                Irkutsk           354.031
        23   01 Jun 2027 07:52:47.539   01 Jun 2027 07:53:25.535            37.996                Norilsk          1187.375
        24   01 Jun 2027 07:53:29.021   01 Jun 2027 07:54:21.257            52.236              Murmansk2          1632.375
        25   01 Jun 2027 07:54:27.358   01 Jun 2027 07:57:05.401           158.043                Norilsk          4938.844
        26   01 Jun 2027 08:00:19.853   01 Jun 2027 08:00:31.320            11.467              Murmansk2           358.344
        27   01 Jun 2027 08:27:20.179   01 Jun 2027 08:31:40.508           260.329            RioGallegos          8135.281
        28   01 Jun 2027 09:02:25.946   01 Jun 2027 09:05:13.336           167.390                Sumatra          5230.937
        29   01 Jun 2027 09:24:15.985   01 Jun 2027 09:25:43.436            87.451                Novosib          2732.844
        30   01 Jun 2027 09:25:45.843   01 Jun 2027 09:26:09.664            23.821                Irkutsk           744.406
        31   01 Jun 2027 09:26:10.610   01 Jun 2027 09:26:54.336            43.726                Novosib          1366.438
        32   01 Jun 2027 09:27:02.745   01 Jun 2027 09:27:10.010             7.265                Novosib           227.031
        33   01 Jun 2027 09:27:11.738   01 Jun 2027 09:28:20.231            68.493                Irkutsk          2140.406
        34   01 Jun 2027 09:28:38.941   01 Jun 2027 09:29:32.520            53.579                Novosib          1674.344
        35   01 Jun 2027 09:29:36.020   01 Jun 2027 09:29:47.312            11.292                 Moscow           352.875
        36   01 Jun 2027 10:46:25.756   01 Jun 2027 10:47:28.620            62.864                  Delhi          1964.500
        37   01 Jun 2027 11:02:10.467   01 Jun 2027 11:03:33.471            83.004                Novosib          2593.875
        38   01 Jun 2027 11:03:43.110   01 Jun 2027 11:05:00.291            77.181                Novosib          2411.906
        39   01 Jun 2027 11:05:02.799   01 Jun 2027 11:05:43.486            40.687              Murmansk1          1271.469
        40   01 Jun 2027 11:06:10.246   01 Jun 2027 11:07:23.878            73.632                 Moscow          2301.000
        41   01 Jun 2027 12:26:04.453   01 Jun 2027 12:26:51.128            46.675                  Delhi          1458.594
        42   01 Jun 2027 12:29:26.833   01 Jun 2027 12:29:51.508            24.675                  Delhi           771.094
        43   01 Jun 2027 12:32:35.190   01 Jun 2027 12:34:08.440            93.250                 Moscow          2914.063
        44   01 Jun 2027 12:34:15.911   01 Jun 2027 12:37:33.334           197.423              Murmansk2          6169.469
        45   01 Jun 2027 13:46:36.745   01 Jun 2027 13:49:08.991           152.246               CapeTown          4757.688
        46   01 Jun 2027 14:07:29.628   01 Jun 2027 14:08:37.328            67.700                 Moscow          2115.625
        47   01 Jun 2027 14:10:52.962   01 Jun 2027 14:12:08.200            75.238              Murmansk2          2351.188
        48   01 Jun 2027 14:12:09.902   01 Jun 2027 14:14:45.326           155.424              Murmansk1          4857.000
        49   01 Jun 2027 14:15:24.074   01 Jun 2027 14:15:32.381             8.307              Murmansk1           259.594
        50   01 Jun 2027 14:25:38.738   01 Jun 2027 14:27:40.277           121.539                Anadyr2          3798.094
        51   01 Jun 2027 14:27:58.398   01 Jun 2027 14:29:16.101            77.703                Anadyr1          2428.219
        52   01 Jun 2027 15:21:03.343   01 Jun 2027 15:22:37.299            93.956               CapeTown          2936.125
        53   01 Jun 2027 15:49:35.090   01 Jun 2027 15:51:09.427            94.337              Murmansk2          2948.031
        54   01 Jun 2027 16:00:55.654   01 Jun 2027 16:02:57.329           121.675                Anadyr2          3802.344
        55   01 Jun 2027 16:03:15.785   01 Jun 2027 16:03:31.080            15.295                Anadyr1           477.969
        56   01 Jun 2027 16:05:17.944   01 Jun 2027 16:07:26.397           128.453               Magadan1          4014.156
        57   01 Jun 2027 16:07:26.397   01 Jun 2027 16:08:05.928            39.531               Magadan2          1235.344
        58   01 Jun 2027 17:36:48.052   01 Jun 2027 17:39:25.743           157.691                Anadyr2          4927.844
        59   01 Jun 2027 17:39:36.051   01 Jun 2027 17:43:26.995           230.944               Magadan2          7217.000
        60   01 Jun 2027 19:12:41.732   01 Jun 2027 19:14:34.573           112.841                Anadyr1          3526.281
        61   01 Jun 2027 19:14:51.165   01 Jun 2027 19:14:59.821             8.656                Anadyr2           270.500
        62   01 Jun 2027 19:14:59.825   01 Jun 2027 19:18:18.738           198.913               Magadan2          6216.031
        63   01 Jun 2027 19:22:09.003   01 Jun 2027 19:23:52.138           103.135                Irkutsk          3222.969
        64   01 Jun 2027 20:07:01.843   01 Jun 2027 20:10:19.156           197.313            RioGallegos          6166.031
        65   01 Jun 2027 20:48:14.658   01 Jun 2027 20:48:48.468            33.810                Anadyr1          1056.563
        66   01 Jun 2027 20:51:03.477   01 Jun 2027 20:53:20.479           137.002               Magadan2          4281.313
        67   01 Jun 2027 20:56:11.688   01 Jun 2027 20:57:06.890            55.202                Irkutsk          1725.063
        68   01 Jun 2027 20:57:13.004   01 Jun 2027 20:59:28.550           135.546                Novosib          4235.813
        69   01 Jun 2027 21:08:21.383   01 Jun 2027 21:11:18.613           177.230                Sumatra          5538.438
        70   01 Jun 2027 22:22:51.673   01 Jun 2027 22:23:09.947            18.274                Anadyr1           571.063
        71   01 Jun 2027 22:24:04.037   01 Jun 2027 22:24:50.235            46.198                Anadyr1          1443.688
        72   01 Jun 2027 22:26:30.975   01 Jun 2027 22:26:39.353             8.378                Norilsk           261.812
        73   01 Jun 2027 22:27:08.197   01 Jun 2027 22:27:08.649             0.452               Magadan2            14.125
        74   01 Jun 2027 22:27:47.481   01 Jun 2027 22:28:36.598            49.117               Magadan2          1534.906
        75   01 Jun 2027 22:28:36.598   01 Jun 2027 22:28:39.446             2.848               Magadan1            89.000
        76   01 Jun 2027 22:28:40.667   01 Jun 2027 22:29:09.245            28.578               Magadan1           893.062
        77   01 Jun 2027 22:30:19.513   01 Jun 2027 22:30:24.548             5.035               Magadan1           157.344
        78   01 Jun 2027 22:30:27.700   01 Jun 2027 22:33:06.286           158.586                Novosib          4955.812
        79   01 Jun 2027 22:33:16.607   01 Jun 2027 22:33:42.167            25.560                Novosib           798.750
        80   01 Jun 2027 22:38:06.058   01 Jun 2027 22:41:41.430           215.372                  Delhi          6730.375
        81   01 Jun 2027 23:58:41.047   01 Jun 2027 23:59:08.810            27.763                Anadyr1           867.594
        82   01 Jun 2027 23:59:17.689   01 Jun 2027 23:59:25.298             7.609                Anadyr1           237.781
        83   02 Jun 2027 00:02:26.373   02 Jun 2027 00:02:36.580            10.207               Magadan2           318.969
        84   02 Jun 2027 00:02:36.580   02 Jun 2027 00:03:16.911            40.331               Magadan1          1260.344
        85   02 Jun 2027 00:04:49.663   02 Jun 2027 00:08:21.832           212.169              Murmansk2          6630.281
        86   02 Jun 2027 00:09:19.071   02 Jun 2027 00:10:46.016            86.945              Murmansk2          2717.031
        87   02 Jun 2027 00:14:36.871   02 Jun 2027 00:14:50.763            13.892                  Delhi           434.125
        88   02 Jun 2027 01:29:48.696   02 Jun 2027 01:31:15.232            86.536                Anadyr1          2704.250
        89   02 Jun 2027 01:31:44.332   02 Jun 2027 01:32:09.071            24.739                Anadyr1           773.094
        90   02 Jun 2027 01:32:28.592   02 Jun 2027 01:32:50.490            21.898                Anadyr2           684.313
        91   02 Jun 2027 01:33:12.322   02 Jun 2027 01:33:17.904             5.582                Anadyr2           174.437
        92   02 Jun 2027 01:34:39.995   02 Jun 2027 01:36:04.509            84.514               Magadan1          2641.063
        93   02 Jun 2027 01:36:38.813   02 Jun 2027 01:37:11.156            32.343               Magadan2          1010.719
        94   02 Jun 2027 01:38:24.996   02 Jun 2027 01:39:11.366            46.370               Magadan1          1449.063
        95   02 Jun 2027 01:40:37.684   02 Jun 2027 01:41:46.504            68.820              Murmansk2          2150.625
        96   02 Jun 2027 01:42:20.614   02 Jun 2027 01:42:29.668             9.054              Murmansk2           282.938
        97   02 Jun 2027 01:42:44.206   02 Jun 2027 01:43:11.655            27.449                Novosib           857.781
        98   02 Jun 2027 01:43:56.871   02 Jun 2027 01:45:37.894           101.023                 Moscow          3156.969
        99   02 Jun 2027 02:09:21.422   02 Jun 2027 02:10:31.630            70.208               CapeTown          2194.000
       100   02 Jun 2027 03:11:22.358   02 Jun 2027 03:11:41.120            18.762               Magadan2           586.313
       101   02 Jun 2027 03:11:41.120   02 Jun 2027 03:12:13.297            32.177               Magadan1          1005.531
       102   02 Jun 2027 03:12:13.297   02 Jun 2027 03:12:20.795             7.498               Magadan2           234.312
       103   02 Jun 2027 03:15:28.659   02 Jun 2027 03:15:52.792            24.133                Anadyr2           754.156
       104   02 Jun 2027 03:15:52.792   02 Jun 2027 03:16:16.672            23.880                Anadyr1           746.250
       105   02 Jun 2027 03:16:37.510   02 Jun 2027 03:16:55.817            18.307               Magadan1           572.094
       106   02 Jun 2027 04:47:23.730   02 Jun 2027 04:47:25.942             2.212               Magadan1            69.125
       107   02 Jun 2027 04:47:37.336   02 Jun 2027 04:49:25.299           107.963                Anadyr1          3373.844
       108   02 Jun 2027 04:49:43.914   02 Jun 2027 04:52:58.931           195.017                Anadyr1          6094.281
       109   02 Jun 2027 05:33:43.620   02 Jun 2027 05:34:43.435            59.815            RioGallegos          1869.219
       110   02 Jun 2027 06:22:52.693   02 Jun 2027 06:23:21.995            29.302                Irkutsk           915.687
       111   02 Jun 2027 06:23:30.399   02 Jun 2027 06:25:02.988            92.589                Irkutsk          2893.406
       112   02 Jun 2027 06:25:14.919   02 Jun 2027 06:26:29.575            74.656               Magadan1          2333.000
       113   02 Jun 2027 06:26:39.133   02 Jun 2027 06:26:51.509            12.376                Irkutsk           386.750
       114   02 Jun 2027 06:26:57.183   02 Jun 2027 06:27:09.802            12.619               Magadan1           394.344
       115   02 Jun 2027 06:27:14.356   02 Jun 2027 06:27:41.633            27.277                Anadyr2           852.406
       116   02 Jun 2027 06:28:09.797   02 Jun 2027 06:28:35.032            25.235                Anadyr1           788.594
       117   02 Jun 2027 07:59:22.752   02 Jun 2027 08:00:34.416            71.664               Magadan2          2239.500
       118   02 Jun 2027 08:00:51.198   02 Jun 2027 08:01:31.355            40.157                Norilsk          1254.906
       119   02 Jun 2027 08:01:39.064   02 Jun 2027 08:01:59.668            20.604                Irkutsk           643.875
       120   02 Jun 2027 08:02:46.282   02 Jun 2027 08:02:56.403            10.121                Norilsk           316.281
       121   02 Jun 2027 08:03:01.353   02 Jun 2027 08:03:17.235            15.882               Magadan1           496.312
       122   02 Jun 2027 08:03:17.235   02 Jun 2027 08:03:42.213            24.978               Magadan2           780.562
       123   02 Jun 2027 08:04:40.267   02 Jun 2027 08:05:43.543            63.276                Novosib          1977.375
       124   02 Jun 2027 08:06:01.212   02 Jun 2027 08:06:10.574             9.362                Norilsk           292.562
       125   02 Jun 2027 08:06:28.912   02 Jun 2027 08:06:52.013            23.101                Norilsk           721.906
       126   02 Jun 2027 08:09:02.619   02 Jun 2027 08:09:09.385             6.766              Murmansk2           211.438
       127   02 Jun 2027 08:09:40.515   02 Jun 2027 08:10:47.701            67.186              Murmansk1          2099.563
       128   02 Jun 2027 08:40:31.997   02 Jun 2027 08:41:20.033            48.036            RioGallegos          1501.125
       129   02 Jun 2027 09:14:18.278   02 Jun 2027 09:16:14.366           116.088                Sumatra          3627.750
       130   02 Jun 2027 09:26:10.524   02 Jun 2027 09:27:14.235            63.711                  Delhi          1990.969
       131   02 Jun 2027 09:35:11.529   02 Jun 2027 09:35:24.589            13.060                Novosib           408.125
       132   02 Jun 2027 09:35:27.520   02 Jun 2027 09:35:30.740             3.220                Irkutsk           100.625
       133   02 Jun 2027 09:35:47.084   02 Jun 2027 09:36:01.460            14.376                Novosib           449.250
       134   02 Jun 2027 09:36:37.000   02 Jun 2027 09:37:35.683            58.683                Novosib          1833.844
       135   02 Jun 2027 09:37:48.436   02 Jun 2027 09:39:08.480            80.044              Murmansk2          2501.375
       136   02 Jun 2027 09:39:10.789   02 Jun 2027 09:39:33.416            22.627              Murmansk2           707.094
       137   02 Jun 2027 09:39:38.365   02 Jun 2027 09:40:28.072            49.707                Irkutsk          1553.344
       138   02 Jun 2027 09:41:44.895   02 Jun 2027 09:41:53.814             8.919                 Moscow           278.719
       139   02 Jun 2027 10:18:43.502   02 Jun 2027 10:19:13.825            30.323            RioGallegos           947.594
       140   02 Jun 2027 10:20:06.009   02 Jun 2027 10:20:38.685            32.676            RioGallegos          1021.125
       141   02 Jun 2027 10:53:31.893   02 Jun 2027 10:54:08.919            37.026                Sumatra          1157.062
       142   02 Jun 2027 10:57:10.216   02 Jun 2027 10:57:19.011             8.795                Sumatra           274.844
       143   02 Jun 2027 11:00:52.620   02 Jun 2027 11:01:38.295            45.675                  Delhi          1427.344
       144   02 Jun 2027 11:05:13.278   02 Jun 2027 11:06:21.550            68.272                  Delhi          2133.500
       145   02 Jun 2027 11:12:24.889   02 Jun 2027 11:12:53.478            28.589                Novosib           893.406
       146   02 Jun 2027 11:13:01.325   02 Jun 2027 11:13:32.972            31.647                Irkutsk           988.969
       147   02 Jun 2027 11:13:39.077   02 Jun 2027 11:14:34.463            55.386                 Moscow          1730.813
       148   02 Jun 2027 11:14:38.523   02 Jun 2027 11:14:43.484             4.961              Murmansk2           155.031
       149   02 Jun 2027 11:14:47.853   02 Jun 2027 11:15:05.100            17.247              Murmansk2           538.969
       150   02 Jun 2027 11:15:19.054   02 Jun 2027 11:15:51.686            32.632                Norilsk          1019.750
       151   02 Jun 2027 11:15:54.427   02 Jun 2027 11:16:04.874            10.447                Novosib           326.469
       152   02 Jun 2027 11:16:09.949   02 Jun 2027 11:16:40.311            30.362                 Moscow           948.812
       153   02 Jun 2027 11:19:32.933   02 Jun 2027 11:19:40.267             7.334              Murmansk2           229.187
       154   02 Jun 2027 12:42:54.412   02 Jun 2027 12:46:51.555           237.143                 Moscow          7410.719
       155   02 Jun 2027 12:46:58.289   02 Jun 2027 12:48:19.278            80.989              Murmansk1          2530.906
       156   02 Jun 2027 12:48:43.514   02 Jun 2027 12:49:38.348            54.834              Murmansk2          1713.562
       157   02 Jun 2027 12:49:41.423   02 Jun 2027 12:49:49.231             7.808                Norilsk           244.000
       158   02 Jun 2027 12:53:25.602   02 Jun 2027 12:53:37.230            11.628              Murmansk2           363.375
       159   02 Jun 2027 13:57:56.318   02 Jun 2027 13:59:40.362           104.044               CapeTown          3251.375
       160   02 Jun 2027 13:59:44.661   02 Jun 2027 14:00:52.460            67.799               CapeTown          2118.719
       161   02 Jun 2027 14:03:35.835   02 Jun 2027 14:04:29.767            53.932               CapeTown          1685.375
       162   02 Jun 2027 14:23:07.533   02 Jun 2027 14:25:36.610           149.077              Murmansk2          4658.656
       163   02 Jun 2027 14:27:25.911   02 Jun 2027 14:27:32.150             6.239              Murmansk1           194.969
       164   02 Jun 2027 14:27:50.558   02 Jun 2027 14:28:09.165            18.607              Murmansk1           581.469
       165   02 Jun 2027 14:37:29.973   02 Jun 2027 14:40:28.454           178.481                Anadyr1          5577.531
       166   02 Jun 2027 14:42:11.589   02 Jun 2027 14:43:01.161            49.572                Anadyr2          1549.125
       167   02 Jun 2027 16:02:08.754   02 Jun 2027 16:02:52.974            44.220              Murmansk2          1381.875
       168   02 Jun 2027 16:03:22.835   02 Jun 2027 16:04:06.285            43.450              Murmansk2          1357.813
       169   02 Jun 2027 16:05:11.097   02 Jun 2027 16:05:26.101            15.004              Murmansk1           468.875
       170   02 Jun 2027 16:12:55.791   02 Jun 2027 16:15:17.302           141.511                Anadyr1          4422.219
       171   02 Jun 2027 16:15:32.250   02 Jun 2027 16:15:51.034            18.784                Anadyr1           587.000
       172   02 Jun 2027 16:16:43.216   02 Jun 2027 16:17:59.110            75.894               Magadan2          2371.687
       173   02 Jun 2027 16:19:10.416   02 Jun 2027 16:19:53.421            43.005               Magadan2          1343.906
       174   02 Jun 2027 16:20:12.908   02 Jun 2027 16:22:09.198           116.290               Magadan1          3634.062
       175   02 Jun 2027 17:48:49.498   02 Jun 2027 17:51:25.967           156.469                Anadyr2          4889.656
       176   02 Jun 2027 17:51:29.584   02 Jun 2027 17:55:07.045           217.461               Magadan1          6795.656
       177   02 Jun 2027 19:24:41.936   02 Jun 2027 19:26:35.845           113.909                Anadyr1          3559.656
       178   02 Jun 2027 19:26:45.999   02 Jun 2027 19:28:36.031           110.032                Anadyr2          3438.500
       179   02 Jun 2027 19:28:43.583   02 Jun 2027 19:29:02.722            19.139               Magadan1           598.094
       180   02 Jun 2027 19:29:18.505   02 Jun 2027 19:30:08.967            50.462                Norilsk          1576.937
       181   02 Jun 2027 19:32:04.227   02 Jun 2027 19:32:33.754            29.527               Magadan2           922.719
       182   02 Jun 2027 19:32:52.545   02 Jun 2027 19:33:21.211            28.666                Irkutsk           895.813
       183   02 Jun 2027 19:34:49.211   02 Jun 2027 19:35:53.955            64.744                Irkutsk          2023.250
       184   02 Jun 2027 19:36:42.061   02 Jun 2027 19:38:31.565           109.504                Irkutsk          3422.000
       185   02 Jun 2027 19:51:01.029   02 Jun 2027 19:51:22.733            21.704                Sumatra           678.250
       186   02 Jun 2027 21:02:12.107   02 Jun 2027 21:02:20.757             8.650                Anadyr2           270.313
       187   02 Jun 2027 21:02:34.185   02 Jun 2027 21:04:29.482           115.297                Norilsk          3603.031
       188   02 Jun 2027 21:04:40.477   02 Jun 2027 21:05:52.710            72.233               Magadan1          2257.281
       189   02 Jun 2027 21:06:56.459   02 Jun 2027 21:08:12.953            76.494                Irkutsk          2390.437
       190   02 Jun 2027 21:08:36.862   02 Jun 2027 21:11:02.279           145.417                Novosib          4544.281
       191   02 Jun 2027 21:20:16.597   02 Jun 2027 21:21:30.808            74.211                Sumatra          2319.094
       192   02 Jun 2027 21:28:37.551   02 Jun 2027 21:28:53.285            15.734                Sumatra           491.687
       193   02 Jun 2027 21:29:38.849   02 Jun 2027 21:29:51.272            12.423                Sumatra           388.219
       194   02 Jun 2027 22:38:32.965   02 Jun 2027 22:38:39.388             6.423                Norilsk           200.719
       195   02 Jun 2027 22:39:09.531   02 Jun 2027 22:40:09.263            59.732               Magadan2          1866.625
       196   02 Jun 2027 22:41:49.599   02 Jun 2027 22:42:26.733            37.134               Magadan2          1160.438
       197   02 Jun 2027 22:42:27.457   02 Jun 2027 22:43:30.236            62.779                Irkutsk          1961.844
       198   02 Jun 2027 22:44:06.813   02 Jun 2027 22:44:38.725            31.912                Novosib           997.250
       199   02 Jun 2027 22:47:39.939   02 Jun 2027 22:47:56.415            16.476                Novosib           514.875
       200   02 Jun 2027 22:48:04.162   02 Jun 2027 22:48:40.469            36.307                Novosib          1134.594
       201   02 Jun 2027 22:49:55.149   02 Jun 2027 22:52:34.855           159.706                  Delhi          4990.812
       202   02 Jun 2027 22:59:07.145   02 Jun 2027 22:59:23.897            16.752                  Delhi           523.500
       203   03 Jun 2027 00:08:01.193   03 Jun 2027 00:08:15.369            14.176                Anadyr1           443.000
       204   03 Jun 2027 00:09:45.238   03 Jun 2027 00:10:29.942            44.704                Anadyr1          1397.000
       205   03 Jun 2027 00:13:49.097   03 Jun 2027 00:14:02.050            12.953                Anadyr2           404.781
       206   03 Jun 2027 00:14:10.657   03 Jun 2027 00:15:06.538            55.881               Magadan2          1746.281
       207   03 Jun 2027 00:15:18.696   03 Jun 2027 00:16:40.408            81.712               Magadan1          2553.500
       208   03 Jun 2027 00:16:48.340   03 Jun 2027 00:18:58.403           130.063              Murmansk2          4064.469
       209   03 Jun 2027 00:19:23.233   03 Jun 2027 00:21:15.163           111.930              Murmansk1          3497.813
       210   03 Jun 2027 00:22:30.676   03 Jun 2027 00:22:40.383             9.707                 Moscow           303.344
       211   03 Jun 2027 00:24:53.628   03 Jun 2027 00:25:26.610            32.982                 Moscow          1030.688
       212   03 Jun 2027 00:25:49.991   03 Jun 2027 00:26:23.540            33.549                 Moscow          1048.406
       213   03 Jun 2027 00:49:03.108   03 Jun 2027 00:50:09.661            66.553               CapeTown          2079.781
       214   03 Jun 2027 00:51:54.686   03 Jun 2027 00:52:43.499            48.813               CapeTown          1525.406
       215   03 Jun 2027 01:43:56.740   03 Jun 2027 01:44:11.207            14.467                Anadyr1           452.094
       216   03 Jun 2027 01:46:08.114   03 Jun 2027 01:47:43.004            94.890               Magadan2          2965.313
       217   03 Jun 2027 01:49:03.705   03 Jun 2027 01:49:37.558            33.853               Magadan1          1057.906
       218   03 Jun 2027 01:49:54.018   03 Jun 2027 01:50:27.653            33.635               Magadan2          1051.094
       219   03 Jun 2027 01:52:39.297   03 Jun 2027 01:54:16.945            97.648              Murmansk1          3051.500
       220   03 Jun 2027 01:54:24.891   03 Jun 2027 01:55:20.327            55.436              Murmansk1          1732.375
       221   03 Jun 2027 02:02:58.413   03 Jun 2027 02:03:05.755             7.342                 Moscow           229.438
       222   03 Jun 2027 02:04:44.473   03 Jun 2027 02:05:29.942            45.469                 Moscow          1420.906
       223   03 Jun 2027 02:19:55.410   03 Jun 2027 02:21:00.495            65.085               CapeTown          2033.906
       224   03 Jun 2027 03:23:21.289   03 Jun 2027 03:23:25.097             3.808               Magadan2           119.000
       225   03 Jun 2027 03:23:41.419   03 Jun 2027 03:24:34.845            53.426               Magadan1          1669.563
       226   03 Jun 2027 03:24:38.342   03 Jun 2027 03:25:13.710            35.368                Anadyr2          1105.250
       227   03 Jun 2027 03:25:24.248   03 Jun 2027 03:26:37.563            73.315                Anadyr2          2291.094
       228   03 Jun 2027 03:28:21.309   03 Jun 2027 03:28:32.780            11.471               Magadan1           358.469
       229   03 Jun 2027 04:59:35.945   03 Jun 2027 05:00:06.905            30.960                Anadyr2           967.500
       230   03 Jun 2027 05:00:10.773   03 Jun 2027 05:01:06.842            56.069               Magadan1          1752.156
       231   03 Jun 2027 05:01:06.842   03 Jun 2027 05:01:11.009             4.167               Magadan2           130.219
       232   03 Jun 2027 05:01:26.017   03 Jun 2027 05:04:08.119           162.102                Anadyr2          5065.687
       233   03 Jun 2027 05:04:16.556   03 Jun 2027 05:05:03.268            46.712               Magadan1          1459.750
       234   03 Jun 2027 05:44:34.273   03 Jun 2027 05:45:16.050            41.777            RioGallegos          1305.531
       235   03 Jun 2027 05:45:57.994   03 Jun 2027 05:46:11.035            13.041            RioGallegos           407.531
       236   03 Jun 2027 06:32:43.694   03 Jun 2027 06:33:28.406            44.712               Magadan2          1397.250
       237   03 Jun 2027 06:33:34.507   03 Jun 2027 06:34:02.255            27.748               Magadan1           867.125
       238   03 Jun 2027 06:34:14.417   03 Jun 2027 06:34:36.824            22.407                Norilsk           700.219
       239   03 Jun 2027 06:34:48.383   03 Jun 2027 06:36:46.093           117.710                Irkutsk          3678.437
       240   03 Jun 2027 06:37:02.435   03 Jun 2027 06:37:17.973            15.538               Magadan2           485.562
       241   03 Jun 2027 06:37:17.973   03 Jun 2027 06:38:10.818            52.845               Magadan1          1651.406
       242   03 Jun 2027 06:38:31.343   03 Jun 2027 06:38:49.109            17.766               Magadan1           555.187
       243   03 Jun 2027 06:38:52.944   03 Jun 2027 06:39:22.601            29.657                Norilsk           926.781
       244   03 Jun 2027 06:39:34.981   03 Jun 2027 06:40:09.511            34.530                Irkutsk          1079.063
       245   03 Jun 2027 06:40:13.976   03 Jun 2027 06:40:23.097             9.121                Anadyr2           285.031
       246   03 Jun 2027 06:40:29.642   03 Jun 2027 06:40:35.181             5.539              Murmansk1           173.094
       247   03 Jun 2027 06:40:44.407   03 Jun 2027 06:40:53.913             9.506                Novosib           297.062
       248   03 Jun 2027 06:42:01.240   03 Jun 2027 06:42:15.131            13.891              Murmansk1           434.094
       249   03 Jun 2027 06:45:41.345   03 Jun 2027 06:46:00.586            19.241              Murmansk1           601.281
       250   03 Jun 2027 06:46:27.652   03 Jun 2027 06:46:40.440            12.788              Murmansk2           399.625
       251   03 Jun 2027 07:16:07.586   03 Jun 2027 07:17:12.414            64.828            RioGallegos          2025.875
       252   03 Jun 2027 07:19:23.781   03 Jun 2027 07:19:34.500            10.719            RioGallegos           334.969
       253   03 Jun 2027 07:54:54.089   03 Jun 2027 07:55:50.692            56.603                Sumatra          1768.844
       254   03 Jun 2027 08:09:33.403   03 Jun 2027 08:10:01.762            28.359               Magadan1           886.219
       255   03 Jun 2027 08:10:23.886   03 Jun 2027 08:10:34.117            10.231                Novosib           319.719
       256   03 Jun 2027 08:10:51.664   03 Jun 2027 08:11:20.602            28.938                Norilsk           904.312
       257   03 Jun 2027 08:11:22.290   03 Jun 2027 08:11:53.717            31.427                Novosib           982.094
       258   03 Jun 2027 08:12:24.502   03 Jun 2027 08:12:31.488             6.986                Novosib           218.312
       259   03 Jun 2027 08:12:43.588   03 Jun 2027 08:12:44.845             1.257                Irkutsk            39.281
       260   03 Jun 2027 08:12:56.271   03 Jun 2027 08:13:06.682            10.411               Magadan2           325.344
       261   03 Jun 2027 08:13:19.358   03 Jun 2027 08:14:01.240            41.882               Magadan1          1308.813
       262   03 Jun 2027 08:14:05.649   03 Jun 2027 08:14:25.681            20.032                Norilsk           626.000
       263   03 Jun 2027 08:14:26.963   03 Jun 2027 08:14:56.727            29.764              Murmansk1           930.125
       264   03 Jun 2027 08:15:11.188   03 Jun 2027 08:15:40.142            28.954                Irkutsk           904.813
       265   03 Jun 2027 08:15:47.995   03 Jun 2027 08:17:03.410            75.415              Murmansk2          2356.719
       266   03 Jun 2027 08:51:36.000   03 Jun 2027 08:51:41.423             5.423            RioGallegos           169.469
       267   03 Jun 2027 08:52:29.755   03 Jun 2027 08:53:05.582            35.827            RioGallegos          1119.594
       268   03 Jun 2027 08:56:29.689   03 Jun 2027 08:57:04.839            35.150            RioGallegos          1098.438
       269   03 Jun 2027 09:26:16.303   03 Jun 2027 09:26:43.068            26.765                Sumatra           836.406
       270   03 Jun 2027 09:28:04.100   03 Jun 2027 09:29:03.293            59.193                Sumatra          1849.781
       271   03 Jun 2027 09:36:26.956   03 Jun 2027 09:36:32.836             5.880                  Delhi           183.750
       272   03 Jun 2027 09:39:07.273   03 Jun 2027 09:39:07.560             0.287                  Delhi             8.969
       273   03 Jun 2027 09:40:20.628   03 Jun 2027 09:40:59.447            38.819                  Delhi          1213.094
       274   03 Jun 2027 09:41:24.532   03 Jun 2027 09:42:28.194            63.662                  Delhi          1989.438
       275   03 Jun 2027 09:47:05.426   03 Jun 2027 09:48:42.028            96.602                Irkutsk          3018.813
       276   03 Jun 2027 09:48:48.335   03 Jun 2027 09:49:11.884            23.549              Murmansk2           735.906
       277   03 Jun 2027 09:49:44.228   03 Jun 2027 09:50:17.627            33.399              Murmansk1          1043.719
       278   03 Jun 2027 09:50:17.830   03 Jun 2027 09:50:44.200            26.370                 Moscow           824.063
       279   03 Jun 2027 09:50:47.776   03 Jun 2027 09:51:57.990            70.214                Norilsk          2194.188
       280   03 Jun 2027 09:52:21.354   03 Jun 2027 09:52:32.214            10.860              Murmansk2           339.375
       281   03 Jun 2027 09:52:36.895   03 Jun 2027 09:53:19.656            42.761                Novosib          1336.281
       282   03 Jun 2027 09:54:25.938   03 Jun 2027 09:54:31.255             5.317                 Moscow           166.156
       283   03 Jun 2027 10:31:47.709   03 Jun 2027 10:32:43.890            56.181            RioGallegos          1755.656
       284   03 Jun 2027 10:34:25.080   03 Jun 2027 10:35:15.994            50.914            RioGallegos          1591.062
       285   03 Jun 2027 11:10:40.627   03 Jun 2027 11:11:10.770            30.143                  Delhi           941.969
       286   03 Jun 2027 11:15:01.567   03 Jun 2027 11:15:22.066            20.499                  Delhi           640.594
       287   03 Jun 2027 11:24:32.496   03 Jun 2027 11:24:54.610            22.114                 Moscow           691.063
       288   03 Jun 2027 11:24:55.496   03 Jun 2027 11:26:07.384            71.888                Novosib          2246.500
       289   03 Jun 2027 11:26:13.197   03 Jun 2027 11:26:31.866            18.669                Norilsk           583.406
       290   03 Jun 2027 11:26:33.625   03 Jun 2027 11:26:41.547             7.922              Murmansk2           247.562
       291   03 Jun 2027 11:27:03.188   03 Jun 2027 11:27:13.872            10.684                 Moscow           333.875
       292   03 Jun 2027 11:27:15.005   03 Jun 2027 11:27:21.935             6.930                Novosib           216.563
       293   03 Jun 2027 11:27:28.986   03 Jun 2027 11:28:03.031            34.045                 Moscow          1063.906
       294   03 Jun 2027 11:28:12.100   03 Jun 2027 11:28:13.605             1.505                Novosib            47.031
       295   03 Jun 2027 11:28:19.686   03 Jun 2027 11:28:56.621            36.935                Novosib          1154.219
       296   03 Jun 2027 11:30:27.737   03 Jun 2027 11:31:32.025            64.288              Murmansk2          2009.000
       297   03 Jun 2027 12:54:52.571   03 Jun 2027 12:57:15.977           143.406                 Moscow          4481.438
       298   03 Jun 2027 12:57:46.791   03 Jun 2027 12:58:04.365            17.574                 Moscow           549.187
       299   03 Jun 2027 12:58:19.194   03 Jun 2027 13:00:15.724           116.530              Murmansk1          3641.562
       300   03 Jun 2027 13:01:39.897   03 Jun 2027 13:02:18.542            38.645              Murmansk1          1207.656
       301   03 Jun 2027 13:02:23.160   03 Jun 2027 13:03:22.891            59.731                Norilsk          1866.594
       302   03 Jun 2027 14:09:28.025   03 Jun 2027 14:11:02.715            94.690               CapeTown          2959.062
       303   03 Jun 2027 14:11:04.824   03 Jun 2027 14:11:29.692            24.868               CapeTown           777.125
       304   03 Jun 2027 14:13:46.177   03 Jun 2027 14:14:09.345            23.168               CapeTown           724.000
       305   03 Jun 2027 14:15:05.998   03 Jun 2027 14:15:49.229            43.231               CapeTown          1350.969
       306   03 Jun 2027 14:35:24.116   03 Jun 2027 14:36:23.635            59.519              Murmansk1          1859.969
       307   03 Jun 2027 14:37:35.706   03 Jun 2027 14:38:08.008            32.302              Murmansk2          1009.437
       308   03 Jun 2027 14:39:51.131   03 Jun 2027 14:40:07.144            16.013              Murmansk1           500.406
       309   03 Jun 2027 14:43:35.596   03 Jun 2027 14:44:04.444            28.848              Murmansk2           901.500
       310   03 Jun 2027 14:45:15.315   03 Jun 2027 14:45:32.225            16.910              Murmansk2           528.437
       311   03 Jun 2027 14:45:40.405   03 Jun 2027 14:45:50.635            10.230              Murmansk2           319.688
       312   03 Jun 2027 14:49:23.622   03 Jun 2027 14:51:40.474           136.852                Anadyr1          4276.625
       313   03 Jun 2027 14:54:26.274   03 Jun 2027 14:55:01.195            34.921                Anadyr1          1091.281
       314   03 Jun 2027 14:55:17.090   03 Jun 2027 14:57:03.175           106.085                Anadyr1          3315.156
       315   03 Jun 2027 16:14:45.669   03 Jun 2027 16:15:09.203            23.534              Murmansk2           735.437
       316   03 Jun 2027 16:15:23.518   03 Jun 2027 16:17:04.096           100.578              Murmansk1          3143.063
       317   03 Jun 2027 16:24:56.275   03 Jun 2027 16:25:51.254            54.979                Anadyr1          1718.094
       318   03 Jun 2027 16:26:01.414   03 Jun 2027 16:26:39.569            38.155                Anadyr2          1192.344
       319   03 Jun 2027 16:28:21.196   03 Jun 2027 16:31:04.607           163.411               Magadan2          5106.594
       320   03 Jun 2027 16:31:49.997   03 Jun 2027 16:33:26.396            96.399               Magadan1          3012.469
       321   03 Jun 2027 18:00:50.918   03 Jun 2027 18:03:14.060           143.142                Anadyr2          4473.188
       322   03 Jun 2027 18:03:14.060   03 Jun 2027 18:03:25.846            11.786                Anadyr1           368.312
       323   03 Jun 2027 18:04:05.691   03 Jun 2027 18:05:54.156           108.465               Magadan2          3389.531
       324   03 Jun 2027 18:06:57.998   03 Jun 2027 18:08:13.589            75.591               Magadan1          2362.219
       325   03 Jun 2027 18:58:52.553   03 Jun 2027 19:00:04.941            72.388            RioGallegos          2262.125
       326   03 Jun 2027 19:36:41.787   03 Jun 2027 19:36:55.537            13.750                Anadyr1           429.688
       327   03 Jun 2027 19:37:10.233   03 Jun 2027 19:38:41.762            91.529                Anadyr2          2860.281
       328   03 Jun 2027 19:38:56.632   03 Jun 2027 19:42:44.631           227.999                Norilsk          7124.969
       329   03 Jun 2027 19:44:14.495   03 Jun 2027 19:47:17.400           182.905                Irkutsk          5715.781
       330   03 Jun 2027 19:49:00.934   03 Jun 2027 19:49:29.528            28.594                Irkutsk           893.562
       331   03 Jun 2027 19:49:41.216   03 Jun 2027 19:50:53.955            72.739                Irkutsk          2273.094
       332   03 Jun 2027 20:00:00.027   03 Jun 2027 20:01:33.409            93.382                Sumatra          2918.188
       333   03 Jun 2027 21:15:54.777   03 Jun 2027 21:16:27.047            32.270                Norilsk          1008.438
       334   03 Jun 2027 21:18:33.147   03 Jun 2027 21:20:11.059            97.912                Irkutsk          3059.750
       335   03 Jun 2027 21:20:14.593   03 Jun 2027 21:21:03.266            48.673                Novosib          1521.031
       336   03 Jun 2027 21:24:53.638   03 Jun 2027 21:26:21.531            87.893                Novosib          2746.656
       337   03 Jun 2027 21:32:17.414   03 Jun 2027 21:32:29.568            12.154                Sumatra           379.813
       338   03 Jun 2027 21:38:03.387   03 Jun 2027 21:38:54.025            50.638                Sumatra          1582.437
       339   03 Jun 2027 22:50:34.938   03 Jun 2027 22:50:39.979             5.041                Norilsk           157.531
       340   03 Jun 2027 22:51:10.227   03 Jun 2027 22:51:38.607            28.380               Magadan2           886.875
       341   03 Jun 2027 22:51:39.191   03 Jun 2027 22:51:47.106             7.915                Anadyr2           247.344
       342   03 Jun 2027 22:51:48.964   03 Jun 2027 22:51:50.240             1.276                Anadyr2            39.875
       343   03 Jun 2027 22:51:55.002   03 Jun 2027 22:52:12.687            17.685                Anadyr2           552.656
       344   03 Jun 2027 22:52:35.289   03 Jun 2027 22:53:05.127            29.838               Magadan1           932.438
       345   03 Jun 2027 22:53:57.272   03 Jun 2027 22:57:22.250           204.978              Murmansk1          6405.563
       346   03 Jun 2027 23:01:48.341   03 Jun 2027 23:02:50.938            62.597                  Delhi          1956.156
       347   03 Jun 2027 23:05:42.964   03 Jun 2027 23:05:51.896             8.932                  Delhi           279.125
       348   03 Jun 2027 23:07:06.789   03 Jun 2027 23:07:46.723            39.934                  Delhi          1247.937
       349   03 Jun 2027 23:12:57.564   03 Jun 2027 23:14:01.746            64.182                  Delhi          2005.687
       350   04 Jun 2027 00:19:42.451   04 Jun 2027 00:19:58.828            16.377                Anadyr2           511.781
       351   04 Jun 2027 00:21:09.779   04 Jun 2027 00:21:46.524            36.745                Anadyr2          1148.281
       352   04 Jun 2027 00:22:14.325   04 Jun 2027 00:22:30.540            16.215                Anadyr1           506.719
       353   04 Jun 2027 00:22:49.976   04 Jun 2027 00:22:58.908             8.932                Anadyr2           279.125
       354   04 Jun 2027 00:25:50.548   04 Jun 2027 00:27:17.479            86.931               Magadan1          2716.594
       355   04 Jun 2027 00:27:22.983   04 Jun 2027 00:28:08.901            45.918               Magadan2          1434.937
       356   04 Jun 2027 00:28:47.757   04 Jun 2027 00:31:24.819           157.062              Murmansk2          4908.188
       357   04 Jun 2027 00:31:59.785   04 Jun 2027 00:32:44.412            44.627              Murmansk1          1394.594
       358   04 Jun 2027 00:33:06.074   04 Jun 2027 00:33:42.549            36.475                 Moscow          1139.844
       359   04 Jun 2027 00:45:17.419   04 Jun 2027 00:45:35.067            17.648                  Delhi           551.500
       360   04 Jun 2027 00:59:42.651   04 Jun 2027 01:01:31.976           109.325               CapeTown          3416.406
       361   04 Jun 2027 01:05:56.392   04 Jun 2027 01:06:48.289            51.897               CapeTown          1621.781
       362   04 Jun 2027 01:56:00.163   04 Jun 2027 01:56:18.978            18.815                Anadyr1           587.969
       363   04 Jun 2027 01:57:36.784   04 Jun 2027 01:59:07.787            91.003               Magadan1          2843.844
       364   04 Jun 2027 01:59:21.674   04 Jun 2027 02:00:04.842            43.168               Magadan2          1349.000
       365   04 Jun 2027 02:04:40.999   04 Jun 2027 02:04:57.520            16.521              Murmansk1           516.281
       366   04 Jun 2027 02:05:16.188   04 Jun 2027 02:06:24.801            68.613              Murmansk2          2144.156
       367   04 Jun 2027 02:06:57.175   04 Jun 2027 02:07:28.573            31.398              Murmansk2           981.188
       368   04 Jun 2027 02:07:41.073   04 Jun 2027 02:08:10.114            29.041                Novosib           907.531
       369   04 Jun 2027 02:13:40.090   04 Jun 2027 02:13:53.730            13.640                 Moscow           426.250
       370   04 Jun 2027 02:16:35.183   04 Jun 2027 02:17:16.296            41.113                 Moscow          1284.781
       371   04 Jun 2027 02:31:49.624   04 Jun 2027 02:32:27.780            38.156               CapeTown          1192.375
       372   04 Jun 2027 02:39:49.283   04 Jun 2027 02:40:33.834            44.551               CapeTown          1392.219
       373   04 Jun 2027 03:35:27.771   04 Jun 2027 03:35:41.657            13.886               Magadan2           433.938
       374   04 Jun 2027 03:35:46.338   04 Jun 2027 03:36:22.016            35.678                Anadyr1          1114.938
       375   04 Jun 2027 03:36:33.929   04 Jun 2027 03:36:38.855             4.926                Anadyr2           153.938
       376   04 Jun 2027 03:36:56.391   04 Jun 2027 03:39:54.089           177.698                Anadyr1          5553.063
       377   04 Jun 2027 03:40:30.361   04 Jun 2027 03:41:01.434            31.073               Magadan2           971.031
       378   04 Jun 2027 05:13:45.925   04 Jun 2027 05:15:10.636            84.711               Magadan2          2647.219
       379   04 Jun 2027 05:15:22.253   04 Jun 2027 05:16:13.609            51.356                Anadyr1          1604.875
       380   04 Jun 2027 05:16:40.900   04 Jun 2027 05:17:16.205            35.305                Anadyr1          1103.281
       381   04 Jun 2027 06:45:15.205   04 Jun 2027 06:45:31.614            16.409               Magadan2           512.781
       382   04 Jun 2027 06:46:02.331   04 Jun 2027 06:46:14.727            12.396               Magadan1           387.375
       383   04 Jun 2027 06:46:41.961   04 Jun 2027 06:47:53.595            71.634                Anadyr1          2238.562
       384   04 Jun 2027 06:48:01.037   04 Jun 2027 06:49:44.514           103.477                Novosib          3233.656
       385   04 Jun 2027 06:49:52.515   04 Jun 2027 06:50:03.386            10.871               Magadan2           339.719
       386   04 Jun 2027 06:50:06.134   04 Jun 2027 06:50:54.144            48.010                Anadyr1          1500.312
       387   04 Jun 2027 06:51:04.181   04 Jun 2027 06:51:42.937            38.756               Magadan2          1211.125
       388   04 Jun 2027 06:51:42.937   04 Jun 2027 06:51:48.884             5.947               Magadan1           185.844
       389   04 Jun 2027 06:51:49.000   04 Jun 2027 06:52:16.311            27.311                Irkutsk           853.469
       390   04 Jun 2027 06:52:24.056   04 Jun 2027 06:53:10.805            46.749              Murmansk1          1460.906
       391   04 Jun 2027 06:53:58.438   04 Jun 2027 06:54:17.404            18.966              Murmansk1           592.687
       392   04 Jun 2027 06:54:44.236   04 Jun 2027 06:55:26.057            41.821              Murmansk1          1306.906
       393   04 Jun 2027 07:27:54.237   04 Jun 2027 07:28:18.651            24.414            RioGallegos           762.937
       394   04 Jun 2027 07:32:05.769   04 Jun 2027 07:32:06.530             0.761            RioGallegos            23.781
       395   04 Jun 2027 07:33:17.339   04 Jun 2027 07:33:19.328             1.989            RioGallegos            62.156
       396   04 Jun 2027 08:05:20.727   04 Jun 2027 08:06:31.471            70.744                Sumatra          2210.750
       397   04 Jun 2027 08:08:36.916   04 Jun 2027 08:10:00.911            83.995                Sumatra          2624.844
       398   04 Jun 2027 08:22:08.026   04 Jun 2027 08:23:06.324            58.298               Magadan1          1821.812
       399   04 Jun 2027 08:23:10.794   04 Jun 2027 08:23:28.355            17.561                Irkutsk           548.781
       400   04 Jun 2027 08:23:28.743   04 Jun 2027 08:24:01.299            32.556               Magadan1          1017.375
       401   04 Jun 2027 08:24:06.401   04 Jun 2027 08:25:20.366            73.965               Magadan2          2311.406
       402   04 Jun 2027 08:25:31.303   04 Jun 2027 08:26:27.472            56.169                Irkutsk          1755.281
       403   04 Jun 2027 08:26:32.201   04 Jun 2027 08:27:08.245            36.044              Murmansk2          1126.375
       404   04 Jun 2027 08:27:11.719   04 Jun 2027 08:28:08.007            56.288                Norilsk          1759.000
       405   04 Jun 2027 08:28:12.710   04 Jun 2027 08:28:47.141            34.431                Irkutsk          1075.969
       406   04 Jun 2027 08:28:59.461   04 Jun 2027 08:29:22.075            22.614              Murmansk2           706.687
       407   04 Jun 2027 08:31:59.796   04 Jun 2027 08:32:13.418            13.622              Murmansk1           425.687
       408   04 Jun 2027 09:03:49.531   04 Jun 2027 09:04:19.469            29.938            RioGallegos           935.562
       409   04 Jun 2027 09:08:01.519   04 Jun 2027 09:08:09.812             8.293            RioGallegos           259.156
       410   04 Jun 2027 09:08:31.773   04 Jun 2027 09:08:40.312             8.539            RioGallegos           266.844
       411   04 Jun 2027 09:38:19.933   04 Jun 2027 09:38:36.202            16.269                Sumatra           508.406
       412   04 Jun 2027 09:41:23.751   04 Jun 2027 09:41:36.372            12.621                Sumatra           394.406
       413   04 Jun 2027 09:42:49.258   04 Jun 2027 09:42:55.962             6.704                Sumatra           209.500
       414   04 Jun 2027 09:44:43.778   04 Jun 2027 09:45:27.270            43.492                Sumatra          1359.125
       415   04 Jun 2027 09:48:14.767   04 Jun 2027 09:48:51.054            36.287                  Delhi          1133.969
       416   04 Jun 2027 09:52:36.117   04 Jun 2027 09:53:36.044            59.927                  Delhi          1872.719
       417   04 Jun 2027 09:58:46.573   04 Jun 2027 09:58:59.534            12.961                Irkutsk           405.031
       418   04 Jun 2027 09:59:09.592   04 Jun 2027 10:00:14.779            65.187                Novosib          2037.094
       419   04 Jun 2027 10:00:20.412   04 Jun 2027 10:00:26.295             5.883              Murmansk2           183.844
       420   04 Jun 2027 10:00:36.224   04 Jun 2027 10:01:03.507            27.283              Murmansk2           852.594
       421   04 Jun 2027 10:01:33.077   04 Jun 2027 10:02:08.331            35.254              Murmansk2          1101.687
       422   04 Jun 2027 10:02:13.944   04 Jun 2027 10:02:52.822            38.878              Murmansk1          1214.937
       423   04 Jun 2027 10:03:04.531   04 Jun 2027 10:03:26.862            22.331                Irkutsk           697.844
       424   04 Jun 2027 10:03:32.229   04 Jun 2027 10:04:09.277            37.048                Novosib          1157.750
       425   04 Jun 2027 10:04:19.523   04 Jun 2027 10:04:37.991            18.468                 Moscow           577.125
       426   04 Jun 2027 10:04:52.369   04 Jun 2027 10:05:31.593            39.224              Murmansk2          1225.750
       427   04 Jun 2027 10:45:23.834   04 Jun 2027 10:46:23.085            59.251            RioGallegos          1851.594
       428   04 Jun 2027 11:22:48.877   04 Jun 2027 11:24:17.609            88.732                  Delhi          2772.875
       429   04 Jun 2027 11:31:21.516   04 Jun 2027 11:32:38.749            77.233                  Delhi          2413.531
       430   04 Jun 2027 11:35:51.066   04 Jun 2027 11:36:13.756            22.690                Novosib           709.062
       431   04 Jun 2027 11:36:13.805   04 Jun 2027 11:36:55.686            41.881              Murmansk2          1308.781
       432   04 Jun 2027 11:37:02.103   04 Jun 2027 11:37:19.416            17.313              Murmansk1           541.031
       433   04 Jun 2027 11:37:43.854   04 Jun 2027 11:38:29.964            46.110              Murmansk2          1440.937
       434   04 Jun 2027 11:38:32.288   04 Jun 2027 11:39:05.789            33.501              Murmansk2          1046.906
       435   04 Jun 2027 11:39:07.934   04 Jun 2027 11:39:35.573            27.639                 Moscow           863.719
       436   04 Jun 2027 11:39:46.488   04 Jun 2027 11:40:13.489            27.001              Murmansk2           843.781
       437   04 Jun 2027 11:40:25.144   04 Jun 2027 11:40:25.555             0.411              Murmansk2            12.844
       438   04 Jun 2027 11:40:43.447   04 Jun 2027 11:41:07.527            24.080              Murmansk2           752.500
       439   04 Jun 2027 11:41:37.086   04 Jun 2027 11:42:07.286            30.200                 Moscow           943.750
       440   04 Jun 2027 13:06:53.577   04 Jun 2027 13:09:54.295           180.718                 Moscow          5647.437
       441   04 Jun 2027 13:10:23.152   04 Jun 2027 13:13:41.537           198.385              Murmansk1          6199.531
       442   04 Jun 2027 13:15:09.246   04 Jun 2027 13:15:31.495            22.249                Norilsk           695.281
       443   04 Jun 2027 13:18:25.255   04 Jun 2027 13:19:17.142            51.887                Norilsk          1621.469
       444   04 Jun 2027 14:21:07.507   04 Jun 2027 14:24:06.905           179.398               CapeTown          5606.187
       445   04 Jun 2027 14:26:00.046   04 Jun 2027 14:26:01.846             1.800               CapeTown            56.250
       446   04 Jun 2027 14:47:42.783   04 Jun 2027 14:49:39.441           116.658              Murmansk1          3645.562
       447   04 Jun 2027 14:50:04.192   04 Jun 2027 14:50:11.713             7.521              Murmansk1           235.031
       448   04 Jun 2027 14:51:51.991   04 Jun 2027 14:52:03.951            11.960              Murmansk2           373.750
       449   04 Jun 2027 15:01:19.009   04 Jun 2027 15:03:41.065           142.056                Anadyr1          4439.250
       450   04 Jun 2027 15:07:00.855   04 Jun 2027 15:07:11.707            10.852                Anadyr2           339.125
       451   04 Jun 2027 15:07:18.294   04 Jun 2027 15:07:57.803            39.509                Anadyr1          1234.656
       452   04 Jun 2027 15:56:29.987   04 Jun 2027 15:57:00.179            30.192               CapeTown           943.500
       453   04 Jun 2027 16:05:11.313   04 Jun 2027 16:05:49.145            37.832               CapeTown          1182.250
       454   04 Jun 2027 16:27:26.311   04 Jun 2027 16:29:43.186           136.875              Murmansk2          4277.344
       455   04 Jun 2027 16:31:35.189   04 Jun 2027 16:33:13.860            98.671              Murmansk1          3083.469
       456   04 Jun 2027 16:36:57.035   04 Jun 2027 16:37:58.741            61.706                Anadyr2          1928.313
       457   04 Jun 2027 16:40:05.741   04 Jun 2027 16:42:45.309           159.568               Magadan2          4986.500
       458   04 Jun 2027 16:44:16.775   04 Jun 2027 16:44:23.976             7.201               Magadan2           225.031
       459   04 Jun 2027 16:44:45.717   04 Jun 2027 16:45:29.110            43.393               Magadan2          1356.031
       460   04 Jun 2027 18:12:52.283   04 Jun 2027 18:16:36.292           224.009                Anadyr1          7000.281
       461   04 Jun 2027 18:16:44.352   04 Jun 2027 18:18:05.666            81.314               Magadan1          2541.063
       462   04 Jun 2027 18:22:47.165   04 Jun 2027 18:23:22.547            35.382               Magadan2          1105.687
       463   04 Jun 2027 19:09:11.346   04 Jun 2027 19:11:43.297           151.951            RioGallegos          4748.469
       464   04 Jun 2027 19:13:59.037   04 Jun 2027 19:14:32.735            33.698            RioGallegos          1053.063
       465   04 Jun 2027 19:48:41.222   04 Jun 2027 19:48:57.233            16.011                Anadyr1           500.344
       466   04 Jun 2027 19:50:52.492   04 Jun 2027 19:54:43.746           231.254                Norilsk          7226.687
       467   04 Jun 2027 19:56:22.922   04 Jun 2027 19:56:56.970            34.048                Irkutsk          1064.000
       468   04 Jun 2027 19:56:59.870   04 Jun 2027 19:57:39.644            39.774                Norilsk          1242.937
       469   04 Jun 2027 19:57:50.318   04 Jun 2027 19:59:06.338            76.020                Irkutsk          2375.625
       470   04 Jun 2027 20:00:07.795   04 Jun 2027 20:01:06.795            59.000                Irkutsk          1843.750
       471   04 Jun 2027 20:01:58.626   04 Jun 2027 20:02:25.366            26.740                Irkutsk           835.625
       472   04 Jun 2027 20:10:49.531   04 Jun 2027 20:13:06.214           136.683                Sumatra          4271.344
       473   04 Jun 2027 20:16:29.869   04 Jun 2027 20:17:30.320            60.451                Sumatra          1889.094
       474   04 Jun 2027 21:30:31.790   04 Jun 2027 21:32:06.054            94.264                Irkutsk          2945.750
       475   04 Jun 2027 21:32:13.091   04 Jun 2027 21:32:53.120            40.029                Novosib          1250.906
       476   04 Jun 2027 21:41:21.877   04 Jun 2027 21:43:02.555           100.678                  Delhi          3146.188
       477   04 Jun 2027 22:58:06.149   04 Jun 2027 22:58:51.619            45.470                Anadyr1          1420.937
       478   04 Jun 2027 23:02:11.775   04 Jun 2027 23:02:24.094            12.319                Anadyr1           384.969
       479   04 Jun 2027 23:02:36.855   04 Jun 2027 23:03:36.528            59.673                Norilsk          1864.781
       480   04 Jun 2027 23:03:43.557   04 Jun 2027 23:04:12.866            29.309                Norilsk           915.906
       481   04 Jun 2027 23:04:31.063   04 Jun 2027 23:04:47.422            16.359               Magadan2           511.219
       482   04 Jun 2027 23:05:36.477   04 Jun 2027 23:09:08.423           211.946              Murmansk1          6623.313
