uniorb/output/strategy_2/Drop/Drop_KinoSat_111608.txt

KinoSat_111608
-------------------------
    Access    *     Start Time (UTCG)     *     Stop Time (UTCG)  *   Duration (s)        *       Station  *  Data (Mbytes)
         1   01 Jun 2027 04:25:51.858   01 Jun 2027 04:26:11.721            19.863              Murmansk2           620.719
         2   01 Jun 2027 04:26:11.721   01 Jun 2027 04:26:30.757            19.036              Murmansk1           594.875
         3   01 Jun 2027 04:27:01.433   01 Jun 2027 04:27:17.176            15.743                Norilsk           491.969
         4   01 Jun 2027 04:27:59.436   01 Jun 2027 04:29:11.031            71.595              Murmansk2          2237.344
         5   01 Jun 2027 04:29:16.190   01 Jun 2027 04:29:16.281             0.091              Murmansk2             2.844
         6   01 Jun 2027 04:29:42.022   01 Jun 2027 04:33:39.503           237.481                 Moscow          7421.281
         7   01 Jun 2027 04:45:02.814   01 Jun 2027 04:48:38.566           215.752               CapeTown          6742.250
         8   01 Jun 2027 04:53:29.625   01 Jun 2027 04:54:26.169            56.544               CapeTown          1767.000
         9   01 Jun 2027 05:48:09.865   01 Jun 2027 05:49:15.995            66.130               Magadan2          2066.562
        10   01 Jun 2027 05:49:34.299   01 Jun 2027 05:50:15.228            40.929                Anadyr1          1279.031
        11   01 Jun 2027 06:00:40.278   01 Jun 2027 06:01:02.462            22.184              Murmansk1           693.250
        12   01 Jun 2027 06:01:02.462   01 Jun 2027 06:01:06.706             4.244              Murmansk2           132.625
        13   01 Jun 2027 06:01:10.933   01 Jun 2027 06:01:32.813            21.880                Norilsk           683.750
        14   01 Jun 2027 06:03:14.478   01 Jun 2027 06:03:24.584            10.106              Murmansk1           315.813
        15   01 Jun 2027 07:25:14.175   01 Jun 2027 07:26:36.813            82.638                Anadyr1          2582.437
        16   01 Jun 2027 07:26:36.813   01 Jun 2027 07:29:18.055           161.242                Anadyr2          5038.813
        17   01 Jun 2027 07:34:49.424   01 Jun 2027 07:35:07.581            18.157                 Moscow           567.406
        18   01 Jun 2027 08:59:17.875   01 Jun 2027 09:05:34.825           376.950                Anadyr1         11779.687
        19   01 Jun 2027 10:36:07.849   01 Jun 2027 10:40:15.979           248.130               Magadan1          7754.063
        20   01 Jun 2027 10:40:54.094   01 Jun 2027 10:41:44.853            50.759                Irkutsk          1586.219
        21   01 Jun 2027 13:00:33.250   01 Jun 2027 13:00:42.490             9.240            RioGallegos           288.750
        22   01 Jun 2027 13:34:15.528   01 Jun 2027 13:34:33.934            18.406                Sumatra           575.187
        23   01 Jun 2027 13:47:40.709   01 Jun 2027 13:49:49.071           128.362                Irkutsk          4011.313
        24   01 Jun 2027 15:31:28.649   01 Jun 2027 15:34:25.778           177.129                Norilsk          5535.281
        25   01 Jun 2027 17:01:57.161   01 Jun 2027 17:02:13.476            16.315                 Moscow           509.844
        26   01 Jun 2027 17:03:36.884   01 Jun 2027 17:03:38.474             1.590                 Moscow            49.688
        27   01 Jun 2027 17:04:40.420   01 Jun 2027 17:04:46.816             6.396              Murmansk2           199.875
        28   01 Jun 2027 17:04:48.016   01 Jun 2027 17:05:19.601            31.585                 Moscow           987.031
        29   01 Jun 2027 17:06:53.739   01 Jun 2027 17:06:59.425             5.686                 Moscow           177.688
        30   01 Jun 2027 17:07:07.729   01 Jun 2027 17:07:55.249            47.520              Murmansk1          1485.000
        31   01 Jun 2027 17:08:29.646   01 Jun 2027 17:09:22.296            52.650              Murmansk2          1645.312
        32   01 Jun 2027 17:18:36.679   01 Jun 2027 17:19:13.749            37.070                Anadyr1          1158.438
        33   01 Jun 2027 17:20:30.895   01 Jun 2027 17:20:41.851            10.956                Anadyr2           342.375
        34   01 Jun 2027 17:21:36.271   01 Jun 2027 17:22:20.216            43.945                Anadyr1          1373.281
        35   01 Jun 2027 18:15:43.091   01 Jun 2027 18:17:35.043           111.952               CapeTown          3498.500
        36   01 Jun 2027 18:39:26.227   01 Jun 2027 18:40:09.508            43.281              Murmansk2          1352.531
        37   01 Jun 2027 18:40:37.428   01 Jun 2027 18:44:38.323           240.895              Murmansk1          7527.969
        38   01 Jun 2027 18:45:19.910   01 Jun 2027 18:48:00.907           160.997              Murmansk2          5031.156
        39   01 Jun 2027 20:27:09.935   01 Jun 2027 20:27:49.063            39.128                Anadyr2          1222.750
        40   01 Jun 2027 20:29:09.064   01 Jun 2027 20:29:11.203             2.139                Anadyr2            66.844
        41   01 Jun 2027 20:29:17.794   01 Jun 2027 20:29:52.656            34.862               Magadan2          1089.437
        42   01 Jun 2027 20:30:35.045   01 Jun 2027 20:30:44.442             9.397               Magadan1           293.656
        43   01 Jun 2027 20:30:45.835   01 Jun 2027 20:30:56.419            10.584               Magadan2           330.750
        44   01 Jun 2027 20:30:56.419   01 Jun 2027 20:31:16.983            20.564               Magadan1           642.625
        45   01 Jun 2027 20:32:05.544   01 Jun 2027 20:32:37.047            31.503               Magadan1           984.469
        46   01 Jun 2027 20:33:22.131   01 Jun 2027 20:33:36.196            14.065               Magadan1           439.531
        47   01 Jun 2027 20:34:58.720   01 Jun 2027 20:35:53.056            54.336               Magadan2          1698.000
        48   01 Jun 2027 20:36:34.637   01 Jun 2027 20:36:44.327             9.690               Magadan1           302.812
        49   01 Jun 2027 20:37:44.518   01 Jun 2027 20:38:56.173            71.655               Magadan1          2239.219
        50   01 Jun 2027 22:01:45.134   01 Jun 2027 22:03:50.006           124.872                Anadyr1          3902.250
        51   01 Jun 2027 22:03:58.743   01 Jun 2027 22:04:51.834            53.091                Norilsk          1659.094
        52   01 Jun 2027 22:05:20.501   01 Jun 2027 22:05:23.225             2.724                Norilsk            85.125
        53   01 Jun 2027 22:05:26.142   01 Jun 2027 22:06:22.451            56.309               Magadan2          1759.656
        54   01 Jun 2027 22:07:56.194   01 Jun 2027 22:08:01.222             5.028               Magadan2           157.125
        55   01 Jun 2027 22:08:19.904   01 Jun 2027 22:09:22.057            62.153               Magadan2          1942.281
        56   01 Jun 2027 22:11:44.120   01 Jun 2027 22:12:02.572            18.452                Irkutsk           576.625
        57   01 Jun 2027 22:14:47.317   01 Jun 2027 22:15:05.802            18.485                Irkutsk           577.656
        58   01 Jun 2027 22:15:31.091   01 Jun 2027 22:16:03.111            32.020                Irkutsk          1000.625
        59   01 Jun 2027 22:26:03.966   01 Jun 2027 22:26:13.466             9.500                Sumatra           296.875
        60   01 Jun 2027 22:26:30.158   01 Jun 2027 22:26:50.228            20.070                Sumatra           627.188
        61   01 Jun 2027 22:28:16.527   01 Jun 2027 22:29:26.062            69.535                Sumatra          2172.969
        62   01 Jun 2027 23:03:45.368   01 Jun 2027 23:03:54.663             9.295            RioGallegos           290.469
        63   01 Jun 2027 23:04:03.764   01 Jun 2027 23:04:43.373            39.609            RioGallegos          1237.781
        64   01 Jun 2027 23:37:11.558   01 Jun 2027 23:37:44.360            32.802                Anadyr1          1025.062
        65   01 Jun 2027 23:38:04.685   01 Jun 2027 23:38:07.306             2.621                Anadyr2            81.906
        66   01 Jun 2027 23:38:33.260   01 Jun 2027 23:39:32.679            59.419                Anadyr2          1856.844
        67   01 Jun 2027 23:39:53.876   01 Jun 2027 23:40:47.931            54.055                Norilsk          1689.219
        68   01 Jun 2027 23:41:12.330   01 Jun 2027 23:41:56.983            44.653               Magadan2          1395.406
        69   01 Jun 2027 23:43:09.921   01 Jun 2027 23:43:51.086            41.165               Magadan1          1286.406
        70   01 Jun 2027 23:44:41.433   01 Jun 2027 23:44:57.811            16.378                Irkutsk           511.813
        71   01 Jun 2027 23:45:32.016   01 Jun 2027 23:45:49.422            17.406               Magadan2           543.938
        72   01 Jun 2027 23:46:59.904   01 Jun 2027 23:47:48.106            48.202                Novosib          1506.312
        73   01 Jun 2027 23:50:06.044   01 Jun 2027 23:50:18.676            12.632                Novosib           394.750
        74   01 Jun 2027 23:51:40.658   01 Jun 2027 23:51:49.421             8.763                Irkutsk           273.844
        75   01 Jun 2027 23:52:04.930   01 Jun 2027 23:53:10.987            66.057                Novosib          2064.281
        76   02 Jun 2027 00:05:54.260   02 Jun 2027 00:06:25.403            31.143                Sumatra           973.219
        77   02 Jun 2027 00:06:48.550   02 Jun 2027 00:06:51.326             2.776                Sumatra            86.750
        78   02 Jun 2027 00:08:40.158   02 Jun 2027 00:09:24.534            44.376                Sumatra          1386.750
        79   02 Jun 2027 00:37:36.407   02 Jun 2027 00:37:55.038            18.631            RioGallegos           582.219
        80   02 Jun 2027 00:40:56.640   02 Jun 2027 00:41:10.010            13.370            RioGallegos           417.813
        81   02 Jun 2027 00:42:33.070   02 Jun 2027 00:43:07.442            34.372            RioGallegos          1074.125
        82   02 Jun 2027 01:11:34.822   02 Jun 2027 01:11:58.737            23.915                Anadyr1           747.344
        83   02 Jun 2027 01:12:11.600   02 Jun 2027 01:12:47.884            36.284                Anadyr1          1133.875
        84   02 Jun 2027 01:13:21.917   02 Jun 2027 01:13:45.792            23.875                Anadyr1           746.094
        85   02 Jun 2027 01:14:21.160   02 Jun 2027 01:14:33.150            11.990                Anadyr2           374.687
        86   02 Jun 2027 01:15:35.861   02 Jun 2027 01:17:17.392           101.531                Norilsk          3172.844
        87   02 Jun 2027 01:17:35.232   02 Jun 2027 01:18:00.426            25.194               Magadan1           787.312
        88   02 Jun 2027 01:18:25.114   02 Jun 2027 01:18:29.014             3.900               Magadan1           121.875
        89   02 Jun 2027 01:19:10.214   02 Jun 2027 01:19:44.153            33.939              Murmansk1          1060.594
        90   02 Jun 2027 01:20:46.010   02 Jun 2027 01:21:03.989            17.979                Irkutsk           561.844
        91   02 Jun 2027 01:21:49.814   02 Jun 2027 01:22:14.883            25.069                Irkutsk           783.406
        92   02 Jun 2027 01:24:08.434   02 Jun 2027 01:24:27.559            19.125                Novosib           597.656
        93   02 Jun 2027 01:26:47.180   02 Jun 2027 01:26:53.981             6.801                Novosib           212.531
        94   02 Jun 2027 01:27:54.983   02 Jun 2027 01:28:19.217            24.234                Novosib           757.313
        95   02 Jun 2027 01:29:44.318   02 Jun 2027 01:29:55.925            11.607                  Delhi           362.719
        96   02 Jun 2027 01:30:37.514   02 Jun 2027 01:31:02.913            25.399                Irkutsk           793.719
        97   02 Jun 2027 01:33:23.153   02 Jun 2027 01:33:27.754             4.601                  Delhi           143.781
        98   02 Jun 2027 01:33:40.256   02 Jun 2027 01:34:22.368            42.112                  Delhi          1316.000
        99   02 Jun 2027 02:08:17.180   02 Jun 2027 02:09:20.935            63.755            RioGallegos          1992.344
       100   02 Jun 2027 02:09:56.305   02 Jun 2027 02:10:33.335            37.030            RioGallegos          1157.187
       101   02 Jun 2027 02:11:38.870   02 Jun 2027 02:12:38.840            59.970            RioGallegos          1874.063
       102   02 Jun 2027 02:46:44.239   02 Jun 2027 02:47:06.623            22.384                Anadyr1           699.500
       103   02 Jun 2027 02:47:50.397   02 Jun 2027 02:47:54.403             4.006                Anadyr1           125.188
       104   02 Jun 2027 02:48:37.881   02 Jun 2027 02:48:57.955            20.074                Anadyr2           627.312
       105   02 Jun 2027 02:51:09.913   02 Jun 2027 02:51:34.346            24.433               Magadan2           763.531
       106   02 Jun 2027 02:51:45.481   02 Jun 2027 02:52:24.326            38.845                Norilsk          1213.906
       107   02 Jun 2027 02:52:57.493   02 Jun 2027 02:53:03.961             6.468                Norilsk           202.125
       108   02 Jun 2027 02:53:48.747   02 Jun 2027 02:55:10.108            81.361              Murmansk1          2542.531
       109   02 Jun 2027 02:56:29.393   02 Jun 2027 02:57:00.518            31.125                Irkutsk           972.656
       110   02 Jun 2027 02:58:53.850   02 Jun 2027 02:59:06.131            12.281                Irkutsk           383.781
       111   02 Jun 2027 03:00:21.663   02 Jun 2027 03:00:39.145            17.482                Novosib           546.313
       112   02 Jun 2027 03:00:43.765   02 Jun 2027 03:01:11.758            27.993              Murmansk2           874.781
       113   02 Jun 2027 03:01:14.879   02 Jun 2027 03:01:24.153             9.274              Murmansk1           289.812
       114   02 Jun 2027 03:01:39.095   02 Jun 2027 03:02:01.732            22.637              Murmansk1           707.406
       115   02 Jun 2027 03:02:07.023   02 Jun 2027 03:03:02.802            55.779              Murmansk1          1743.094
       116   02 Jun 2027 03:03:39.676   02 Jun 2027 03:06:09.391           149.715                  Delhi          4678.594
       117   02 Jun 2027 04:37:58.979   02 Jun 2027 04:38:30.177            31.198              Murmansk1           974.937
       118   02 Jun 2027 04:39:17.829   02 Jun 2027 04:39:50.613            32.784              Murmansk1          1024.500
       119   02 Jun 2027 04:39:50.613   02 Jun 2027 04:42:09.881           139.268              Murmansk2          4352.125
       120   02 Jun 2027 04:56:54.503   02 Jun 2027 04:59:31.313           156.810               CapeTown          4900.313
       121   02 Jun 2027 04:59:49.694   02 Jun 2027 05:00:00.614            10.920               CapeTown           341.250
       122   02 Jun 2027 06:00:08.241   02 Jun 2027 06:00:18.927            10.686                Anadyr1           333.937
       123   02 Jun 2027 06:00:21.020   02 Jun 2027 06:00:38.448            17.428                Anadyr1           544.625
       124   02 Jun 2027 06:00:44.570   02 Jun 2027 06:01:23.819            39.249                Anadyr1          1226.531
       125   02 Jun 2027 06:01:47.930   02 Jun 2027 06:02:14.906            26.976                Anadyr1           843.000
       126   02 Jun 2027 06:02:14.906   02 Jun 2027 06:02:43.058            28.152                Anadyr2           879.750
       127   02 Jun 2027 07:36:25.155   02 Jun 2027 07:38:37.671           132.516                Anadyr2          4141.125
       128   02 Jun 2027 07:38:48.299   02 Jun 2027 07:39:59.324            71.025               Magadan1          2219.531
       129   02 Jun 2027 07:40:35.492   02 Jun 2027 07:40:52.823            17.331                Anadyr1           541.594
       130   02 Jun 2027 09:09:52.097   02 Jun 2027 09:10:26.828            34.731                Irkutsk          1085.344
       131   02 Jun 2027 09:10:43.627   02 Jun 2027 09:15:20.927           277.300                Anadyr1          8665.625
       132   02 Jun 2027 09:16:12.822   02 Jun 2027 09:17:52.822           100.000               Magadan1          3125.000
       133   02 Jun 2027 09:53:03.638   02 Jun 2027 09:53:09.532             5.894            RioGallegos           184.188
       134   02 Jun 2027 09:53:40.420   02 Jun 2027 09:53:46.060             5.640            RioGallegos           176.250
       135   02 Jun 2027 09:54:02.513   02 Jun 2027 09:54:12.372             9.859            RioGallegos           308.094
       136   02 Jun 2027 09:55:08.989   02 Jun 2027 09:55:37.817            28.828            RioGallegos           900.875
       137   02 Jun 2027 10:31:04.491   02 Jun 2027 10:32:08.729            64.238                Sumatra          2007.438
       138   02 Jun 2027 10:46:26.606   02 Jun 2027 10:46:46.389            19.783               Magadan2           618.219
       139   02 Jun 2027 10:46:46.389   02 Jun 2027 10:50:47.561           241.172               Magadan1          7536.625
       140   02 Jun 2027 10:51:13.590   02 Jun 2027 10:51:51.597            38.007                Novosib          1187.719
       141   02 Jun 2027 10:51:52.616   02 Jun 2027 10:52:11.109            18.493               Magadan2           577.906
       142   02 Jun 2027 10:52:24.197   02 Jun 2027 10:53:01.534            37.337              Murmansk2          1166.781
       143   02 Jun 2027 10:53:07.942   02 Jun 2027 10:53:51.666            43.724              Murmansk2          1366.375
       144   02 Jun 2027 11:28:44.143   02 Jun 2027 11:29:11.133            26.990            RioGallegos           843.437
       145   02 Jun 2027 11:29:48.685   02 Jun 2027 11:30:26.948            38.263            RioGallegos          1195.719
       146   02 Jun 2027 11:32:54.205   02 Jun 2027 11:33:08.216            14.011            RioGallegos           437.844
       147   02 Jun 2027 12:03:19.805   02 Jun 2027 12:03:30.165            10.360                Sumatra           323.750
       148   02 Jun 2027 12:05:25.471   02 Jun 2027 12:05:58.243            32.772                Sumatra          1024.125
       149   02 Jun 2027 12:06:28.115   02 Jun 2027 12:07:25.791            57.676                Sumatra          1802.375
       150   02 Jun 2027 12:17:44.064   02 Jun 2027 12:18:56.477            72.413                Irkutsk          2262.906
       151   02 Jun 2027 12:20:53.631   02 Jun 2027 12:22:10.008            76.377                Irkutsk          2386.781
       152   02 Jun 2027 12:23:01.383   02 Jun 2027 12:23:16.543            15.160                Norilsk           473.750
       153   02 Jun 2027 12:25:30.236   02 Jun 2027 12:25:52.375            22.139              Murmansk2           691.844
       154   02 Jun 2027 12:28:54.340   02 Jun 2027 12:29:31.978            37.638                Norilsk          1176.187
       155   02 Jun 2027 13:09:26.334   02 Jun 2027 13:11:24.225           117.891            RioGallegos          3684.094
       156   02 Jun 2027 13:12:15.775   02 Jun 2027 13:13:04.374            48.599            RioGallegos          1518.719
       157   02 Jun 2027 13:55:38.423   02 Jun 2027 13:57:18.067            99.644                Novosib          3113.875
       158   02 Jun 2027 13:59:36.712   02 Jun 2027 14:00:55.024            78.312                Novosib          2447.250
       159   02 Jun 2027 14:01:08.600   02 Jun 2027 14:02:23.893            75.293                Norilsk          2352.906
       160   02 Jun 2027 14:03:08.501   02 Jun 2027 14:04:17.775            69.274                Norilsk          2164.813
       161   02 Jun 2027 15:31:55.189   02 Jun 2027 15:34:32.345           157.156                 Moscow          4911.125
       162   02 Jun 2027 15:35:23.276   02 Jun 2027 15:36:36.283            73.007              Murmansk2          2281.469
       163   02 Jun 2027 15:39:44.072   02 Jun 2027 15:42:35.141           171.069                Norilsk          5345.906
       164   02 Jun 2027 15:42:47.498   02 Jun 2027 15:43:52.544            65.046                Norilsk          2032.688
       165   02 Jun 2027 17:09:31.238   02 Jun 2027 17:10:06.980            35.742                 Moscow          1116.937
       166   02 Jun 2027 17:12:34.580   02 Jun 2027 17:13:46.033            71.453              Murmansk1          2232.906
       167   02 Jun 2027 17:16:14.387   02 Jun 2027 17:16:42.601            28.214              Murmansk1           881.688
       168   02 Jun 2027 17:20:31.654   02 Jun 2027 17:22:03.469            91.815              Murmansk2          2869.219
       169   02 Jun 2027 17:26:22.065   02 Jun 2027 17:27:43.602            81.537                Anadyr2          2548.031
       170   02 Jun 2027 18:21:28.502   02 Jun 2027 18:22:40.303            71.801               CapeTown          2243.781
       171   02 Jun 2027 18:26:30.883   02 Jun 2027 18:26:46.465            15.582               CapeTown           486.938
       172   02 Jun 2027 18:30:23.186   02 Jun 2027 18:31:10.053            46.867               CapeTown          1464.594
       173   02 Jun 2027 18:52:04.924   02 Jun 2027 18:55:54.880           229.956              Murmansk1          7186.125
       174   02 Jun 2027 19:05:13.494   02 Jun 2027 19:07:08.456           114.962               Magadan1          3592.562
       175   02 Jun 2027 20:37:54.365   02 Jun 2027 20:41:38.855           224.490                Anadyr1          7015.313
       176   02 Jun 2027 20:42:27.634   02 Jun 2027 20:45:39.877           192.243               Magadan1          6007.594
       177   02 Jun 2027 20:48:37.667   02 Jun 2027 20:48:40.847             3.180               Magadan1            99.375
       178   02 Jun 2027 20:48:52.821   02 Jun 2027 20:49:13.717            20.896               Magadan1           653.000
       179   02 Jun 2027 20:50:58.916   02 Jun 2027 20:51:46.059            47.143               Magadan1          1473.219
       180   02 Jun 2027 21:34:44.665   02 Jun 2027 21:36:48.331           123.666            RioGallegos          3864.562
       181   02 Jun 2027 22:13:45.101   02 Jun 2027 22:15:00.374            75.273                Anadyr1          2352.281
       182   02 Jun 2027 22:15:28.377   02 Jun 2027 22:15:51.290            22.913                Anadyr2           716.031
       183   02 Jun 2027 22:15:54.183   02 Jun 2027 22:17:21.505            87.322                Norilsk          2728.812
       184   02 Jun 2027 22:17:23.378   02 Jun 2027 22:18:18.952            55.574               Magadan1          1736.688
       185   02 Jun 2027 22:19:11.796   02 Jun 2027 22:19:21.960            10.164               Magadan2           317.625
       186   02 Jun 2027 22:21:01.714   02 Jun 2027 22:21:24.569            22.855                Irkutsk           714.219
       187   02 Jun 2027 22:21:31.156   02 Jun 2027 22:22:27.957            56.801                Irkutsk          1775.031
       188   02 Jun 2027 22:23:44.140   02 Jun 2027 22:23:58.724            14.584                Irkutsk           455.750
       189   02 Jun 2027 22:26:37.640   02 Jun 2027 22:27:33.465            55.825                Irkutsk          1744.531
       190   02 Jun 2027 22:36:24.518   02 Jun 2027 22:38:11.995           107.477                Sumatra          3358.656
       191   02 Jun 2027 23:49:05.765   02 Jun 2027 23:50:08.595            62.830                Anadyr2          1963.438
       192   02 Jun 2027 23:50:34.277   02 Jun 2027 23:51:32.126            57.849                Anadyr1          1807.781
       193   02 Jun 2027 23:51:37.573   02 Jun 2027 23:53:11.338            93.765                Norilsk          2930.156
       194   02 Jun 2027 23:53:50.907   02 Jun 2027 23:54:08.815            17.908               Magadan2           559.625
       195   02 Jun 2027 23:54:32.732   02 Jun 2027 23:55:10.791            38.059               Magadan2          1189.344
       196   02 Jun 2027 23:56:21.491   02 Jun 2027 23:57:09.638            48.147                Novosib          1504.594
       197   02 Jun 2027 23:58:16.488   02 Jun 2027 23:58:30.131            13.643                Novosib           426.344
       198   02 Jun 2027 23:59:35.975   03 Jun 2027 00:00:05.331            29.356                Novosib           917.375
       199   03 Jun 2027 00:00:55.042   03 Jun 2027 00:02:10.294            75.252                Novosib          2351.625
       200   03 Jun 2027 00:07:29.668   03 Jun 2027 00:08:17.345            47.677                  Delhi          1489.906
       201   03 Jun 2027 00:15:40.366   03 Jun 2027 00:16:31.068            50.702                Sumatra          1584.438
       202   03 Jun 2027 00:49:41.028   03 Jun 2027 00:49:56.141            15.113            RioGallegos           472.281
       203   03 Jun 2027 00:52:33.446   03 Jun 2027 00:53:14.803            41.357            RioGallegos          1292.406
       204   03 Jun 2027 01:24:07.680   03 Jun 2027 01:24:47.553            39.873                Anadyr2          1246.031
       205   03 Jun 2027 01:25:09.767   03 Jun 2027 01:25:29.264            19.497                Anadyr1           609.281
       206   03 Jun 2027 01:25:46.443   03 Jun 2027 01:25:54.459             8.016                Anadyr2           250.500
       207   03 Jun 2027 01:26:09.567   03 Jun 2027 01:26:19.939            10.372                Anadyr1           324.125
       208   03 Jun 2027 01:27:38.114   03 Jun 2027 01:29:36.765           118.651                Norilsk          3707.844
       209   03 Jun 2027 01:30:43.327   03 Jun 2027 01:31:57.910            74.583              Murmansk2          2330.719
       210   03 Jun 2027 01:32:33.737   03 Jun 2027 01:34:38.182           124.445                Novosib          3888.906
       211   03 Jun 2027 01:38:50.259   03 Jun 2027 01:39:12.819            22.560                Irkutsk           705.000
       212   03 Jun 2027 01:42:32.095   03 Jun 2027 01:42:39.966             7.871                  Delhi           245.969
       213   03 Jun 2027 01:44:27.922   03 Jun 2027 01:44:37.373             9.451                  Delhi           295.344
       214   03 Jun 2027 01:46:06.279   03 Jun 2027 01:46:33.687            27.408                  Delhi           856.500
       215   03 Jun 2027 02:20:32.287   03 Jun 2027 02:22:37.933           125.646            RioGallegos          3926.437
       216   03 Jun 2027 02:23:17.946   03 Jun 2027 02:25:06.893           108.947            RioGallegos          3404.594
       217   03 Jun 2027 03:12:40.738   03 Jun 2027 03:14:47.603           126.865                 Moscow          3964.531
       218   03 Jun 2027 03:14:55.627   03 Jun 2027 03:14:55.944             0.317              Murmansk2             9.906
       219   03 Jun 2027 03:15:02.120   03 Jun 2027 03:15:32.678            30.558              Murmansk1           954.937
       220   03 Jun 2027 04:49:01.625   03 Jun 2027 04:49:41.765            40.140                Norilsk          1254.375
       221   03 Jun 2027 04:50:28.212   03 Jun 2027 04:51:19.906            51.694              Murmansk1          1615.438
       222   03 Jun 2027 04:51:40.926   03 Jun 2027 04:53:44.271           123.345              Murmansk1          3854.531
       223   03 Jun 2027 04:53:54.021   03 Jun 2027 04:54:33.150            39.129                 Moscow          1222.781
       224   03 Jun 2027 05:08:51.232   03 Jun 2027 05:11:42.231           170.999               CapeTown          5343.719
       225   03 Jun 2027 06:12:02.778   03 Jun 2027 06:13:36.229            93.451                Anadyr2          2920.344
       226   03 Jun 2027 06:13:40.446   03 Jun 2027 06:15:13.002            92.556                Anadyr1          2892.375
       227   03 Jun 2027 06:16:02.018   03 Jun 2027 06:16:03.438             1.420               Magadan2            44.375
       228   03 Jun 2027 06:16:10.954   03 Jun 2027 06:16:36.758            25.804               Magadan2           806.375
       229   03 Jun 2027 06:49:41.732   03 Jun 2027 06:51:50.314           128.582               CapeTown          4018.187
       230   03 Jun 2027 07:47:52.990   03 Jun 2027 07:48:23.225            30.235                Anadyr1           944.844
       231   03 Jun 2027 07:48:41.676   03 Jun 2027 07:50:38.179           116.503                Anadyr1          3640.719
       232   03 Jun 2027 07:50:48.633   03 Jun 2027 07:51:59.629            70.996               Magadan2          2218.625
       233   03 Jun 2027 07:59:21.535   03 Jun 2027 07:59:33.226            11.691                 Moscow           365.344
       234   03 Jun 2027 08:02:09.227   03 Jun 2027 08:02:16.380             7.153                 Moscow           223.531
       235   03 Jun 2027 08:33:19.758   03 Jun 2027 08:33:34.900            15.142            RioGallegos           473.188
       236   03 Jun 2027 08:37:15.712   03 Jun 2027 08:37:21.368             5.656            RioGallegos           176.750
       237   03 Jun 2027 09:21:54.640   03 Jun 2027 09:22:04.546             9.906                Irkutsk           309.562
       238   03 Jun 2027 09:22:28.658   03 Jun 2027 09:23:44.495            75.837                Irkutsk          2369.906
       239   03 Jun 2027 09:23:50.305   03 Jun 2027 09:26:12.839           142.534               Magadan2          4454.188
       240   03 Jun 2027 09:26:22.861   03 Jun 2027 09:26:56.767            33.906                Norilsk          1059.563
       241   03 Jun 2027 09:27:03.544   03 Jun 2027 09:27:05.248             1.704                Novosib            53.250
       242   03 Jun 2027 09:27:12.975   03 Jun 2027 09:28:00.366            47.391               Magadan1          1480.969
       243   03 Jun 2027 09:28:05.128   03 Jun 2027 09:29:03.446            58.318               Magadan2          1822.437
       244   03 Jun 2027 09:29:08.625   03 Jun 2027 09:29:59.566            50.941              Murmansk2          1591.906
       245   03 Jun 2027 09:30:44.713   03 Jun 2027 09:31:15.903            31.190              Murmansk1           974.688
       246   03 Jun 2027 10:04:51.878   03 Jun 2027 10:05:27.489            35.611            RioGallegos          1112.844
       247   03 Jun 2027 10:10:25.128   03 Jun 2027 10:10:42.043            16.915            RioGallegos           528.594
       248   03 Jun 2027 10:41:52.971   03 Jun 2027 10:43:46.779           113.808                Sumatra          3556.500
       249   03 Jun 2027 10:59:52.012   03 Jun 2027 11:02:49.834           177.822               Magadan1          5556.937
       250   03 Jun 2027 11:02:49.834   03 Jun 2027 11:03:23.934            34.100               Magadan2          1065.625
       251   03 Jun 2027 11:03:39.355   03 Jun 2027 11:03:40.781             1.426                Irkutsk            44.562
       252   03 Jun 2027 11:03:42.466   03 Jun 2027 11:04:52.688            70.222                Norilsk          2194.437
       253   03 Jun 2027 11:04:57.195   03 Jun 2027 11:05:14.309            17.114                Novosib           534.813
       254   03 Jun 2027 11:05:16.250   03 Jun 2027 11:05:22.027             5.777                Norilsk           180.531
       255   03 Jun 2027 11:05:43.106   03 Jun 2027 11:06:20.396            37.290                Norilsk          1165.313
       256   03 Jun 2027 11:08:42.659   03 Jun 2027 11:09:12.343            29.684              Murmansk1           927.625
       257   03 Jun 2027 11:40:59.796   03 Jun 2027 11:41:52.711            52.915            RioGallegos          1653.594
       258   03 Jun 2027 12:15:26.500   03 Jun 2027 12:16:04.594            38.094                Sumatra          1190.437
       259   03 Jun 2027 12:23:49.129   03 Jun 2027 12:24:00.912            11.783                Sumatra           368.219
       260   03 Jun 2027 12:24:42.027   03 Jun 2027 12:24:51.076             9.049                  Delhi           282.781
       261   03 Jun 2027 12:28:24.705   03 Jun 2027 12:29:44.406            79.701                  Delhi          2490.656
       262   03 Jun 2027 12:30:08.619   03 Jun 2027 12:31:04.948            56.329                Irkutsk          1760.281
       263   03 Jun 2027 12:32:27.637   03 Jun 2027 12:32:48.364            20.727                Novosib           647.719
       264   03 Jun 2027 12:34:06.099   03 Jun 2027 12:34:57.896            51.797                Norilsk          1618.656
       265   03 Jun 2027 12:35:18.131   03 Jun 2027 12:35:48.812            30.681                Norilsk           958.781
       266   03 Jun 2027 12:37:45.910   03 Jun 2027 12:37:56.002            10.092              Murmansk2           315.375
       267   03 Jun 2027 12:47:00.927   03 Jun 2027 12:47:35.121            34.194              Murmansk2          1068.563
       268   03 Jun 2027 13:24:08.522   03 Jun 2027 13:24:30.449            21.927            RioGallegos           685.219
       269   03 Jun 2027 14:00:00.226   03 Jun 2027 14:00:18.869            18.643                  Delhi           582.594
       270   03 Jun 2027 14:01:36.505   03 Jun 2027 14:02:26.715            50.210                  Delhi          1569.062
       271   03 Jun 2027 14:04:46.512   03 Jun 2027 14:04:50.229             3.717                  Delhi           116.156
       272   03 Jun 2027 14:07:36.174   03 Jun 2027 14:08:30.359            54.185                  Delhi          1693.281
       273   03 Jun 2027 14:08:47.098   03 Jun 2027 14:13:16.715           269.617                Novosib          8425.531
       274   03 Jun 2027 14:13:50.198   03 Jun 2027 14:14:14.680            24.482                Norilsk           765.063
       275   03 Jun 2027 15:43:57.741   03 Jun 2027 15:46:56.448           178.707                 Moscow          5584.594
       276   03 Jun 2027 15:47:15.518   03 Jun 2027 15:47:30.553            15.035                 Moscow           469.844
       277   03 Jun 2027 15:48:33.678   03 Jun 2027 15:50:26.940           113.262              Murmansk2          3539.438
       278   03 Jun 2027 15:52:32.440   03 Jun 2027 15:55:28.590           176.150                Norilsk          5504.687
       279   03 Jun 2027 15:56:51.691   03 Jun 2027 15:57:11.211            19.520                Norilsk           610.000
       280   03 Jun 2027 17:04:23.279   03 Jun 2027 17:04:39.556            16.277               CapeTown           508.656
       281   03 Jun 2027 17:22:04.143   03 Jun 2027 17:23:21.390            77.247                 Moscow          2413.969
       282   03 Jun 2027 17:24:54.498   03 Jun 2027 17:25:42.310            47.812              Murmansk1          1494.125
       283   03 Jun 2027 17:26:43.718   03 Jun 2027 17:27:13.421            29.703              Murmansk2           928.219
       284   03 Jun 2027 17:28:12.660   03 Jun 2027 17:28:44.755            32.095              Murmansk2          1002.969
       285   03 Jun 2027 17:34:07.710   03 Jun 2027 17:34:28.277            20.567              Murmansk1           642.719
       286   03 Jun 2027 17:38:18.531   03 Jun 2027 17:39:45.175            86.644                Anadyr2          2707.625
       287   03 Jun 2027 17:44:07.181   03 Jun 2027 17:44:16.535             9.354                Anadyr2           292.313
       288   03 Jun 2027 18:33:37.956   03 Jun 2027 18:35:25.470           107.514               CapeTown          3359.812
       289   03 Jun 2027 19:04:47.591   03 Jun 2027 19:10:25.003           337.412              Murmansk1         10544.125
       290   03 Jun 2027 19:17:00.744   03 Jun 2027 19:17:23.284            22.540               Magadan1           704.375
       291   03 Jun 2027 19:18:13.489   03 Jun 2027 19:19:14.530            61.041               Magadan2          1907.531
       292   03 Jun 2027 20:49:55.998   03 Jun 2027 20:51:30.603            94.605                Anadyr1          2956.406
       293   03 Jun 2027 20:51:31.750   03 Jun 2027 20:53:00.941            89.191                Anadyr2          2787.219
       294   03 Jun 2027 20:53:23.418   03 Jun 2027 20:54:26.482            63.064               Magadan1          1970.750
       295   03 Jun 2027 20:54:30.100   03 Jun 2027 20:55:45.933            75.833               Magadan2          2369.781
       296   03 Jun 2027 20:56:48.654   03 Jun 2027 20:57:02.383            13.729               Magadan2           429.031
       297   03 Jun 2027 20:57:31.162   03 Jun 2027 20:57:58.531            27.369               Magadan2           855.281
       298   03 Jun 2027 21:00:45.545   03 Jun 2027 21:01:14.578            29.033               Magadan1           907.281
       299   03 Jun 2027 21:45:47.993   03 Jun 2027 21:48:28.035           160.042            RioGallegos          5001.312
       300   03 Jun 2027 21:50:31.875   03 Jun 2027 21:51:04.211            32.336            RioGallegos          1010.500
       301   03 Jun 2027 22:25:44.618   03 Jun 2027 22:27:37.158           112.540                Anadyr1          3516.875
       302   03 Jun 2027 22:27:51.422   03 Jun 2027 22:29:22.839            91.417                Norilsk          2856.781
       303   03 Jun 2027 22:29:54.381   03 Jun 2027 22:30:29.136            34.755               Magadan1          1086.094
       304   03 Jun 2027 22:30:37.365   03 Jun 2027 22:30:41.189             3.824               Magadan1           119.500
       305   03 Jun 2027 22:31:01.327   03 Jun 2027 22:31:22.825            21.498                Norilsk           671.812
       306   03 Jun 2027 22:32:40.913   03 Jun 2027 22:33:21.819            40.906                Irkutsk          1278.312
       307   03 Jun 2027 22:35:22.539   03 Jun 2027 22:35:52.692            30.153                Irkutsk           942.281
       308   03 Jun 2027 22:47:27.046   03 Jun 2027 22:49:16.279           109.233                Sumatra          3413.531
       309   03 Jun 2027 22:49:38.614   03 Jun 2027 22:49:51.686            13.072                Sumatra           408.500
       310   04 Jun 2027 00:00:58.846   04 Jun 2027 00:03:30.932           152.086                Anadyr2          4752.687
       311   04 Jun 2027 00:03:39.493   04 Jun 2027 00:04:23.046            43.553                Norilsk          1361.031
       312   04 Jun 2027 00:04:35.822   04 Jun 2027 00:05:29.210            53.388               Magadan2          1668.375
       313   04 Jun 2027 00:05:29.210   04 Jun 2027 00:06:11.442            42.232               Magadan1          1319.750
       314   04 Jun 2027 00:06:35.029   04 Jun 2027 00:06:38.942             3.913               Magadan1           122.281
       315   04 Jun 2027 00:07:34.041   04 Jun 2027 00:08:37.013            62.972                Irkutsk          1967.875
       316   04 Jun 2027 00:09:19.391   04 Jun 2027 00:09:53.368            33.977                Novosib          1061.781
       317   04 Jun 2027 00:10:29.451   04 Jun 2027 00:11:15.690            46.239                Novosib          1444.969
       318   04 Jun 2027 00:14:31.654   04 Jun 2027 00:16:16.467           104.813                Novosib          3275.406
       319   04 Jun 2027 00:55:41.596   04 Jun 2027 00:56:36.984            55.388            RioGallegos          1730.875
       320   04 Jun 2027 01:03:19.946   04 Jun 2027 01:03:39.361            19.415            RioGallegos           606.719
       321   04 Jun 2027 01:05:20.499   04 Jun 2027 01:05:26.365             5.866            RioGallegos           183.312
       322   04 Jun 2027 01:06:30.152   04 Jun 2027 01:06:34.735             4.583            RioGallegos           143.219
       323   04 Jun 2027 01:07:11.182   04 Jun 2027 01:07:36.332            25.150            RioGallegos           785.938
       324   04 Jun 2027 01:35:02.532   04 Jun 2027 01:35:28.291            25.759                Anadyr1           804.969
       325   04 Jun 2027 01:36:05.520   04 Jun 2027 01:36:45.708            40.188                Anadyr2          1255.875
       326   04 Jun 2027 01:37:13.771   04 Jun 2027 01:37:36.749            22.978                Anadyr2           718.062
       327   04 Jun 2027 01:39:40.305   04 Jun 2027 01:41:39.175           118.870                Norilsk          3714.687
       328   04 Jun 2027 01:42:28.756   04 Jun 2027 01:43:59.600            90.844              Murmansk2          2838.875
       329   04 Jun 2027 01:44:16.901   04 Jun 2027 01:44:56.184            39.283                Irkutsk          1227.594
       330   04 Jun 2027 01:46:44.521   04 Jun 2027 01:46:57.643            13.122                Novosib           410.062
       331   04 Jun 2027 01:50:47.597   04 Jun 2027 01:52:23.707            96.110                  Delhi          3003.438
       332   04 Jun 2027 02:02:56.823   04 Jun 2027 02:03:32.106            35.283                  Delhi          1102.594
       333   04 Jun 2027 02:32:51.155   04 Jun 2027 02:35:27.346           156.191            RioGallegos          4880.969
       334   04 Jun 2027 03:24:01.385   04 Jun 2027 03:24:48.223            46.838              Murmansk1          1463.687
       335   04 Jun 2027 03:25:20.619   04 Jun 2027 03:25:36.190            15.571                Novosib           486.594
       336   04 Jun 2027 03:25:49.199   04 Jun 2027 03:26:26.710            37.511              Murmansk1          1172.219
       337   04 Jun 2027 03:26:51.153   04 Jun 2027 03:27:08.435            17.282              Murmansk2           540.063
       338   04 Jun 2027 03:27:14.508   04 Jun 2027 03:28:07.540            53.032                Norilsk          1657.250
       339   04 Jun 2027 03:28:42.603   04 Jun 2027 03:28:46.377             3.774              Murmansk1           117.938
       340   04 Jun 2027 05:01:34.641   04 Jun 2027 05:01:44.547             9.906                Norilsk           309.563
       341   04 Jun 2027 05:01:52.095   04 Jun 2027 05:02:06.733            14.638                 Moscow           457.438
       342   04 Jun 2027 05:02:24.921   04 Jun 2027 05:02:27.331             2.410              Murmansk1            75.313
       343   04 Jun 2027 05:02:27.331   04 Jun 2027 05:02:42.641            15.310              Murmansk2           478.437
       344   04 Jun 2027 05:02:49.883   04 Jun 2027 05:03:56.773            66.890                 Moscow          2090.313
       345   04 Jun 2027 05:04:12.957   04 Jun 2027 05:04:33.273            20.316                 Moscow           634.875
       346   04 Jun 2027 05:04:37.588   04 Jun 2027 05:04:38.440             0.852              Murmansk2            26.625
       347   04 Jun 2027 05:04:58.247   04 Jun 2027 05:05:24.576            26.329                 Moscow           822.781
       348   04 Jun 2027 05:05:58.444   04 Jun 2027 05:06:05.743             7.299              Murmansk1           228.094
       349   04 Jun 2027 05:20:52.988   04 Jun 2027 05:21:08.625            15.637               CapeTown           488.656
       350   04 Jun 2027 05:21:25.656   04 Jun 2027 05:23:23.541           117.885               CapeTown          3683.906
       351   04 Jun 2027 06:23:55.260   04 Jun 2027 06:24:41.141            45.881                Anadyr2          1433.781
       352   04 Jun 2027 06:24:41.141   04 Jun 2027 06:24:47.017             5.876                Anadyr1           183.625
       353   04 Jun 2027 06:24:53.341   04 Jun 2027 06:25:01.562             8.221               Magadan1           256.906
       354   04 Jun 2027 06:25:01.562   04 Jun 2027 06:25:52.554            50.992               Magadan2          1593.500
       355   04 Jun 2027 06:25:54.013   04 Jun 2027 06:26:47.303            53.290               Magadan1          1665.312
       356   04 Jun 2027 07:01:30.911   04 Jun 2027 07:03:52.286           141.375               CapeTown          4417.969
       357   04 Jun 2027 08:00:16.262   04 Jun 2027 08:00:18.234             1.972               Magadan2            61.625
       358   04 Jun 2027 08:00:20.299   04 Jun 2027 08:01:36.199            75.900                Anadyr1          2371.875
       359   04 Jun 2027 08:01:38.948   04 Jun 2027 08:01:41.440             2.492               Magadan1            77.875
       360   04 Jun 2027 08:02:23.589   04 Jun 2027 08:02:50.731            27.142               Magadan1           848.187
       361   04 Jun 2027 08:03:17.118   04 Jun 2027 08:03:26.122             9.004                Norilsk           281.375
       362   04 Jun 2027 08:04:15.592   04 Jun 2027 08:05:04.620            49.028               Magadan1          1532.125
       363   04 Jun 2027 08:14:43.998   04 Jun 2027 08:14:59.785            15.787                 Moscow           493.344
       364   04 Jun 2027 08:43:40.412   04 Jun 2027 08:44:13.015            32.603            RioGallegos          1018.844
       365   04 Jun 2027 09:32:15.236   04 Jun 2027 09:32:36.793            21.557               Magadan1           673.656
       366   04 Jun 2027 09:33:01.158   04 Jun 2027 09:35:27.023           145.865               Magadan2          4558.281
       367   04 Jun 2027 09:35:44.081   04 Jun 2027 09:36:20.780            36.699               Magadan2          1146.844
       368   04 Jun 2027 09:36:20.780   04 Jun 2027 09:37:02.493            41.713               Magadan1          1303.531
       369   04 Jun 2027 09:37:28.376   04 Jun 2027 09:37:40.104            11.728                Novosib           366.500
       370   04 Jun 2027 09:37:45.060   04 Jun 2027 09:40:04.963           139.903                Anadyr2          4371.969
       371   04 Jun 2027 09:40:15.618   04 Jun 2027 09:40:48.078            32.460               Magadan2          1014.375
       372   04 Jun 2027 09:40:50.931   04 Jun 2027 09:41:19.429            28.498              Murmansk1           890.563
       373   04 Jun 2027 09:41:22.706   04 Jun 2027 09:41:33.661            10.955                Irkutsk           342.344
       374   04 Jun 2027 09:41:38.247   04 Jun 2027 09:41:42.119             3.872                Norilsk           121.000
       375   04 Jun 2027 09:41:44.354   04 Jun 2027 09:41:56.382            12.028                Norilsk           375.875
       376   04 Jun 2027 09:42:08.388   04 Jun 2027 09:42:35.965            27.577              Murmansk2           861.781
       377   04 Jun 2027 09:44:00.098   04 Jun 2027 09:44:02.210             2.112              Murmansk2            66.000
       378   04 Jun 2027 09:44:44.918   04 Jun 2027 09:45:00.102            15.184              Murmansk2           474.500
       379   04 Jun 2027 10:16:43.331   04 Jun 2027 10:17:42.756            59.425            RioGallegos          1857.031
       380   04 Jun 2027 10:53:05.315   04 Jun 2027 10:54:38.069            92.754                Sumatra          2898.562
       381   04 Jun 2027 11:11:07.808   04 Jun 2027 11:11:15.497             7.689                Norilsk           240.281
       382   04 Jun 2027 11:11:19.200   04 Jun 2027 11:11:28.406             9.206                Novosib           287.688
       383   04 Jun 2027 11:11:30.432   04 Jun 2027 11:11:45.393            14.961                Norilsk           467.531
       384   04 Jun 2027 11:11:59.787   04 Jun 2027 11:12:30.863            31.076                Irkutsk           971.125
       385   04 Jun 2027 11:12:57.711   04 Jun 2027 11:13:01.713             4.002                Irkutsk           125.063
       386   04 Jun 2027 11:13:13.695   04 Jun 2027 11:13:36.789            23.094                Norilsk           721.688
       387   04 Jun 2027 11:13:43.308   04 Jun 2027 11:14:04.997            21.689                Irkutsk           677.781
       388   04 Jun 2027 11:14:07.031   04 Jun 2027 11:15:14.874            67.843                Novosib          2120.094
       389   04 Jun 2027 11:15:20.211   04 Jun 2027 11:16:11.864            51.653                Novosib          1614.156
       390   04 Jun 2027 11:16:14.099   04 Jun 2027 11:16:49.174            35.075                Novosib          1096.094
       391   04 Jun 2027 11:16:54.401   04 Jun 2027 11:17:14.906            20.505                Norilsk           640.781
       392   04 Jun 2027 11:17:17.319   04 Jun 2027 11:17:45.148            27.829                Novosib           869.656
       393   04 Jun 2027 11:18:27.737   04 Jun 2027 11:18:38.955            11.218              Murmansk1           350.563
       394   04 Jun 2027 11:53:19.773   04 Jun 2027 11:53:55.862            36.089            RioGallegos          1127.781
       395   04 Jun 2027 11:55:14.866   04 Jun 2027 11:55:29.548            14.682            RioGallegos           458.813
       396   04 Jun 2027 11:56:32.268   04 Jun 2027 11:57:46.721            74.453            RioGallegos          2326.656
       397   04 Jun 2027 12:27:39.322   04 Jun 2027 12:27:44.818             5.496                Sumatra           171.750
       398   04 Jun 2027 12:30:12.964   04 Jun 2027 12:32:19.904           126.940                Sumatra          3966.875
       399   04 Jun 2027 12:42:38.450   04 Jun 2027 12:43:17.059            38.609                Irkutsk          1206.531
       400   04 Jun 2027 12:44:10.068   04 Jun 2027 12:45:31.403            81.335                Novosib          2541.719
       401   04 Jun 2027 12:46:16.546   04 Jun 2027 12:46:52.438            35.892                Norilsk          1121.625
       402   04 Jun 2027 14:12:24.098   04 Jun 2027 14:13:51.310            87.212                  Delhi          2725.375
       403   04 Jun 2027 14:16:11.296   04 Jun 2027 14:17:38.911            87.615                  Delhi          2737.969
       404   04 Jun 2027 14:20:41.256   04 Jun 2027 14:22:13.803            92.547                Novosib          2892.094
       405   04 Jun 2027 14:23:33.898   04 Jun 2027 14:25:42.793           128.895                Novosib          4027.969
       406   04 Jun 2027 14:26:00.312   04 Jun 2027 14:26:08.778             8.466                Norilsk           264.562
       407   04 Jun 2027 14:26:33.808   04 Jun 2027 14:27:13.109            39.301                Norilsk          1228.156
       408   04 Jun 2027 15:56:03.310   04 Jun 2027 15:59:25.259           201.949                 Moscow          6310.906
       409   04 Jun 2027 15:59:34.763   04 Jun 2027 16:00:29.661            54.898              Murmansk2          1715.562
       410   04 Jun 2027 16:00:42.281   04 Jun 2027 16:00:56.562            14.281              Murmansk1           446.281
       411   04 Jun 2027 16:04:47.724   04 Jun 2027 16:06:15.164            87.440              Murmansk1          2732.500
       412   04 Jun 2027 16:06:34.550   04 Jun 2027 16:09:56.774           202.224                Norilsk          6319.500
       413   04 Jun 2027 17:34:43.289   04 Jun 2027 17:35:48.397            65.108                 Moscow          2034.625
       414   04 Jun 2027 17:37:16.653   04 Jun 2027 17:37:24.505             7.852              Murmansk2           245.375
       415   04 Jun 2027 17:37:24.505   04 Jun 2027 17:38:09.722            45.217              Murmansk1          1413.031
       416   04 Jun 2027 17:39:03.176   04 Jun 2027 17:39:37.390            34.214                 Moscow          1069.187
       417   04 Jun 2027 17:41:04.740   04 Jun 2027 17:42:27.434            82.694              Murmansk2          2584.187
       418   04 Jun 2027 17:50:16.149   04 Jun 2027 17:50:54.617            38.468                Anadyr1          1202.125
       419   04 Jun 2027 17:51:44.991   04 Jun 2027 17:52:13.696            28.705                Anadyr2           897.031
       420   04 Jun 2027 18:45:50.795   04 Jun 2027 18:47:26.594            95.799               CapeTown          2993.719
       421   04 Jun 2027 19:17:35.139   04 Jun 2027 19:22:12.229           277.090              Murmansk2          8659.063
       422   04 Jun 2027 19:28:51.376   04 Jun 2027 19:30:26.432            95.056               Magadan1          2970.500
       423   04 Jun 2027 19:31:18.023   04 Jun 2027 19:31:51.147            33.124               Magadan1          1035.125
       424   04 Jun 2027 21:01:57.524   04 Jun 2027 21:06:10.938           253.414                Anadyr2          7919.188
       425   04 Jun 2027 21:06:31.031   04 Jun 2027 21:08:17.893           106.862               Magadan1          3339.438
       426   04 Jun 2027 21:08:28.764   04 Jun 2027 21:08:56.638            27.874               Magadan1           871.063
       427   04 Jun 2027 21:09:11.597   04 Jun 2027 21:09:26.619            15.022               Magadan2           469.438
       428   04 Jun 2027 21:11:17.396   04 Jun 2027 21:11:30.286            12.890               Magadan2           402.812
       429   04 Jun 2027 21:15:28.521   04 Jun 2027 21:15:55.038            26.517               Magadan1           828.656
       430   04 Jun 2027 21:57:15.086   04 Jun 2027 21:59:45.642           150.556            RioGallegos          4704.875
       431   04 Jun 2027 22:02:27.847   04 Jun 2027 22:03:27.976            60.129            RioGallegos          1879.031
       432   04 Jun 2027 22:37:43.624   04 Jun 2027 22:38:49.010            65.386                Anadyr1          2043.313
       433   04 Jun 2027 22:39:22.626   04 Jun 2027 22:39:58.524            35.898                Anadyr1          1121.812
       434   04 Jun 2027 22:40:12.841   04 Jun 2027 22:42:09.608           116.767               Magadan2          3648.969
       435   04 Jun 2027 22:43:53.514   04 Jun 2027 22:44:00.933             7.419               Magadan1           231.844
       436   04 Jun 2027 22:44:25.773   04 Jun 2027 22:45:20.313            54.540                Irkutsk          1704.375
       437   04 Jun 2027 22:53:17.927   04 Jun 2027 22:53:50.899            32.972                Irkutsk          1030.375
       438   04 Jun 2027 22:58:46.922   04 Jun 2027 23:01:33.628           166.706                Sumatra          5209.563
       439   05 Jun 2027 00:12:50.718   05 Jun 2027 00:14:36.674           105.956                Anadyr2          3311.125
       440   05 Jun 2027 00:14:36.674   05 Jun 2027 00:15:14.703            38.029                Anadyr1          1188.406
       441   05 Jun 2027 00:16:20.481   05 Jun 2027 00:18:00.199            99.718               Magadan2          3116.187
       442   05 Jun 2027 00:18:37.145   05 Jun 2027 00:18:54.050            16.905               Magadan1           528.281
       443   05 Jun 2027 00:19:34.539   05 Jun 2027 00:20:30.127            55.588                Irkutsk          1737.125
       444   05 Jun 2027 00:20:30.360   05 Jun 2027 00:21:04.391            34.031                Novosib          1063.469
       445   05 Jun 2027 00:21:30.954   05 Jun 2027 00:21:59.225            28.271                Novosib           883.469
       446   05 Jun 2027 00:22:52.752   05 Jun 2027 00:24:25.803            93.051                Novosib          2907.844
       447   05 Jun 2027 00:32:22.132   05 Jun 2027 00:32:41.814            19.682                  Delhi           615.063
       448   05 Jun 2027 00:34:34.223   05 Jun 2027 00:35:26.065            51.842                  Delhi          1620.063
       449   05 Jun 2027 01:09:55.698   05 Jun 2027 01:10:05.286             9.588            RioGallegos           299.625
       450   05 Jun 2027 01:11:29.502   05 Jun 2027 01:11:45.772            16.270            RioGallegos           508.438
       451   05 Jun 2027 01:14:30.154   05 Jun 2027 01:15:04.783            34.629            RioGallegos          1082.156
       452   05 Jun 2027 01:19:21.048   05 Jun 2027 01:19:25.897             4.849            RioGallegos           151.531
       453   05 Jun 2027 01:46:45.038   05 Jun 2027 01:48:23.143            98.105                Anadyr1          3065.781
       454   05 Jun 2027 01:48:59.443   05 Jun 2027 01:49:13.919            14.476                Anadyr2           452.375
       455   05 Jun 2027 01:51:42.398   05 Jun 2027 01:53:10.528            88.130                Norilsk          2754.063
       456   05 Jun 2027 01:53:29.797   05 Jun 2027 01:53:41.586            11.789                Norilsk           368.406
       457   05 Jun 2027 01:54:19.652   05 Jun 2027 01:55:35.505            75.853              Murmansk2          2370.406
       458   05 Jun 2027 01:55:46.174   05 Jun 2027 01:56:17.370            31.196              Murmansk1           974.875
       459   05 Jun 2027 01:56:21.200   05 Jun 2027 01:57:36.111            74.911                Novosib          2340.969
       460   05 Jun 2027 02:02:49.770   05 Jun 2027 02:05:09.390           139.620                  Delhi          4363.125
       461   05 Jun 2027 02:45:16.348   05 Jun 2027 02:46:13.796            57.448            RioGallegos          1795.250
       462   05 Jun 2027 02:47:33.230   05 Jun 2027 02:48:44.995            71.765            RioGallegos          2242.656
       463   05 Jun 2027 03:34:29.032   05 Jun 2027 03:34:54.661            25.629                Irkutsk           800.906
       464   05 Jun 2027 03:36:35.802   05 Jun 2027 03:36:49.529            13.727              Murmansk1           428.969
       465   05 Jun 2027 03:38:15.077   05 Jun 2027 03:38:31.516            16.439                 Moscow           513.719
       466   05 Jun 2027 03:38:33.910   05 Jun 2027 03:39:10.067            36.157              Murmansk2          1129.906
       467   05 Jun 2027 03:39:15.898   05 Jun 2027 03:39:30.281            14.383                 Moscow           449.469
       468   05 Jun 2027 03:39:37.670   05 Jun 2027 03:39:57.603            19.933                Novosib           622.906
       469   05 Jun 2027 03:40:01.735   05 Jun 2027 03:40:36.230            34.495                 Moscow          1077.969
       470   05 Jun 2027 03:40:39.301   05 Jun 2027 03:41:09.192            29.891              Murmansk2           934.094
       471   05 Jun 2027 05:14:20.376   05 Jun 2027 05:15:15.262            54.886              Murmansk2          1715.187
       472   05 Jun 2027 05:15:15.262   05 Jun 2027 05:15:19.330             4.068              Murmansk1           127.125
       473   05 Jun 2027 05:15:24.038   05 Jun 2027 05:15:45.862            21.824              Murmansk2           682.000
       474   05 Jun 2027 05:16:25.042   05 Jun 2027 05:16:39.301            14.259              Murmansk1           445.594
       475   05 Jun 2027 05:16:59.919   05 Jun 2027 05:17:51.074            51.155              Murmansk1          1598.594
       476   05 Jun 2027 05:18:39.319   05 Jun 2027 05:18:39.975             0.656              Murmansk2            20.500
       477   05 Jun 2027 05:32:59.916   05 Jun 2027 05:33:45.105            45.189               CapeTown          1412.156
       478   05 Jun 2027 05:37:18.977   05 Jun 2027 05:38:00.762            41.785               CapeTown          1305.781
       479   05 Jun 2027 05:38:49.725   05 Jun 2027 05:39:27.561            37.836               CapeTown          1182.375
       480   05 Jun 2027 06:35:44.832   05 Jun 2027 06:36:48.557            63.725                Anadyr2          1991.406
       481   05 Jun 2027 06:36:56.225   05 Jun 2027 06:37:23.088            26.863               Magadan1           839.469
       482   05 Jun 2027 06:37:30.447   05 Jun 2027 06:37:36.185             5.738                Anadyr1           179.313
