uniorb/output/strategy_2/Drop/Drop_KinoSat_110707.txt

KinoSat_110707
-------------------------
    Access    *     Start Time (UTCG)     *     Stop Time (UTCG)  *   Duration (s)        *       Station  *  Data (Mbytes)
         1   01 Jun 2027 03:19:50.727   01 Jun 2027 03:19:53.974             3.247                Anadyr2           101.469
         2   01 Jun 2027 03:20:35.805   01 Jun 2027 03:20:59.677            23.872               Magadan1           746.000
         3   01 Jun 2027 03:21:07.416   01 Jun 2027 03:21:13.713             6.297                Anadyr2           196.781
         4   01 Jun 2027 03:21:24.768   01 Jun 2027 03:22:41.546            76.778               Magadan1          2399.313
         5   01 Jun 2027 03:22:57.553   01 Jun 2027 03:27:10.338           252.785                Anadyr1          7899.531
         6   01 Jun 2027 04:57:18.073   01 Jun 2027 04:58:53.307            95.234               Magadan1          2976.062
         7   01 Jun 2027 04:58:57.034   01 Jun 2027 05:02:20.634           203.600                Anadyr1          6362.500
         8   01 Jun 2027 05:02:36.806   01 Jun 2027 05:02:59.051            22.245                Norilsk           695.156
         9   01 Jun 2027 05:38:12.273   01 Jun 2027 05:41:47.555           215.282            RioGallegos          6727.563
        10   01 Jun 2027 06:33:59.733   01 Jun 2027 06:34:10.797            11.064               Magadan1           345.750
        11   01 Jun 2027 06:34:10.797   01 Jun 2027 06:34:20.227             9.430               Magadan2           294.688
        12   01 Jun 2027 06:34:39.482   01 Jun 2027 06:34:55.643            16.161                Irkutsk           505.031
        13   01 Jun 2027 06:35:21.512   01 Jun 2027 06:35:40.222            18.710                Novosib           584.688
        14   01 Jun 2027 06:36:00.309   01 Jun 2027 06:37:29.163            88.854               Magadan1          2776.687
        15   01 Jun 2027 06:37:30.283   01 Jun 2027 06:37:39.366             9.083                Norilsk           283.844
        16   01 Jun 2027 06:37:41.152   01 Jun 2027 06:38:35.736            54.584                Irkutsk          1705.750
        17   01 Jun 2027 06:38:44.426   01 Jun 2027 06:39:46.042            61.616              Murmansk2          1925.500
        18   01 Jun 2027 06:39:46.042   01 Jun 2027 06:39:52.431             6.389              Murmansk1           199.656
        19   01 Jun 2027 06:39:54.207   01 Jun 2027 06:41:13.303            79.096                Norilsk          2471.750
        20   01 Jun 2027 06:43:19.336   01 Jun 2027 06:44:03.227            43.891              Murmansk1          1371.594
        21   01 Jun 2027 06:45:10.952   01 Jun 2027 06:45:25.266            14.314              Murmansk1           447.313
        22   01 Jun 2027 07:13:22.067   01 Jun 2027 07:17:40.521           258.454            RioGallegos          8076.688
        23   01 Jun 2027 07:23:04.852   01 Jun 2027 07:24:10.229            65.377            RioGallegos          2043.031
        24   01 Jun 2027 07:48:10.484   01 Jun 2027 07:49:07.572            57.088                Sumatra          1784.000
        25   01 Jun 2027 07:51:19.609   01 Jun 2027 07:52:41.605            81.996                Sumatra          2562.375
        26   01 Jun 2027 07:58:50.359   01 Jun 2027 08:00:13.707            83.348                  Delhi          2604.625
        27   01 Jun 2027 08:00:23.733   01 Jun 2027 08:01:24.227            60.494                  Delhi          1890.438
        28   01 Jun 2027 08:03:07.401   01 Jun 2027 08:05:08.164           120.763                  Delhi          3773.844
        29   01 Jun 2027 08:10:48.724   01 Jun 2027 08:12:22.613            93.889                Novosib          2934.031
        30   01 Jun 2027 08:13:00.689   01 Jun 2027 08:13:38.823            38.134                Norilsk          1191.687
        31   01 Jun 2027 08:13:39.749   01 Jun 2027 08:13:44.292             4.543                 Moscow           141.969
        32   01 Jun 2027 08:13:47.763   01 Jun 2027 08:14:30.392            42.629                Novosib          1332.156
        33   01 Jun 2027 08:15:01.402   01 Jun 2027 08:16:05.492            64.090              Murmansk2          2002.812
        34   01 Jun 2027 08:16:05.492   01 Jun 2027 08:16:16.779            11.287              Murmansk1           352.719
        35   01 Jun 2027 08:16:20.085   01 Jun 2027 08:16:25.637             5.552                Norilsk           173.500
        36   01 Jun 2027 08:16:41.528   01 Jun 2027 08:17:52.988            71.460              Murmansk2          2233.125
        37   01 Jun 2027 09:28:00.799   01 Jun 2027 09:29:52.528           111.729                Sumatra          3491.531
        38   01 Jun 2027 09:32:22.771   01 Jun 2027 09:34:24.628           121.857                  Delhi          3808.031
        39   01 Jun 2027 09:36:27.689   01 Jun 2027 09:37:25.799            58.110                  Delhi          1815.937
        40   01 Jun 2027 09:48:34.931   01 Jun 2027 09:49:46.139            71.208              Murmansk2          2225.250
        41   01 Jun 2027 09:49:54.681   01 Jun 2027 09:51:44.240           109.559                Novosib          3423.719
        42   01 Jun 2027 09:52:03.430   01 Jun 2027 09:52:10.778             7.348                 Moscow           229.625
        43   01 Jun 2027 09:52:20.070   01 Jun 2027 09:52:47.768            27.698                 Moscow           865.563
        44   01 Jun 2027 09:54:37.725   01 Jun 2027 09:55:10.466            32.741                Norilsk          1023.156
        45   01 Jun 2027 11:20:56.820   01 Jun 2027 11:22:57.640           120.820              Murmansk2          3775.625
        46   01 Jun 2027 11:22:57.640   01 Jun 2027 11:24:04.680            67.040              Murmansk1          2095.000
        47   01 Jun 2027 11:24:19.731   01 Jun 2027 11:28:08.630           228.899                 Moscow          7153.094
        48   01 Jun 2027 12:31:40.890   01 Jun 2027 12:36:53.983           313.093               CapeTown          9784.156
        49   01 Jun 2027 12:57:05.537   01 Jun 2027 12:59:08.410           122.873              Murmansk1          3839.781
        50   01 Jun 2027 13:11:21.800   01 Jun 2027 13:14:39.624           197.824                Anadyr2          6182.000
        51   01 Jun 2027 13:16:54.137   01 Jun 2027 13:17:10.677            16.540                Anadyr1           516.875
        52   01 Jun 2027 13:19:37.949   01 Jun 2027 13:20:21.513            43.564                Anadyr2          1361.375
        53   01 Jun 2027 14:10:06.365   01 Jun 2027 14:10:52.454            46.089               CapeTown          1440.281
        54   01 Jun 2027 14:36:12.768   01 Jun 2027 14:36:37.156            24.388              Murmansk2           762.125
        55   01 Jun 2027 14:36:45.278   01 Jun 2027 14:37:02.434            17.156              Murmansk1           536.125
        56   01 Jun 2027 14:38:43.713   01 Jun 2027 14:39:16.895            33.182              Murmansk1          1036.938
        57   01 Jun 2027 14:40:06.111   01 Jun 2027 14:40:23.352            17.241              Murmansk1           538.781
        58   01 Jun 2027 14:46:49.375   01 Jun 2027 14:50:10.257           200.882                Anadyr1          6277.563
        59   01 Jun 2027 14:50:30.112   01 Jun 2027 14:53:57.940           207.828               Magadan2          6494.625
        60   01 Jun 2027 14:55:31.081   01 Jun 2027 14:57:23.080           111.999               Magadan1          3499.969
        61   01 Jun 2027 16:22:43.173   01 Jun 2027 16:23:24.498            41.325                Anadyr1          1291.406
        62   01 Jun 2027 16:25:06.940   01 Jun 2027 16:27:25.465           138.525               Magadan1          4328.906
        63   01 Jun 2027 16:27:25.465   01 Jun 2027 16:29:18.275           112.810               Magadan2          3525.313
        64   01 Jun 2027 17:58:34.996   01 Jun 2027 18:01:00.460           145.464                Anadyr2          4545.750
        65   01 Jun 2027 18:01:07.102   01 Jun 2027 18:03:30.001           142.899               Magadan1          4465.594
        66   01 Jun 2027 18:03:32.095   01 Jun 2027 18:05:39.035           126.940                Norilsk          3966.875
        67   01 Jun 2027 18:06:33.832   01 Jun 2027 18:12:41.300           367.468                Irkutsk         11483.375
        68   01 Jun 2027 18:23:20.152   01 Jun 2027 18:26:48.405           208.253                Sumatra          6507.906
        69   01 Jun 2027 19:41:34.371   01 Jun 2027 19:46:38.254           303.883                Novosib          9496.344
        70   01 Jun 2027 19:54:09.558   01 Jun 2027 19:54:49.544            39.986                Sumatra          1249.563
        71   01 Jun 2027 21:16:18.890   01 Jun 2027 21:18:32.975           134.085                Novosib          4190.156
        72   01 Jun 2027 21:23:46.204   01 Jun 2027 21:27:02.748           196.544                  Delhi          6142.000
        73   01 Jun 2027 22:49:46.978   01 Jun 2027 22:49:50.897             3.919               Magadan1           122.469
        74   01 Jun 2027 22:50:03.248   01 Jun 2027 22:50:12.109             8.861               Magadan1           276.906
        75   01 Jun 2027 22:50:41.844   01 Jun 2027 22:56:17.499           335.655              Murmansk2         10489.219
        76   01 Jun 2027 22:57:00.235   01 Jun 2027 23:01:08.390           248.155                 Moscow          7754.844
        77   01 Jun 2027 23:22:29.061   01 Jun 2027 23:23:52.837            83.776               CapeTown          2618.000
        78   01 Jun 2027 23:26:24.359   01 Jun 2027 23:28:05.557           101.198               CapeTown          3162.438
        79   02 Jun 2027 00:29:48.967   02 Jun 2027 00:31:26.818            97.851                 Moscow          3057.844
        80   02 Jun 2027 00:41:50.224   02 Jun 2027 00:42:36.766            46.542                 Moscow          1454.438
        81   02 Jun 2027 00:53:46.513   02 Jun 2027 00:55:20.240            93.727               CapeTown          2928.969
        82   02 Jun 2027 01:50:23.437   02 Jun 2027 01:51:05.993            42.556                Anadyr2          1329.875
        83   02 Jun 2027 01:52:03.440   02 Jun 2027 01:53:46.181           102.741               Magadan2          3210.656
        84   02 Jun 2027 01:55:21.202   02 Jun 2027 01:55:33.205            12.003               Magadan2           375.094
        85   02 Jun 2027 01:58:16.333   02 Jun 2027 01:58:19.548             3.215               Magadan2           100.469
        86   02 Jun 2027 01:59:17.689   02 Jun 2027 01:59:22.783             5.094                Norilsk           159.187
        87   02 Jun 2027 01:59:54.217   02 Jun 2027 02:00:50.390            56.173                Norilsk          1755.406
        88   02 Jun 2027 02:02:31.036   02 Jun 2027 02:03:22.077            51.041              Murmansk1          1595.031
        89   02 Jun 2027 02:05:16.566   02 Jun 2027 02:05:29.814            13.248              Murmansk1           414.000
        90   02 Jun 2027 02:05:49.651   02 Jun 2027 02:06:59.964            70.313                 Moscow          2197.281
        91   02 Jun 2027 02:09:31.298   02 Jun 2027 02:10:18.049            46.751                 Moscow          1460.969
        92   02 Jun 2027 02:14:10.482   02 Jun 2027 02:14:15.869             5.387                 Moscow           168.344
        93   02 Jun 2027 02:14:32.408   02 Jun 2027 02:14:49.785            17.377                 Moscow           543.031
        94   02 Jun 2027 02:17:09.489   02 Jun 2027 02:17:17.127             7.638                 Moscow           238.688
        95   02 Jun 2027 02:31:36.905   02 Jun 2027 02:32:57.670            80.765               CapeTown          2523.906
        96   02 Jun 2027 02:39:45.068   02 Jun 2027 02:40:42.471            57.403               CapeTown          1793.844
        97   02 Jun 2027 03:31:44.613   02 Jun 2027 03:31:47.956             3.343                Anadyr2           104.469
        98   02 Jun 2027 03:31:47.956   02 Jun 2027 03:36:35.953           287.997                Anadyr1          8999.906
        99   02 Jun 2027 03:36:35.953   02 Jun 2027 03:36:47.256            11.303                Anadyr2           353.219
       100   02 Jun 2027 03:36:56.203   02 Jun 2027 03:37:05.064             8.861               Magadan2           276.906
       101   02 Jun 2027 03:37:13.803   02 Jun 2027 03:37:27.355            13.552                Anadyr2           423.500
       102   02 Jun 2027 05:08:32.356   02 Jun 2027 05:08:55.281            22.925                Anadyr2           716.406
       103   02 Jun 2027 05:09:13.662   02 Jun 2027 05:14:43.039           329.377               Magadan1         10293.031
       104   02 Jun 2027 05:14:56.243   02 Jun 2027 05:15:44.857            48.614                Norilsk          1519.187
       105   02 Jun 2027 05:52:28.421   02 Jun 2027 05:53:14.340            45.919            RioGallegos          1434.969
       106   02 Jun 2027 06:28:14.031   02 Jun 2027 06:29:37.936            83.905                Sumatra          2622.031
       107   02 Jun 2027 06:30:39.004   02 Jun 2027 06:33:01.932           142.928                Sumatra          4466.500
       108   02 Jun 2027 06:46:12.416   02 Jun 2027 06:46:39.817            27.401               Magadan1           856.281
       109   02 Jun 2027 06:46:48.296   02 Jun 2027 06:47:58.210            69.914               Magadan2          2184.812
       110   02 Jun 2027 06:48:05.290   02 Jun 2027 06:49:03.415            58.125               Magadan1          1816.406
       111   02 Jun 2027 06:49:26.746   02 Jun 2027 06:49:32.431             5.685                Norilsk           177.656
       112   02 Jun 2027 06:49:39.036   02 Jun 2027 06:50:38.724            59.688                Irkutsk          1865.250
       113   02 Jun 2027 06:50:45.147   02 Jun 2027 06:51:55.662            70.515                Novosib          2203.594
       114   02 Jun 2027 06:52:21.568   02 Jun 2027 06:53:11.134            49.566                Norilsk          1548.937
       115   02 Jun 2027 07:25:32.787   02 Jun 2027 07:26:40.242            67.455            RioGallegos          2107.969
       116   02 Jun 2027 07:29:20.057   02 Jun 2027 07:30:41.515            81.458            RioGallegos          2545.563
       117   02 Jun 2027 08:00:10.023   02 Jun 2027 08:01:00.708            50.685                Sumatra          1583.906
       118   02 Jun 2027 08:03:19.142   02 Jun 2027 08:05:00.245           101.103                Sumatra          3159.469
       119   02 Jun 2027 08:10:09.465   02 Jun 2027 08:12:29.224           139.759                  Delhi          4367.469
       120   02 Jun 2027 08:15:44.355   02 Jun 2027 08:17:08.584            84.229                  Delhi          2632.156
       121   02 Jun 2027 08:20:20.492   02 Jun 2027 08:20:28.862             8.370                  Delhi           261.563
       122   02 Jun 2027 08:22:22.356   02 Jun 2027 08:22:23.301             0.945              Murmansk2            29.531
       123   02 Jun 2027 08:22:29.937   02 Jun 2027 08:22:48.936            18.999                Novosib           593.719
       124   02 Jun 2027 08:22:56.422   02 Jun 2027 08:24:10.028            73.606              Murmansk2          2300.188
       125   02 Jun 2027 08:24:19.106   02 Jun 2027 08:24:58.612            39.506              Murmansk2          1234.563
       126   02 Jun 2027 08:25:07.926   02 Jun 2027 08:25:12.746             4.820                Novosib           150.625
       127   02 Jun 2027 08:25:15.470   02 Jun 2027 08:25:36.515            21.045                Norilsk           657.656
       128   02 Jun 2027 08:25:58.514   02 Jun 2027 08:27:22.374            83.860              Murmansk1          2620.625
       129   02 Jun 2027 08:31:22.411   02 Jun 2027 08:31:28.061             5.650              Murmansk2           176.563
       130   02 Jun 2027 09:06:04.251   02 Jun 2027 09:06:19.427            15.176            RioGallegos           474.250
       131   02 Jun 2027 09:07:15.710   02 Jun 2027 09:08:23.556            67.846            RioGallegos          2120.187
       132   02 Jun 2027 09:44:31.906   02 Jun 2027 09:47:03.163           151.257                  Delhi          4726.781
       133   02 Jun 2027 09:58:21.180   02 Jun 2027 09:58:44.257            23.077              Murmansk1           721.156
       134   02 Jun 2027 09:58:47.105   02 Jun 2027 09:59:28.712            41.607              Murmansk1          1300.219
       135   02 Jun 2027 09:59:41.172   02 Jun 2027 09:59:59.191            18.019              Murmansk2           563.094
       136   02 Jun 2027 10:00:21.881   02 Jun 2027 10:00:47.736            25.855                Novosib           807.969
       137   02 Jun 2027 10:00:51.305   02 Jun 2027 10:01:12.407            21.102              Murmansk1           659.437
       138   02 Jun 2027 10:01:12.407   02 Jun 2027 10:01:34.988            22.581              Murmansk2           705.656
       139   02 Jun 2027 10:01:35.144   02 Jun 2027 10:01:57.818            22.674                 Moscow           708.563
       140   02 Jun 2027 10:02:00.983   02 Jun 2027 10:02:21.665            20.682              Murmansk1           646.312
       141   02 Jun 2027 10:02:51.730   02 Jun 2027 10:03:17.978            26.248                Norilsk           820.250
       142   02 Jun 2027 11:34:14.840   02 Jun 2027 11:34:55.911            41.071              Murmansk1          1283.469
       143   02 Jun 2027 11:35:06.928   02 Jun 2027 11:36:10.200            63.272                 Moscow          1977.250
       144   02 Jun 2027 11:36:19.347   02 Jun 2027 11:36:53.205            33.858                 Moscow          1058.063
       145   02 Jun 2027 11:36:55.027   02 Jun 2027 11:37:08.458            13.431                Norilsk           419.719
       146   02 Jun 2027 11:37:14.007   02 Jun 2027 11:37:43.858            29.851              Murmansk1           932.844
       147   02 Jun 2027 11:38:21.533   02 Jun 2027 11:38:25.945             4.412                 Moscow           137.875
       148   02 Jun 2027 11:38:40.587   02 Jun 2027 11:38:50.916            10.329              Murmansk1           322.781
       149   02 Jun 2027 11:39:13.817   02 Jun 2027 11:39:28.054            14.237              Murmansk2           444.906
       150   02 Jun 2027 11:40:17.081   02 Jun 2027 11:40:31.636            14.555                 Moscow           454.844
       151   02 Jun 2027 12:43:15.030   02 Jun 2027 12:46:07.380           172.350               CapeTown          5385.937
       152   02 Jun 2027 12:47:14.137   02 Jun 2027 12:48:41.349            87.212               CapeTown          2725.375
       153   02 Jun 2027 12:49:29.738   02 Jun 2027 12:49:52.004            22.266               CapeTown           695.812
       154   02 Jun 2027 13:09:22.647   02 Jun 2027 13:11:09.056           106.409              Murmansk1          3325.281
       155   02 Jun 2027 13:16:55.814   02 Jun 2027 13:17:16.154            20.340              Murmansk1           635.625
       156   02 Jun 2027 13:23:15.874   02 Jun 2027 13:25:47.978           152.104                Anadyr1          4753.250
       157   02 Jun 2027 13:26:19.219   02 Jun 2027 13:28:42.566           143.347                Anadyr2          4479.594
       158   02 Jun 2027 14:48:50.656   02 Jun 2027 14:50:28.950            98.294              Murmansk1          3071.688
       159   02 Jun 2027 14:56:35.228   02 Jun 2027 14:56:45.867            10.639              Murmansk2           332.469
       160   02 Jun 2027 14:58:49.850   02 Jun 2027 15:00:55.866           126.016                Anadyr2          3938.000
       161   02 Jun 2027 15:02:10.074   02 Jun 2027 15:02:23.576            13.502                Anadyr2           421.938
       162   02 Jun 2027 15:02:26.671   02 Jun 2027 15:06:25.721           239.050               Magadan2          7470.312
       163   02 Jun 2027 15:06:25.721   02 Jun 2027 15:08:34.219           128.498               Magadan1          4015.562
       164   02 Jun 2027 16:36:03.289   02 Jun 2027 16:36:10.079             6.790                Anadyr1           212.187
       165   02 Jun 2027 16:37:05.531   02 Jun 2027 16:38:48.708           103.177               Magadan1          3224.281
       166   02 Jun 2027 16:39:19.850   02 Jun 2027 16:39:49.171            29.321               Magadan2           916.281
       167   02 Jun 2027 16:40:37.049   02 Jun 2027 16:41:38.379            61.330               Magadan2          1916.563
       168   02 Jun 2027 16:47:55.027   02 Jun 2027 16:48:57.101            62.074               Magadan2          1939.813
       169   02 Jun 2027 17:32:00.970   02 Jun 2027 17:34:00.206           119.236            RioGallegos          3726.125
       170   02 Jun 2027 18:10:34.649   02 Jun 2027 18:11:02.324            27.675                Anadyr2           864.844
       171   02 Jun 2027 18:11:54.585   02 Jun 2027 18:12:22.951            28.366                Anadyr2           886.437
       172   02 Jun 2027 18:12:49.290   02 Jun 2027 18:16:55.378           246.088                Norilsk          7690.250
       173   02 Jun 2027 18:18:00.239   02 Jun 2027 18:22:35.700           275.461                Irkutsk          8608.156
       174   02 Jun 2027 18:23:16.688   02 Jun 2027 18:24:43.440            86.752                Irkutsk          2711.000
       175   02 Jun 2027 18:33:29.743   02 Jun 2027 18:35:24.210           114.467                Sumatra          3577.094
       176   02 Jun 2027 18:38:59.355   02 Jun 2027 18:40:31.817            92.462                Sumatra          2889.437
       177   02 Jun 2027 19:55:47.022   02 Jun 2027 19:58:26.392           159.370                Novosib          4980.312
       178   02 Jun 2027 20:06:11.892   02 Jun 2027 20:06:23.255            11.363                Sumatra           355.094
       179   02 Jun 2027 21:27:44.749   02 Jun 2027 21:31:55.380           250.631              Murmansk1          7832.219
       180   02 Jun 2027 21:35:40.379   02 Jun 2027 21:37:19.402            99.023                  Delhi          3094.469
       181   02 Jun 2027 21:45:12.806   02 Jun 2027 21:45:32.812            20.006                  Delhi           625.188
       182   02 Jun 2027 23:00:57.263   02 Jun 2027 23:01:33.645            36.382                Norilsk          1136.938
       183   02 Jun 2027 23:02:41.329   02 Jun 2027 23:08:10.589           329.260              Murmansk2         10289.375
       184   02 Jun 2027 23:09:26.589   02 Jun 2027 23:10:56.025            89.436              Murmansk1          2794.875
       185   02 Jun 2027 23:11:45.868   02 Jun 2027 23:14:11.203           145.335                 Moscow          4541.719
       186   02 Jun 2027 23:33:17.634   02 Jun 2027 23:35:20.879           123.245               CapeTown          3851.406
       187   02 Jun 2027 23:38:39.972   02 Jun 2027 23:40:48.747           128.775               CapeTown          4024.219
       188   03 Jun 2027 00:49:20.858   03 Jun 2027 00:50:05.139            44.281                 Moscow          1383.781
       189   03 Jun 2027 01:05:42.095   03 Jun 2027 01:06:15.770            33.675               CapeTown          1052.344
       190   03 Jun 2027 01:08:54.608   03 Jun 2027 01:09:30.727            36.119               CapeTown          1128.719
       191   03 Jun 2027 01:13:02.050   03 Jun 2027 01:13:46.769            44.719               CapeTown          1397.469
       192   03 Jun 2027 02:02:25.349   03 Jun 2027 02:03:01.320            35.971                Anadyr2          1124.094
       193   03 Jun 2027 02:03:43.812   03 Jun 2027 02:04:27.499            43.687               Magadan1          1365.219
       194   03 Jun 2027 02:04:32.394   03 Jun 2027 02:05:19.021            46.627               Magadan2          1457.094
       195   03 Jun 2027 02:05:45.777   03 Jun 2027 02:05:47.318             1.541               Magadan2            48.156
       196   03 Jun 2027 02:06:27.731   03 Jun 2027 02:07:03.954            36.223               Magadan2          1131.969
       197   03 Jun 2027 02:14:32.185   03 Jun 2027 02:16:17.126           104.941              Murmansk2          3279.406
       198   03 Jun 2027 02:17:10.904   03 Jun 2027 02:17:50.917            40.013              Murmansk2          1250.406
       199   03 Jun 2027 02:18:20.902   03 Jun 2027 02:19:03.677            42.775                 Moscow          1336.719
       200   03 Jun 2027 02:27:32.139   03 Jun 2027 02:27:58.348            26.209                 Moscow           819.031
       201   03 Jun 2027 02:44:33.397   03 Jun 2027 02:46:00.834            87.437               CapeTown          2732.406
       202   03 Jun 2027 03:45:40.054   03 Jun 2027 03:46:05.675            25.621               Magadan1           800.656
       203   03 Jun 2027 03:46:14.090   03 Jun 2027 03:46:14.714             0.624               Magadan1            19.500
       204   03 Jun 2027 03:46:30.014   03 Jun 2027 03:47:03.282            33.268                Anadyr2          1039.625
       205   03 Jun 2027 03:47:12.296   03 Jun 2027 03:49:32.214           139.918                Anadyr2          4372.437
       206   03 Jun 2027 03:49:32.214   03 Jun 2027 03:50:27.792            55.578                Anadyr1          1736.812
       207   03 Jun 2027 03:50:27.792   03 Jun 2027 03:50:57.621            29.829                Anadyr2           932.156
       208   03 Jun 2027 03:50:57.621   03 Jun 2027 03:51:08.795            11.174                Anadyr1           349.187
       209   03 Jun 2027 05:20:50.617   03 Jun 2027 05:21:02.509            11.892                Irkutsk           371.625
       210   03 Jun 2027 05:21:21.581   03 Jun 2027 05:24:41.902           200.321                Anadyr1          6260.031
       211   03 Jun 2027 05:24:41.902   03 Jun 2027 05:25:51.254            69.352                Anadyr2          2167.250
       212   03 Jun 2027 05:26:02.965   03 Jun 2027 05:26:40.187            37.222               Magadan1          1163.188
       213   03 Jun 2027 05:28:38.506   03 Jun 2027 05:28:59.855            21.349                Norilsk           667.156
       214   03 Jun 2027 06:01:44.161   03 Jun 2027 06:02:35.723            51.562            RioGallegos          1611.312
       215   03 Jun 2027 06:04:33.266   03 Jun 2027 06:04:45.109            11.843            RioGallegos           370.094
       216   03 Jun 2027 06:38:55.527   03 Jun 2027 06:41:12.591           137.064                Sumatra          4283.250
       217   03 Jun 2027 06:44:58.183   03 Jun 2027 06:45:41.043            42.860                Sumatra          1339.375
       218   03 Jun 2027 06:46:34.789   03 Jun 2027 06:47:02.931            28.142                Sumatra           879.437
       219   03 Jun 2027 06:56:17.169   03 Jun 2027 06:56:32.389            15.220                Novosib           475.625
       220   03 Jun 2027 06:56:39.199   03 Jun 2027 06:56:47.618             8.419                Norilsk           263.094
       221   03 Jun 2027 06:56:50.022   03 Jun 2027 06:57:08.754            18.732               Magadan2           585.375
       222   03 Jun 2027 06:57:09.448   03 Jun 2027 06:57:45.071            35.623                Norilsk          1113.219
       223   03 Jun 2027 06:58:02.961   03 Jun 2027 06:58:16.849            13.888                Norilsk           434.000
       224   03 Jun 2027 06:58:24.962   03 Jun 2027 06:58:35.954            10.992                Irkutsk           343.500
       225   03 Jun 2027 06:58:46.738   03 Jun 2027 06:58:58.355            11.617                Norilsk           363.031
       226   03 Jun 2027 06:59:07.777   03 Jun 2027 06:59:36.583            28.806                Novosib           900.188
       227   03 Jun 2027 06:59:55.131   03 Jun 2027 07:00:08.482            13.351               Magadan2           417.219
       228   03 Jun 2027 07:00:14.351   03 Jun 2027 07:00:22.156             7.805                Norilsk           243.906
       229   03 Jun 2027 07:00:29.990   03 Jun 2027 07:02:08.441            98.451                Novosib          3076.594
       230   03 Jun 2027 07:02:24.430   03 Jun 2027 07:02:56.641            32.211                Norilsk          1006.594
       231   03 Jun 2027 07:03:10.414   03 Jun 2027 07:03:27.768            17.354              Murmansk2           542.313
       232   03 Jun 2027 07:03:27.768   03 Jun 2027 07:03:44.425            16.657              Murmansk1           520.531
       233   03 Jun 2027 07:04:58.479   03 Jun 2027 07:05:04.804             6.325              Murmansk1           197.656
       234   03 Jun 2027 07:05:33.583   03 Jun 2027 07:05:37.277             3.694              Murmansk2           115.438
       235   03 Jun 2027 07:37:47.389   03 Jun 2027 07:38:26.199            38.810            RioGallegos          1212.812
       236   03 Jun 2027 07:39:19.980   03 Jun 2027 07:39:45.946            25.966            RioGallegos           811.438
       237   03 Jun 2027 08:12:15.183   03 Jun 2027 08:14:13.056           117.873                Sumatra          3683.531
       238   03 Jun 2027 08:21:37.625   03 Jun 2027 08:22:45.761            68.136                  Delhi          2129.250
       239   03 Jun 2027 08:22:58.596   03 Jun 2027 08:24:51.627           113.031                  Delhi          3532.219
       240   03 Jun 2027 08:33:08.491   03 Jun 2027 08:33:12.521             4.030                Novosib           125.938
       241   03 Jun 2027 08:33:18.321   03 Jun 2027 08:33:50.852            32.531                Norilsk          1016.594
       242   03 Jun 2027 08:33:55.127   03 Jun 2027 08:34:16.654            21.527                Irkutsk           672.719
       243   03 Jun 2027 08:34:17.056   03 Jun 2027 08:35:17.838            60.782                Norilsk          1899.437
       244   03 Jun 2027 08:35:25.807   03 Jun 2027 08:35:45.258            19.451                Norilsk           607.844
       245   03 Jun 2027 08:35:52.162   03 Jun 2027 08:36:01.860             9.698                Irkutsk           303.063
       246   03 Jun 2027 08:36:06.454   03 Jun 2027 08:36:45.951            39.497              Murmansk1          1234.281
       247   03 Jun 2027 08:36:51.496   03 Jun 2027 08:37:39.475            47.979                Irkutsk          1499.344
       248   03 Jun 2027 08:37:47.634   03 Jun 2027 08:38:53.278            65.644              Murmansk2          2051.375
       249   03 Jun 2027 08:39:25.969   03 Jun 2027 08:39:27.064             1.095                 Moscow            34.219
       250   03 Jun 2027 09:20:06.306   03 Jun 2027 09:20:58.723            52.417            RioGallegos          1638.031
       251   03 Jun 2027 09:56:47.071   03 Jun 2027 09:57:54.097            67.026                  Delhi          2094.562
       252   03 Jun 2027 09:59:18.611   03 Jun 2027 10:00:05.687            47.076                  Delhi          1471.125
       253   03 Jun 2027 10:09:32.857   03 Jun 2027 10:10:21.603            48.746              Murmansk2          1523.313
       254   03 Jun 2027 10:10:34.341   03 Jun 2027 10:11:35.847            61.506              Murmansk1          1922.062
       255   03 Jun 2027 10:11:41.259   03 Jun 2027 10:12:05.284            24.025              Murmansk2           750.781
       256   03 Jun 2027 10:12:18.470   03 Jun 2027 10:13:12.447            53.977                 Moscow          1686.781
       257   03 Jun 2027 10:13:23.280   03 Jun 2027 10:14:12.606            49.326              Murmansk1          1541.437
       258   03 Jun 2027 10:14:50.395   03 Jun 2027 10:15:25.390            34.995                 Moscow          1093.594
       259   03 Jun 2027 11:44:46.947   03 Jun 2027 11:45:33.107            46.160              Murmansk2          1442.500
       260   03 Jun 2027 11:46:14.727   03 Jun 2027 11:46:56.083            41.356                 Moscow          1292.375
       261   03 Jun 2027 11:47:09.912   03 Jun 2027 11:48:18.136            68.224                 Moscow          2132.000
       262   03 Jun 2027 11:48:36.331   03 Jun 2027 11:49:29.970            53.639                 Moscow          1676.219
       263   03 Jun 2027 11:54:41.418   03 Jun 2027 11:54:59.687            18.269                Norilsk           570.906
       264   03 Jun 2027 12:54:56.187   03 Jun 2027 12:58:19.088           202.901               CapeTown          6340.656
       265   03 Jun 2027 13:00:23.388   03 Jun 2027 13:00:43.655            20.267               CapeTown           633.344
       266   03 Jun 2027 13:21:41.861   03 Jun 2027 13:24:01.210           139.349              Murmansk2          4354.656
       267   03 Jun 2027 13:25:34.717   03 Jun 2027 13:26:32.176            57.459              Murmansk1          1795.594
       268   03 Jun 2027 13:28:16.263   03 Jun 2027 13:28:30.105            13.842              Murmansk1           432.563
       269   03 Jun 2027 13:29:56.254   03 Jun 2027 13:30:27.375            31.121              Murmansk2           972.531
       270   03 Jun 2027 13:35:11.555   03 Jun 2027 13:37:22.890           131.335                Anadyr2          4104.219
       271   03 Jun 2027 13:38:20.520   03 Jun 2027 13:39:18.448            57.928                Anadyr1          1810.250
       272   03 Jun 2027 13:41:06.030   03 Jun 2027 13:41:29.935            23.905                Anadyr2           747.031
       273   03 Jun 2027 13:43:10.602   03 Jun 2027 13:44:43.529            92.927                Anadyr2          2903.969
       274   03 Jun 2027 15:01:32.461   03 Jun 2027 15:02:30.522            58.061              Murmansk2          1814.406
       275   03 Jun 2027 15:05:20.968   03 Jun 2027 15:05:34.798            13.830              Murmansk1           432.188
       276   03 Jun 2027 15:08:15.411   03 Jun 2027 15:08:40.267            24.856              Murmansk2           776.750
       277   03 Jun 2027 15:10:50.595   03 Jun 2027 15:12:16.319            85.724                Anadyr2          2678.875
       278   03 Jun 2027 15:13:15.357   03 Jun 2027 15:14:28.023            72.666                Anadyr1          2270.813
       279   03 Jun 2027 15:14:40.047   03 Jun 2027 15:20:01.405           321.358               Magadan2         10042.438
       280   03 Jun 2027 16:47:55.289   03 Jun 2027 16:47:57.033             1.744                Anadyr2            54.500
       281   03 Jun 2027 16:48:09.295   03 Jun 2027 16:48:15.269             5.974                Anadyr2           186.688
       282   03 Jun 2027 16:49:04.801   03 Jun 2027 16:50:42.825            98.024               Magadan1          3063.250
       283   03 Jun 2027 16:52:39.747   03 Jun 2027 16:53:16.750            37.003               Magadan2          1156.344
       284   03 Jun 2027 16:56:19.706   03 Jun 2027 16:56:57.544            37.838               Magadan2          1182.438
       285   03 Jun 2027 16:57:35.391   03 Jun 2027 16:57:44.679             9.288               Magadan2           290.250
       286   03 Jun 2027 17:42:51.032   03 Jun 2027 17:45:42.827           171.795            RioGallegos          5368.594
       287   03 Jun 2027 17:46:52.266   03 Jun 2027 17:48:48.455           116.189            RioGallegos          3630.906
       288   03 Jun 2027 18:24:45.486   03 Jun 2027 18:26:02.304            76.818                Norilsk          2400.563
       289   03 Jun 2027 18:26:21.681   03 Jun 2027 18:28:05.146           103.465                Norilsk          3233.281
       290   03 Jun 2027 18:29:37.298   03 Jun 2027 18:30:20.455            43.157                Irkutsk          1348.656
       291   03 Jun 2027 18:31:14.036   03 Jun 2027 18:34:20.941           186.905                Irkutsk          5840.781
       292   03 Jun 2027 18:44:27.674   03 Jun 2027 18:48:38.625           250.951                Sumatra          7842.219
       293   03 Jun 2027 18:50:58.395   03 Jun 2027 18:53:07.238           128.843                Sumatra          4026.344
       294   03 Jun 2027 20:07:57.671   03 Jun 2027 20:08:54.971            57.300                Novosib          1790.625
       295   03 Jun 2027 20:14:51.261   03 Jun 2027 20:16:55.709           124.448                  Delhi          3889.000
       296   03 Jun 2027 20:18:31.377   03 Jun 2027 20:20:27.329           115.952                  Delhi          3623.500
       297   03 Jun 2027 21:39:26.660   03 Jun 2027 21:43:16.368           229.708              Murmansk2          7178.375
       298   03 Jun 2027 21:43:43.525   03 Jun 2027 21:44:55.244            71.719              Murmansk1          2241.219
       299   03 Jun 2027 23:13:01.794   03 Jun 2027 23:13:11.320             9.526               Magadan1           297.688
       300   03 Jun 2027 23:13:39.417   03 Jun 2027 23:13:51.147            11.730               Magadan2           366.563
       301   03 Jun 2027 23:14:34.971   03 Jun 2027 23:14:57.755            22.784               Magadan1           712.000
       302   03 Jun 2027 23:15:36.227   03 Jun 2027 23:18:54.301           198.074              Murmansk2          6189.812
       303   03 Jun 2027 23:19:11.019   03 Jun 2027 23:21:42.213           151.194                 Moscow          4724.812
       304   03 Jun 2027 23:22:22.632   03 Jun 2027 23:23:09.879            47.247                 Moscow          1476.469
       305   03 Jun 2027 23:44:24.905   03 Jun 2027 23:44:26.559             1.654               CapeTown            51.688
       306   03 Jun 2027 23:45:29.771   03 Jun 2027 23:46:55.703            85.932               CapeTown          2685.375
       307   03 Jun 2027 23:48:34.829   03 Jun 2027 23:50:32.643           117.814               CapeTown          3681.688
       308   04 Jun 2027 00:50:36.530   04 Jun 2027 00:51:55.089            78.559              Murmansk1          2454.969
       309   04 Jun 2027 00:53:49.350   04 Jun 2027 00:54:44.456            55.106                 Moscow          1722.063
       310   04 Jun 2027 00:57:40.679   04 Jun 2027 00:57:41.851             1.172                 Moscow            36.625
       311   04 Jun 2027 00:59:07.081   04 Jun 2027 01:01:08.777           121.696                 Moscow          3803.000
       312   04 Jun 2027 01:28:46.547   04 Jun 2027 01:29:14.544            27.997               CapeTown           874.906
       313   04 Jun 2027 02:14:29.237   04 Jun 2027 02:15:18.993            49.756                Anadyr1          1554.875
       314   04 Jun 2027 02:15:26.074   04 Jun 2027 02:16:24.984            58.910               Magadan1          1840.938
       315   04 Jun 2027 02:17:15.040   04 Jun 2027 02:17:40.217            25.177               Magadan2           786.781
       316   04 Jun 2027 02:18:34.496   04 Jun 2027 02:18:39.010             4.514               Magadan1           141.062
       317   04 Jun 2027 02:21:21.792   04 Jun 2027 02:21:43.266            21.474               Magadan1           671.063
       318   04 Jun 2027 02:23:17.167   04 Jun 2027 02:23:21.675             4.508                Norilsk           140.875
       319   04 Jun 2027 02:26:33.154   04 Jun 2027 02:27:45.621            72.467              Murmansk1          2264.594
       320   04 Jun 2027 02:28:44.543   04 Jun 2027 02:29:33.186            48.643              Murmansk2          1520.094
       321   04 Jun 2027 02:29:58.607   04 Jun 2027 02:30:24.323            25.716                 Moscow           803.625
       322   04 Jun 2027 02:31:47.406   04 Jun 2027 02:32:19.712            32.306                 Moscow          1009.562
       323   04 Jun 2027 02:37:24.839   04 Jun 2027 02:37:39.879            15.040                 Moscow           470.000
       324   04 Jun 2027 02:57:58.998   04 Jun 2027 02:59:46.628           107.630               CapeTown          3363.437
       325   04 Jun 2027 03:57:52.783   04 Jun 2027 03:59:16.433            83.650                Anadyr1          2614.063
       326   04 Jun 2027 03:59:36.945   04 Jun 2027 03:59:40.502             3.557               Magadan2           111.156
       327   04 Jun 2027 04:00:09.701   04 Jun 2027 04:00:10.371             0.670               Magadan2            20.937
       328   04 Jun 2027 04:00:14.788   04 Jun 2027 04:01:33.745            78.957               Magadan1          2467.406
       329   04 Jun 2027 04:01:33.745   04 Jun 2027 04:01:57.863            24.118               Magadan2           753.687
       330   04 Jun 2027 04:02:01.565   04 Jun 2027 04:03:07.059            65.494                Anadyr1          2046.688
       331   04 Jun 2027 04:40:36.185   04 Jun 2027 04:42:35.986           119.801            RioGallegos          3743.781
       332   04 Jun 2027 04:45:35.681   04 Jun 2027 04:47:32.512           116.831            RioGallegos          3650.969
       333   04 Jun 2027 04:48:59.010   04 Jun 2027 04:49:19.106            20.096            RioGallegos           628.000
       334   04 Jun 2027 05:32:08.937   04 Jun 2027 05:32:10.869             1.932                Irkutsk            60.375
       335   04 Jun 2027 05:33:26.024   04 Jun 2027 05:36:15.157           169.133               Magadan2          5285.406
       336   04 Jun 2027 05:36:22.529   04 Jun 2027 05:37:17.076            54.547                Anadyr1          1704.594
       337   04 Jun 2027 05:37:17.194   04 Jun 2027 05:37:52.619            35.425               Magadan2          1107.031
       338   04 Jun 2027 05:38:30.193   04 Jun 2027 05:39:08.189            37.996                Norilsk          1187.375
       339   04 Jun 2027 05:39:36.743   04 Jun 2027 05:39:57.214            20.471                Norilsk           639.719
       340   04 Jun 2027 05:40:27.018   04 Jun 2027 05:41:11.117            44.099                Norilsk          1378.094
       341   04 Jun 2027 05:41:12.052   04 Jun 2027 05:42:25.348            73.296                Norilsk          2290.500
       342   04 Jun 2027 06:13:34.867   04 Jun 2027 06:16:19.422           164.555            RioGallegos          5142.344
       343   04 Jun 2027 06:50:04.406   04 Jun 2027 06:52:54.897           170.491                Sumatra          5327.844
       344   04 Jun 2027 06:55:26.967   04 Jun 2027 06:56:44.084            77.117                Sumatra          2409.906
       345   04 Jun 2027 07:08:47.897   04 Jun 2027 07:09:10.661            22.764                Novosib           711.375
       346   04 Jun 2027 07:09:21.239   04 Jun 2027 07:10:12.343            51.104                Irkutsk          1597.000
       347   04 Jun 2027 07:10:16.430   04 Jun 2027 07:10:42.746            26.316                Novosib           822.375
       348   04 Jun 2027 07:10:53.443   04 Jun 2027 07:11:42.947            49.504                Novosib          1547.000
       349   04 Jun 2027 07:11:48.411   04 Jun 2027 07:12:16.774            28.363                Irkutsk           886.344
       350   04 Jun 2027 07:12:41.706   04 Jun 2027 07:13:21.354            39.648                Norilsk          1239.000
       351   04 Jun 2027 07:13:24.638   04 Jun 2027 07:13:26.704             2.066              Murmansk1            64.563
       352   04 Jun 2027 07:13:30.692   04 Jun 2027 07:14:14.164            43.472                Irkutsk          1358.500
       353   04 Jun 2027 07:14:21.435   04 Jun 2027 07:14:43.490            22.055              Murmansk2           689.219
       354   04 Jun 2027 07:15:15.726   04 Jun 2027 07:16:45.443            89.717              Murmansk1          2803.656
       355   04 Jun 2027 07:52:19.903   04 Jun 2027 07:52:48.371            28.468            RioGallegos           889.625
       356   04 Jun 2027 08:24:26.275   04 Jun 2027 08:25:54.567            88.292                Sumatra          2759.125
       357   04 Jun 2027 08:33:13.126   04 Jun 2027 08:35:09.988           116.862                  Delhi          3651.938
       358   04 Jun 2027 08:45:11.184   04 Jun 2027 08:45:47.511            36.327                Irkutsk          1135.219
       359   04 Jun 2027 08:45:51.730   04 Jun 2027 08:46:12.674            20.944                Irkutsk           654.500
       360   04 Jun 2027 08:46:13.494   04 Jun 2027 08:46:25.559            12.065              Murmansk2           377.031
       361   04 Jun 2027 08:46:28.368   04 Jun 2027 08:46:55.266            26.898              Murmansk2           840.563
       362   04 Jun 2027 08:47:02.421   04 Jun 2027 08:47:54.761            52.340                Novosib          1635.625
       363   04 Jun 2027 08:47:56.623   04 Jun 2027 08:48:09.638            13.015              Murmansk2           406.719
       364   04 Jun 2027 08:48:12.391   04 Jun 2027 08:48:13.196             0.805                Norilsk            25.156
       365   04 Jun 2027 08:48:14.240   04 Jun 2027 08:49:17.384            63.144                 Moscow          1973.250
       366   04 Jun 2027 08:49:22.459   04 Jun 2027 08:49:24.461             2.002                Novosib            62.562
       367   04 Jun 2027 08:49:24.636   04 Jun 2027 08:49:44.155            19.519                Irkutsk           609.969
       368   04 Jun 2027 08:49:50.723   04 Jun 2027 08:50:47.395            56.672              Murmansk2          1771.000
       369   04 Jun 2027 08:51:47.965   04 Jun 2027 08:52:22.738            34.773                 Moscow          1086.656
       370   04 Jun 2027 10:09:09.067   04 Jun 2027 10:10:52.746           103.679                  Delhi          3239.969
       371   04 Jun 2027 10:13:47.367   04 Jun 2027 10:13:57.395            10.028                  Delhi           313.375
       372   04 Jun 2027 10:18:42.175   04 Jun 2027 10:19:02.556            20.381                  Delhi           636.906
       373   04 Jun 2027 10:21:57.715   04 Jun 2027 10:22:47.121            49.406                 Moscow          1543.937
       374   04 Jun 2027 10:22:55.321   04 Jun 2027 10:23:46.880            51.559                 Moscow          1611.219
       375   04 Jun 2027 10:24:13.066   04 Jun 2027 10:24:58.815            45.749              Murmansk2          1429.656
       376   04 Jun 2027 10:25:09.158   04 Jun 2027 10:25:11.143             1.985              Murmansk2            62.031
       377   04 Jun 2027 10:25:17.132   04 Jun 2027 10:25:25.805             8.673                Novosib           271.031
       378   04 Jun 2027 10:25:30.365   04 Jun 2027 10:26:04.287            33.922              Murmansk1          1060.063
       379   04 Jun 2027 10:27:04.862   04 Jun 2027 10:27:45.521            40.659                 Moscow          1270.594
       380   04 Jun 2027 11:59:55.525   04 Jun 2027 12:01:00.033            64.508                 Moscow          2015.875
       381   04 Jun 2027 12:01:31.759   04 Jun 2027 12:01:54.561            22.802                 Moscow           712.562
       382   04 Jun 2027 12:02:11.632   04 Jun 2027 12:02:54.847            43.215                Norilsk          1350.469
       383   04 Jun 2027 12:04:19.907   04 Jun 2027 12:04:31.290            11.383                 Moscow           355.719
       384   04 Jun 2027 12:04:58.218   04 Jun 2027 12:05:04.887             6.669                Norilsk           208.406
       385   04 Jun 2027 12:05:15.059   04 Jun 2027 12:05:36.446            21.387              Murmansk1           668.344
       386   04 Jun 2027 12:05:44.012   04 Jun 2027 12:06:43.267            59.255                Norilsk          1851.719
       387   04 Jun 2027 12:08:41.218   04 Jun 2027 12:09:10.423            29.205              Murmansk2           912.656
       388   04 Jun 2027 12:13:29.733   04 Jun 2027 12:15:41.322           131.589                Anadyr2          4112.156
       389   04 Jun 2027 13:10:34.630   04 Jun 2027 13:10:37.540             2.910               CapeTown            90.937
       390   04 Jun 2027 13:15:09.024   04 Jun 2027 13:16:09.211            60.187               CapeTown          1880.844
       391   04 Jun 2027 13:17:06.615   04 Jun 2027 13:17:57.535            50.920               CapeTown          1591.250
       392   04 Jun 2027 13:34:03.287   04 Jun 2027 13:34:03.732             0.445              Murmansk2            13.906
       393   04 Jun 2027 13:34:29.541   04 Jun 2027 13:35:33.650            64.109              Murmansk1          2003.406
       394   04 Jun 2027 13:35:48.594   04 Jun 2027 13:36:16.902            28.308              Murmansk1           884.625
       395   04 Jun 2027 13:38:33.846   04 Jun 2027 13:38:35.578             1.732              Murmansk1            54.125
       396   04 Jun 2027 13:38:58.247   04 Jun 2027 13:39:05.749             7.502              Murmansk1           234.437
       397   04 Jun 2027 13:39:47.753   04 Jun 2027 13:40:31.276            43.523              Murmansk2          1360.094
       398   04 Jun 2027 13:43:09.445   04 Jun 2027 13:43:21.358            11.913              Murmansk1           372.281
       399   04 Jun 2027 13:47:08.464   04 Jun 2027 13:49:06.861           118.397                Anadyr1          3699.906
       400   04 Jun 2027 13:49:35.012   04 Jun 2027 13:50:33.804            58.792                Anadyr2          1837.250
       401   04 Jun 2027 13:51:17.745   04 Jun 2027 13:52:15.813            58.068                Anadyr2          1814.625
       402   04 Jun 2027 13:53:50.441   04 Jun 2027 13:55:11.120            80.679                Anadyr2          2521.219
       403   04 Jun 2027 15:14:25.434   04 Jun 2027 15:14:31.930             6.496              Murmansk2           203.000
       404   04 Jun 2027 15:14:48.113   04 Jun 2027 15:15:14.172            26.059              Murmansk1           814.344
       405   04 Jun 2027 15:18:25.057   04 Jun 2027 15:18:33.283             8.226              Murmansk1           257.062
       406   04 Jun 2027 15:18:44.877   04 Jun 2027 15:20:17.114            92.237              Murmansk2          2882.406
       407   04 Jun 2027 15:22:51.546   04 Jun 2027 15:23:47.729            56.183                Anadyr2          1755.719
       408   04 Jun 2027 15:25:45.356   04 Jun 2027 15:31:22.412           337.056               Magadan1         10533.000
       409   04 Jun 2027 16:59:20.706   04 Jun 2027 16:59:42.792            22.086                Anadyr1           690.187
       410   04 Jun 2027 17:01:04.657   04 Jun 2027 17:02:08.165            63.508               Magadan1          1984.625
       411   04 Jun 2027 17:03:20.634   04 Jun 2027 17:04:12.327            51.693               Magadan1          1615.406
       412   04 Jun 2027 17:04:17.659   04 Jun 2027 17:04:42.366            24.707               Magadan1           772.094
       413   04 Jun 2027 17:09:14.151   04 Jun 2027 17:09:28.728            14.577               Magadan1           455.531
       414   04 Jun 2027 17:10:52.527   04 Jun 2027 17:12:50.379           117.852               Magadan1          3682.875
       415   04 Jun 2027 17:54:13.919   04 Jun 2027 17:57:29.842           195.923            RioGallegos          6122.594
       416   04 Jun 2027 18:36:43.131   04 Jun 2027 18:38:14.335            91.204                Norilsk          2850.125
       417   04 Jun 2027 18:41:20.611   04 Jun 2027 18:44:06.629           166.018                Irkutsk          5188.062
       418   04 Jun 2027 18:44:43.334   04 Jun 2027 18:46:03.102            79.768                Irkutsk          2492.750
       419   04 Jun 2027 18:56:32.992   04 Jun 2027 18:58:38.383           125.391                Sumatra          3918.469
       420   04 Jun 2027 18:58:47.196   04 Jun 2027 19:00:18.772            91.576                Sumatra          2861.750
       421   04 Jun 2027 19:02:04.771   04 Jun 2027 19:03:03.037            58.266                Sumatra          1820.812
       422   04 Jun 2027 20:17:47.054   04 Jun 2027 20:20:00.878           133.824                Novosib          4182.000
       423   04 Jun 2027 20:25:51.466   04 Jun 2027 20:28:36.437           164.971                  Delhi          5155.344
       424   04 Jun 2027 20:30:21.655   04 Jun 2027 20:32:27.570           125.915                  Delhi          3934.844
       425   04 Jun 2027 21:51:15.516   04 Jun 2027 21:57:20.762           365.246              Murmansk2         11413.937
       426   04 Jun 2027 23:24:39.373   04 Jun 2027 23:25:19.234            39.861               Magadan1          1245.656
       427   04 Jun 2027 23:26:41.823   04 Jun 2027 23:28:11.104            89.281              Murmansk2          2790.031
       428   04 Jun 2027 23:28:15.990   04 Jun 2027 23:30:08.897           112.907              Murmansk1          3528.344
       429   04 Jun 2027 23:30:19.455   04 Jun 2027 23:31:28.514            69.059                 Moscow          2158.094
       430   04 Jun 2027 23:32:15.004   04 Jun 2027 23:33:01.062            46.058                 Moscow          1439.312
       431   04 Jun 2027 23:36:48.539   04 Jun 2027 23:37:01.960            13.421                 Moscow           419.406
       432   04 Jun 2027 23:38:37.496   04 Jun 2027 23:38:49.344            11.848                 Moscow           370.250
       433   04 Jun 2027 23:55:43.590   04 Jun 2027 23:57:10.868            87.278               CapeTown          2727.438
       434   05 Jun 2027 00:00:29.953   05 Jun 2027 00:01:04.376            34.423               CapeTown          1075.719
       435   05 Jun 2027 00:02:30.252   05 Jun 2027 00:02:55.308            25.056               CapeTown           783.000
       436   05 Jun 2027 01:01:35.622   05 Jun 2027 01:01:37.938             2.316                Norilsk            72.375
       437   05 Jun 2027 01:01:50.064   05 Jun 2027 01:02:08.721            18.657               Magadan2           583.031
       438   05 Jun 2027 01:02:38.212   05 Jun 2027 01:05:05.440           147.228              Murmansk2          4600.875
       439   05 Jun 2027 01:09:09.130   05 Jun 2027 01:09:30.374            21.244                 Moscow           663.875
       440   05 Jun 2027 01:16:46.601   05 Jun 2027 01:16:50.954             4.353                 Moscow           136.031
       441   05 Jun 2027 01:29:48.223   05 Jun 2027 01:31:23.336            95.113               CapeTown          2972.281
       442   05 Jun 2027 01:37:39.823   05 Jun 2027 01:37:58.008            18.185               CapeTown           568.281
       443   05 Jun 2027 01:41:52.124   05 Jun 2027 01:42:24.989            32.865               CapeTown          1027.031
       444   05 Jun 2027 02:26:35.158   05 Jun 2027 02:26:49.831            14.673                Anadyr2           458.531
       445   05 Jun 2027 02:27:00.276   05 Jun 2027 02:27:08.720             8.444                Anadyr1           263.875
       446   05 Jun 2027 02:27:10.291   05 Jun 2027 02:29:24.360           134.069               Magadan2          4189.656
       447   05 Jun 2027 02:32:52.419   05 Jun 2027 02:33:07.504            15.085               Magadan2           471.406
       448   05 Jun 2027 02:35:14.208   05 Jun 2027 02:35:23.601             9.393                Norilsk           293.531
       449   05 Jun 2027 02:36:11.002   05 Jun 2027 02:36:41.419            30.417               Magadan2           950.531
       450   05 Jun 2027 02:38:33.785   05 Jun 2027 02:38:38.085             4.300                Norilsk           134.375
       451   05 Jun 2027 02:39:06.704   05 Jun 2027 02:39:46.447            39.743              Murmansk2          1241.969
       452   05 Jun 2027 02:40:16.695   05 Jun 2027 02:40:57.373            40.678              Murmansk1          1271.187
       453   05 Jun 2027 02:41:51.780   05 Jun 2027 02:42:08.282            16.502              Murmansk1           515.688
       454   05 Jun 2027 02:42:24.828   05 Jun 2027 02:43:09.026            44.198                 Moscow          1381.188
       455   05 Jun 2027 02:46:20.621   05 Jun 2027 02:46:37.717            17.096                 Moscow           534.250
       456   05 Jun 2027 02:49:25.356   05 Jun 2027 02:49:34.984             9.628                 Moscow           300.875
       457   05 Jun 2027 02:51:30.340   05 Jun 2027 02:51:42.966            12.626                 Moscow           394.563
       458   05 Jun 2027 04:09:40.256   05 Jun 2027 04:09:45.646             5.390               Magadan1           168.437
       459   05 Jun 2027 04:10:11.048   05 Jun 2027 04:10:41.833            30.785               Magadan1           962.031
       460   05 Jun 2027 04:10:50.032   05 Jun 2027 04:11:44.400            54.368               Magadan1          1699.000
       461   05 Jun 2027 04:11:57.146   05 Jun 2027 04:12:12.187            15.041               Magadan2           470.031
       462   05 Jun 2027 04:12:17.445   05 Jun 2027 04:15:00.808           163.363               Magadan2          5105.094
       463   05 Jun 2027 04:53:06.801   05 Jun 2027 04:53:55.723            48.922            RioGallegos          1528.813
       464   05 Jun 2027 04:54:56.720   05 Jun 2027 04:55:51.399            54.679            RioGallegos          1708.719
       465   05 Jun 2027 04:56:59.267   05 Jun 2027 04:57:14.197            14.930            RioGallegos           466.562
       466   05 Jun 2027 04:57:58.428   05 Jun 2027 04:58:48.285            49.857            RioGallegos          1558.031
       467   05 Jun 2027 05:46:14.799   05 Jun 2027 05:46:54.290            39.491                Irkutsk          1234.094
       468   05 Jun 2027 05:47:21.695   05 Jun 2027 05:48:41.988            80.293                Irkutsk          2509.156
       469   05 Jun 2027 05:49:23.644   05 Jun 2027 05:50:30.818            67.174               Magadan1          2099.188
       470   05 Jun 2027 05:50:51.311   05 Jun 2027 05:51:01.454            10.143                Novosib           316.969
       471   05 Jun 2027 05:51:15.451   05 Jun 2027 05:51:37.031            21.580              Murmansk2           674.375
       472   05 Jun 2027 05:51:37.031   05 Jun 2027 05:51:39.863             2.832              Murmansk1            88.500
       473   05 Jun 2027 05:51:55.092   05 Jun 2027 05:52:16.048            20.956              Murmansk2           654.875
       474   05 Jun 2027 05:52:58.487   05 Jun 2027 05:53:32.426            33.939              Murmansk1          1060.594
       475   05 Jun 2027 05:54:27.124   05 Jun 2027 05:54:31.834             4.710                Norilsk           147.188
       476   05 Jun 2027 05:54:51.857   05 Jun 2027 05:55:08.403            16.546                Norilsk           517.063
       477   05 Jun 2027 05:57:54.019   05 Jun 2027 05:58:18.966            24.947              Murmansk2           779.594
       478   05 Jun 2027 06:25:28.740   05 Jun 2027 06:29:44.010           255.270            RioGallegos          7977.188
       479   05 Jun 2027 07:01:27.954   05 Jun 2027 07:04:43.701           195.747                Sumatra          6117.094
       480   05 Jun 2027 07:21:13.298   05 Jun 2027 07:21:38.093            24.795                Norilsk           774.844
       481   05 Jun 2027 07:22:15.933   05 Jun 2027 07:22:18.387             2.454                Novosib            76.687
       482   05 Jun 2027 07:22:20.395   05 Jun 2027 07:23:48.677            88.282                Novosib          2758.813
