uniorb/output/strategy_2/Drop/Drop_KinoSat_110607.txt

KinoSat_110607
-------------------------
    Access    *     Start Time (UTCG)     *     Stop Time (UTCG)  *   Duration (s)        *       Station  *  Data (Mbytes)
         1   01 Jun 2027 03:25:19.721   01 Jun 2027 03:26:29.602            69.881                Anadyr2          2183.781
         2   01 Jun 2027 03:27:01.975   01 Jun 2027 03:28:29.002            87.027                Anadyr2          2719.594
         3   01 Jun 2027 03:28:33.749   01 Jun 2027 03:29:24.127            50.378                Anadyr2          1574.313
         4   01 Jun 2027 03:29:33.412   01 Jun 2027 03:29:48.046            14.634                Anadyr2           457.313
         5   01 Jun 2027 03:29:51.274   01 Jun 2027 03:31:20.347            89.073                Anadyr2          2783.531
         6   01 Jun 2027 04:14:04.648   01 Jun 2027 04:14:54.404            49.756            RioGallegos          1554.875
         7   01 Jun 2027 04:58:07.239   01 Jun 2027 04:59:13.647            66.408                Irkutsk          2075.250
         8   01 Jun 2027 05:01:23.196   01 Jun 2027 05:03:17.960           114.764                Irkutsk          3586.375
         9   01 Jun 2027 05:04:51.914   01 Jun 2027 05:04:52.072             0.158                Anadyr2             4.938
        10   01 Jun 2027 05:05:10.820   01 Jun 2027 05:06:49.194            98.374               Magadan2          3074.187
        11   01 Jun 2027 05:41:47.555   01 Jun 2027 05:47:02.818           315.263            RioGallegos          9851.969
        12   01 Jun 2027 06:18:13.015   01 Jun 2027 06:26:11.163           478.148                Sumatra         14942.125
        13   01 Jun 2027 06:37:29.052   01 Jun 2027 06:38:06.601            37.549                Novosib          1173.406
        14   01 Jun 2027 06:39:14.647   01 Jun 2027 06:39:49.941            35.294                Novosib          1102.937
        15   01 Jun 2027 06:40:34.612   01 Jun 2027 06:41:21.261            46.649                Novosib          1457.781
        16   01 Jun 2027 06:41:23.821   01 Jun 2027 06:42:21.336            57.515                Irkutsk          1797.344
        17   01 Jun 2027 06:42:50.734   01 Jun 2027 06:43:16.036            25.302                Novosib           790.688
        18   01 Jun 2027 06:46:28.817   01 Jun 2027 06:47:01.872            33.055                Norilsk          1032.969
        19   01 Jun 2027 07:24:15.721   01 Jun 2027 07:24:21.914             6.193            RioGallegos           193.531
        20   01 Jun 2027 07:25:48.540   01 Jun 2027 07:26:58.401            69.861            RioGallegos          2183.156
        21   01 Jun 2027 07:52:41.605   01 Jun 2027 07:53:58.520            76.915                Sumatra          2403.594
        22   01 Jun 2027 07:56:20.901   01 Jun 2027 07:57:44.197            83.296                Sumatra          2603.000
        23   01 Jun 2027 08:01:24.227   01 Jun 2027 08:03:07.401           103.174                  Delhi          3224.187
        24   01 Jun 2027 08:05:08.164   01 Jun 2027 08:06:41.087            92.923                  Delhi          2903.844
        25   01 Jun 2027 08:15:31.587   01 Jun 2027 08:15:54.875            23.288                Novosib           727.750
        26   01 Jun 2027 08:16:24.402   01 Jun 2027 08:16:57.749            33.347                 Moscow          1042.094
        27   01 Jun 2027 08:17:28.546   01 Jun 2027 08:17:29.929             1.383                Norilsk            43.219
        28   01 Jun 2027 08:17:35.384   01 Jun 2027 08:17:36.475             1.091                 Moscow            34.094
        29   01 Jun 2027 08:17:39.959   01 Jun 2027 08:18:18.494            38.535                Norilsk          1204.219
        30   01 Jun 2027 08:18:28.059   01 Jun 2027 08:19:18.845            50.786                Novosib          1587.062
        31   01 Jun 2027 08:19:21.954   01 Jun 2027 08:21:11.992           110.038                 Moscow          3438.688
        32   01 Jun 2027 08:21:12.874   01 Jun 2027 08:21:41.206            28.332                Norilsk           885.375
        33   01 Jun 2027 08:21:45.354   01 Jun 2027 08:22:10.366            25.012              Murmansk1           781.625
        34   01 Jun 2027 08:22:10.366   01 Jun 2027 08:22:35.530            25.164              Murmansk2           786.375
        35   01 Jun 2027 08:22:49.429   01 Jun 2027 08:23:35.318            45.889              Murmansk2          1434.031
        36   01 Jun 2027 08:24:56.867   01 Jun 2027 08:25:31.640            34.773              Murmansk1          1086.656
        37   01 Jun 2027 09:37:25.799   01 Jun 2027 09:41:27.493           241.694                  Delhi          7552.937
        38   01 Jun 2027 09:43:44.162   01 Jun 2027 09:44:20.379            36.217                  Delhi          1131.781
        39   01 Jun 2027 09:51:30.249   01 Jun 2027 09:52:03.430            33.181                 Moscow          1036.906
        40   01 Jun 2027 09:52:48.355   01 Jun 2027 09:55:54.414           186.059              Murmansk1          5814.344
        41   01 Jun 2027 09:55:55.550   01 Jun 2027 09:56:18.550            23.000              Murmansk2           718.750
        42   01 Jun 2027 09:56:47.881   01 Jun 2027 09:57:21.199            33.318                 Moscow          1041.187
        43   01 Jun 2027 09:58:22.354   01 Jun 2027 09:58:47.340            24.986              Murmansk2           780.812
        44   01 Jun 2027 11:41:33.607   01 Jun 2027 11:44:09.729           156.122                Anadyr1          4878.813
        45   01 Jun 2027 12:37:11.182   01 Jun 2027 12:38:52.549           101.367               CapeTown          3167.719
        46   01 Jun 2027 13:15:21.803   01 Jun 2027 13:19:37.949           256.146                Anadyr2          8004.562
        47   01 Jun 2027 13:20:21.513   01 Jun 2027 13:20:51.446            29.933                Anadyr2           935.406
        48   01 Jun 2027 14:42:38.717   01 Jun 2027 14:44:01.323            82.606              Murmansk2          2581.437
        49   01 Jun 2027 14:51:05.272   01 Jun 2027 14:53:38.454           153.182                Anadyr1          4786.938
        50   01 Jun 2027 14:53:57.940   01 Jun 2027 15:03:26.179           568.239               Magadan2         17757.469
        51   01 Jun 2027 16:29:18.275   01 Jun 2027 16:30:56.451            98.176               Magadan2          3068.000
        52   01 Jun 2027 17:22:24.132   01 Jun 2027 17:30:04.562           460.430            RioGallegos         14388.437
        53   01 Jun 2027 18:05:39.035   01 Jun 2027 18:10:24.806           285.771                Norilsk          8930.344
        54   01 Jun 2027 18:12:41.300   01 Jun 2027 18:17:33.516           292.216                Irkutsk          9131.750
        55   01 Jun 2027 18:26:48.405   01 Jun 2027 18:31:20.565           272.160                Sumatra          8505.000
        56   01 Jun 2027 19:46:38.254   01 Jun 2027 19:48:11.537            93.283                Novosib          2915.094
        57   01 Jun 2027 19:53:59.649   01 Jun 2027 20:02:27.934           508.285                  Delhi         15883.906
        58   01 Jun 2027 21:19:28.180   01 Jun 2027 21:26:05.229           397.049              Murmansk2         12407.781
        59   01 Jun 2027 23:23:52.837   01 Jun 2027 23:26:24.359           151.522               CapeTown          4735.062
        60   01 Jun 2027 23:28:05.557   01 Jun 2027 23:31:04.654           179.097               CapeTown          5596.781
        61   02 Jun 2027 00:58:02.823   02 Jun 2027 00:58:43.367            40.544               CapeTown          1267.000
        62   02 Jun 2027 01:00:18.399   02 Jun 2027 01:01:07.127            48.728               CapeTown          1522.750
        63   02 Jun 2027 01:04:57.260   02 Jun 2027 01:06:02.855            65.595               CapeTown          2049.844
        64   02 Jun 2027 01:54:49.595   02 Jun 2027 01:54:53.646             4.051                Anadyr1           126.594
        65   02 Jun 2027 01:55:22.112   02 Jun 2027 01:56:45.903            83.791               Magadan1          2618.469
        66   02 Jun 2027 01:57:38.283   02 Jun 2027 01:58:16.333            38.050               Magadan2          1189.062
        67   02 Jun 2027 02:03:06.982   02 Jun 2027 02:03:35.867            28.885                Norilsk           902.656
        68   02 Jun 2027 02:04:58.172   02 Jun 2027 02:05:10.935            12.763                Norilsk           398.844
        69   02 Jun 2027 02:06:38.844   02 Jun 2027 02:06:55.438            16.594                Norilsk           518.562
        70   02 Jun 2027 02:06:59.933   02 Jun 2027 02:07:55.391            55.458              Murmansk1          1733.062
        71   02 Jun 2027 02:08:26.159   02 Jun 2027 02:08:35.249             9.090              Murmansk2           284.063
        72   02 Jun 2027 02:08:49.050   02 Jun 2027 02:09:36.496            47.446              Murmansk2          1482.688
        73   02 Jun 2027 02:10:18.049   02 Jun 2027 02:11:09.513            51.464                 Moscow          1608.250
        74   02 Jun 2027 02:15:00.202   02 Jun 2027 02:15:54.323            54.121                 Moscow          1691.281
        75   02 Jun 2027 02:20:46.559   02 Jun 2027 02:20:54.492             7.933                 Moscow           247.906
        76   02 Jun 2027 03:37:53.566   02 Jun 2027 03:37:59.913             6.347               Magadan2           198.344
        77   02 Jun 2027 03:38:11.643   02 Jun 2027 03:39:02.429            50.786                Anadyr2          1587.062
        78   02 Jun 2027 03:39:06.556   02 Jun 2027 03:39:58.623            52.067               Magadan2          1627.094
        79   02 Jun 2027 03:40:29.782   02 Jun 2027 03:40:59.013            29.231                Anadyr2           913.469
        80   02 Jun 2027 03:42:02.084   02 Jun 2027 03:42:16.975            14.891                Anadyr2           465.344
        81   02 Jun 2027 03:42:16.975   02 Jun 2027 03:43:17.625            60.650                Anadyr1          1895.313
        82   02 Jun 2027 04:23:58.968   02 Jun 2027 04:25:27.908            88.940            RioGallegos          2779.375
        83   02 Jun 2027 05:10:06.132   02 Jun 2027 05:11:00.354            54.222                Irkutsk          1694.437
        84   02 Jun 2027 05:14:43.039   02 Jun 2027 05:15:28.566            45.527               Magadan1          1422.719
        85   02 Jun 2027 05:15:44.857   02 Jun 2027 05:15:57.718            12.861                Norilsk           401.906
        86   02 Jun 2027 05:16:03.212   02 Jun 2027 05:18:43.599           160.387               Magadan1          5012.094
        87   02 Jun 2027 05:23:56.105   02 Jun 2027 05:24:05.394             9.289                Norilsk           290.281
        88   02 Jun 2027 05:53:41.802   02 Jun 2027 06:00:00.379           378.577            RioGallegos         11830.531
        89   02 Jun 2027 06:02:25.244   02 Jun 2027 06:02:57.582            32.338            RioGallegos          1010.562
        90   02 Jun 2027 06:29:37.936   02 Jun 2027 06:30:39.004            61.068                Sumatra          1908.375
        91   02 Jun 2027 06:33:01.932   02 Jun 2027 06:36:42.932           221.000                Sumatra          6906.250
        92   02 Jun 2027 06:49:27.007   02 Jun 2027 06:49:39.036            12.029                Irkutsk           375.906
        93   02 Jun 2027 06:49:56.460   02 Jun 2027 06:50:45.147            48.687                Novosib          1521.469
        94   02 Jun 2027 06:52:34.336   02 Jun 2027 06:53:01.708            27.372                Irkutsk           855.375
        95   02 Jun 2027 06:53:09.241   02 Jun 2027 06:53:46.111            36.870                Novosib          1152.187
        96   02 Jun 2027 06:54:24.516   02 Jun 2027 06:56:40.710           136.194              Murmansk1          4256.063
        97   02 Jun 2027 06:57:05.650   02 Jun 2027 06:57:17.240            11.590              Murmansk1           362.188
        98   02 Jun 2027 06:57:17.240   02 Jun 2027 06:57:27.516            10.276              Murmansk2           321.125
        99   02 Jun 2027 06:57:42.475   02 Jun 2027 06:57:51.665             9.190              Murmansk1           287.187
       100   02 Jun 2027 06:58:23.776   02 Jun 2027 06:58:58.792            35.016                Norilsk          1094.250
       101   02 Jun 2027 07:01:04.690   02 Jun 2027 07:01:17.367            12.677              Murmansk1           396.156
       102   02 Jun 2027 07:30:46.388   02 Jun 2027 07:32:26.230            99.842            RioGallegos          3120.062
       103   02 Jun 2027 07:32:33.311   02 Jun 2027 07:32:42.266             8.955            RioGallegos           279.844
       104   02 Jun 2027 07:33:09.713   02 Jun 2027 07:33:57.106            47.393            RioGallegos          1481.031
       105   02 Jun 2027 07:35:43.910   02 Jun 2027 07:36:04.848            20.938            RioGallegos           654.312
       106   02 Jun 2027 07:37:09.797   02 Jun 2027 07:37:33.615            23.818            RioGallegos           744.313
       107   02 Jun 2027 07:39:28.234   02 Jun 2027 07:40:00.572            32.338            RioGallegos          1010.563
       108   02 Jun 2027 08:05:00.245   02 Jun 2027 08:05:45.486            45.241                Sumatra          1413.781
       109   02 Jun 2027 08:07:00.874   02 Jun 2027 08:07:33.177            32.303                Sumatra          1009.469
       110   02 Jun 2027 08:09:20.215   02 Jun 2027 08:09:39.172            18.957                Sumatra           592.406
       111   02 Jun 2027 08:11:45.065   02 Jun 2027 08:11:52.194             7.129                Sumatra           222.781
       112   02 Jun 2027 08:13:06.777   02 Jun 2027 08:15:44.355           157.578                  Delhi          4924.312
       113   02 Jun 2027 08:17:08.584   02 Jun 2027 08:17:21.534            12.950                  Delhi           404.688
       114   02 Jun 2027 08:27:53.412   02 Jun 2027 08:28:23.103            29.691                Norilsk           927.844
       115   02 Jun 2027 08:28:27.940   02 Jun 2027 08:28:43.508            15.568                Norilsk           486.500
       116   02 Jun 2027 08:28:53.238   02 Jun 2027 08:29:21.364            28.126                Norilsk           878.937
       117   02 Jun 2027 08:29:25.170   02 Jun 2027 08:29:30.364             5.194                Norilsk           162.313
       118   02 Jun 2027 08:29:33.082   02 Jun 2027 08:29:41.737             8.655                Irkutsk           270.469
       119   02 Jun 2027 08:29:45.949   02 Jun 2027 08:31:10.594            84.645              Murmansk1          2645.156
       120   02 Jun 2027 08:33:23.352   02 Jun 2027 08:33:41.652            18.300              Murmansk2           571.875
       121   02 Jun 2027 09:49:57.081   02 Jun 2027 09:52:24.942           147.861                  Delhi          4620.656
       122   02 Jun 2027 09:53:50.784   02 Jun 2027 09:54:18.028            27.244                  Delhi           851.375
       123   02 Jun 2027 10:02:21.665   02 Jun 2027 10:03:06.289            44.624              Murmansk1          1394.500
       124   02 Jun 2027 10:03:10.380   02 Jun 2027 10:03:51.302            40.922                Novosib          1278.812
       125   02 Jun 2027 10:03:55.958   02 Jun 2027 10:04:55.264            59.306              Murmansk2          1853.312
       126   02 Jun 2027 10:05:03.019   02 Jun 2027 10:05:09.477             6.458              Murmansk1           201.812
       127   02 Jun 2027 10:05:14.663   02 Jun 2027 10:05:43.670            29.007              Murmansk1           906.469
       128   02 Jun 2027 10:06:13.043   02 Jun 2027 10:06:20.328             7.285                Norilsk           227.656
       129   02 Jun 2027 10:06:56.103   02 Jun 2027 10:07:56.050            59.947              Murmansk1          1873.344
       130   02 Jun 2027 11:52:47.228   02 Jun 2027 11:57:37.227           289.999                Anadyr2          9062.469
       131   02 Jun 2027 13:14:43.619   02 Jun 2027 13:15:29.788            46.169              Murmansk1          1442.781
       132   02 Jun 2027 13:15:47.874   02 Jun 2027 13:16:29.145            41.271              Murmansk1          1289.719
       133   02 Jun 2027 13:17:16.154   02 Jun 2027 13:18:19.766            63.612              Murmansk1          1987.875
       134   02 Jun 2027 13:27:19.751   02 Jun 2027 13:28:42.566            82.815                Anadyr1          2587.969
       135   02 Jun 2027 13:28:42.566   02 Jun 2027 13:29:34.069            51.503                Anadyr2          1609.469
       136   02 Jun 2027 13:30:27.344   02 Jun 2027 13:32:56.594           149.250                Anadyr2          4664.062
       137   02 Jun 2027 13:34:30.234   02 Jun 2027 13:35:01.507            31.273                Anadyr2           977.281
       138   02 Jun 2027 14:55:32.840   02 Jun 2027 14:56:13.628            40.788              Murmansk1          1274.625
       139   02 Jun 2027 15:03:06.393   02 Jun 2027 15:04:16.565            70.172                Anadyr2          2192.875
       140   02 Jun 2027 15:05:20.489   02 Jun 2027 15:06:22.677            62.188                Anadyr2          1943.375
       141   02 Jun 2027 15:06:25.721   02 Jun 2027 15:11:32.943           307.222               Magadan2          9600.688
       142   02 Jun 2027 15:13:32.649   02 Jun 2027 15:16:24.973           172.324               Magadan1          5385.125
       143   02 Jun 2027 16:41:18.666   02 Jun 2027 16:42:36.949            78.283               Magadan1          2446.344
       144   02 Jun 2027 16:45:42.879   02 Jun 2027 16:46:39.425            56.546               Magadan2          1767.062
       145   02 Jun 2027 17:34:00.206   02 Jun 2027 17:40:35.584           395.378            RioGallegos         12355.563
       146   02 Jun 2027 18:16:55.378   02 Jun 2027 18:22:06.802           311.424                Norilsk          9732.000
       147   02 Jun 2027 18:22:35.700   02 Jun 2027 18:23:16.688            40.988                Irkutsk          1280.875
       148   02 Jun 2027 18:24:43.440   02 Jun 2027 18:25:16.155            32.715                Irkutsk          1022.344
       149   02 Jun 2027 18:35:24.210   02 Jun 2027 18:38:59.355           215.145                Sumatra          6723.281
       150   02 Jun 2027 18:40:31.817   02 Jun 2027 18:42:12.797           100.980                Sumatra          3155.625
       151   02 Jun 2027 19:58:26.392   02 Jun 2027 19:59:30.848            64.456                Novosib          2014.250
       152   02 Jun 2027 20:05:22.309   02 Jun 2027 20:12:42.601           440.292                  Delhi         13759.125
       153   02 Jun 2027 21:31:21.132   02 Jun 2027 21:38:49.645           448.513              Murmansk2         14016.031
       154   02 Jun 2027 23:10:26.706   02 Jun 2027 23:11:45.868            79.162                 Moscow          2473.813
       155   02 Jun 2027 23:35:20.879   02 Jun 2027 23:38:39.972           199.093               CapeTown          6221.656
       156   02 Jun 2027 23:40:48.747   02 Jun 2027 23:42:08.999            80.252               CapeTown          2507.875
       157   03 Jun 2027 00:50:35.613   03 Jun 2027 00:50:35.924             0.311                 Moscow             9.719
       158   03 Jun 2027 00:52:19.305   03 Jun 2027 00:52:25.409             6.104                 Moscow           190.750
       159   03 Jun 2027 00:53:06.232   03 Jun 2027 00:54:19.102            72.870                 Moscow          2277.187
       160   03 Jun 2027 01:10:14.412   03 Jun 2027 01:11:25.334            70.922               CapeTown          2216.313
       161   03 Jun 2027 01:19:19.321   03 Jun 2027 01:20:02.416            43.095               CapeTown          1346.719
       162   03 Jun 2027 02:07:08.592   03 Jun 2027 02:08:41.736            93.144               Magadan1          2910.750
       163   03 Jun 2027 02:12:06.626   03 Jun 2027 02:12:26.647            20.021               Magadan2           625.656
       164   03 Jun 2027 02:14:55.700   03 Jun 2027 02:15:21.739            26.039               Magadan2           813.719
       165   03 Jun 2027 02:16:52.542   03 Jun 2027 02:16:59.494             6.952                Norilsk           217.250
       166   03 Jun 2027 02:18:44.699   03 Jun 2027 02:18:51.422             6.723                Norilsk           210.094
       167   03 Jun 2027 02:19:00.552   03 Jun 2027 02:20:10.823            70.271                Norilsk          2195.969
       168   03 Jun 2027 02:20:59.289   03 Jun 2027 02:21:00.940             1.651              Murmansk1            51.594
       169   03 Jun 2027 02:21:23.652   03 Jun 2027 02:21:26.885             3.233              Murmansk1           101.031
       170   03 Jun 2027 02:22:23.916   03 Jun 2027 02:23:50.927            87.011                 Moscow          2719.094
       171   03 Jun 2027 02:29:25.682   03 Jun 2027 02:29:47.136            21.454                 Moscow           670.438
       172   03 Jun 2027 02:32:20.008   03 Jun 2027 02:32:29.184             9.176                 Moscow           286.750
       173   03 Jun 2027 03:46:46.168   03 Jun 2027 03:46:58.041            11.873               Magadan1           371.031
       174   03 Jun 2027 03:49:56.315   03 Jun 2027 03:49:59.493             3.178               Magadan2            99.313
       175   03 Jun 2027 03:50:24.576   03 Jun 2027 03:50:35.271            10.695               Magadan2           334.219
       176   03 Jun 2027 03:50:35.271   03 Jun 2027 03:50:58.651            23.380               Magadan1           730.625
       177   03 Jun 2027 03:51:07.518   03 Jun 2027 03:52:05.423            57.905               Magadan1          1809.531
       178   03 Jun 2027 03:52:30.813   03 Jun 2027 03:53:09.658            38.845                Anadyr2          1213.906
       179   03 Jun 2027 03:53:09.658   03 Jun 2027 03:54:59.295           109.637                Anadyr1          3426.156
       180   03 Jun 2027 03:54:59.295   03 Jun 2027 03:55:13.783            14.488                Anadyr2           452.750
       181   03 Jun 2027 04:34:52.075   03 Jun 2027 04:36:24.125            92.050            RioGallegos          2876.562
       182   03 Jun 2027 05:22:23.337   03 Jun 2027 05:22:50.103            26.766                Irkutsk           836.437
       183   03 Jun 2027 05:27:00.055   03 Jun 2027 05:28:00.298            60.243               Magadan2          1882.594
       184   03 Jun 2027 05:28:00.298   03 Jun 2027 05:28:04.048             3.750               Magadan1           117.187
       185   03 Jun 2027 05:28:12.868   03 Jun 2027 05:29:36.802            83.934               Magadan2          2622.938
       186   03 Jun 2027 05:29:45.079   03 Jun 2027 05:29:55.151            10.072                Irkutsk           314.750
       187   03 Jun 2027 05:30:00.370   03 Jun 2027 05:30:31.088            30.718               Magadan2           959.938
       188   03 Jun 2027 05:30:31.088   03 Jun 2027 05:30:36.155             5.067               Magadan1           158.344
       189   03 Jun 2027 05:38:00.071   03 Jun 2027 05:38:09.421             9.350              Murmansk1           292.187
       190   03 Jun 2027 06:05:39.251   03 Jun 2027 06:07:42.587           123.336            RioGallegos          3854.250
       191   03 Jun 2027 06:08:56.429   03 Jun 2027 06:09:19.735            23.306            RioGallegos           728.313
       192   03 Jun 2027 06:09:48.954   03 Jun 2027 06:10:14.614            25.660            RioGallegos           801.875
       193   03 Jun 2027 06:10:31.295   03 Jun 2027 06:10:41.710            10.415            RioGallegos           325.469
       194   03 Jun 2027 06:11:11.017   03 Jun 2027 06:11:58.981            47.964            RioGallegos          1498.875
       195   03 Jun 2027 06:13:17.137   03 Jun 2027 06:13:58.828            41.691            RioGallegos          1302.844
       196   03 Jun 2027 06:15:07.066   03 Jun 2027 06:15:14.079             7.013            RioGallegos           219.156
       197   03 Jun 2027 06:41:12.591   03 Jun 2027 06:44:58.183           225.592                Sumatra          7049.750
       198   03 Jun 2027 06:45:41.043   03 Jun 2027 06:46:34.789            53.746                Sumatra          1679.563
       199   03 Jun 2027 06:47:02.931   03 Jun 2027 06:47:47.833            44.902                Sumatra          1403.188
       200   03 Jun 2027 06:55:21.539   03 Jun 2027 06:57:29.237           127.698                  Delhi          3990.562
       201   03 Jun 2027 07:01:33.790   03 Jun 2027 07:01:43.108             9.318                Norilsk           291.188
       202   03 Jun 2027 07:01:58.587   03 Jun 2027 07:02:20.063            21.476                Norilsk           671.125
       203   03 Jun 2027 07:02:27.963   03 Jun 2027 07:02:40.943            12.980                Irkutsk           405.625
       204   03 Jun 2027 07:02:56.641   03 Jun 2027 07:03:29.182            32.541                Norilsk          1016.906
       205   03 Jun 2027 07:03:31.530   03 Jun 2027 07:03:42.742            11.212                Norilsk           350.375
       206   03 Jun 2027 07:03:44.425   03 Jun 2027 07:04:58.479            74.054              Murmansk1          2314.188
       207   03 Jun 2027 07:05:04.804   03 Jun 2027 07:05:37.277            32.473              Murmansk1          1014.781
       208   03 Jun 2027 07:05:37.277   03 Jun 2027 07:06:11.680            34.403              Murmansk2          1075.094
       209   03 Jun 2027 07:06:15.782   03 Jun 2027 07:06:58.044            42.262                Novosib          1320.687
       210   03 Jun 2027 07:07:11.735   03 Jun 2027 07:08:05.058            53.323              Murmansk2          1666.344
       211   03 Jun 2027 07:43:24.832   03 Jun 2027 07:44:17.365            52.533            RioGallegos          1641.656
       212   03 Jun 2027 08:17:27.237   03 Jun 2027 08:17:38.473            11.236                Sumatra           351.125
       213   03 Jun 2027 08:18:36.659   03 Jun 2027 08:20:00.634            83.975                Sumatra          2624.219
       214   03 Jun 2027 08:24:55.038   03 Jun 2027 08:28:25.623           210.585                  Delhi          6580.781
       215   03 Jun 2027 08:38:36.440   03 Jun 2027 08:38:48.027            11.587                Novosib           362.094
       216   03 Jun 2027 08:38:53.278   03 Jun 2027 08:39:21.631            28.353              Murmansk1           886.031
       217   03 Jun 2027 08:39:22.751   03 Jun 2027 08:39:57.328            34.577              Murmansk2          1080.531
       218   03 Jun 2027 08:40:09.455   03 Jun 2027 08:40:14.088             4.633                Novosib           144.781
       219   03 Jun 2027 08:40:16.387   03 Jun 2027 08:40:34.735            18.348                Norilsk           573.375
       220   03 Jun 2027 08:40:37.443   03 Jun 2027 08:40:54.268            16.825                Norilsk           525.781
       221   03 Jun 2027 08:41:03.380   03 Jun 2027 08:41:22.374            18.994                Norilsk           593.562
       222   03 Jun 2027 08:41:24.739   03 Jun 2027 08:41:30.121             5.382                Novosib           168.188
       223   03 Jun 2027 08:41:37.653   03 Jun 2027 08:41:37.909             0.256                Novosib             8.000
       224   03 Jun 2027 08:41:42.323   03 Jun 2027 08:42:27.032            44.709              Murmansk2          1397.156
       225   03 Jun 2027 08:42:27.032   03 Jun 2027 08:42:58.381            31.349              Murmansk1           979.656
       226   03 Jun 2027 10:02:39.440   03 Jun 2027 10:05:49.987           190.547                  Delhi          5954.594
       227   03 Jun 2027 10:14:10.655   03 Jun 2027 10:14:50.395            39.740                 Moscow          1241.875
       228   03 Jun 2027 10:15:07.564   03 Jun 2027 10:15:10.768             3.204              Murmansk2           100.125
       229   03 Jun 2027 10:15:12.908   03 Jun 2027 10:15:13.772             0.864                Novosib            27.000
       230   03 Jun 2027 10:15:17.958   03 Jun 2027 10:15:56.834            38.876              Murmansk1          1214.875
       231   03 Jun 2027 10:16:15.637   03 Jun 2027 10:16:52.245            36.608                 Moscow          1144.000
       232   03 Jun 2027 10:17:03.183   03 Jun 2027 10:17:08.833             5.650              Murmansk2           176.563
       233   03 Jun 2027 10:17:15.524   03 Jun 2027 10:17:36.350            20.826              Murmansk2           650.813
       234   03 Jun 2027 10:18:04.606   03 Jun 2027 10:18:14.433             9.827                 Moscow           307.094
       235   03 Jun 2027 10:18:19.180   03 Jun 2027 10:18:52.725            33.545                Novosib          1048.281
       236   03 Jun 2027 10:18:53.256   03 Jun 2027 10:19:29.561            36.305              Murmansk1          1134.531
       237   03 Jun 2027 10:19:33.312   03 Jun 2027 10:20:14.024            40.712                 Moscow          1272.250
       238   03 Jun 2027 11:27:16.913   03 Jun 2027 11:29:54.778           157.865               CapeTown          4933.281
       239   03 Jun 2027 12:04:23.358   03 Jun 2027 12:10:39.668           376.310                Anadyr2         11759.687
       240   03 Jun 2027 13:39:18.448   03 Jun 2027 13:40:50.234            91.786                Anadyr1          2868.313
       241   03 Jun 2027 13:41:29.935   03 Jun 2027 13:43:10.602           100.667                Anadyr2          3145.844
       242   03 Jun 2027 13:48:08.107   03 Jun 2027 13:48:52.379            44.272                Anadyr2          1383.500
       243   03 Jun 2027 15:08:38.886   03 Jun 2027 15:10:01.774            82.888              Murmansk1          2590.250
       244   03 Jun 2027 15:11:43.753   03 Jun 2027 15:12:06.116            22.363              Murmansk1           698.844
       245   03 Jun 2027 15:15:07.620   03 Jun 2027 15:16:16.668            69.048                Anadyr1          2157.750
       246   03 Jun 2027 15:17:09.308   03 Jun 2027 15:17:27.074            17.766                Anadyr2           555.188
       247   03 Jun 2027 15:17:44.510   03 Jun 2027 15:23:36.449           351.939               Magadan1         10998.094
       248   03 Jun 2027 15:26:10.210   03 Jun 2027 15:27:15.526            65.316               Magadan1          2041.125
       249   03 Jun 2027 16:53:19.478   03 Jun 2027 16:55:28.633           129.155               Magadan1          4036.094
       250   03 Jun 2027 17:02:16.361   03 Jun 2027 17:02:31.559            15.198               Magadan2           474.938
       251   03 Jun 2027 17:02:31.559   03 Jun 2027 17:04:54.135           142.576               Magadan1          4455.500
       252   03 Jun 2027 17:45:42.827   03 Jun 2027 17:46:52.266            69.439            RioGallegos          2169.969
       253   03 Jun 2027 17:48:48.455   03 Jun 2027 17:51:54.673           186.218            RioGallegos          5819.313
       254   03 Jun 2027 18:29:44.497   03 Jun 2027 18:33:17.236           212.739                Norilsk          6648.094
       255   03 Jun 2027 18:34:20.941   03 Jun 2027 18:36:46.360           145.419                Irkutsk          4544.344
       256   03 Jun 2027 18:36:49.136   03 Jun 2027 18:38:45.688           116.552                Novosib          3642.250
       257   03 Jun 2027 18:48:38.625   03 Jun 2027 18:50:58.395           139.770                Sumatra          4367.813
       258   03 Jun 2027 18:53:07.238   03 Jun 2027 18:53:23.558            16.320                Sumatra           510.000
       259   03 Jun 2027 20:08:54.971   03 Jun 2027 20:10:11.884            76.913                Novosib          2403.531
       260   03 Jun 2027 20:11:24.429   03 Jun 2027 20:12:41.035            76.606                Novosib          2393.937
       261   03 Jun 2027 20:16:55.709   03 Jun 2027 20:18:31.377            95.668                  Delhi          2989.625
       262   03 Jun 2027 20:20:27.329   03 Jun 2027 20:23:35.850           188.521                  Delhi          5891.281
       263   03 Jun 2027 21:43:16.368   03 Jun 2027 21:47:30.186           253.818              Murmansk2          7931.813
       264   03 Jun 2027 21:47:30.186   03 Jun 2027 21:51:29.702           239.516              Murmansk1          7484.875
       265   03 Jun 2027 21:51:33.549   03 Jun 2027 21:53:43.869           130.320                 Moscow          4072.500
       266   03 Jun 2027 23:29:48.079   03 Jun 2027 23:30:42.232            54.153                 Moscow          1692.281
       267   03 Jun 2027 23:46:55.703   03 Jun 2027 23:48:34.829            99.126               CapeTown          3097.688
       268   03 Jun 2027 23:50:32.643   03 Jun 2027 23:52:11.502            98.859               CapeTown          3089.344
       269   04 Jun 2027 00:54:55.249   04 Jun 2027 00:56:00.314            65.065              Murmansk2          2033.281
       270   04 Jun 2027 00:58:08.450   04 Jun 2027 00:59:07.081            58.631                 Moscow          1832.219
       271   04 Jun 2027 01:07:21.620   04 Jun 2027 01:08:06.999            45.379                 Moscow          1418.094
       272   04 Jun 2027 01:22:31.910   04 Jun 2027 01:23:15.118            43.208               CapeTown          1350.250
       273   04 Jun 2027 01:26:17.296   04 Jun 2027 01:26:30.054            12.758               CapeTown           398.687
       274   04 Jun 2027 01:31:32.534   04 Jun 2027 01:32:25.216            52.682               CapeTown          1646.312
       275   04 Jun 2027 02:18:57.148   04 Jun 2027 02:20:41.471           104.323               Magadan1          3260.094
       276   04 Jun 2027 02:21:06.714   04 Jun 2027 02:21:21.792            15.078               Magadan1           471.187
       277   04 Jun 2027 02:24:08.672   04 Jun 2027 02:25:04.002            55.330               Magadan2          1729.063
       278   04 Jun 2027 02:29:28.029   04 Jun 2027 02:29:39.806            11.777                Norilsk           368.031
       279   04 Jun 2027 02:30:48.212   04 Jun 2027 02:31:30.069            41.857              Murmansk1          1308.031
       280   04 Jun 2027 02:31:44.237   04 Jun 2027 02:31:58.225            13.988              Murmansk2           437.125
       281   04 Jun 2027 02:33:18.669   04 Jun 2027 02:33:28.653             9.984              Murmansk2           312.000
       282   04 Jun 2027 02:34:30.434   04 Jun 2027 02:35:59.821            89.387                 Moscow          2793.344
       283   04 Jun 2027 03:13:29.837   04 Jun 2027 03:15:32.441           122.604            RioGallegos          3831.375
       284   04 Jun 2027 04:02:20.820   04 Jun 2027 04:02:21.273             0.453               Magadan2            14.156
       285   04 Jun 2027 04:02:29.312   04 Jun 2027 04:05:04.883           155.571                Anadyr2          4861.594
       286   04 Jun 2027 04:05:04.883   04 Jun 2027 04:06:19.895            75.012                Anadyr1          2344.125
       287   04 Jun 2027 04:06:52.828   04 Jun 2027 04:07:14.862            22.034               Magadan2           688.563
       288   04 Jun 2027 05:38:23.800   04 Jun 2027 05:38:25.983             2.183                Irkutsk            68.219
       289   04 Jun 2027 05:38:51.838   04 Jun 2027 05:39:37.460            45.622                Irkutsk          1425.688
       290   04 Jun 2027 05:40:03.283   04 Jun 2027 05:41:04.943            61.660               Magadan1          1926.875
       291   04 Jun 2027 05:41:04.943   04 Jun 2027 05:41:54.425            49.482               Magadan2          1546.312
       292   04 Jun 2027 05:41:54.425   04 Jun 2027 05:42:26.256            31.831               Magadan1           994.719
       293   04 Jun 2027 05:42:35.679   04 Jun 2027 05:43:45.481            69.802              Murmansk2          2181.313
       294   04 Jun 2027 05:43:50.937   04 Jun 2027 05:44:05.846            14.909                Novosib           465.906
       295   04 Jun 2027 05:44:46.789   04 Jun 2027 05:45:02.522            15.733                Norilsk           491.656
       296   04 Jun 2027 05:45:31.144   04 Jun 2027 05:45:56.078            24.934                Norilsk           779.188
       297   04 Jun 2027 05:47:12.632   04 Jun 2027 05:47:34.738            22.106              Murmansk1           690.812
       298   04 Jun 2027 05:48:49.988   04 Jun 2027 05:49:12.030            22.042              Murmansk2           688.813
       299   04 Jun 2027 06:17:39.951   04 Jun 2027 06:19:26.407           106.456            RioGallegos          3326.750
       300   04 Jun 2027 06:20:33.367   04 Jun 2027 06:21:54.892            81.525            RioGallegos          2547.656
       301   04 Jun 2027 06:25:04.690   04 Jun 2027 06:25:14.888            10.198            RioGallegos           318.688
       302   04 Jun 2027 06:25:35.939   04 Jun 2027 06:26:14.333            38.394            RioGallegos          1199.813
       303   04 Jun 2027 06:52:54.897   04 Jun 2027 06:55:26.967           152.070                Sumatra          4752.188
       304   04 Jun 2027 06:56:44.084   04 Jun 2027 06:57:59.687            75.603                Sumatra          2362.594
       305   04 Jun 2027 07:05:14.179   04 Jun 2027 07:11:12.736           358.557                  Delhi         11204.906
       306   04 Jun 2027 07:12:53.755   04 Jun 2027 07:13:20.244            26.489                Irkutsk           827.781
       307   04 Jun 2027 07:14:42.361   04 Jun 2027 07:15:53.734            71.373                Irkutsk          2230.406
       308   04 Jun 2027 07:16:05.472   04 Jun 2027 07:16:45.564            40.092                Novosib          1252.875
       309   04 Jun 2027 07:16:52.253   04 Jun 2027 07:17:37.500            45.247              Murmansk2          1413.969
       310   04 Jun 2027 07:17:43.284   04 Jun 2027 07:18:51.077            67.793                Novosib          2118.531
       311   04 Jun 2027 07:55:51.600   04 Jun 2027 07:56:18.646            27.046            RioGallegos           845.188
       312   04 Jun 2027 07:57:04.813   04 Jun 2027 07:57:55.242            50.429            RioGallegos          1575.906
       313   04 Jun 2027 08:30:05.672   04 Jun 2027 08:30:26.105            20.433                Sumatra           638.531
       314   04 Jun 2027 08:33:15.364   04 Jun 2027 08:34:14.402            59.038                Sumatra          1844.938
       315   04 Jun 2027 08:36:48.693   04 Jun 2027 08:38:22.827            94.134                  Delhi          2941.687
       316   04 Jun 2027 08:41:25.945   04 Jun 2027 08:42:32.675            66.730                  Delhi          2085.313
       317   04 Jun 2027 08:51:04.609   04 Jun 2027 08:51:34.471            29.862                 Moscow           933.187
       318   04 Jun 2027 08:51:41.253   04 Jun 2027 08:51:51.895            10.642              Murmansk2           332.562
       319   04 Jun 2027 08:52:09.894   04 Jun 2027 08:52:27.562            17.668                Novosib           552.125
       320   04 Jun 2027 08:52:48.661   04 Jun 2027 08:52:55.498             6.837                Norilsk           213.656
       321   04 Jun 2027 08:53:04.876   04 Jun 2027 08:53:10.186             5.310                Irkutsk           165.937
       322   04 Jun 2027 08:53:17.646   04 Jun 2027 08:53:20.123             2.477                Norilsk            77.406
       323   04 Jun 2027 08:53:20.456   04 Jun 2027 08:53:30.597            10.141              Murmansk2           316.906
       324   04 Jun 2027 08:53:30.597   04 Jun 2027 08:53:38.017             7.420              Murmansk1           231.875
       325   04 Jun 2027 08:53:45.000   04 Jun 2027 08:54:43.202            58.202                Novosib          1818.813
       326   04 Jun 2027 08:54:56.600   04 Jun 2027 08:55:48.496            51.896                 Moscow          1621.750
       327   04 Jun 2027 10:15:38.664   04 Jun 2027 10:18:20.916           162.252                  Delhi          5070.375
       328   04 Jun 2027 10:26:12.706   04 Jun 2027 10:27:04.862            52.156                 Moscow          1629.875
       329   04 Jun 2027 10:27:07.009   04 Jun 2027 10:27:19.625            12.616              Murmansk1           394.250
       330   04 Jun 2027 10:27:24.926   04 Jun 2027 10:27:26.264             1.338                Norilsk            41.813
       331   04 Jun 2027 10:27:27.451   04 Jun 2027 10:28:17.653            50.202                Norilsk          1568.812
       332   04 Jun 2027 10:28:29.933   04 Jun 2027 10:28:35.587             5.654              Murmansk1           176.687
       333   04 Jun 2027 10:28:35.587   04 Jun 2027 10:28:52.251            16.664              Murmansk2           520.750
       334   04 Jun 2027 10:28:54.580   04 Jun 2027 10:29:01.000             6.420                Norilsk           200.625
       335   04 Jun 2027 10:29:08.557   04 Jun 2027 10:29:29.786            21.229              Murmansk2           663.406
       336   04 Jun 2027 10:29:39.580   04 Jun 2027 10:30:18.125            38.545                 Moscow          1204.531
       337   04 Jun 2027 10:30:24.974   04 Jun 2027 10:30:39.102            14.128                 Moscow           441.500
       338   04 Jun 2027 10:30:42.978   04 Jun 2027 10:30:44.643             1.665                Norilsk            52.031
       339   04 Jun 2027 10:30:50.972   04 Jun 2027 10:31:45.979            55.007              Murmansk1          1718.969
       340   04 Jun 2027 11:37:31.934   04 Jun 2027 11:43:57.782           385.848               CapeTown         12057.750
       341   04 Jun 2027 12:16:07.887   04 Jun 2027 12:23:31.201           443.314                Anadyr1         13853.562
       342   04 Jun 2027 13:53:24.118   04 Jun 2027 13:53:50.441            26.323                Anadyr2           822.594
       343   04 Jun 2027 13:55:38.694   04 Jun 2027 13:56:23.965            45.271                Anadyr2          1414.719
       344   04 Jun 2027 13:57:10.132   04 Jun 2027 13:59:26.270           136.138               Magadan2          4254.313
       345   04 Jun 2027 15:27:08.928   04 Jun 2027 15:28:17.122            68.194                Anadyr1          2131.062
       346   04 Jun 2027 15:29:40.229   04 Jun 2027 15:31:22.412           102.183               Magadan2          3193.219
       347   04 Jun 2027 15:31:22.412   04 Jun 2027 15:35:19.880           237.468               Magadan1          7420.875
       348   04 Jun 2027 15:36:39.926   04 Jun 2027 15:38:08.120            88.194               Magadan1          2756.063
       349   04 Jun 2027 17:05:45.306   04 Jun 2027 17:06:57.896            72.590                Norilsk          2268.437
       350   04 Jun 2027 17:09:02.572   04 Jun 2027 17:09:14.151            11.579               Magadan1           361.844
       351   04 Jun 2027 17:09:20.996   04 Jun 2027 17:09:58.422            37.426                Norilsk          1169.563
       352   04 Jun 2027 17:57:29.842   04 Jun 2027 18:01:50.460           260.618            RioGallegos          8144.312
       353   04 Jun 2027 18:08:01.854   04 Jun 2027 18:08:16.440            14.586            RioGallegos           455.813
       354   04 Jun 2027 18:40:55.064   04 Jun 2027 18:41:11.310            16.246                Norilsk           507.687
       355   04 Jun 2027 18:43:09.600   04 Jun 2027 18:43:19.378             9.778               Magadan2           305.563
       356   04 Jun 2027 18:43:24.699   04 Jun 2027 18:45:17.831           113.132                Norilsk          3535.375
       357   04 Jun 2027 18:46:03.102   04 Jun 2027 18:48:50.027           166.925                Irkutsk          5216.406
       358   04 Jun 2027 18:49:36.357   04 Jun 2027 18:52:29.922           173.565                Novosib          5423.906
       359   04 Jun 2027 19:00:18.772   04 Jun 2027 19:02:04.771           105.999                Sumatra          3312.469
       360   04 Jun 2027 19:03:03.037   04 Jun 2027 19:03:10.360             7.323                Sumatra           228.844
       361   04 Jun 2027 19:09:47.010   04 Jun 2027 19:11:16.774            89.764                Sumatra          2805.125
       362   04 Jun 2027 20:24:44.260   04 Jun 2027 20:25:06.557            22.297                Novosib           696.781
       363   04 Jun 2027 20:25:08.425   04 Jun 2027 20:25:12.358             3.933                Novosib           122.906
       364   04 Jun 2027 20:25:19.113   04 Jun 2027 20:27:32.212           133.099                Novosib          4159.344
       365   04 Jun 2027 20:28:36.437   04 Jun 2027 20:30:21.655           105.218                  Delhi          3288.063
       366   04 Jun 2027 20:32:27.570   04 Jun 2027 20:34:53.770           146.200                  Delhi          4568.750
       367   04 Jun 2027 21:55:13.202   04 Jun 2027 21:57:15.926           122.724              Murmansk1          3835.125
       368   04 Jun 2027 21:57:20.762   04 Jun 2027 22:00:43.940           203.178              Murmansk2          6349.312
       369   04 Jun 2027 22:00:44.185   04 Jun 2027 22:06:55.321           371.136                 Moscow         11598.000
       370   04 Jun 2027 23:58:36.465   05 Jun 2027 00:00:29.953           113.488               CapeTown          3546.500
       371   05 Jun 2027 00:01:04.376   05 Jun 2027 00:02:30.252            85.876               CapeTown          2683.625
       372   05 Jun 2027 01:06:56.765   05 Jun 2027 01:08:01.955            65.190              Murmansk2          2037.187
       373   05 Jun 2027 01:09:21.038   05 Jun 2027 01:09:32.863            11.825              Murmansk2           369.531
       374   05 Jun 2027 01:10:11.293   05 Jun 2027 01:12:55.705           164.412                 Moscow          5137.875
       375   05 Jun 2027 01:39:11.691   05 Jun 2027 01:39:31.031            19.340               CapeTown           604.375
       376   05 Jun 2027 01:42:24.989   05 Jun 2027 01:43:29.725            64.736               CapeTown          2023.000
       377   05 Jun 2027 02:30:47.834   05 Jun 2027 02:32:52.419           124.585               Magadan1          3893.281
       378   05 Jun 2027 02:33:07.504   05 Jun 2027 02:33:45.576            38.072               Magadan2          1189.750
       379   05 Jun 2027 02:37:50.991   05 Jun 2027 02:38:12.094            21.103               Magadan1           659.469
       380   05 Jun 2027 02:39:32.411   05 Jun 2027 02:40:01.148            28.737                Norilsk           898.031
       381   05 Jun 2027 02:42:48.088   05 Jun 2027 02:43:31.487            43.399              Murmansk2          1356.219
       382   05 Jun 2027 02:46:37.717   05 Jun 2027 02:48:05.596            87.879                 Moscow          2746.219
       383   05 Jun 2027 02:49:34.984   05 Jun 2027 02:49:54.997            20.013                 Moscow           625.406
       384   05 Jun 2027 03:24:07.470   05 Jun 2027 03:26:15.655           128.185            RioGallegos          4005.781
       385   05 Jun 2027 03:26:36.826   05 Jun 2027 03:27:08.233            31.407            RioGallegos           981.469
       386   05 Jun 2027 04:12:48.842   05 Jun 2027 04:13:26.263            37.421                Irkutsk          1169.406
       387   05 Jun 2027 04:13:55.371   05 Jun 2027 04:15:53.103           117.732               Magadan1          3679.125
       388   05 Jun 2027 04:16:03.885   05 Jun 2027 04:17:36.554            92.669                Irkutsk          2895.906
       389   05 Jun 2027 04:17:56.206   05 Jun 2027 04:18:02.492             6.286               Magadan2           196.437
       390   05 Jun 2027 04:57:14.197   05 Jun 2027 04:57:58.428            44.231            RioGallegos          1382.219
       391   05 Jun 2027 05:50:30.031   05 Jun 2027 05:51:14.238            44.207                Norilsk          1381.469
       392   05 Jun 2027 05:51:15.943   05 Jun 2027 05:52:08.901            52.958                Irkutsk          1654.938
       393   05 Jun 2027 05:52:12.492   05 Jun 2027 05:54:04.084           111.592               Magadan1          3487.250
       394   05 Jun 2027 05:54:20.289   05 Jun 2027 05:54:48.355            28.066                Novosib           877.063
       395   05 Jun 2027 05:54:59.837   05 Jun 2027 05:55:00.830             0.993                Irkutsk            31.031
       396   05 Jun 2027 05:55:40.540   05 Jun 2027 05:55:54.580            14.040                Novosib           438.750
       397   05 Jun 2027 05:56:04.991   05 Jun 2027 05:56:31.903            26.912                Norilsk           841.000
       398   05 Jun 2027 05:56:42.234   05 Jun 2027 05:57:27.707            45.473                Norilsk          1421.031
       399   05 Jun 2027 06:29:44.010   05 Jun 2027 06:31:13.428            89.418            RioGallegos          2794.312
       400   05 Jun 2027 06:33:59.906   05 Jun 2027 06:34:43.164            43.258            RioGallegos          1351.813
       401   05 Jun 2027 07:04:43.701   05 Jun 2027 07:08:33.384           229.683                Sumatra          7177.594
       402   05 Jun 2027 07:16:03.863   05 Jun 2027 07:24:02.258           478.395                  Delhi         14949.844
       403   05 Jun 2027 07:25:53.069   05 Jun 2027 07:26:42.925            49.856                Irkutsk          1558.000
       404   05 Jun 2027 07:27:14.470   05 Jun 2027 07:28:46.078            91.608              Murmansk2          2862.750
       405   05 Jun 2027 07:28:51.672   05 Jun 2027 07:29:05.146            13.474                Irkutsk           421.063
       406   05 Jun 2027 07:29:09.774   05 Jun 2027 07:30:46.263            96.489                Novosib          3015.281
       407   05 Jun 2027 07:31:12.739   05 Jun 2027 07:31:44.122            31.383              Murmansk1           980.719
       408   05 Jun 2027 08:08:35.399   05 Jun 2027 08:09:13.677            38.278            RioGallegos          1196.187
       409   05 Jun 2027 08:09:52.478   05 Jun 2027 08:09:56.453             3.975            RioGallegos           124.219
       410   05 Jun 2027 08:11:33.247   05 Jun 2027 08:11:53.049            19.802            RioGallegos           618.812
       411   05 Jun 2027 08:43:02.874   05 Jun 2027 08:43:49.488            46.614                Sumatra          1456.688
       412   05 Jun 2027 08:45:43.907   05 Jun 2027 08:46:38.504            54.597                Sumatra          1706.156
       413   05 Jun 2027 08:48:47.633   05 Jun 2027 08:49:09.067            21.434                  Delhi           669.813
       414   05 Jun 2027 08:50:03.806   05 Jun 2027 08:51:09.767            65.961                  Delhi          2061.281
       415   05 Jun 2027 08:56:55.226   05 Jun 2027 08:58:00.068            64.842                  Delhi          2026.313
       416   05 Jun 2027 09:03:01.918   05 Jun 2027 09:04:09.619            67.701                Novosib          2115.656
       417   05 Jun 2027 09:04:18.975   05 Jun 2027 09:04:33.657            14.682                 Moscow           458.813
       418   05 Jun 2027 09:04:38.696   05 Jun 2027 09:05:30.777            52.081                Novosib          1627.531
       419   05 Jun 2027 09:05:34.358   05 Jun 2027 09:06:17.507            43.149              Murmansk1          1348.406
       420   05 Jun 2027 09:06:25.496   05 Jun 2027 09:07:02.489            36.993                Novosib          1156.031
       421   05 Jun 2027 09:07:12.021   05 Jun 2027 09:07:24.006            11.985              Murmansk2           374.531
       422   05 Jun 2027 09:07:40.746   05 Jun 2027 09:08:00.155            19.409                 Moscow           606.531
       423   05 Jun 2027 09:09:27.905   05 Jun 2027 09:09:48.593            20.688                 Moscow           646.500
       424   05 Jun 2027 10:29:14.326   05 Jun 2027 10:31:16.929           122.603                  Delhi          3831.344
       425   05 Jun 2027 10:36:37.740   05 Jun 2027 10:36:46.517             8.777              Murmansk2           274.281
       426   05 Jun 2027 10:36:58.683   05 Jun 2027 10:37:03.096             4.413              Murmansk1           137.906
       427   05 Jun 2027 10:37:04.830   05 Jun 2027 10:37:23.582            18.752                 Moscow           586.000
       428   05 Jun 2027 10:37:24.857   05 Jun 2027 10:37:53.255            28.398              Murmansk2           887.438
       429   05 Jun 2027 10:37:56.735   05 Jun 2027 10:38:06.804            10.069              Murmansk2           314.656
       430   05 Jun 2027 10:38:30.430   05 Jun 2027 10:38:57.891            27.461                 Moscow           858.156
       431   05 Jun 2027 10:39:03.865   05 Jun 2027 10:39:21.291            17.426              Murmansk1           544.562
       432   05 Jun 2027 10:39:21.291   05 Jun 2027 10:39:59.152            37.861              Murmansk2          1183.156
       433   05 Jun 2027 10:40:06.184   05 Jun 2027 10:40:54.486            48.302                 Moscow          1509.437
       434   05 Jun 2027 10:41:08.612   05 Jun 2027 10:41:23.971            15.359              Murmansk1           479.969
       435   05 Jun 2027 10:41:43.360   05 Jun 2027 10:42:38.905            55.545                 Moscow          1735.781
       436   05 Jun 2027 10:42:44.938   05 Jun 2027 10:43:03.361            18.423                Norilsk           575.719
       437   05 Jun 2027 10:43:10.389   05 Jun 2027 10:43:35.214            24.825                Norilsk           775.781
       438   05 Jun 2027 10:43:56.554   05 Jun 2027 10:44:03.827             7.273                 Moscow           227.281
       439   05 Jun 2027 10:44:24.345   05 Jun 2027 10:44:32.962             8.617              Murmansk2           269.281
       440   05 Jun 2027 10:44:55.577   05 Jun 2027 10:45:18.669            23.092                 Moscow           721.625
       441   05 Jun 2027 11:48:39.935   05 Jun 2027 11:57:05.379           505.444               CapeTown         15795.125
       442   05 Jun 2027 12:27:57.070   05 Jun 2027 12:36:15.617           498.547                Anadyr2         15579.594
       443   05 Jun 2027 14:05:44.512   05 Jun 2027 14:07:11.348            86.836                Anadyr1          2713.625
       444   05 Jun 2027 14:07:23.873   05 Jun 2027 14:12:55.781           331.908               Magadan2         10372.125
       445   05 Jun 2027 15:41:37.136   05 Jun 2027 15:43:16.329            99.193               Magadan2          3099.781
       446   05 Jun 2027 15:45:45.905   05 Jun 2027 15:47:01.373            75.468               Magadan1          2358.375
       447   05 Jun 2027 17:16:58.371   05 Jun 2027 17:17:09.205            10.834                Anadyr1           338.563
       448   05 Jun 2027 17:17:17.703   05 Jun 2027 17:17:32.956            15.253                Anadyr1           476.656
       449   05 Jun 2027 17:18:32.265   05 Jun 2027 17:20:24.632           112.367               Magadan1          3511.469
       450   05 Jun 2027 17:22:18.820   05 Jun 2027 17:22:54.281            35.461                Norilsk          1108.156
       451   05 Jun 2027 17:23:50.423   05 Jun 2027 17:28:00.047           249.624                Irkutsk          7800.750
       452   05 Jun 2027 18:19:43.475   05 Jun 2027 18:20:43.300            59.825            RioGallegos          1869.531
       453   05 Jun 2027 18:56:57.745   05 Jun 2027 18:58:15.891            78.146                Norilsk          2442.063
       454   05 Jun 2027 18:58:23.252   05 Jun 2027 19:05:36.874           433.622                Novosib         13550.687
       455   05 Jun 2027 19:21:19.070   05 Jun 2027 19:22:47.607            88.537                Sumatra          2766.781
       456   05 Jun 2027 20:34:32.771   05 Jun 2027 20:34:33.466             0.695                Novosib            21.719
       457   05 Jun 2027 20:35:34.248   05 Jun 2027 20:36:38.015            63.767                Novosib          1992.719
       458   05 Jun 2027 20:40:22.709   05 Jun 2027 20:44:26.651           243.942                  Delhi          7623.187
       459   05 Jun 2027 22:07:11.193   05 Jun 2027 22:08:56.180           104.987              Murmansk1          3280.844
       460   05 Jun 2027 22:09:28.231   05 Jun 2027 22:13:55.327           267.096              Murmansk2          8346.750
       461   05 Jun 2027 22:14:13.784   05 Jun 2027 22:16:39.286           145.502              Murmansk2          4546.938
       462   05 Jun 2027 22:17:01.793   05 Jun 2027 22:19:22.460           140.667                 Moscow          4395.844
       463   05 Jun 2027 22:40:40.264   05 Jun 2027 22:43:13.688           153.424               CapeTown          4794.500
       464   06 Jun 2027 00:10:22.629   06 Jun 2027 00:12:21.739           119.110               CapeTown          3722.188
       465   06 Jun 2027 00:12:47.831   06 Jun 2027 00:14:00.167            72.336               CapeTown          2260.500
       466   06 Jun 2027 01:18:58.176   06 Jun 2027 01:21:14.986           136.810              Murmansk1          4275.313
       467   06 Jun 2027 01:22:14.615   06 Jun 2027 01:22:57.816            43.201                 Moscow          1350.031
       468   06 Jun 2027 01:47:28.564   06 Jun 2027 01:49:32.786           124.222               CapeTown          3881.938
       469   06 Jun 2027 02:42:40.705   06 Jun 2027 02:45:07.880           147.175               Magadan2          4599.219
       470   06 Jun 2027 02:45:28.691   06 Jun 2027 02:45:34.842             6.151               Magadan2           192.219
       471   06 Jun 2027 02:46:14.692   06 Jun 2027 02:46:48.637            33.945               Magadan1          1060.781
       472   06 Jun 2027 02:50:00.602   06 Jun 2027 02:50:13.454            12.852               Magadan2           401.625
       473   06 Jun 2027 02:51:27.650   06 Jun 2027 02:51:52.756            25.106                Norilsk           784.563
       474   06 Jun 2027 02:54:47.613   06 Jun 2027 02:55:33.092            45.479              Murmansk1          1421.219
       475   06 Jun 2027 02:55:40.032   06 Jun 2027 02:56:00.444            20.412              Murmansk2           637.875
       476   06 Jun 2027 02:57:31.661   06 Jun 2027 02:57:57.894            26.233              Murmansk1           819.781
       477   06 Jun 2027 02:58:45.950   06 Jun 2027 02:59:25.270            39.320                 Moscow          1228.750
       478   06 Jun 2027 03:35:08.364   06 Jun 2027 03:37:50.201           161.837            RioGallegos          5057.406
       479   06 Jun 2027 03:40:04.163   06 Jun 2027 03:41:00.562            56.399            RioGallegos          1762.469
       480   06 Jun 2027 04:24:40.472   06 Jun 2027 04:26:20.795           100.323                Anadyr1          3135.094
       481   06 Jun 2027 04:26:36.370   06 Jun 2027 04:26:46.258             9.888                Irkutsk           309.000
       482   06 Jun 2027 04:26:54.316   06 Jun 2027 04:27:16.935            22.619                Norilsk           706.844
