uniorb/output/strategy_2/Drop/Drop_KinoSat_112005.txt

KinoSat_112005
-------------------------
    Access    *     Start Time (UTCG)     *     Stop Time (UTCG)  *   Duration (s)        *       Station  *  Data (Mbytes)
         1   01 Jun 2027 03:00:39.709   01 Jun 2027 03:00:45.713             6.004                Novosib           187.625
         2   01 Jun 2027 03:01:24.544   01 Jun 2027 03:02:13.812            49.268                Irkutsk          1539.625
         3   01 Jun 2027 03:02:21.974   01 Jun 2027 03:03:26.731            64.757                Novosib          2023.656
         4   01 Jun 2027 03:03:57.061   01 Jun 2027 03:05:06.727            69.666                Novosib          2177.063
         5   01 Jun 2027 03:05:21.011   01 Jun 2027 03:06:17.542            56.531                  Delhi          1766.594
         6   01 Jun 2027 03:15:08.872   01 Jun 2027 03:17:50.447           161.575                Sumatra          5049.219
         7   01 Jun 2027 03:45:32.661   01 Jun 2027 03:50:06.595           273.934            RioGallegos          8560.437
         8   01 Jun 2027 04:36:04.842   01 Jun 2027 04:36:07.151             2.309              Murmansk1            72.156
         9   01 Jun 2027 04:36:34.856   01 Jun 2027 04:36:51.718            16.862              Murmansk2           526.937
        10   01 Jun 2027 04:37:10.805   01 Jun 2027 04:38:33.429            82.624              Murmansk1          2582.000
        11   01 Jun 2027 04:38:40.415   01 Jun 2027 04:39:45.234            64.819              Murmansk2          2025.594
        12   01 Jun 2027 04:39:45.234   01 Jun 2027 04:40:37.606            52.372              Murmansk1          1636.625
        13   01 Jun 2027 04:40:49.094   01 Jun 2027 04:46:14.206           325.112                  Delhi         10159.750
        14   01 Jun 2027 06:15:33.884   01 Jun 2027 06:15:52.386            18.502                Norilsk           578.187
        15   01 Jun 2027 06:15:57.137   01 Jun 2027 06:16:33.877            36.740              Murmansk2          1148.125
        16   01 Jun 2027 06:16:43.010   01 Jun 2027 06:17:07.646            24.636              Murmansk1           769.875
        17   01 Jun 2027 06:17:12.582   01 Jun 2027 06:17:30.283            17.701                 Moscow           553.156
        18   01 Jun 2027 06:18:04.335   01 Jun 2027 06:21:57.066           232.731                 Moscow          7272.844
        19   01 Jun 2027 06:34:18.673   01 Jun 2027 06:38:05.492           226.819               CapeTown          7088.094
        20   01 Jun 2027 07:37:28.246   01 Jun 2027 07:39:54.459           146.213                Anadyr1          4569.156
        21   01 Jun 2027 07:51:32.289   01 Jun 2027 07:52:02.535            30.246                 Moscow           945.187
        22   01 Jun 2027 07:52:04.309   01 Jun 2027 07:52:55.619            51.310                 Moscow          1603.438
        23   01 Jun 2027 08:11:52.391   01 Jun 2027 08:18:54.491           422.100               CapeTown         13190.625
        24   01 Jun 2027 09:11:40.644   01 Jun 2027 09:12:34.158            53.514                Anadyr1          1672.313
        25   01 Jun 2027 09:13:57.384   01 Jun 2027 09:14:58.932            61.548                Anadyr2          1923.375
        26   01 Jun 2027 09:16:14.105   01 Jun 2027 09:17:37.210            83.105               Magadan2          2597.031
        27   01 Jun 2027 09:17:38.893   01 Jun 2027 09:19:41.536           122.643                Anadyr2          3832.594
        28   01 Jun 2027 09:24:59.392   01 Jun 2027 09:25:20.666            21.274                 Moscow           664.813
        29   01 Jun 2027 10:46:55.714   01 Jun 2027 10:48:11.727            76.013               Magadan1          2375.406
        30   01 Jun 2027 10:48:32.920   01 Jun 2027 10:54:18.086           345.166                Anadyr2         10786.438
        31   01 Jun 2027 10:54:52.724   01 Jun 2027 10:55:14.983            22.259               Magadan2           695.594
        32   01 Jun 2027 12:23:14.353   01 Jun 2027 12:29:48.154           393.801               Magadan1         12306.281
        33   01 Jun 2027 13:43:49.128   01 Jun 2027 13:44:53.065            63.937                Sumatra          1998.031
        34   01 Jun 2027 13:57:17.092   01 Jun 2027 13:57:30.161            13.069                Irkutsk           408.406
        35   01 Jun 2027 14:00:51.695   01 Jun 2027 14:01:28.977            37.282                Irkutsk          1165.063
        36   01 Jun 2027 14:46:06.771   01 Jun 2027 14:52:25.150           378.379            RioGallegos         11824.344
        37   01 Jun 2027 15:37:06.919   01 Jun 2027 15:38:15.202            68.283                Novosib          2133.844
        38   01 Jun 2027 17:16:41.896   01 Jun 2027 17:17:24.031            42.135                Norilsk          1316.719
        39   01 Jun 2027 18:46:37.822   01 Jun 2027 18:47:38.609            60.787                 Moscow          1899.594
        40   01 Jun 2027 18:49:46.273   01 Jun 2027 18:50:33.224            46.951              Murmansk2          1467.219
        41   01 Jun 2027 18:51:35.518   01 Jun 2027 18:51:58.776            23.258                 Moscow           726.812
        42   01 Jun 2027 18:54:39.048   01 Jun 2027 18:55:57.879            78.831              Murmansk1          2463.469
        43   01 Jun 2027 19:58:46.066   01 Jun 2027 20:01:45.957           179.891               CapeTown          5621.594
        44   01 Jun 2027 20:29:05.611   01 Jun 2027 20:34:50.365           344.754              Murmansk1         10773.562
        45   01 Jun 2027 20:35:01.104   01 Jun 2027 20:37:21.649           140.545              Murmansk2          4392.031
        46   01 Jun 2027 22:17:34.708   01 Jun 2027 22:19:00.137            85.429               Magadan2          2669.656
        47   01 Jun 2027 22:19:47.269   01 Jun 2027 22:20:09.517            22.248               Magadan2           695.250
        48   01 Jun 2027 22:20:48.476   01 Jun 2027 22:20:56.998             8.522               Magadan1           266.312
        49   01 Jun 2027 22:21:09.857   01 Jun 2027 22:21:26.198            16.341               Magadan1           510.656
        50   01 Jun 2027 23:12:58.149   01 Jun 2027 23:14:23.790            85.641            RioGallegos          2676.281
        51   01 Jun 2027 23:51:06.620   01 Jun 2027 23:52:42.006            95.386                Anadyr2          2980.813
        52   01 Jun 2027 23:52:48.716   01 Jun 2027 23:53:17.822            29.106                Anadyr1           909.563
        53   01 Jun 2027 23:53:18.212   01 Jun 2027 23:54:43.403            85.191                Norilsk          2662.219
        54   01 Jun 2027 23:54:52.945   01 Jun 2027 23:55:17.929            24.984               Magadan1           780.750
        55   01 Jun 2027 23:56:00.296   01 Jun 2027 23:56:13.512            13.216               Magadan2           413.000
        56   01 Jun 2027 23:56:35.812   01 Jun 2027 23:56:53.654            17.842               Magadan1           557.562
        57   01 Jun 2027 23:57:02.199   01 Jun 2027 23:57:11.206             9.007               Magadan1           281.469
        58   01 Jun 2027 23:58:05.450   01 Jun 2027 23:58:31.017            25.567               Magadan1           798.969
        59   01 Jun 2027 23:58:33.907   01 Jun 2027 23:59:04.604            30.697                Irkutsk           959.281
        60   01 Jun 2027 23:59:43.992   02 Jun 2027 00:00:07.577            23.585                Irkutsk           737.031
        61   02 Jun 2027 00:03:47.693   02 Jun 2027 00:05:01.718            74.025                Irkutsk          2313.281
        62   02 Jun 2027 00:14:23.134   02 Jun 2027 00:15:52.293            89.159                Sumatra          2786.219
        63   02 Jun 2027 00:45:09.840   02 Jun 2027 00:45:58.458            48.618            RioGallegos          1519.312
        64   02 Jun 2027 00:50:08.884   02 Jun 2027 00:50:48.052            39.168            RioGallegos          1224.000
        65   02 Jun 2027 01:26:30.584   02 Jun 2027 01:26:36.568             5.984                Anadyr2           187.000
        66   02 Jun 2027 01:26:47.245   02 Jun 2027 01:27:12.766            25.521                Anadyr1           797.531
        67   02 Jun 2027 01:28:01.297   02 Jun 2027 01:29:15.193            73.896                Anadyr2          2309.250
        68   02 Jun 2027 01:29:34.461   02 Jun 2027 01:31:19.992           105.531               Magadan1          3297.844
        69   02 Jun 2027 01:31:47.616   02 Jun 2027 01:32:11.507            23.891               Magadan2           746.594
        70   02 Jun 2027 01:32:55.763   02 Jun 2027 01:35:52.827           177.064                Irkutsk          5533.250
        71   02 Jun 2027 01:46:40.786   02 Jun 2027 01:48:32.637           111.851                Sumatra          3495.344
        72   02 Jun 2027 01:49:48.983   02 Jun 2027 01:51:02.459            73.476                Sumatra          2296.125
        73   02 Jun 2027 02:27:15.803   02 Jun 2027 02:27:40.252            24.449            RioGallegos           764.031
        74   02 Jun 2027 03:10:08.825   02 Jun 2027 03:10:19.939            11.114               Magadan1           347.313
        75   02 Jun 2027 03:11:04.252   02 Jun 2027 03:11:07.239             2.987               Magadan1            93.344
        76   02 Jun 2027 03:11:21.174   02 Jun 2027 03:11:28.981             7.807                Irkutsk           243.969
        77   02 Jun 2027 03:11:29.667   02 Jun 2027 03:11:50.156            20.489              Murmansk1           640.281
        78   02 Jun 2027 03:11:50.156   02 Jun 2027 03:12:15.888            25.732              Murmansk2           804.125
        79   02 Jun 2027 03:12:41.181   02 Jun 2027 03:12:52.482            11.301                Novosib           353.156
        80   02 Jun 2027 03:13:04.376   02 Jun 2027 03:13:20.193            15.817                Irkutsk           494.281
        81   02 Jun 2027 03:13:40.263   02 Jun 2027 03:15:46.641           126.378                Novosib          3949.312
        82   02 Jun 2027 03:16:11.260   02 Jun 2027 03:22:44.342           393.082                  Delhi         12283.813
        83   02 Jun 2027 03:23:43.653   02 Jun 2027 03:24:10.910            27.257                  Delhi           851.781
        84   02 Jun 2027 03:57:46.822   02 Jun 2027 04:02:33.251           286.429            RioGallegos          8950.906
        85   02 Jun 2027 04:44:49.902   02 Jun 2027 04:45:52.096            62.194                Novosib          1943.562
        86   02 Jun 2027 04:46:01.397   02 Jun 2027 04:49:05.351           183.954                Irkutsk          5748.562
        87   02 Jun 2027 04:50:56.012   02 Jun 2027 04:52:33.521            97.509                Irkutsk          3047.156
        88   02 Jun 2027 04:53:16.415   02 Jun 2027 04:59:42.915           386.500                  Delhi         12078.125
        89   02 Jun 2027 06:23:49.124   02 Jun 2027 06:24:10.066            20.942                Novosib           654.438
        90   02 Jun 2027 06:28:06.073   02 Jun 2027 06:29:31.064            84.991                 Moscow          2655.969
        91   02 Jun 2027 06:30:03.486   02 Jun 2027 06:31:40.324            96.838              Murmansk2          3026.188
        92   02 Jun 2027 06:31:53.412   02 Jun 2027 06:32:11.650            18.238                 Moscow           569.938
        93   02 Jun 2027 06:32:31.121   02 Jun 2027 06:32:36.838             5.717                 Moscow           178.656
        94   02 Jun 2027 06:33:00.291   02 Jun 2027 06:33:07.983             7.692                 Moscow           240.375
        95   02 Jun 2027 06:34:01.460   02 Jun 2027 06:34:02.143             0.683                 Moscow            21.344
        96   02 Jun 2027 06:46:13.086   02 Jun 2027 06:52:51.034           397.948               CapeTown         12435.875
        97   02 Jun 2027 06:53:15.572   02 Jun 2027 06:54:43.778            88.206               CapeTown          2756.437
        98   02 Jun 2027 07:49:30.442   02 Jun 2027 07:50:04.399            33.957                Anadyr1          1061.156
        99   02 Jun 2027 07:50:23.151   02 Jun 2027 07:50:45.107            21.956               Magadan2           686.125
       100   02 Jun 2027 07:51:12.843   02 Jun 2027 07:51:53.864            41.021                Anadyr2          1281.906
       101   02 Jun 2027 07:51:53.864   02 Jun 2027 07:52:31.660            37.796                Anadyr1          1181.125
       102   02 Jun 2027 07:52:53.225   02 Jun 2027 07:54:01.440            68.215                Anadyr1          2131.719
       103   02 Jun 2027 08:24:44.184   02 Jun 2027 08:32:51.530           487.346               CapeTown         15229.562
       104   02 Jun 2027 09:23:32.977   02 Jun 2027 09:25:55.901           142.924                Anadyr2          4466.375
       105   02 Jun 2027 09:26:40.416   02 Jun 2027 09:29:58.319           197.903                Anadyr1          6184.469
       106   02 Jun 2027 09:29:58.319   02 Jun 2027 09:30:11.901            13.582                Anadyr2           424.437
       107   02 Jun 2027 10:55:23.427   02 Jun 2027 10:57:05.158           101.731               Magadan2          3179.094
       108   02 Jun 2027 10:59:34.788   02 Jun 2027 10:59:41.038             6.250                Irkutsk           195.313
       109   02 Jun 2027 11:00:07.798   02 Jun 2027 11:01:13.398            65.600                Irkutsk          2050.000
       110   02 Jun 2027 11:01:23.581   02 Jun 2027 11:04:52.915           209.334               Magadan1          6541.688
       111   02 Jun 2027 11:04:52.915   02 Jun 2027 11:05:14.495            21.580               Magadan2           674.375
       112   02 Jun 2027 11:05:34.078   02 Jun 2027 11:07:13.085            99.007               Magadan1          3093.969
       113   02 Jun 2027 11:52:55.028   02 Jun 2027 11:53:01.438             6.410            RioGallegos           200.313
       114   02 Jun 2027 12:19:43.558   02 Jun 2027 12:21:33.511           109.953                Sumatra          3436.031
       115   02 Jun 2027 12:30:23.291   02 Jun 2027 12:32:42.583           139.292                Irkutsk          4352.875
       116   02 Jun 2027 12:35:17.872   02 Jun 2027 12:35:45.608            27.736                Norilsk           866.750
       117   02 Jun 2027 12:36:25.250   02 Jun 2027 12:41:14.466           289.216               Magadan1          9038.000
       118   02 Jun 2027 13:53:47.172   02 Jun 2027 13:55:47.421           120.249                Sumatra          3757.781
       119   02 Jun 2027 14:07:16.948   02 Jun 2027 14:09:12.347           115.399                Irkutsk          3606.219
       120   02 Jun 2027 14:15:40.388   02 Jun 2027 14:17:12.354            91.966                Irkutsk          2873.937
       121   02 Jun 2027 14:59:39.982   02 Jun 2027 15:03:24.871           224.889            RioGallegos          7027.781
       122   02 Jun 2027 15:37:12.343   02 Jun 2027 15:37:51.410            39.067                  Delhi          1220.844
       123   02 Jun 2027 15:45:13.374   02 Jun 2027 15:50:03.672           290.298                Novosib          9071.812
       124   02 Jun 2027 17:24:35.929   02 Jun 2027 17:24:36.140             0.211                 Moscow             6.594
       125   02 Jun 2027 17:24:46.533   02 Jun 2027 17:25:28.050            41.517              Murmansk1          1297.406
       126   02 Jun 2027 17:26:18.568   02 Jun 2027 17:26:49.432            30.864              Murmansk2           964.500
       127   02 Jun 2027 17:29:27.768   02 Jun 2027 17:32:52.485           204.717                Norilsk          6397.406
       128   02 Jun 2027 17:34:33.397   02 Jun 2027 17:35:40.841            67.444                Norilsk          2107.625
       129   02 Jun 2027 18:59:08.252   02 Jun 2027 19:00:50.719           102.467                 Moscow          3202.094
       130   02 Jun 2027 19:02:05.291   02 Jun 2027 19:03:56.931           111.640              Murmansk2          3488.750
       131   02 Jun 2027 19:06:32.447   02 Jun 2027 19:07:01.334            28.887              Murmansk2           902.719
       132   02 Jun 2027 19:11:24.434   02 Jun 2027 19:11:46.881            22.447              Murmansk1           701.469
       133   02 Jun 2027 20:10:54.314   02 Jun 2027 20:13:35.308           160.994               CapeTown          5031.063
       134   02 Jun 2027 20:18:44.895   02 Jun 2027 20:19:07.337            22.442               CapeTown           701.313
       135   02 Jun 2027 20:41:46.340   02 Jun 2027 20:44:07.986           141.646              Murmansk2          4426.437
       136   02 Jun 2027 20:44:33.471   02 Jun 2027 20:49:17.720           284.249              Murmansk1          8882.781
       137   02 Jun 2027 22:27:16.410   02 Jun 2027 22:29:11.825           115.415                Anadyr2          3606.719
       138   02 Jun 2027 22:29:34.438   02 Jun 2027 22:32:59.744           205.306               Magadan2          6415.813
       139   02 Jun 2027 22:33:22.232   02 Jun 2027 22:33:30.856             8.624               Magadan2           269.500
       140   02 Jun 2027 22:33:30.856   02 Jun 2027 22:33:45.193            14.337               Magadan1           448.031
       141   02 Jun 2027 22:34:47.828   02 Jun 2027 22:35:02.711            14.883               Magadan1           465.094
       142   02 Jun 2027 23:23:28.907   02 Jun 2027 23:26:02.253           153.346            RioGallegos          4792.062
       143   02 Jun 2027 23:27:57.335   02 Jun 2027 23:28:19.826            22.491            RioGallegos           702.844
       144   03 Jun 2027 00:03:06.547   03 Jun 2027 00:04:37.059            90.512                Anadyr1          2828.500
       145   03 Jun 2027 00:04:40.666   03 Jun 2027 00:05:21.434            40.768                Anadyr2          1274.000
       146   03 Jun 2027 00:05:30.038   03 Jun 2027 00:07:30.484           120.446               Magadan2          3763.937
       147   03 Jun 2027 00:09:13.570   03 Jun 2027 00:09:17.401             3.831               Magadan1           119.719
       148   03 Jun 2027 00:10:03.301   03 Jun 2027 00:10:17.395            14.094                Norilsk           440.437
       149   03 Jun 2027 00:10:39.176   03 Jun 2027 00:10:52.535            13.359               Magadan1           417.469
       150   03 Jun 2027 00:10:59.194   03 Jun 2027 00:11:43.777            44.583                Irkutsk          1393.219
       151   03 Jun 2027 00:12:38.734   03 Jun 2027 00:13:25.323            46.589                Irkutsk          1455.906
       152   03 Jun 2027 00:14:25.668   03 Jun 2027 00:14:42.842            17.174                Irkutsk           536.688
       153   03 Jun 2027 00:25:12.281   03 Jun 2027 00:27:27.955           135.674                Sumatra          4239.812
       154   03 Jun 2027 00:28:49.373   03 Jun 2027 00:29:07.694            18.321                Sumatra           572.531
       155   03 Jun 2027 00:33:38.010   03 Jun 2027 00:33:43.800             5.790                Sumatra           180.938
       156   03 Jun 2027 00:57:06.172   03 Jun 2027 00:58:26.782            80.610            RioGallegos          2519.063
       157   03 Jun 2027 01:08:00.657   03 Jun 2027 01:08:18.462            17.805            RioGallegos           556.406
       158   03 Jun 2027 01:38:24.372   03 Jun 2027 01:38:41.945            17.573                Anadyr2           549.156
       159   03 Jun 2027 01:38:51.059   03 Jun 2027 01:39:15.387            24.328                Anadyr2           760.250
       160   03 Jun 2027 01:39:55.524   03 Jun 2027 01:40:33.310            37.786                Anadyr2          1180.812
       161   03 Jun 2027 01:40:58.082   03 Jun 2027 01:41:04.901             6.819                Anadyr2           213.094
       162   03 Jun 2027 01:41:16.466   03 Jun 2027 01:41:35.694            19.228                Anadyr2           600.875
       163   03 Jun 2027 01:41:37.862   03 Jun 2027 01:42:11.456            33.594               Magadan1          1049.812
       164   03 Jun 2027 01:42:21.074   03 Jun 2027 01:43:02.845            41.771                Norilsk          1305.344
       165   03 Jun 2027 01:43:03.328   03 Jun 2027 01:43:15.164            11.836               Magadan1           369.875
       166   03 Jun 2027 01:43:20.108   03 Jun 2027 01:44:42.385            82.277               Magadan2          2571.156
       167   03 Jun 2027 01:44:54.958   03 Jun 2027 01:46:15.196            80.238                Irkutsk          2507.437
       168   03 Jun 2027 01:48:03.642   03 Jun 2027 01:48:31.045            27.403                Irkutsk           856.344
       169   03 Jun 2027 01:52:06.338   03 Jun 2027 01:52:29.702            23.364                Irkutsk           730.125
       170   03 Jun 2027 01:55:41.212   03 Jun 2027 01:56:20.070            38.858                  Delhi          1214.312
       171   03 Jun 2027 01:58:47.828   03 Jun 2027 02:01:44.407           176.579                Sumatra          5518.094
       172   03 Jun 2027 02:34:37.782   03 Jun 2027 02:35:05.286            27.504            RioGallegos           859.500
       173   03 Jun 2027 03:21:58.126   03 Jun 2027 03:23:08.419            70.293               Magadan1          2196.656
       174   03 Jun 2027 03:25:41.814   03 Jun 2027 03:26:25.342            43.528                Norilsk          1360.250
       175   03 Jun 2027 03:26:36.681   03 Jun 2027 03:27:14.368            37.687                Novosib          1177.719
       176   03 Jun 2027 03:28:08.149   03 Jun 2027 03:28:13.232             5.083                Norilsk           158.844
       177   03 Jun 2027 03:28:19.436   03 Jun 2027 03:28:34.381            14.945                Novosib           467.031
       178   03 Jun 2027 03:28:35.600   03 Jun 2027 03:29:13.911            38.311                Norilsk          1197.219
       179   03 Jun 2027 03:29:31.160   03 Jun 2027 03:32:34.220           183.060                Irkutsk          5720.625
       180   03 Jun 2027 03:33:18.991   03 Jun 2027 03:40:55.929           456.938                  Delhi         14279.313
       181   03 Jun 2027 04:10:04.173   03 Jun 2027 04:15:16.351           312.178            RioGallegos          9755.562
       182   03 Jun 2027 04:16:14.484   03 Jun 2027 04:17:09.162            54.678            RioGallegos          1708.688
       183   03 Jun 2027 04:45:49.483   03 Jun 2027 04:45:56.754             7.271                Anadyr1           227.219
       184   03 Jun 2027 04:48:17.573   03 Jun 2027 04:48:55.684            38.111                Anadyr1          1190.969
       185   03 Jun 2027 04:50:02.609   03 Jun 2027 04:50:26.613            24.004                Anadyr1           750.125
       186   03 Jun 2027 04:58:24.431   03 Jun 2027 05:00:39.804           135.373                Irkutsk          4230.406
       187   03 Jun 2027 05:01:36.579   03 Jun 2027 05:01:40.094             3.515                Norilsk           109.844
       188   03 Jun 2027 05:01:51.696   03 Jun 2027 05:01:58.212             6.516                Irkutsk           203.625
       189   03 Jun 2027 05:02:06.929   03 Jun 2027 05:03:06.790            59.861                Norilsk          1870.656
       190   03 Jun 2027 05:03:34.269   03 Jun 2027 05:04:21.988            47.719              Murmansk2          1491.219
       191   03 Jun 2027 05:05:26.459   03 Jun 2027 05:05:54.775            28.316              Murmansk2           884.875
       192   03 Jun 2027 05:06:07.194   03 Jun 2027 05:13:23.206           436.012                  Delhi         13625.375
       193   03 Jun 2027 06:37:55.999   03 Jun 2027 06:38:37.283            41.284                 Moscow          1290.125
       194   03 Jun 2027 06:38:40.397   03 Jun 2027 06:39:19.463            39.066              Murmansk1          1220.812
       195   03 Jun 2027 06:39:22.601   03 Jun 2027 06:39:48.590            25.989                Norilsk           812.156
       196   03 Jun 2027 06:40:04.142   03 Jun 2027 06:40:29.642            25.500              Murmansk2           796.875
       197   03 Jun 2027 06:40:35.181   03 Jun 2027 06:40:41.797             6.616              Murmansk1           206.750
       198   03 Jun 2027 06:41:16.953   03 Jun 2027 06:41:18.353             1.400              Murmansk1            43.750
       199   03 Jun 2027 06:42:01.240   03 Jun 2027 06:42:15.131            13.891              Murmansk2           434.094
       200   03 Jun 2027 06:42:15.131   03 Jun 2027 06:42:42.887            27.756              Murmansk1           867.375
       201   03 Jun 2027 06:42:43.329   03 Jun 2027 06:43:54.943            71.614                 Moscow          2237.938
       202   03 Jun 2027 06:58:12.549   03 Jun 2027 06:58:39.984            27.435               CapeTown           857.344
       203   03 Jun 2027 07:01:26.313   03 Jun 2027 07:02:01.313            35.000               CapeTown          1093.750
       204   03 Jun 2027 08:01:24.215   03 Jun 2027 08:02:44.184            79.969                Anadyr1          2499.031
       205   03 Jun 2027 08:02:59.220   03 Jun 2027 08:03:04.197             4.977               Magadan1           155.531
       206   03 Jun 2027 08:03:27.628   03 Jun 2027 08:04:36.928            69.300                Anadyr1          2165.625
       207   03 Jun 2027 08:06:49.128   03 Jun 2027 08:07:26.690            37.562                Anadyr1          1173.813
       208   03 Jun 2027 08:37:58.690   03 Jun 2027 08:43:54.460           355.770               CapeTown         11117.812
       209   03 Jun 2027 09:37:32.293   03 Jun 2027 09:37:53.483            21.190                Anadyr2           662.188
       210   03 Jun 2027 09:37:53.483   03 Jun 2027 09:39:28.669            95.186                Anadyr1          2974.562
       211   03 Jun 2027 09:40:10.462   03 Jun 2027 09:41:37.813            87.351               Magadan1          2729.719
       212   03 Jun 2027 09:42:23.243   03 Jun 2027 09:43:40.474            77.231                Anadyr2          2413.469
       213   03 Jun 2027 11:07:45.130   03 Jun 2027 11:08:08.990            23.860               Magadan2           745.625
       214   03 Jun 2027 11:10:20.034   03 Jun 2027 11:13:08.337           168.303               Magadan2          5259.469
       215   03 Jun 2027 11:13:38.528   03 Jun 2027 11:18:09.516           270.988                Anadyr1          8468.375
       216   03 Jun 2027 11:18:21.222   03 Jun 2027 11:19:10.126            48.904               Magadan1          1528.250
       217   03 Jun 2027 12:30:46.593   03 Jun 2027 12:32:36.467           109.874                Sumatra          3433.562
       218   03 Jun 2027 12:42:20.355   03 Jun 2027 12:44:27.473           127.118                Irkutsk          3972.438
       219   03 Jun 2027 12:47:15.882   03 Jun 2027 12:48:45.821            89.939                Norilsk          2810.594
       220   03 Jun 2027 12:50:26.916   03 Jun 2027 12:51:53.040            86.124               Magadan1          2691.375
       221   03 Jun 2027 13:30:30.599   03 Jun 2027 13:30:50.527            19.928            RioGallegos           622.750
       222   03 Jun 2027 13:32:58.256   03 Jun 2027 13:35:29.985           151.729            RioGallegos          4741.531
       223   03 Jun 2027 14:04:53.629   03 Jun 2027 14:05:18.568            24.939                Sumatra           779.344
       224   03 Jun 2027 14:12:30.683   03 Jun 2027 14:14:40.391           129.708                Sumatra          4053.375
       225   03 Jun 2027 14:19:44.321   03 Jun 2027 14:21:10.784            86.463                Irkutsk          2701.969
       226   03 Jun 2027 14:24:26.070   03 Jun 2027 14:25:14.732            48.662                Irkutsk          1520.687
       227   03 Jun 2027 15:49:32.875   03 Jun 2027 15:51:19.871           106.996                  Delhi          3343.625
       228   03 Jun 2027 15:54:39.807   03 Jun 2027 15:54:57.832            18.025                  Delhi           563.281
       229   03 Jun 2027 15:57:44.944   03 Jun 2027 16:01:47.969           243.025                Novosib          7594.531
       230   03 Jun 2027 16:02:32.910   03 Jun 2027 16:02:49.696            16.786                Norilsk           524.563
       231   03 Jun 2027 16:07:48.256   03 Jun 2027 16:07:56.261             8.005                Novosib           250.156
       232   03 Jun 2027 16:10:11.954   03 Jun 2027 16:10:18.369             6.415                Norilsk           200.469
       233   03 Jun 2027 16:10:37.546   03 Jun 2027 16:11:33.466            55.920                Norilsk          1747.500
       234   03 Jun 2027 17:33:21.334   03 Jun 2027 17:34:37.065            75.731                 Moscow          2366.594
       235   03 Jun 2027 17:35:02.596   03 Jun 2027 17:36:37.203            94.607                 Moscow          2956.469
       236   03 Jun 2027 17:38:44.486   03 Jun 2027 17:39:28.262            43.776              Murmansk2          1368.000
       237   03 Jun 2027 17:42:19.057   03 Jun 2027 17:47:31.910           312.853                Norilsk          9776.656
       238   03 Jun 2027 19:11:44.398   03 Jun 2027 19:14:34.410           170.012                 Moscow          5312.875
       239   03 Jun 2027 19:15:01.843   03 Jun 2027 19:17:46.326           164.483                 Moscow          5140.094
       240   03 Jun 2027 20:24:33.831   03 Jun 2027 20:25:19.302            45.471               CapeTown          1420.969
       241   03 Jun 2027 20:27:28.458   03 Jun 2027 20:27:45.270            16.812               CapeTown           525.375
       242   03 Jun 2027 20:31:19.267   03 Jun 2027 20:32:51.647            92.380               CapeTown          2886.875
       243   03 Jun 2027 20:54:31.394   03 Jun 2027 21:01:11.566           400.172              Murmansk2         12505.375
       244   03 Jun 2027 22:39:18.187   03 Jun 2027 22:40:11.850            53.663                Anadyr2          1676.969
       245   03 Jun 2027 22:40:29.011   03 Jun 2027 22:40:48.181            19.170                Anadyr2           599.063
       246   03 Jun 2027 22:41:34.776   03 Jun 2027 22:43:34.657           119.881               Magadan2          3746.281
       247   03 Jun 2027 22:43:43.429   03 Jun 2027 22:44:09.283            25.854               Magadan1           807.937
       248   03 Jun 2027 22:44:52.670   03 Jun 2027 22:45:02.434             9.764               Magadan1           305.125
       249   03 Jun 2027 22:45:17.771   03 Jun 2027 22:45:22.010             4.239               Magadan2           132.469
       250   03 Jun 2027 22:45:41.657   03 Jun 2027 22:46:20.588            38.931               Magadan1          1216.594
       251   03 Jun 2027 22:46:43.977   03 Jun 2027 22:47:06.018            22.041               Magadan2           688.781
       252   03 Jun 2027 23:34:48.447   03 Jun 2027 23:37:46.642           178.195            RioGallegos          5568.594
       253   03 Jun 2027 23:39:54.253   03 Jun 2027 23:40:34.988            40.735            RioGallegos          1272.969
       254   04 Jun 2027 00:15:05.990   04 Jun 2027 00:16:31.046            85.056                Anadyr1          2658.000
       255   04 Jun 2027 00:16:39.651   04 Jun 2027 00:17:22.335            42.684                Anadyr2          1333.875
       256   04 Jun 2027 00:17:32.952   04 Jun 2027 00:19:14.289           101.337               Magadan2          3166.781
       257   04 Jun 2027 00:20:52.584   04 Jun 2027 00:21:03.580            10.996               Magadan2           343.625
       258   04 Jun 2027 00:21:16.081   04 Jun 2027 00:21:27.004            10.923               Magadan1           341.344
       259   04 Jun 2027 00:21:52.484   04 Jun 2027 00:24:07.880           135.396                Irkutsk          4231.125
       260   04 Jun 2027 00:27:33.365   04 Jun 2027 00:28:31.324            57.959                Irkutsk          1811.219
       261   04 Jun 2027 00:36:25.073   04 Jun 2027 00:37:56.949            91.876                Sumatra          2871.125
       262   04 Jun 2027 00:42:55.195   04 Jun 2027 00:45:28.316           153.121                Sumatra          4785.031
       263   04 Jun 2027 01:50:16.968   04 Jun 2027 01:50:17.753             0.785                Anadyr2            24.531
       264   04 Jun 2027 01:51:47.609   04 Jun 2027 01:52:16.506            28.897                Anadyr1           903.031
       265   04 Jun 2027 01:52:32.866   04 Jun 2027 01:52:48.497            15.631                Anadyr2           488.469
       266   04 Jun 2027 01:53:01.143   04 Jun 2027 01:54:39.531            98.388                Norilsk          3074.625
       267   04 Jun 2027 01:54:43.074   04 Jun 2027 01:55:07.844            24.770               Magadan1           774.063
       268   04 Jun 2027 01:56:55.212   04 Jun 2027 02:00:10.870           195.658                Irkutsk          6114.313
       269   04 Jun 2027 02:09:23.354   04 Jun 2027 02:09:46.307            22.953                  Delhi           717.281
       270   04 Jun 2027 02:11:01.059   04 Jun 2027 02:13:33.846           152.787                Sumatra          4774.594
       271   04 Jun 2027 02:45:06.130   04 Jun 2027 02:46:22.256            76.126            RioGallegos          2378.938
       272   04 Jun 2027 02:56:36.949   04 Jun 2027 02:56:55.160            18.211            RioGallegos           569.094
       273   04 Jun 2027 03:33:51.682   04 Jun 2027 03:34:12.826            21.144               Magadan1           660.750
       274   04 Jun 2027 03:37:22.491   04 Jun 2027 03:37:28.126             5.635                Irkutsk           176.094
       275   04 Jun 2027 03:37:35.306   04 Jun 2027 03:38:09.509            34.203              Murmansk1          1068.844
       276   04 Jun 2027 03:38:16.804   04 Jun 2027 03:38:24.701             7.897                Norilsk           246.781
       277   04 Jun 2027 03:39:06.200   04 Jun 2027 03:39:50.714            44.514                Irkutsk          1391.063
       278   04 Jun 2027 03:39:57.635   04 Jun 2027 03:40:30.446            32.811                Novosib          1025.344
       279   04 Jun 2027 03:40:33.662   04 Jun 2027 03:52:53.943           740.281                  Delhi         23133.781
       280   04 Jun 2027 04:22:26.544   04 Jun 2027 04:28:18.210           351.666            RioGallegos         10989.563
       281   04 Jun 2027 05:12:22.087   04 Jun 2027 05:12:24.737             2.650                 Moscow            82.813
       282   04 Jun 2027 05:12:31.088   04 Jun 2027 05:12:51.285            20.197                Norilsk           631.156
       283   04 Jun 2027 05:12:56.126   04 Jun 2027 05:13:22.607            26.481              Murmansk2           827.531
       284   04 Jun 2027 05:13:26.147   04 Jun 2027 05:13:26.888             0.741                 Moscow            23.156
       285   04 Jun 2027 05:13:37.771   04 Jun 2027 05:14:16.974            39.203                Irkutsk          1225.094
       286   04 Jun 2027 05:14:30.072   04 Jun 2027 05:15:16.982            46.910                 Moscow          1465.938
       287   04 Jun 2027 05:15:27.110   04 Jun 2027 05:16:12.965            45.855              Murmansk2          1432.969
       288   04 Jun 2027 05:16:15.138   04 Jun 2027 05:16:23.382             8.244              Murmansk2           257.625
       289   04 Jun 2027 05:16:24.792   04 Jun 2027 05:16:43.404            18.612              Murmansk1           581.625
       290   04 Jun 2027 05:16:45.613   04 Jun 2027 05:16:58.597            12.984                 Moscow           405.750
       291   04 Jun 2027 05:17:41.278   04 Jun 2027 05:17:43.752             2.474              Murmansk1            77.312
       292   04 Jun 2027 05:18:31.112   04 Jun 2027 05:19:26.790            55.678                 Moscow          1739.938
       293   04 Jun 2027 05:19:45.439   04 Jun 2027 05:19:47.405             1.966                Novosib            61.437
       294   04 Jun 2027 05:20:01.277   04 Jun 2027 05:24:03.607           242.330                  Delhi          7572.812
       295   04 Jun 2027 06:49:19.906   04 Jun 2027 06:49:27.347             7.441              Murmansk1           232.531
       296   04 Jun 2027 06:49:39.539   04 Jun 2027 06:49:39.990             0.451                 Moscow            14.094
       297   04 Jun 2027 06:49:46.129   04 Jun 2027 06:50:20.424            34.295              Murmansk1          1071.719
       298   04 Jun 2027 06:50:20.424   04 Jun 2027 06:50:24.825             4.401              Murmansk2           137.531
       299   04 Jun 2027 06:50:28.884   04 Jun 2027 06:50:56.552            27.668              Murmansk2           864.625
       300   04 Jun 2027 06:50:56.552   04 Jun 2027 06:51:29.953            33.401              Murmansk1          1043.781
       301   04 Jun 2027 06:51:29.953   04 Jun 2027 06:51:59.760            29.807              Murmansk2           931.469
       302   04 Jun 2027 06:52:24.056   04 Jun 2027 06:53:10.805            46.749              Murmansk2          1460.906
       303   04 Jun 2027 06:53:15.509   04 Jun 2027 06:53:24.061             8.552                 Moscow           267.250
       304   04 Jun 2027 06:53:26.915   04 Jun 2027 06:54:34.197            67.282                 Moscow          2102.562
       305   04 Jun 2027 06:55:57.080   04 Jun 2027 06:56:26.541            29.461                 Moscow           920.656
       306   04 Jun 2027 07:10:17.139   04 Jun 2027 07:13:25.389           188.250               CapeTown          5882.812
       307   04 Jun 2027 08:13:15.546   04 Jun 2027 08:15:13.095           117.549                Anadyr1          3673.406
       308   04 Jun 2027 08:15:26.795   04 Jun 2027 08:15:41.352            14.557               Magadan2           454.906
       309   04 Jun 2027 08:15:45.285   04 Jun 2027 08:16:29.258            43.973               Magadan1          1374.156
       310   04 Jun 2027 08:18:02.779   04 Jun 2027 08:19:21.540            78.761                Anadyr1          2461.281
       311   04 Jun 2027 09:44:54.651   04 Jun 2027 09:47:06.286           131.635                Anadyr1          4113.594
       312   04 Jun 2027 09:48:31.945   04 Jun 2027 09:48:57.166            25.221                Anadyr1           788.156
       313   04 Jun 2027 09:49:49.862   04 Jun 2027 09:55:38.277           348.415                Anadyr1         10887.969
       314   04 Jun 2027 09:55:38.277   04 Jun 2027 09:55:38.845             0.568                Anadyr2            17.750
       315   04 Jun 2027 11:21:35.136   04 Jun 2027 11:30:07.852           512.716               Magadan1         16022.375
       316   04 Jun 2027 11:30:58.091   04 Jun 2027 11:31:05.857             7.766               Magadan2           242.688
       317   04 Jun 2027 12:06:01.382   04 Jun 2027 12:07:20.862            79.480            RioGallegos          2483.750
       318   04 Jun 2027 12:42:06.873   04 Jun 2027 12:42:28.991            22.118                Sumatra           691.188
       319   04 Jun 2027 12:45:48.109   04 Jun 2027 12:47:23.308            95.199                Sumatra          2974.969
       320   04 Jun 2027 12:54:20.620   04 Jun 2027 12:55:40.802            80.182                Irkutsk          2505.687
       321   04 Jun 2027 12:56:06.750   04 Jun 2027 12:57:38.918            92.168                Irkutsk          2880.250
       322   04 Jun 2027 13:04:15.513   04 Jun 2027 13:04:37.606            22.093                Norilsk           690.406
       323   04 Jun 2027 13:10:05.159   04 Jun 2027 13:10:24.090            18.931                Norilsk           591.594
       324   04 Jun 2027 13:42:53.174   04 Jun 2027 13:43:44.001            50.827            RioGallegos          1588.344
       325   04 Jun 2027 13:44:48.222   04 Jun 2027 13:45:25.473            37.251            RioGallegos          1164.094
       326   04 Jun 2027 13:51:10.482   04 Jun 2027 13:52:48.838            98.356            RioGallegos          3073.625
       327   04 Jun 2027 14:17:10.257   04 Jun 2027 14:18:57.565           107.308                Sumatra          3353.375
       328   04 Jun 2027 14:22:05.132   04 Jun 2027 14:22:25.912            20.780                Sumatra           649.375
       329   04 Jun 2027 14:31:52.124   04 Jun 2027 14:33:05.809            73.685                Novosib          2302.656
       330   04 Jun 2027 14:34:53.617   04 Jun 2027 14:36:05.812            72.195                Irkutsk          2256.094
       331   04 Jun 2027 14:37:55.601   04 Jun 2027 14:38:10.444            14.843                Irkutsk           463.844
       332   04 Jun 2027 14:39:07.581   04 Jun 2027 14:40:36.284            88.703                Irkutsk          2771.969
       333   04 Jun 2027 16:02:01.263   04 Jun 2027 16:08:02.178           360.915                  Delhi         11278.594
       334   04 Jun 2027 16:10:22.449   04 Jun 2027 16:16:30.659           368.210                Novosib         11506.562
       335   04 Jun 2027 17:55:18.658   04 Jun 2027 17:57:17.542           118.884                Norilsk          3715.125
       336   04 Jun 2027 17:57:35.388   04 Jun 2027 17:59:11.398            96.010                Norilsk          3000.312
       337   04 Jun 2027 19:24:27.539   04 Jun 2027 19:31:07.398           399.859                 Moscow         12495.594
       338   04 Jun 2027 20:35:20.957   04 Jun 2027 20:35:59.572            38.615               CapeTown          1206.719
       339   04 Jun 2027 20:37:21.150   04 Jun 2027 20:38:33.346            72.196               CapeTown          2256.125
       340   04 Jun 2027 20:43:33.307   04 Jun 2027 20:45:10.399            97.092               CapeTown          3034.125
       341   04 Jun 2027 21:07:21.991   04 Jun 2027 21:13:01.984           339.993              Murmansk2         10624.781
       342   04 Jun 2027 22:51:19.822   04 Jun 2027 22:52:36.192            76.370                Anadyr1          2386.563
       343   04 Jun 2027 22:52:48.867   04 Jun 2027 22:53:11.195            22.328                Anadyr1           697.750
       344   04 Jun 2027 22:53:35.631   04 Jun 2027 22:55:00.345            84.714               Magadan2          2647.312
       345   04 Jun 2027 22:56:49.540   04 Jun 2027 22:57:51.056            61.516               Magadan2          1922.375
       346   04 Jun 2027 22:58:23.363   04 Jun 2027 22:58:50.089            26.726               Magadan1           835.188
       347   04 Jun 2027 22:59:41.475   04 Jun 2027 23:00:09.303            27.828               Magadan1           869.625
       348   04 Jun 2027 23:46:22.212   04 Jun 2027 23:49:35.102           192.890            RioGallegos          6027.812
       349   04 Jun 2027 23:52:40.516   04 Jun 2027 23:53:05.327            24.811            RioGallegos           775.344
       350   04 Jun 2027 23:53:49.059   04 Jun 2027 23:54:06.750            17.691            RioGallegos           552.844
       351   04 Jun 2027 23:54:35.549   04 Jun 2027 23:55:02.462            26.913            RioGallegos           841.031
       352   05 Jun 2027 00:27:04.875   05 Jun 2027 00:28:21.309            76.434                Anadyr1          2388.563
       353   05 Jun 2027 00:29:09.572   05 Jun 2027 00:30:48.886            99.314                Norilsk          3103.563
       354   05 Jun 2027 00:31:56.311   05 Jun 2027 00:32:29.420            33.109               Magadan2          1034.656
       355   05 Jun 2027 00:32:54.811   05 Jun 2027 00:33:18.695            23.884               Magadan2           746.375
       356   05 Jun 2027 00:33:39.821   05 Jun 2027 00:35:00.613            80.792                Irkutsk          2524.750
       357   05 Jun 2027 00:36:03.278   05 Jun 2027 00:37:11.628            68.350                Irkutsk          2135.938
       358   05 Jun 2027 00:47:51.446   05 Jun 2027 00:50:55.729           184.283                Sumatra          5758.844
       359   05 Jun 2027 01:27:07.501   05 Jun 2027 01:27:27.320            19.819            RioGallegos           619.344
       360   05 Jun 2027 01:30:37.423   05 Jun 2027 01:31:10.416            32.993            RioGallegos          1031.031
       361   05 Jun 2027 02:02:08.308   05 Jun 2027 02:02:21.206            12.898                Anadyr1           403.063
       362   05 Jun 2027 02:02:21.206   05 Jun 2027 02:02:25.265             4.059                Anadyr2           126.844
       363   05 Jun 2027 02:02:55.895   05 Jun 2027 02:03:36.619            40.724                Anadyr2          1272.625
       364   05 Jun 2027 02:04:31.889   05 Jun 2027 02:04:58.514            26.625                Anadyr1           832.031
       365   05 Jun 2027 02:05:44.447   05 Jun 2027 02:07:22.499            98.052               Magadan1          3064.125
       366   05 Jun 2027 02:08:56.418   05 Jun 2027 02:11:12.243           135.825                Irkutsk          4244.531
       367   05 Jun 2027 02:12:40.669   05 Jun 2027 02:12:54.209            13.540                Irkutsk           423.125
       368   05 Jun 2027 02:15:59.318   05 Jun 2027 02:17:16.594            77.276                Irkutsk          2414.875
       369   05 Jun 2027 02:23:21.398   05 Jun 2027 02:28:54.261           332.863                Sumatra         10401.969
       370   05 Jun 2027 03:05:36.982   05 Jun 2027 03:05:43.828             6.846            RioGallegos           213.937
       371   05 Jun 2027 03:49:01.264   05 Jun 2027 03:49:48.287            47.023              Murmansk1          1469.469
       372   05 Jun 2027 03:49:53.776   05 Jun 2027 03:50:48.509            54.733                Novosib          1710.406
       373   05 Jun 2027 03:51:12.580   05 Jun 2027 03:51:36.428            23.848                Norilsk           745.250
       374   05 Jun 2027 03:52:13.671   05 Jun 2027 04:04:46.542           752.871                  Delhi         23527.219
       375   05 Jun 2027 04:34:58.523   05 Jun 2027 04:39:15.325           256.802            RioGallegos          8025.062
       376   05 Jun 2027 05:19:30.826   05 Jun 2027 05:19:30.858             0.032               Magadan1             1.000
       377   05 Jun 2027 05:24:26.067   05 Jun 2027 05:24:33.761             7.694                 Moscow           240.437
       378   05 Jun 2027 05:24:54.269   05 Jun 2027 05:25:14.659            20.390                Novosib           637.188
       379   05 Jun 2027 05:25:19.114   05 Jun 2027 05:26:15.237            56.123                 Moscow          1753.844
       380   05 Jun 2027 05:26:28.106   05 Jun 2027 05:27:33.409            65.303                 Moscow          2040.719
       381   05 Jun 2027 05:27:36.657   05 Jun 2027 05:28:09.026            32.369              Murmansk1          1011.531
       382   05 Jun 2027 05:28:10.685   05 Jun 2027 05:28:45.158            34.473              Murmansk1          1077.281
       383   05 Jun 2027 05:28:47.238   05 Jun 2027 05:29:33.123            45.885              Murmansk2          1433.906
       384   05 Jun 2027 05:32:53.746   05 Jun 2027 05:33:08.585            14.839                 Moscow           463.719
       385   05 Jun 2027 05:34:01.840   05 Jun 2027 05:34:08.652             6.812                 Moscow           212.875
       386   05 Jun 2027 05:47:50.569   05 Jun 2027 05:48:43.495            52.926               CapeTown          1653.937
       387   05 Jun 2027 05:48:58.230   05 Jun 2027 05:50:43.139           104.909               CapeTown          3278.406
       388   05 Jun 2027 07:01:39.518   05 Jun 2027 07:02:14.188            34.670                 Moscow          1083.437
       389   05 Jun 2027 07:02:28.184   05 Jun 2027 07:02:37.255             9.071                Novosib           283.469
       390   05 Jun 2027 07:02:47.604   05 Jun 2027 07:03:54.455            66.851                 Moscow          2089.094
       391   05 Jun 2027 07:03:57.022   05 Jun 2027 07:05:01.828            64.806                 Moscow          2025.188
       392   05 Jun 2027 07:05:16.390   05 Jun 2027 07:05:49.986            33.596                 Moscow          1049.875
       393   05 Jun 2027 07:07:15.931   05 Jun 2027 07:07:33.848            17.917                 Moscow           559.906
       394   05 Jun 2027 07:09:00.790   05 Jun 2027 07:09:24.909            24.119                 Moscow           753.719
       395   05 Jun 2027 07:22:27.072   05 Jun 2027 07:24:30.275           123.203               CapeTown          3850.094
       396   05 Jun 2027 07:31:38.964   05 Jun 2027 07:32:13.201            34.237               CapeTown          1069.906
       397   05 Jun 2027 08:25:51.568   05 Jun 2027 08:27:38.951           107.383                Anadyr2          3355.719
       398   05 Jun 2027 08:27:45.626   05 Jun 2027 08:28:53.897            68.271                Anadyr1          2133.469
       399   05 Jun 2027 08:30:02.818   05 Jun 2027 08:31:14.349            71.531                Anadyr2          2235.344
       400   05 Jun 2027 09:56:02.710   05 Jun 2027 09:57:01.314            58.604               Magadan2          1831.375
       401   05 Jun 2027 09:57:23.499   05 Jun 2027 10:01:43.414           259.915                Anadyr2          8122.344
       402   05 Jun 2027 10:01:44.668   05 Jun 2027 10:03:06.840            82.172                Anadyr1          2567.875
       403   05 Jun 2027 10:03:52.414   05 Jun 2027 10:03:57.622             5.208                Norilsk           162.750
       404   05 Jun 2027 10:04:19.455   05 Jun 2027 10:04:48.210            28.755                Irkutsk           898.594
       405   05 Jun 2027 10:05:07.244   05 Jun 2027 10:07:36.229           148.985                Anadyr2          4655.781
       406   05 Jun 2027 11:32:40.213   05 Jun 2027 11:33:14.411            34.198               Magadan1          1068.688
       407   05 Jun 2027 11:33:14.411   05 Jun 2027 11:33:30.559            16.148               Magadan2           504.625
       408   05 Jun 2027 11:33:30.559   05 Jun 2027 11:36:41.716           191.157               Magadan1          5973.656
       409   05 Jun 2027 11:37:00.157   05 Jun 2027 11:42:59.940           359.783               Magadan2         11243.219
       410   05 Jun 2027 13:06:24.176   05 Jun 2027 13:07:36.875            72.699                Irkutsk          2271.844
       411   05 Jun 2027 13:09:40.194   05 Jun 2027 13:10:13.015            32.821                Irkutsk          1025.656
       412   05 Jun 2027 13:11:15.824   05 Jun 2027 13:12:01.480            45.656                Norilsk          1426.750
       413   05 Jun 2027 13:24:12.844   05 Jun 2027 13:24:13.223             0.379                Norilsk            11.844
       414   05 Jun 2027 13:55:20.890   05 Jun 2027 13:56:54.460            93.570            RioGallegos          2924.063
       415   05 Jun 2027 13:59:59.001   05 Jun 2027 14:00:53.543            54.542            RioGallegos          1704.438
       416   05 Jun 2027 14:05:15.584   05 Jun 2027 14:05:21.193             5.609            RioGallegos           175.281
       417   05 Jun 2027 14:29:34.720   05 Jun 2027 14:35:30.389           355.669                Sumatra         11114.656
       418   05 Jun 2027 14:44:57.464   05 Jun 2027 14:51:24.689           387.225                Irkutsk         12100.781
       419   05 Jun 2027 16:14:39.617   05 Jun 2027 16:21:53.426           433.809                  Delhi         13556.531
       420   05 Jun 2027 16:24:52.520   05 Jun 2027 16:29:59.931           307.411                Novosib          9606.594
       421   05 Jun 2027 19:37:20.008   05 Jun 2027 19:44:39.574           439.566                 Moscow         13736.437
       422   05 Jun 2027 20:48:29.301   05 Jun 2027 20:49:43.929            74.628               CapeTown          2332.125
       423   05 Jun 2027 20:50:27.999   05 Jun 2027 20:53:00.597           152.598               CapeTown          4768.687
       424   05 Jun 2027 21:20:20.788   05 Jun 2027 21:24:46.295           265.507              Murmansk2          8297.094
       425   05 Jun 2027 23:03:21.292   05 Jun 2027 23:04:37.527            76.235                Anadyr1          2382.344
       426   05 Jun 2027 23:04:37.527   05 Jun 2027 23:04:49.755            12.228                Anadyr2           382.125
       427   05 Jun 2027 23:05:36.934   05 Jun 2027 23:06:37.484            60.550               Magadan1          1892.188
       428   05 Jun 2027 23:06:38.010   05 Jun 2027 23:06:50.950            12.940                Norilsk           404.375
       429   05 Jun 2027 23:06:55.637   05 Jun 2027 23:07:09.193            13.556               Magadan2           423.625
       430   05 Jun 2027 23:08:27.406   05 Jun 2027 23:08:55.315            27.909               Magadan2           872.156
       431   05 Jun 2027 23:09:07.547   05 Jun 2027 23:09:19.478            11.931               Magadan2           372.844
       432   05 Jun 2027 23:10:00.941   05 Jun 2027 23:10:19.283            18.342               Magadan2           573.188
       433   05 Jun 2027 23:10:38.314   05 Jun 2027 23:11:09.402            31.088               Magadan2           971.500
       434   05 Jun 2027 23:16:27.786   05 Jun 2027 23:16:36.132             8.346               Magadan1           260.812
       435   05 Jun 2027 23:17:43.652   05 Jun 2027 23:17:49.483             5.831               Magadan1           182.219
       436   05 Jun 2027 23:58:03.653   06 Jun 2027 00:01:26.574           202.921            RioGallegos          6341.281
       437   06 Jun 2027 00:05:05.001   06 Jun 2027 00:06:07.298            62.297            RioGallegos          1946.781
       438   06 Jun 2027 00:39:03.124   06 Jun 2027 00:40:16.163            73.039                Anadyr2          2282.469
       439   06 Jun 2027 00:41:09.698   06 Jun 2027 00:43:08.555           118.857                Norilsk          3714.281
       440   06 Jun 2027 00:44:53.382   06 Jun 2027 00:45:21.358            27.976               Magadan2           874.250
       441   06 Jun 2027 00:45:30.451   06 Jun 2027 00:47:01.398            90.947                Irkutsk          2842.094
       442   06 Jun 2027 00:49:17.526   06 Jun 2027 00:49:55.995            38.469                Novosib          1202.156
       443   06 Jun 2027 00:50:19.305   06 Jun 2027 00:50:48.492            29.187                Irkutsk           912.094
       444   06 Jun 2027 00:56:25.568   06 Jun 2027 00:56:36.937            11.369                Irkutsk           355.281
       445   06 Jun 2027 00:59:27.440   06 Jun 2027 01:01:19.962           112.522                Sumatra          3516.313
       446   06 Jun 2027 01:06:44.701   06 Jun 2027 01:06:59.357            14.656                Sumatra           458.000
       447   06 Jun 2027 01:11:14.191   06 Jun 2027 01:11:18.009             3.818                Sumatra           119.313
       448   06 Jun 2027 01:36:04.514   06 Jun 2027 01:36:16.996            12.482            RioGallegos           390.063
       449   06 Jun 2027 01:36:19.300   06 Jun 2027 01:36:59.325            40.025            RioGallegos          1250.781
       450   06 Jun 2027 01:41:42.629   06 Jun 2027 01:42:38.481            55.852            RioGallegos          1745.375
       451   06 Jun 2027 02:14:07.595   06 Jun 2027 02:14:22.442            14.847                Anadyr1           463.969
       452   06 Jun 2027 02:14:22.442   06 Jun 2027 02:14:31.548             9.106                Anadyr2           284.563
       453   06 Jun 2027 02:15:20.842   06 Jun 2027 02:16:06.046            45.204                Anadyr2          1412.625
       454   06 Jun 2027 02:17:05.914   06 Jun 2027 02:17:54.225            48.311                Norilsk          1509.719
       455   06 Jun 2027 02:17:56.993   06 Jun 2027 02:18:22.415            25.422                Norilsk           794.437
       456   06 Jun 2027 02:20:58.491   06 Jun 2027 02:23:19.620           141.129                Irkutsk          4410.281
       457   06 Jun 2027 02:26:11.776   06 Jun 2027 02:27:27.893            76.117                Irkutsk          2378.656
       458   06 Jun 2027 02:35:00.158   06 Jun 2027 02:36:42.178           102.020                  Delhi          3188.125
       459   06 Jun 2027 02:36:51.672   06 Jun 2027 02:42:20.671           328.999                Sumatra         10281.219
       460   06 Jun 2027 04:00:17.083   06 Jun 2027 04:00:19.307             2.224              Murmansk1            69.500
       461   06 Jun 2027 04:00:39.315   06 Jun 2027 04:00:52.787            13.472                Novosib           421.000
       462   06 Jun 2027 04:01:02.938   06 Jun 2027 04:03:37.361           154.423              Murmansk2          4825.719
       463   06 Jun 2027 04:03:43.877   06 Jun 2027 04:04:11.657            27.780                Novosib           868.125
       464   06 Jun 2027 04:04:37.069   06 Jun 2027 04:05:10.942            33.873                Norilsk          1058.531
       465   06 Jun 2027 04:05:50.038   06 Jun 2027 04:05:56.169             6.131                Novosib           191.594
       466   06 Jun 2027 04:06:29.930   06 Jun 2027 04:07:54.780            84.850                Novosib          2651.562
       467   06 Jun 2027 04:12:27.519   06 Jun 2027 04:13:54.859            87.340                  Delhi          2729.375
       468   06 Jun 2027 04:48:05.176   06 Jun 2027 04:49:35.491            90.315            RioGallegos          2822.344
       469   06 Jun 2027 05:37:41.088   06 Jun 2027 05:37:45.866             4.778                Norilsk           149.312
       470   06 Jun 2027 05:37:47.596   06 Jun 2027 05:38:11.616            24.020              Murmansk1           750.625
       471   06 Jun 2027 05:38:50.240   06 Jun 2027 05:39:16.064            25.824                Norilsk           807.000
       472   06 Jun 2027 05:39:19.256   06 Jun 2027 05:39:25.812             6.556                Novosib           204.875
       473   06 Jun 2027 05:39:35.335   06 Jun 2027 05:40:49.071            73.736              Murmansk1          2304.250
       474   06 Jun 2027 05:40:49.162   06 Jun 2027 05:41:16.438            27.276                Norilsk           852.375
       475   06 Jun 2027 05:41:23.151   06 Jun 2027 05:42:33.699            70.548              Murmansk2          2204.625
       476   06 Jun 2027 05:43:07.084   06 Jun 2027 05:43:16.922             9.838                 Moscow           307.437
       477   06 Jun 2027 05:44:06.479   06 Jun 2027 05:44:40.579            34.100                 Moscow          1065.625
       478   06 Jun 2027 05:45:33.664   06 Jun 2027 05:45:44.770            11.106                 Moscow           347.062
       479   06 Jun 2027 05:46:04.229   06 Jun 2027 05:46:32.720            28.491                 Moscow           890.344
       480   06 Jun 2027 05:59:22.905   06 Jun 2027 05:59:49.583            26.678               CapeTown           833.687
       481   06 Jun 2027 06:00:29.020   06 Jun 2027 06:02:30.582           121.562               CapeTown          3798.812
       482   06 Jun 2027 07:13:36.198   06 Jun 2027 07:13:52.775            16.577                 Moscow           518.031
