uniorb/output/strategy_2/Drop/Drop_KinoSat_111507.txt

KinoSat_111507
-------------------------
    Access    *     Start Time (UTCG)     *     Stop Time (UTCG)  *   Duration (s)        *       Station  *  Data (Mbytes)
         1   01 Jun 2027 03:00:38.579   01 Jun 2027 03:00:39.019             0.440              Murmansk1            13.750
         2   01 Jun 2027 03:00:44.331   01 Jun 2027 03:00:50.541             6.210              Murmansk1           194.063
         3   01 Jun 2027 03:00:50.541   01 Jun 2027 03:00:57.356             6.815              Murmansk2           212.969
         4   01 Jun 2027 03:01:08.841   01 Jun 2027 03:02:16.045            67.204                 Moscow          2100.125
         5   01 Jun 2027 03:02:19.613   01 Jun 2027 03:03:02.562            42.949              Murmansk2          1342.156
         6   01 Jun 2027 03:03:02.562   01 Jun 2027 03:03:09.986             7.424              Murmansk1           232.000
         7   01 Jun 2027 03:03:50.189   01 Jun 2027 03:04:28.110            37.921              Murmansk1          1185.031
         8   01 Jun 2027 03:04:29.006   01 Jun 2027 03:04:44.566            15.560                 Moscow           486.250
         9   01 Jun 2027 03:05:06.727   01 Jun 2027 03:06:03.095            56.368                Novosib          1761.500
        10   01 Jun 2027 03:06:17.542   01 Jun 2027 03:06:29.587            12.045                  Delhi           376.406
        11   01 Jun 2027 03:08:31.824   01 Jun 2027 03:11:04.337           152.513                  Delhi          4766.031
        12   01 Jun 2027 04:37:36.696   01 Jun 2027 04:38:38.851            62.155                Novosib          1942.344
        13   01 Jun 2027 04:39:15.880   01 Jun 2027 04:39:44.796            28.916                Novosib           903.625
        14   01 Jun 2027 04:41:25.062   01 Jun 2027 04:42:18.881            53.819                 Moscow          1681.844
        15   01 Jun 2027 04:43:50.317   01 Jun 2027 04:44:10.988            20.671                 Moscow           645.969
        16   01 Jun 2027 04:58:08.855   01 Jun 2027 04:58:41.321            32.466               CapeTown          1014.563
        17   01 Jun 2027 04:59:06.861   01 Jun 2027 05:00:39.068            92.207               CapeTown          2881.469
        18   01 Jun 2027 06:01:20.489   01 Jun 2027 06:02:36.243            75.754                Anadyr1          2367.312
        19   01 Jun 2027 06:02:36.243   01 Jun 2027 06:03:09.775            33.532                Anadyr2          1047.875
        20   01 Jun 2027 06:03:26.078   01 Jun 2027 06:03:34.963             8.885               Magadan2           277.656
        21   01 Jun 2027 07:39:54.459   01 Jun 2027 07:41:03.075            68.616                Anadyr1          2144.250
        22   01 Jun 2027 09:12:58.265   01 Jun 2027 09:13:12.688            14.423               Magadan1           450.719
        23   01 Jun 2027 09:13:46.674   01 Jun 2027 09:15:27.548           100.874               Magadan1          3152.313
        24   01 Jun 2027 09:15:27.548   01 Jun 2027 09:16:10.896            43.348               Magadan2          1354.625
        25   01 Jun 2027 09:16:18.630   01 Jun 2027 09:17:32.713            74.083                Anadyr2          2315.094
        26   01 Jun 2027 09:17:37.210   01 Jun 2027 09:18:12.308            35.098               Magadan2          1096.812
        27   01 Jun 2027 09:18:37.631   01 Jun 2027 09:19:01.054            23.423               Magadan2           731.969
        28   01 Jun 2027 09:19:04.345   01 Jun 2027 09:19:49.452            45.107                Novosib          1409.594
        29   01 Jun 2027 09:19:51.420   01 Jun 2027 09:20:05.912            14.492                Norilsk           452.875
        30   01 Jun 2027 09:53:57.845   01 Jun 2027 09:55:46.599           108.754            RioGallegos          3398.562
        31   01 Jun 2027 10:50:02.591   01 Jun 2027 10:52:52.746           170.155                Irkutsk          5317.344
        32   01 Jun 2027 10:53:11.101   01 Jun 2027 10:55:07.832           116.731                Irkutsk          3647.844
        33   01 Jun 2027 10:57:00.109   01 Jun 2027 10:57:36.188            36.079              Murmansk2          1127.469
        34   01 Jun 2027 11:30:37.758   01 Jun 2027 11:30:40.134             2.376            RioGallegos            74.250
        35   01 Jun 2027 11:31:17.931   01 Jun 2027 11:31:52.508            34.577            RioGallegos          1080.531
        36   01 Jun 2027 11:32:23.959   01 Jun 2027 11:32:44.108            20.149            RioGallegos           629.656
        37   01 Jun 2027 12:04:56.511   01 Jun 2027 12:06:48.342           111.831                Sumatra          3494.719
        38   01 Jun 2027 12:09:18.008   01 Jun 2027 12:09:39.601            21.593                Sumatra           674.781
        39   01 Jun 2027 12:13:31.932   01 Jun 2027 12:14:54.363            82.431                  Delhi          2575.969
        40   01 Jun 2027 12:19:43.960   01 Jun 2027 12:21:10.293            86.333                Novosib          2697.906
        41   01 Jun 2027 12:21:27.014   01 Jun 2027 12:21:49.878            22.864                Novosib           714.500
        42   01 Jun 2027 12:22:28.937   01 Jun 2027 12:22:42.271            13.334                Novosib           416.688
        43   01 Jun 2027 12:23:33.237   01 Jun 2027 12:25:12.311            99.074                Norilsk          3096.062
        44   01 Jun 2027 13:49:42.701   01 Jun 2027 13:51:27.882           105.181                  Delhi          3286.906
        45   01 Jun 2027 13:54:07.243   01 Jun 2027 13:55:01.083            53.840                  Delhi          1682.500
        46   01 Jun 2027 13:58:01.056   01 Jun 2027 13:59:40.610            99.554                Novosib          3111.063
        47   01 Jun 2027 14:00:56.878   01 Jun 2027 14:01:08.250            11.372              Murmansk2           355.375
        48   01 Jun 2027 14:01:23.237   01 Jun 2027 14:02:57.445            94.208                Novosib          2944.000
        49   01 Jun 2027 14:04:31.794   01 Jun 2027 14:06:08.788            96.994                Norilsk          3031.063
        50   01 Jun 2027 15:33:19.481   01 Jun 2027 15:36:18.011           178.530                 Moscow          5579.063
        51   01 Jun 2027 15:36:50.980   01 Jun 2027 15:37:28.652            37.672              Murmansk1          1177.250
        52   01 Jun 2027 15:42:50.568   01 Jun 2027 15:46:13.456           202.888                Norilsk          6340.250
        53   01 Jun 2027 15:46:41.621   01 Jun 2027 15:47:14.050            32.429                Norilsk          1013.406
        54   01 Jun 2027 17:12:03.770   01 Jun 2027 17:12:11.960             8.190                 Moscow           255.937
        55   01 Jun 2027 17:14:19.721   01 Jun 2027 17:16:28.582           128.861                 Moscow          4026.906
        56   01 Jun 2027 17:19:42.481   01 Jun 2027 17:19:54.617            12.136              Murmansk1           379.250
        57   01 Jun 2027 17:27:31.459   01 Jun 2027 17:28:34.157            62.698                Anadyr1          1959.313
        58   01 Jun 2027 17:28:43.504   01 Jun 2027 17:29:03.596            20.092                Anadyr1           627.875
        59   01 Jun 2027 18:23:07.696   01 Jun 2027 18:24:45.511            97.815               CapeTown          3056.719
        60   01 Jun 2027 18:27:32.703   01 Jun 2027 18:27:37.223             4.520               CapeTown           141.250
        61   01 Jun 2027 18:54:56.831   01 Jun 2027 18:59:35.339           278.508              Murmansk2          8703.375
        62   01 Jun 2027 19:06:05.941   01 Jun 2027 19:06:30.206            24.265                Anadyr1           758.281
        63   01 Jun 2027 19:06:46.369   01 Jun 2027 19:07:24.113            37.744               Magadan1          1179.500
        64   01 Jun 2027 19:10:59.877   01 Jun 2027 19:11:04.521             4.644               Magadan1           145.125
        65   01 Jun 2027 20:39:12.921   01 Jun 2027 20:43:13.392           240.471                Anadyr2          7514.719
        66   01 Jun 2027 20:43:15.075   01 Jun 2027 20:44:40.350            85.275               Magadan2          2664.844
        67   01 Jun 2027 20:44:40.350   01 Jun 2027 20:45:13.124            32.774               Magadan1          1024.187
        68   01 Jun 2027 20:45:37.226   01 Jun 2027 20:45:58.210            20.984               Magadan2           655.750
        69   01 Jun 2027 20:46:13.635   01 Jun 2027 20:46:31.674            18.039               Magadan2           563.719
        70   01 Jun 2027 20:47:16.191   01 Jun 2027 20:48:13.420            57.229               Magadan2          1788.406
        71   01 Jun 2027 21:34:27.767   01 Jun 2027 21:36:17.402           109.635            RioGallegos          3426.094
        72   01 Jun 2027 21:36:52.422   01 Jun 2027 21:37:10.071            17.649            RioGallegos           551.531
        73   01 Jun 2027 21:40:43.030   01 Jun 2027 21:40:48.272             5.242            RioGallegos           163.813
        74   01 Jun 2027 22:14:58.570   01 Jun 2027 22:16:05.730            67.160                Anadyr1          2098.750
        75   01 Jun 2027 22:16:32.104   01 Jun 2027 22:17:05.169            33.065                Anadyr1          1033.281
        76   01 Jun 2027 22:17:05.503   01 Jun 2027 22:17:59.498            53.995                Norilsk          1687.344
        77   01 Jun 2027 22:18:38.408   01 Jun 2027 22:19:00.137            21.729               Magadan1           679.031
        78   01 Jun 2027 22:19:00.137   01 Jun 2027 22:19:19.031            18.894               Magadan2           590.438
        79   01 Jun 2027 22:19:31.569   01 Jun 2027 22:19:47.269            15.700               Magadan2           490.625
        80   01 Jun 2027 22:20:09.517   01 Jun 2027 22:20:48.476            38.959               Magadan1          1217.469
        81   01 Jun 2027 22:21:52.652   01 Jun 2027 22:22:38.537            45.885                Irkutsk          1433.906
        82   01 Jun 2027 22:35:58.480   01 Jun 2027 22:38:47.292           168.812                Sumatra          5275.375
        83   01 Jun 2027 23:50:04.690   01 Jun 2027 23:50:05.525             0.835                Anadyr1            26.094
        84   01 Jun 2027 23:50:41.349   01 Jun 2027 23:52:26.849           105.500                Anadyr1          3296.875
        85   01 Jun 2027 23:53:35.832   01 Jun 2027 23:53:42.737             6.905               Magadan2           215.781
        86   01 Jun 2027 23:53:42.737   01 Jun 2027 23:54:18.444            35.707               Magadan1          1115.844
        87   01 Jun 2027 23:54:52.945   01 Jun 2027 23:56:00.296            67.351               Magadan2          2104.719
        88   01 Jun 2027 23:56:49.979   01 Jun 2027 23:57:45.215            55.236                Irkutsk          1726.125
        89   01 Jun 2027 23:58:23.146   01 Jun 2027 23:59:41.387            78.241                Novosib          2445.031
        90   02 Jun 2027 00:06:01.074   02 Jun 2027 00:06:17.089            16.015                  Delhi           500.469
        91   02 Jun 2027 00:06:38.818   02 Jun 2027 00:08:36.963           118.145                  Delhi          3692.031
        92   02 Jun 2027 01:23:57.994   02 Jun 2027 01:23:59.105             1.111                Anadyr2            34.719
        93   02 Jun 2027 01:24:03.916   02 Jun 2027 01:24:23.473            19.557                Anadyr1           611.156
        94   02 Jun 2027 01:24:57.422   02 Jun 2027 01:26:15.601            78.179                Anadyr1          2443.094
        95   02 Jun 2027 01:28:57.956   02 Jun 2027 01:31:00.504           122.548                Norilsk          3829.625
        96   02 Jun 2027 01:31:34.658   02 Jun 2027 01:32:54.111            79.453              Murmansk2          2482.906
        97   02 Jun 2027 01:33:03.119   02 Jun 2027 01:34:54.346           111.227                Novosib          3475.844
        98   02 Jun 2027 01:44:23.844   02 Jun 2027 01:44:58.439            34.595                  Delhi          1081.094
        99   02 Jun 2027 02:22:34.515   02 Jun 2027 02:23:55.637            81.122            RioGallegos          2535.063
       100   02 Jun 2027 02:24:42.273   02 Jun 2027 02:25:55.992            73.719            RioGallegos          2303.719
       101   02 Jun 2027 02:57:15.013   02 Jun 2027 02:57:19.235             4.222                Anadyr1           131.937
       102   02 Jun 2027 02:57:19.235   02 Jun 2027 02:57:38.346            19.111                Anadyr2           597.219
       103   02 Jun 2027 02:58:13.478   02 Jun 2027 02:58:31.186            17.708                Anadyr2           553.375
       104   02 Jun 2027 03:13:49.960   02 Jun 2027 03:15:56.897           126.937              Murmansk1          3966.781
       105   02 Jun 2027 03:16:18.467   02 Jun 2027 03:16:35.951            17.484              Murmansk1           546.375
       106   02 Jun 2027 03:16:39.009   02 Jun 2027 03:17:22.856            43.847                 Moscow          1370.219
       107   02 Jun 2027 03:17:30.304   02 Jun 2027 03:18:01.136            30.832              Murmansk1           963.500
       108   02 Jun 2027 03:18:09.027   02 Jun 2027 03:18:12.239             3.212              Murmansk1           100.375
       109   02 Jun 2027 03:18:25.182   02 Jun 2027 03:18:26.835             1.653              Murmansk2            51.656
       110   02 Jun 2027 03:19:39.142   02 Jun 2027 03:19:48.223             9.081                Novosib           283.781
       111   02 Jun 2027 03:21:00.341   02 Jun 2027 03:21:37.908            37.567                 Moscow          1173.969
       112   02 Jun 2027 03:36:48.411   02 Jun 2027 03:38:37.993           109.582               CapeTown          3424.438
       113   02 Jun 2027 04:32:12.452   02 Jun 2027 04:32:27.504            15.052                Anadyr2           470.375
       114   02 Jun 2027 04:51:56.351   02 Jun 2027 04:52:29.586            33.235              Murmansk1          1038.594
       115   02 Jun 2027 04:52:47.813   02 Jun 2027 04:53:55.596            67.783              Murmansk1          2118.219
       116   02 Jun 2027 06:13:36.972   02 Jun 2027 06:14:11.905            34.933               Magadan2          1091.656
       117   02 Jun 2027 06:14:38.025   02 Jun 2027 06:16:28.071           110.046               Magadan1          3438.937
       118   02 Jun 2027 06:16:43.862   02 Jun 2027 06:17:14.245            30.383                Anadyr1           949.469
       119   02 Jun 2027 06:17:36.088   02 Jun 2027 06:18:17.246            41.158                Norilsk          1286.188
       120   02 Jun 2027 06:19:03.531   02 Jun 2027 06:19:06.990             3.459              Murmansk1           108.094
       121   02 Jun 2027 07:51:42.278   02 Jun 2027 07:55:20.895           218.617               Magadan1          6831.781
       122   02 Jun 2027 09:25:25.904   02 Jun 2027 09:25:34.476             8.572               Magadan1           267.875
       123   02 Jun 2027 09:25:34.476   02 Jun 2027 09:25:48.345            13.869               Magadan2           433.406
       124   02 Jun 2027 09:26:20.954   02 Jun 2027 09:26:35.444            14.490                Novosib           452.812
       125   02 Jun 2027 09:26:42.495   02 Jun 2027 09:26:56.698            14.203                Norilsk           443.844
       126   02 Jun 2027 09:26:57.553   02 Jun 2027 09:27:09.334            11.781                Irkutsk           368.156
       127   02 Jun 2027 09:27:25.162   02 Jun 2027 09:29:32.556           127.394               Magadan1          3981.063
       128   02 Jun 2027 09:29:43.308   02 Jun 2027 09:30:48.752            65.444              Murmansk2          2045.125
       129   02 Jun 2027 09:30:54.204   02 Jun 2027 09:30:55.565             1.361               Magadan1            42.531
       130   02 Jun 2027 09:30:56.438   02 Jun 2027 09:30:57.301             0.863                Irkutsk            26.969
       131   02 Jun 2027 09:31:17.070   02 Jun 2027 09:31:51.079            34.009                Norilsk          1062.781
       132   02 Jun 2027 09:32:10.051   02 Jun 2027 09:32:35.547            25.496              Murmansk2           796.750
       133   02 Jun 2027 10:05:52.868   02 Jun 2027 10:07:55.203           122.335            RioGallegos          3822.969
       134   02 Jun 2027 10:41:43.427   02 Jun 2027 10:42:35.319            51.892                Sumatra          1621.625
       135   02 Jun 2027 11:01:08.920   02 Jun 2027 11:02:12.488            63.568                Novosib          1986.500
       136   02 Jun 2027 11:02:22.043   02 Jun 2027 11:02:26.806             4.763                Norilsk           148.844
       137   02 Jun 2027 11:02:30.715   02 Jun 2027 11:02:50.801            20.086                Norilsk           627.687
       138   02 Jun 2027 11:03:19.535   02 Jun 2027 11:04:11.031            51.496                Novosib          1609.250
       139   02 Jun 2027 11:04:14.050   02 Jun 2027 11:04:38.712            24.662              Murmansk1           770.687
       140   02 Jun 2027 11:04:45.784   02 Jun 2027 11:04:48.708             2.924                Irkutsk            91.375
       141   02 Jun 2027 11:05:01.344   02 Jun 2027 11:05:03.284             1.940                Norilsk            60.625
       142   02 Jun 2027 11:05:08.775   02 Jun 2027 11:05:14.425             5.650              Murmansk1           176.563
       143   02 Jun 2027 11:05:16.861   02 Jun 2027 11:05:29.896            13.035              Murmansk2           407.344
       144   02 Jun 2027 11:05:32.386   02 Jun 2027 11:06:15.766            43.380                Norilsk          1355.625
       145   02 Jun 2027 11:06:17.633   02 Jun 2027 11:06:46.616            28.983              Murmansk2           905.719
       146   02 Jun 2027 11:06:50.964   02 Jun 2027 11:07:26.043            35.079                Norilsk          1096.219
       147   02 Jun 2027 11:43:03.074   02 Jun 2027 11:43:36.429            33.355            RioGallegos          1042.344
       148   02 Jun 2027 11:44:01.367   02 Jun 2027 11:44:37.517            36.150            RioGallegos          1129.688
       149   02 Jun 2027 12:17:17.160   02 Jun 2027 12:18:45.041            87.881                Sumatra          2746.281
       150   02 Jun 2027 12:31:50.501   02 Jun 2027 12:33:27.112            96.611                Novosib          3019.094
       151   02 Jun 2027 12:34:48.860   02 Jun 2027 12:35:00.988            12.128                Novosib           379.000
       152   02 Jun 2027 12:35:45.608   02 Jun 2027 12:38:17.222           151.614                Norilsk          4737.938
       153   02 Jun 2027 14:02:16.306   02 Jun 2027 14:06:05.454           229.148                  Delhi          7160.875
       154   02 Jun 2027 14:10:42.525   02 Jun 2027 14:11:47.197            64.672                Novosib          2021.000
       155   02 Jun 2027 14:12:48.314   02 Jun 2027 14:15:35.046           166.732                Novosib          5210.375
       156   02 Jun 2027 15:45:28.522   02 Jun 2027 15:47:21.707           113.185                 Moscow          3537.031
       157   02 Jun 2027 15:48:59.453   02 Jun 2027 15:51:51.494           172.041              Murmansk2          5376.281
       158   02 Jun 2027 15:56:00.561   02 Jun 2027 15:58:13.151           132.590                Norilsk          4143.438
       159   02 Jun 2027 16:04:48.267   02 Jun 2027 16:05:01.417            13.150                Anadyr1           410.937
       160   02 Jun 2027 16:58:55.711   02 Jun 2027 16:59:58.891            63.180               CapeTown          1974.375
       161   02 Jun 2027 17:00:30.235   02 Jun 2027 17:00:46.771            16.536               CapeTown           516.750
       162   02 Jun 2027 17:24:51.903   02 Jun 2027 17:25:25.151            33.248                 Moscow          1039.000
       163   02 Jun 2027 17:25:58.025   02 Jun 2027 17:29:34.877           216.852                 Moscow          6776.625
       164   02 Jun 2027 17:39:29.997   02 Jun 2027 17:40:02.703            32.706                Anadyr2          1022.063
       165   02 Jun 2027 17:40:36.095   02 Jun 2027 17:40:45.973             9.878                Anadyr2           308.687
       166   02 Jun 2027 17:41:00.323   02 Jun 2027 17:41:04.668             4.345                Anadyr2           135.781
       167   02 Jun 2027 17:41:45.332   02 Jun 2027 17:42:34.043            48.711                Anadyr1          1522.219
       168   02 Jun 2027 18:35:25.014   02 Jun 2027 18:36:11.135            46.121               CapeTown          1441.281
       169   02 Jun 2027 18:36:36.184   02 Jun 2027 18:36:49.867            13.683               CapeTown           427.594
       170   02 Jun 2027 18:38:48.639   02 Jun 2027 18:38:52.551             3.912               CapeTown           122.250
       171   02 Jun 2027 18:39:33.386   02 Jun 2027 18:39:53.739            20.353               CapeTown           636.031
       172   02 Jun 2027 19:07:52.117   02 Jun 2027 19:12:44.161           292.044              Murmansk2          9126.375
       173   02 Jun 2027 19:17:59.274   02 Jun 2027 19:18:45.234            45.960               Magadan2          1436.250
       174   02 Jun 2027 19:21:38.077   02 Jun 2027 19:21:43.971             5.894               Magadan1           184.187
       175   02 Jun 2027 19:21:59.389   02 Jun 2027 19:22:22.835            23.446               Magadan1           732.688
       176   02 Jun 2027 19:26:25.824   02 Jun 2027 19:26:45.503            19.679               Magadan2           614.969
       177   02 Jun 2027 20:51:14.213   02 Jun 2027 20:54:57.161           222.948                Anadyr2          6967.125
       178   02 Jun 2027 20:55:09.373   02 Jun 2027 20:57:55.510           166.137               Magadan1          5191.781
       179   02 Jun 2027 20:58:42.177   02 Jun 2027 20:59:00.634            18.457               Magadan2           576.781
       180   02 Jun 2027 21:46:06.037   02 Jun 2027 21:49:16.458           190.421            RioGallegos          5950.656
       181   02 Jun 2027 21:51:12.445   02 Jun 2027 21:52:33.223            80.778            RioGallegos          2524.312
       182   02 Jun 2027 22:26:56.854   02 Jun 2027 22:27:27.644            30.790                Anadyr1           962.187
       183   02 Jun 2027 22:29:04.967   02 Jun 2027 22:30:38.358            93.391                Norilsk          2918.469
       184   02 Jun 2027 22:30:59.768   02 Jun 2027 22:31:21.653            21.885               Magadan1           683.906
       185   02 Jun 2027 22:32:05.180   02 Jun 2027 22:32:44.843            39.663                Norilsk          1239.469
       186   02 Jun 2027 22:33:28.910   02 Jun 2027 22:34:28.847            59.937                Irkutsk          1873.031
       187   02 Jun 2027 22:41:43.756   02 Jun 2027 22:42:17.136            33.380                Irkutsk          1043.125
       188   02 Jun 2027 22:47:30.673   02 Jun 2027 22:49:11.464           100.791                Sumatra          3149.719
       189   02 Jun 2027 22:58:17.688   02 Jun 2027 22:58:31.217            13.529                Sumatra           422.781
       190   02 Jun 2027 23:31:01.510   02 Jun 2027 23:31:18.727            17.217            RioGallegos           538.031
       191   03 Jun 2027 00:01:55.107   03 Jun 2027 00:04:13.425           138.318                Anadyr2          4322.438
       192   03 Jun 2027 00:04:59.394   03 Jun 2027 00:06:02.537            63.143                Norilsk          1973.219
       193   03 Jun 2027 00:06:02.565   03 Jun 2027 00:06:28.647            26.082               Magadan1           815.062
       194   03 Jun 2027 00:07:30.484   03 Jun 2027 00:08:29.585            59.101               Magadan1          1846.906
       195   03 Jun 2027 00:08:51.414   03 Jun 2027 00:09:26.006            34.592                Irkutsk          1081.000
       196   03 Jun 2027 00:09:32.146   03 Jun 2027 00:09:34.792             2.646                Irkutsk            82.688
       197   03 Jun 2027 00:09:49.456   03 Jun 2027 00:11:42.093           112.637                Novosib          3519.906
       198   03 Jun 2027 00:16:35.111   03 Jun 2027 00:17:05.824            30.713                Novosib           959.781
       199   03 Jun 2027 00:17:26.722   03 Jun 2027 00:17:52.103            25.381                  Delhi           793.156
       200   03 Jun 2027 00:21:04.601   03 Jun 2027 00:21:39.408            34.807                  Delhi          1087.719
       201   03 Jun 2027 00:26:24.797   03 Jun 2027 00:26:40.972            16.175                  Delhi           505.469
       202   03 Jun 2027 00:58:31.191   03 Jun 2027 00:58:59.975            28.784            RioGallegos           899.500
       203   03 Jun 2027 01:02:03.474   03 Jun 2027 01:02:53.559            50.085            RioGallegos          1565.156
       204   03 Jun 2027 01:35:39.756   03 Jun 2027 01:36:04.871            25.115                Anadyr1           784.844
       205   03 Jun 2027 01:36:04.871   03 Jun 2027 01:36:21.399            16.528                Anadyr2           516.500
       206   03 Jun 2027 01:36:58.754   03 Jun 2027 01:37:57.957            59.203                Anadyr1          1850.094
       207   03 Jun 2027 01:40:59.862   03 Jun 2027 01:42:21.074            81.212                Norilsk          2537.875
       208   03 Jun 2027 01:43:03.328   03 Jun 2027 01:43:20.108            16.780               Magadan2           524.375
       209   03 Jun 2027 01:43:28.895   03 Jun 2027 01:45:34.260           125.365              Murmansk2          3917.656
       210   03 Jun 2027 01:45:34.260   03 Jun 2027 01:45:45.582            11.322              Murmansk1           353.813
       211   03 Jun 2027 01:46:15.196   03 Jun 2027 01:48:03.642           108.446                Irkutsk          3388.938
       212   03 Jun 2027 01:57:23.098   03 Jun 2027 01:57:57.096            33.998                  Delhi          1062.438
       213   03 Jun 2027 02:35:16.116   03 Jun 2027 02:37:07.801           111.685            RioGallegos          3490.156
       214   03 Jun 2027 02:37:20.251   03 Jun 2027 02:38:08.588            48.337            RioGallegos          1510.531
       215   03 Jun 2027 03:26:26.993   03 Jun 2027 03:28:01.941            94.948              Murmansk2          2967.125
       216   03 Jun 2027 03:28:36.934   03 Jun 2027 03:29:18.529            41.595              Murmansk2          1299.844
       217   03 Jun 2027 03:29:34.171   03 Jun 2027 03:30:06.933            32.762              Murmansk2          1023.812
       218   03 Jun 2027 03:30:42.449   03 Jun 2027 03:31:24.438            41.989                Novosib          1312.156
       219   03 Jun 2027 03:47:27.367   03 Jun 2027 03:47:59.353            31.986               CapeTown           999.563
       220   03 Jun 2027 03:48:32.469   03 Jun 2027 03:50:21.787           109.318               CapeTown          3416.187
       221   03 Jun 2027 05:03:12.921   03 Jun 2027 05:04:18.524            65.603                 Moscow          2050.094
       222   03 Jun 2027 05:04:21.988   03 Jun 2027 05:04:44.301            22.313              Murmansk2           697.281
       223   03 Jun 2027 05:04:56.978   03 Jun 2027 05:05:58.618            61.640                 Moscow          1926.250
       224   03 Jun 2027 05:07:04.751   03 Jun 2027 05:08:01.114            56.363              Murmansk1          1761.344
       225   03 Jun 2027 05:22:29.388   03 Jun 2027 05:23:24.618            55.230               CapeTown          1725.937
       226   03 Jun 2027 06:25:32.610   03 Jun 2027 06:25:34.368             1.758               Magadan1            54.938
       227   03 Jun 2027 06:25:39.820   03 Jun 2027 06:25:40.902             1.082               Magadan2            33.813
       228   03 Jun 2027 06:25:40.902   03 Jun 2027 06:27:27.933           107.031               Magadan1          3344.719
       229   03 Jun 2027 06:27:39.754   03 Jun 2027 06:27:47.826             8.072                Anadyr2           252.250
       230   03 Jun 2027 06:28:06.542   03 Jun 2027 06:28:54.608            48.066                Anadyr2          1502.062
       231   03 Jun 2027 06:30:07.760   03 Jun 2027 06:30:36.210            28.450                Anadyr2           889.062
       232   03 Jun 2027 06:42:11.358   03 Jun 2027 06:42:43.329            31.971                 Moscow           999.094
       233   03 Jun 2027 08:01:24.215   03 Jun 2027 08:02:12.557            48.342                Anadyr2          1510.687
       234   03 Jun 2027 08:02:40.191   03 Jun 2027 08:02:47.917             7.726               Magadan2           241.438
       235   03 Jun 2027 08:02:59.220   03 Jun 2027 08:03:04.197             4.977               Magadan2           155.531
       236   03 Jun 2027 08:03:04.939   03 Jun 2027 08:04:02.856            57.917                Irkutsk          1809.906
       237   03 Jun 2027 08:04:18.937   03 Jun 2027 08:05:12.568            53.631               Magadan2          1675.969
       238   03 Jun 2027 08:06:02.288   03 Jun 2027 08:06:49.128            46.840                Anadyr1          1463.750
       239   03 Jun 2027 08:44:41.122   03 Jun 2027 08:45:01.526            20.404            RioGallegos           637.625
       240   03 Jun 2027 09:36:37.649   03 Jun 2027 09:38:00.032            82.383               Magadan1          2574.469
       241   03 Jun 2027 09:38:11.951   03 Jun 2027 09:40:10.462           118.511               Magadan2          3703.469
       242   03 Jun 2027 09:40:27.409   03 Jun 2027 09:40:29.436             2.027                Irkutsk            63.344
       243   03 Jun 2027 09:40:57.261   03 Jun 2027 09:41:12.004            14.743                Norilsk           460.719
       244   03 Jun 2027 09:41:23.065   03 Jun 2027 09:41:26.227             3.162                Novosib            98.813
       245   03 Jun 2027 09:41:28.882   03 Jun 2027 09:41:39.755            10.873                Irkutsk           339.781
       246   03 Jun 2027 09:41:56.039   03 Jun 2027 09:42:49.724            53.685                Irkutsk          1677.656
       247   03 Jun 2027 09:42:58.016   03 Jun 2027 09:43:45.473            47.457              Murmansk2          1483.031
       248   03 Jun 2027 10:17:51.144   03 Jun 2027 10:18:23.729            32.585            RioGallegos          1018.281
       249   03 Jun 2027 10:18:56.720   03 Jun 2027 10:19:05.356             8.636            RioGallegos           269.875
       250   03 Jun 2027 10:19:38.352   03 Jun 2027 10:20:13.199            34.847            RioGallegos          1088.969
       251   03 Jun 2027 10:53:19.969   03 Jun 2027 10:53:48.279            28.310                Sumatra           884.687
       252   03 Jun 2027 10:54:08.115   03 Jun 2027 10:54:50.819            42.704                Sumatra          1334.500
       253   03 Jun 2027 11:12:53.206   03 Jun 2027 11:13:23.293            30.087                Novosib           940.219
       254   03 Jun 2027 11:13:25.853   03 Jun 2027 11:14:28.548            62.695                Norilsk          1959.219
       255   03 Jun 2027 11:14:32.406   03 Jun 2027 11:14:49.355            16.949                Norilsk           529.656
       256   03 Jun 2027 11:14:51.115   03 Jun 2027 11:15:19.251            28.136                Novosib           879.250
       257   03 Jun 2027 11:15:26.413   03 Jun 2027 11:16:42.964            76.551                Irkutsk          2392.219
       258   03 Jun 2027 11:17:02.561   03 Jun 2027 11:17:33.537            30.976                Norilsk           968.000
       259   03 Jun 2027 11:17:47.419   03 Jun 2027 11:18:07.862            20.443                Novosib           638.844
       260   03 Jun 2027 11:18:15.167   03 Jun 2027 11:19:13.317            58.150              Murmansk2          1817.188
       261   03 Jun 2027 11:55:33.963   03 Jun 2027 11:56:52.666            78.703            RioGallegos          2459.469
       262   03 Jun 2027 12:29:46.757   03 Jun 2027 12:30:42.881            56.124                Sumatra          1753.875
       263   03 Jun 2027 12:38:34.874   03 Jun 2027 12:39:41.183            66.309                  Delhi          2072.156
       264   03 Jun 2027 12:44:09.812   03 Jun 2027 12:44:37.538            27.726                Novosib           866.438
       265   03 Jun 2027 12:45:07.080   03 Jun 2027 12:45:18.165            11.085                Novosib           346.406
       266   03 Jun 2027 12:47:19.111   03 Jun 2027 12:49:31.410           132.299                Irkutsk          4134.344
       267   03 Jun 2027 12:52:14.967   03 Jun 2027 12:52:21.053             6.086                Norilsk           190.188
       268   03 Jun 2027 14:15:01.872   03 Jun 2027 14:17:02.574           120.702                  Delhi          3771.938
       269   03 Jun 2027 14:18:00.074   03 Jun 2027 14:19:50.608           110.534                  Delhi          3454.187
       270   03 Jun 2027 14:23:32.750   03 Jun 2027 14:26:58.060           205.310                Novosib          6415.938
       271   03 Jun 2027 14:28:35.740   03 Jun 2027 14:29:09.337            33.597                Norilsk          1049.906
       272   03 Jun 2027 15:38:51.048   03 Jun 2027 15:40:11.645            80.597               CapeTown          2518.656
       273   03 Jun 2027 15:40:24.954   03 Jun 2027 15:41:19.029            54.075               CapeTown          1689.844
       274   03 Jun 2027 15:57:40.873   03 Jun 2027 15:58:51.263            70.390                 Moscow          2199.688
       275   03 Jun 2027 16:01:09.724   03 Jun 2027 16:01:42.117            32.393              Murmansk1          1012.281
       276   03 Jun 2027 16:01:42.117   03 Jun 2027 16:02:02.018            19.901              Murmansk2           621.906
       277   03 Jun 2027 16:02:21.604   03 Jun 2027 16:03:50.052            88.448              Murmansk2          2764.000
       278   03 Jun 2027 16:16:27.970   03 Jun 2027 16:17:20.098            52.128                Anadyr1          1629.000
       279   03 Jun 2027 16:17:39.280   03 Jun 2027 16:18:25.596            46.316                Anadyr2          1447.375
       280   03 Jun 2027 16:22:56.467   03 Jun 2027 16:23:06.244             9.777                Anadyr1           305.531
       281   03 Jun 2027 17:10:51.153   03 Jun 2027 17:11:40.464            49.311               CapeTown          1540.969
       282   03 Jun 2027 17:13:00.942   03 Jun 2027 17:13:26.814            25.872               CapeTown           808.500
       283   03 Jun 2027 17:18:14.433   03 Jun 2027 17:18:30.548            16.115               CapeTown           503.594
       284   03 Jun 2027 17:37:51.884   03 Jun 2027 17:40:27.905           156.021                 Moscow          4875.656
       285   03 Jun 2027 17:41:25.781   03 Jun 2027 17:42:11.071            45.290                 Moscow          1415.312
       286   03 Jun 2027 17:51:29.235   03 Jun 2027 17:52:27.152            57.917                Anadyr1          1809.906
       287   03 Jun 2027 17:52:43.328   03 Jun 2027 17:53:05.916            22.588                Anadyr1           705.875
       288   03 Jun 2027 17:55:59.528   03 Jun 2027 17:56:20.882            21.354                Anadyr1           667.312
       289   03 Jun 2027 18:47:47.716   03 Jun 2027 18:48:57.084            69.368               CapeTown          2167.750
       290   03 Jun 2027 18:53:01.671   03 Jun 2027 18:53:08.777             7.106               CapeTown           222.063
       291   03 Jun 2027 18:56:41.377   03 Jun 2027 18:57:06.517            25.140               CapeTown           785.625
       292   03 Jun 2027 19:21:00.003   03 Jun 2027 19:24:20.064           200.061              Murmansk1          6251.906
       293   03 Jun 2027 19:28:06.072   03 Jun 2027 19:29:10.551            64.479                Anadyr2          2014.969
       294   03 Jun 2027 19:29:54.287   03 Jun 2027 19:30:22.345            28.058               Magadan2           876.813
       295   03 Jun 2027 19:30:22.345   03 Jun 2027 19:31:15.011            52.666               Magadan1          1645.813
       296   03 Jun 2027 19:31:28.590   03 Jun 2027 19:32:36.216            67.626               Magadan1          2113.312
       297   03 Jun 2027 21:03:15.314   03 Jun 2027 21:07:11.470           236.156                Anadyr1          7379.875
       298   03 Jun 2027 21:07:42.605   03 Jun 2027 21:09:32.154           109.549                Norilsk          3423.406
       299   03 Jun 2027 21:09:35.148   03 Jun 2027 21:10:31.491            56.343               Magadan1          1760.719
       300   03 Jun 2027 21:15:56.041   03 Jun 2027 21:16:00.994             4.953               Magadan2           154.781
       301   03 Jun 2027 21:16:08.045   03 Jun 2027 21:16:16.815             8.770               Magadan1           274.062
       302   03 Jun 2027 21:16:16.815   03 Jun 2027 21:16:31.377            14.562               Magadan2           455.062
       303   03 Jun 2027 21:57:50.224   03 Jun 2027 22:01:01.375           191.151            RioGallegos          5973.469
       304   03 Jun 2027 22:38:54.456   03 Jun 2027 22:39:18.187            23.731                Anadyr2           741.594
       305   03 Jun 2027 22:40:11.850   03 Jun 2027 22:40:29.011            17.161                Anadyr2           536.281
       306   03 Jun 2027 22:40:48.181   03 Jun 2027 22:42:13.981            85.800                Anadyr2          2681.250
       307   03 Jun 2027 22:42:27.500   03 Jun 2027 22:42:46.905            19.405                Norilsk           606.406
       308   03 Jun 2027 22:43:02.706   03 Jun 2027 22:43:43.429            40.723               Magadan1          1272.594
       309   03 Jun 2027 22:44:41.067   03 Jun 2027 22:44:52.670            11.603               Magadan1           362.594
       310   03 Jun 2027 22:45:02.434   03 Jun 2027 22:45:17.771            15.337               Magadan1           479.281
       311   03 Jun 2027 22:45:20.763   03 Jun 2027 22:46:13.781            53.018                Irkutsk          1656.812
       312   03 Jun 2027 22:47:41.408   03 Jun 2027 22:48:50.546            69.138                Irkutsk          2160.563
       313   03 Jun 2027 22:53:47.307   03 Jun 2027 22:54:50.211            62.904                Irkutsk          1965.750
       314   03 Jun 2027 22:59:11.115   03 Jun 2027 22:59:46.483            35.368                Sumatra          1105.250
       315   03 Jun 2027 23:01:01.301   03 Jun 2027 23:01:33.908            32.607                Sumatra          1018.969
       316   03 Jun 2027 23:41:10.638   03 Jun 2027 23:42:00.162            49.524            RioGallegos          1547.625
       317   04 Jun 2027 00:13:44.203   04 Jun 2027 00:15:05.990            81.787                Anadyr1          2555.844
       318   04 Jun 2027 00:16:24.350   04 Jun 2027 00:16:39.651            15.301                Anadyr2           478.156
       319   04 Jun 2027 00:17:01.601   04 Jun 2027 00:19:04.378           122.777                Norilsk          3836.781
       320   04 Jun 2027 00:20:53.684   04 Jun 2027 00:21:52.484            58.800                Irkutsk          1837.500
       321   04 Jun 2027 00:21:58.709   04 Jun 2027 00:23:15.102            76.393                Novosib          2387.281
       322   04 Jun 2027 00:27:35.435   04 Jun 2027 00:27:45.872            10.437                Novosib           326.156
       323   04 Jun 2027 00:28:30.580   04 Jun 2027 00:28:48.164            17.584                Novosib           549.500
       324   04 Jun 2027 00:29:02.223   04 Jun 2027 00:29:55.467            53.244                  Delhi          1663.875
       325   04 Jun 2027 00:30:08.957   04 Jun 2027 00:31:42.128            93.171                  Delhi          2911.594
       326   04 Jun 2027 01:09:18.314   04 Jun 2027 01:10:25.957            67.643            RioGallegos          2113.844
       327   04 Jun 2027 01:47:21.075   04 Jun 2027 01:49:00.112            99.037                Anadyr2          3094.906
       328   04 Jun 2027 01:49:41.040   04 Jun 2027 01:50:03.297            22.257                Anadyr1           695.531
       329   04 Jun 2027 01:50:03.297   04 Jun 2027 01:50:16.968            13.671                Anadyr2           427.219
       330   04 Jun 2027 01:53:19.226   04 Jun 2027 01:53:45.725            26.499               Magadan2           828.094
       331   04 Jun 2027 01:53:51.347   04 Jun 2027 01:54:43.074            51.727               Magadan1          1616.469
       332   04 Jun 2027 01:55:04.553   04 Jun 2027 01:55:05.137             0.584                Norilsk            18.250
       333   04 Jun 2027 01:55:25.134   04 Jun 2027 01:57:46.949           141.815              Murmansk2          4431.719
       334   04 Jun 2027 01:57:55.869   04 Jun 2027 01:58:10.572            14.703                Novosib           459.469
       335   04 Jun 2027 02:00:10.870   04 Jun 2027 02:00:13.369             2.499                Irkutsk            78.094
       336   04 Jun 2027 02:00:49.053   04 Jun 2027 02:01:04.524            15.471                 Moscow           483.469
       337   04 Jun 2027 02:04:17.078   04 Jun 2027 02:04:57.060            39.982                Irkutsk          1249.437
       338   04 Jun 2027 02:09:46.307   04 Jun 2027 02:10:01.221            14.914                  Delhi           466.063
       339   04 Jun 2027 02:13:40.876   04 Jun 2027 02:14:22.760            41.884                  Delhi          1308.875
       340   04 Jun 2027 03:22:16.355   04 Jun 2027 03:22:29.840            13.485                Anadyr2           421.406
       341   04 Jun 2027 03:39:56.934   04 Jun 2027 03:40:44.557            47.623              Murmansk2          1488.219
       342   04 Jun 2027 03:40:44.557   04 Jun 2027 03:41:11.078            26.521              Murmansk1           828.781
       343   04 Jun 2027 03:41:15.121   04 Jun 2027 03:42:22.121            67.000                 Moscow          2093.750
       344   04 Jun 2027 03:42:28.863   04 Jun 2027 03:43:05.200            36.337              Murmansk1          1135.531
       345   04 Jun 2027 03:43:59.599   04 Jun 2027 03:46:49.192           169.593                 Moscow          5299.781
       346   04 Jun 2027 03:59:03.496   04 Jun 2027 04:08:23.118           559.622               CapeTown         17488.187
       347   04 Jun 2027 04:55:08.024   04 Jun 2027 04:56:39.912            91.888                Anadyr2          2871.500
       348   04 Jun 2027 05:01:46.378   04 Jun 2027 05:02:30.494            44.116               Magadan1          1378.625
       349   04 Jun 2027 05:14:02.079   04 Jun 2027 05:14:35.221            33.142              Murmansk1          1035.687
       350   04 Jun 2027 05:14:57.589   04 Jun 2027 05:15:27.110            29.521              Murmansk2           922.531
       351   04 Jun 2027 05:15:38.451   04 Jun 2027 05:16:12.965            34.514              Murmansk1          1078.563
       352   04 Jun 2027 05:16:12.965   04 Jun 2027 05:16:15.138             2.173              Murmansk2            67.906
       353   04 Jun 2027 05:16:23.382   04 Jun 2027 05:16:24.792             1.410              Murmansk1            44.063
       354   04 Jun 2027 05:16:26.037   04 Jun 2027 05:16:45.613            19.576                 Moscow           611.750
       355   04 Jun 2027 05:16:58.597   04 Jun 2027 05:18:03.646            65.049                 Moscow          2032.781
       356   04 Jun 2027 05:34:48.537   04 Jun 2027 05:36:17.740            89.203               CapeTown          2787.594
       357   04 Jun 2027 06:37:30.685   04 Jun 2027 06:37:42.180            11.495               Magadan2           359.219
       358   04 Jun 2027 06:37:44.089   04 Jun 2027 06:38:08.862            24.773               Magadan1           774.156
       359   04 Jun 2027 06:38:08.862   04 Jun 2027 06:39:27.937            79.075               Magadan2          2471.094
       360   04 Jun 2027 06:39:44.283   04 Jun 2027 06:40:34.229            49.946               Magadan1          1560.812
       361   04 Jun 2027 06:42:40.817   04 Jun 2027 06:43:15.690            34.873                Anadyr1          1089.781
       362   04 Jun 2027 06:47:13.005   04 Jun 2027 06:47:22.554             9.549                 Moscow           298.406
       363   04 Jun 2027 07:25:27.509   04 Jun 2027 07:25:52.661            25.152            RioGallegos           786.000
       364   04 Jun 2027 08:13:15.546   04 Jun 2027 08:15:13.095           117.549                Anadyr2          3673.406
       365   04 Jun 2027 08:15:26.795   04 Jun 2027 08:15:45.285            18.490               Magadan1           577.812
       366   04 Jun 2027 08:15:50.495   04 Jun 2027 08:16:17.715            27.220                Anadyr1           850.625
       367   04 Jun 2027 08:16:17.715   04 Jun 2027 08:16:44.309            26.594                Anadyr2           831.062
       368   04 Jun 2027 08:17:09.175   04 Jun 2027 08:17:39.208            30.033               Magadan1           938.531
       369   04 Jun 2027 08:18:02.779   04 Jun 2027 08:19:21.540            78.761                Anadyr2          2461.281
       370   04 Jun 2027 09:02:45.569   04 Jun 2027 09:03:31.629            46.060            RioGallegos          1439.375
       371   04 Jun 2027 09:48:01.582   04 Jun 2027 09:48:48.022            46.440                Novosib          1451.250
       372   04 Jun 2027 09:48:52.525   04 Jun 2027 09:49:22.393            29.868                Irkutsk           933.375
       373   04 Jun 2027 09:49:26.952   04 Jun 2027 09:49:53.433            26.481                Irkutsk           827.531
       374   04 Jun 2027 09:50:29.774   04 Jun 2027 09:50:37.171             7.397               Magadan1           231.156
       375   04 Jun 2027 09:51:03.072   04 Jun 2027 09:53:37.190           154.118               Magadan2          4816.188
       376   04 Jun 2027 09:53:45.433   04 Jun 2027 09:54:26.168            40.735                Irkutsk          1272.969
       377   04 Jun 2027 09:54:31.143   04 Jun 2027 09:54:48.790            17.647                Norilsk           551.469
       378   04 Jun 2027 09:54:57.643   04 Jun 2027 09:55:01.301             3.658              Murmansk1           114.312
       379   04 Jun 2027 09:55:01.968   04 Jun 2027 09:55:42.836            40.868                Novosib          1277.125
       380   04 Jun 2027 10:29:52.734   04 Jun 2027 10:30:53.623            60.889            RioGallegos          1902.781
       381   04 Jun 2027 11:05:03.965   04 Jun 2027 11:05:43.251            39.286                Sumatra          1227.688
       382   04 Jun 2027 11:11:03.573   04 Jun 2027 11:11:24.617            21.044                Sumatra           657.625
       383   04 Jun 2027 11:17:10.257   04 Jun 2027 11:17:49.523            39.266                  Delhi          1227.062
       384   04 Jun 2027 11:24:55.171   04 Jun 2027 11:24:57.618             2.447                Norilsk            76.469
       385   04 Jun 2027 11:25:21.788   04 Jun 2027 11:25:29.033             7.245                Norilsk           226.406
       386   04 Jun 2027 11:26:01.382   04 Jun 2027 11:26:15.439            14.057                Novosib           439.281
       387   04 Jun 2027 11:26:24.270   04 Jun 2027 11:27:27.421            63.151                Irkutsk          1973.469
       388   04 Jun 2027 11:27:37.936   04 Jun 2027 11:27:53.360            15.424              Murmansk1           482.000
       389   04 Jun 2027 11:28:02.852   04 Jun 2027 11:28:19.324            16.472                Norilsk           514.750
       390   04 Jun 2027 11:28:32.385   04 Jun 2027 11:28:53.093            20.708                Novosib           647.125
       391   04 Jun 2027 11:28:56.620   04 Jun 2027 11:29:03.178             6.558                Norilsk           204.937
       392   04 Jun 2027 11:29:05.440   04 Jun 2027 11:29:31.182            25.742              Murmansk1           804.438
       393   04 Jun 2027 11:29:39.189   04 Jun 2027 11:29:42.661             3.472                Novosib           108.500
       394   04 Jun 2027 11:29:57.823   04 Jun 2027 11:30:49.390            51.567              Murmansk1          1611.469
       395   04 Jun 2027 11:31:15.746   04 Jun 2027 11:31:39.601            23.855              Murmansk2           745.469
       396   04 Jun 2027 12:08:11.514   04 Jun 2027 12:08:30.693            19.179            RioGallegos           599.344
       397   04 Jun 2027 12:09:10.225   04 Jun 2027 12:09:49.898            39.673            RioGallegos          1239.781
       398   04 Jun 2027 12:42:28.991   04 Jun 2027 12:45:01.250           152.259                Sumatra          4758.094
       399   04 Jun 2027 12:56:30.935   04 Jun 2027 12:57:21.346            50.411                Novosib          1575.344
       400   04 Jun 2027 12:59:00.261   04 Jun 2027 12:59:48.076            47.815                Novosib          1494.219
       401   04 Jun 2027 13:00:15.853   04 Jun 2027 13:02:11.985           116.132                Norilsk          3629.125
       402   04 Jun 2027 14:28:06.478   04 Jun 2027 14:29:50.704           104.226                  Delhi          3257.063
       403   04 Jun 2027 14:32:08.313   04 Jun 2027 14:32:29.396            21.083                  Delhi           658.844
       404   04 Jun 2027 14:34:35.521   04 Jun 2027 14:35:20.702            45.181                 Moscow          1411.906
       405   04 Jun 2027 14:36:36.097   04 Jun 2027 14:38:57.097           141.000                Novosib          4406.250
       406   04 Jun 2027 14:39:22.868   04 Jun 2027 14:40:37.389            74.521                Norilsk          2328.781
       407   04 Jun 2027 14:42:32.605   04 Jun 2027 14:43:25.770            53.165                Norilsk          1661.406
       408   04 Jun 2027 14:44:21.647   04 Jun 2027 14:44:25.035             3.388                Norilsk           105.875
       409   04 Jun 2027 15:49:28.364   04 Jun 2027 15:51:14.143           105.779               CapeTown          3305.594
       410   04 Jun 2027 15:52:02.241   04 Jun 2027 15:52:25.403            23.162               CapeTown           723.812
       411   04 Jun 2027 16:09:56.745   04 Jun 2027 16:11:16.974            80.229                 Moscow          2507.156
       412   04 Jun 2027 16:13:21.843   04 Jun 2027 16:14:03.396            41.553              Murmansk2          1298.531
       413   04 Jun 2027 16:14:23.466   04 Jun 2027 16:15:47.607            84.141              Murmansk1          2629.406
       414   04 Jun 2027 16:28:14.544   04 Jun 2027 16:29:18.689            64.145                Anadyr1          2004.531
       415   04 Jun 2027 16:29:21.544   04 Jun 2027 16:30:00.390            38.846                Anadyr2          1213.937
       416   04 Jun 2027 16:30:56.149   04 Jun 2027 16:31:05.939             9.790                Anadyr1           305.937
       417   04 Jun 2027 16:35:10.181   04 Jun 2027 16:35:24.875            14.694                Anadyr1           459.187
       418   04 Jun 2027 17:22:49.615   04 Jun 2027 17:23:26.954            37.339               CapeTown          1166.844
       419   04 Jun 2027 17:26:02.534   04 Jun 2027 17:26:37.628            35.094               CapeTown          1096.687
       420   04 Jun 2027 17:32:12.428   04 Jun 2027 17:32:24.756            12.328               CapeTown           385.250
       421   04 Jun 2027 17:51:14.221   04 Jun 2027 17:54:37.082           202.861                 Moscow          6339.406
       422   04 Jun 2027 17:55:36.197   04 Jun 2027 17:56:06.465            30.268              Murmansk2           945.875
       423   04 Jun 2027 18:03:29.038   04 Jun 2027 18:04:16.743            47.705                Anadyr2          1490.781
       424   04 Jun 2027 18:06:20.125   04 Jun 2027 18:06:23.669             3.544                Anadyr1           110.750
       425   04 Jun 2027 18:08:06.463   04 Jun 2027 18:10:35.399           148.936               Magadan1          4654.250
       426   04 Jun 2027 19:39:21.543   04 Jun 2027 19:43:06.246           224.703                Anadyr2          7021.969
       427   04 Jun 2027 19:43:30.421   04 Jun 2027 19:46:37.090           186.669               Magadan2          5833.406
       428   04 Jun 2027 21:15:16.178   04 Jun 2027 21:17:23.011           126.833                Anadyr1          3963.531
       429   04 Jun 2027 21:17:25.373   04 Jun 2027 21:19:18.809           113.436                Anadyr2          3544.875
       430   04 Jun 2027 21:19:44.494   04 Jun 2027 21:21:10.124            85.630                Norilsk          2675.937
       431   04 Jun 2027 21:21:19.901   04 Jun 2027 21:21:37.683            17.782               Magadan2           555.687
       432   04 Jun 2027 21:21:37.683   04 Jun 2027 21:21:47.388             9.705               Magadan1           303.281
       433   04 Jun 2027 21:22:16.941   04 Jun 2027 21:22:43.530            26.589               Magadan1           830.906
       434   04 Jun 2027 21:24:01.511   04 Jun 2027 21:24:27.496            25.985               Magadan1           812.031
       435   04 Jun 2027 21:24:48.713   04 Jun 2027 21:25:04.342            15.629               Magadan1           488.406
       436   04 Jun 2027 21:25:41.330   04 Jun 2027 21:26:18.990            37.660               Magadan1          1176.875
       437   04 Jun 2027 22:09:38.465   04 Jun 2027 22:12:27.834           169.369            RioGallegos          5292.781
       438   04 Jun 2027 22:13:02.632   04 Jun 2027 22:13:04.798             2.166            RioGallegos            67.687
       439   04 Jun 2027 22:18:35.926   04 Jun 2027 22:19:05.654            29.728            RioGallegos           929.000
       440   04 Jun 2027 22:50:51.295   04 Jun 2027 22:51:19.822            28.527                Anadyr1           891.469
       441   04 Jun 2027 22:52:36.192   04 Jun 2027 22:52:48.867            12.675                Anadyr1           396.094
       442   04 Jun 2027 22:53:05.827   04 Jun 2027 22:54:48.896           103.069                Norilsk          3220.906
       443   04 Jun 2027 22:55:00.345   04 Jun 2027 22:55:26.876            26.531               Magadan2           829.094
       444   04 Jun 2027 22:56:49.540   04 Jun 2027 22:57:11.441            21.901               Magadan1           684.406
       445   04 Jun 2027 22:57:14.803   04 Jun 2027 22:58:06.753            51.950                Irkutsk          1623.438
       446   04 Jun 2027 22:59:12.544   04 Jun 2027 22:59:58.763            46.219                Novosib          1444.344
       447   04 Jun 2027 23:00:37.742   04 Jun 2027 23:01:45.820            68.078                Novosib          2127.437
       448   04 Jun 2027 23:10:58.410   04 Jun 2027 23:13:48.910           170.500                Sumatra          5328.125
       449   05 Jun 2027 00:25:31.985   05 Jun 2027 00:26:19.606            47.621                Anadyr2          1488.156
       450   05 Jun 2027 00:26:19.606   05 Jun 2027 00:27:04.875            45.269                Anadyr1          1414.656
       451   05 Jun 2027 00:27:52.456   05 Jun 2027 00:28:07.186            14.730                Anadyr2           460.312
       452   05 Jun 2027 00:29:03.846   05 Jun 2027 00:29:09.572             5.726                Norilsk           178.937
       453   05 Jun 2027 00:29:43.577   05 Jun 2027 00:31:56.311           132.734               Magadan2          4147.938
       454   05 Jun 2027 00:32:56.745   05 Jun 2027 00:33:39.821            43.076                Irkutsk          1346.125
       455   05 Jun 2027 00:34:04.810   05 Jun 2027 00:34:43.477            38.667                Novosib          1208.344
       456   05 Jun 2027 00:35:19.573   05 Jun 2027 00:35:34.611            15.038                Novosib           469.937
       457   05 Jun 2027 00:37:51.166   05 Jun 2027 00:38:28.311            37.145                Novosib          1160.781
       458   05 Jun 2027 00:40:44.624   05 Jun 2027 00:42:02.201            77.577                  Delhi          2424.281
       459   05 Jun 2027 00:48:58.176   05 Jun 2027 00:49:29.741            31.565                  Delhi           986.406
       460   05 Jun 2027 00:51:27.604   05 Jun 2027 00:51:44.559            16.955                  Delhi           529.844
       461   05 Jun 2027 01:21:27.605   05 Jun 2027 01:22:14.556            46.951            RioGallegos          1467.219
       462   05 Jun 2027 01:24:56.641   05 Jun 2027 01:25:22.737            26.096            RioGallegos           815.500
       463   05 Jun 2027 01:29:34.667   05 Jun 2027 01:30:04.197            29.530            RioGallegos           922.812
       464   05 Jun 2027 01:59:02.149   05 Jun 2027 01:59:20.142            17.993                Anadyr1           562.281
       465   05 Jun 2027 02:00:06.097   05 Jun 2027 02:01:01.453            55.356                Anadyr1          1729.875
       466   05 Jun 2027 02:01:41.020   05 Jun 2027 02:01:52.191            11.171                Anadyr2           349.094
       467   05 Jun 2027 02:05:03.226   05 Jun 2027 02:06:29.902            86.676                Norilsk          2708.625
       468   05 Jun 2027 02:06:57.172   05 Jun 2027 02:07:07.359            10.187                Norilsk           318.344
       469   05 Jun 2027 02:07:22.796   05 Jun 2027 02:07:40.850            18.054              Murmansk2           564.188
       470   05 Jun 2027 02:07:40.850   05 Jun 2027 02:08:57.433            76.583              Murmansk1          2393.219
       471   05 Jun 2027 02:09:40.555   05 Jun 2027 02:10:09.335            28.780                Novosib           899.375
       472   05 Jun 2027 02:10:42.054   05 Jun 2027 02:10:48.046             5.992                Novosib           187.250
       473   05 Jun 2027 02:11:50.541   05 Jun 2027 02:11:54.859             4.318                Novosib           134.937
       474   05 Jun 2027 02:12:03.060   05 Jun 2027 02:12:20.215            17.155                 Moscow           536.094
       475   05 Jun 2027 02:14:44.523   05 Jun 2027 02:15:01.818            17.295                 Moscow           540.469
       476   05 Jun 2027 02:16:34.064   05 Jun 2027 02:17:01.620            27.556                  Delhi           861.125
       477   05 Jun 2027 02:22:08.771   05 Jun 2027 02:22:37.117            28.346                  Delhi           885.812
       478   05 Jun 2027 02:27:50.812   05 Jun 2027 02:27:54.503             3.691                  Delhi           115.344
       479   05 Jun 2027 03:42:55.629   05 Jun 2027 03:43:25.849            30.220               Magadan2           944.375
       480   05 Jun 2027 03:51:45.251   05 Jun 2027 03:52:46.372            61.121              Murmansk1          1910.031
       481   05 Jun 2027 03:53:06.286   05 Jun 2027 03:53:49.365            43.079              Murmansk1          1346.219
       482   05 Jun 2027 03:53:49.365   05 Jun 2027 03:53:52.973             3.608              Murmansk2           112.750
