uniorb/output/strategy_2/Drop/Drop_KinoSat_111805.txt

KinoSat_111805
-------------------------
    Access    *     Start Time (UTCG)     *     Stop Time (UTCG)  *   Duration (s)        *       Station  *  Data (Mbytes)
         1   01 Jun 2027 03:06:49.693   01 Jun 2027 03:09:22.474           152.781              Murmansk2          4774.406
         2   01 Jun 2027 03:09:35.336   01 Jun 2027 03:10:31.949            56.613              Murmansk2          1769.156
         3   01 Jun 2027 03:10:50.603   01 Jun 2027 03:11:48.417            57.814                 Moscow          1806.688
         4   01 Jun 2027 03:11:59.575   01 Jun 2027 03:14:47.886           168.311                  Delhi          5259.719
         5   01 Jun 2027 04:46:06.027   01 Jun 2027 04:46:27.664            21.637              Murmansk1           676.156
         6   01 Jun 2027 04:46:38.716   01 Jun 2027 04:47:08.617            29.901                 Moscow           934.406
         7   01 Jun 2027 04:47:37.161   01 Jun 2027 04:48:57.984            80.823                 Moscow          2525.719
         8   01 Jun 2027 04:49:15.883   01 Jun 2027 04:49:28.540            12.657              Murmansk1           395.531
         9   01 Jun 2027 04:49:41.290   01 Jun 2027 04:50:41.264            59.974                 Moscow          1874.188
        10   01 Jun 2027 05:07:00.265   01 Jun 2027 05:10:03.241           182.976               CapeTown          5718.000
        11   01 Jun 2027 06:02:54.717   01 Jun 2027 06:06:32.974           218.257                Anadyr1          6820.531
        12   01 Jun 2027 06:23:45.819   01 Jun 2027 06:24:29.380            43.561              Murmansk2          1361.281
        13   01 Jun 2027 06:24:29.380   01 Jun 2027 06:24:55.526            26.146              Murmansk1           817.062
        14   01 Jun 2027 06:25:09.069   01 Jun 2027 06:27:06.892           117.823              Murmansk2          3681.969
        15   01 Jun 2027 06:27:06.892   01 Jun 2027 06:27:38.310            31.418              Murmansk1           981.812
        16   01 Jun 2027 06:27:38.310   01 Jun 2027 06:27:47.240             8.930              Murmansk2           279.063
        17   01 Jun 2027 06:28:04.092   01 Jun 2027 06:28:38.708            34.616                 Moscow          1081.750
        18   01 Jun 2027 06:29:27.384   01 Jun 2027 06:30:43.762            76.378                 Moscow          2386.812
        19   01 Jun 2027 06:42:21.451   01 Jun 2027 06:43:48.046            86.595               CapeTown          2706.094
        20   01 Jun 2027 06:44:54.092   01 Jun 2027 06:46:57.078           122.986               CapeTown          3843.312
        21   01 Jun 2027 07:45:43.349   01 Jun 2027 07:45:57.120            13.771               Magadan2           430.344
        22   01 Jun 2027 07:46:49.681   01 Jun 2027 07:47:06.953            17.272                Norilsk           539.750
        23   01 Jun 2027 07:47:08.315   01 Jun 2027 07:48:16.008            67.693               Magadan1          2115.406
        24   01 Jun 2027 07:48:28.415   01 Jun 2027 07:48:56.062            27.647                Norilsk           863.969
        25   01 Jun 2027 07:49:28.354   01 Jun 2027 07:50:05.024            36.670                Anadyr2          1145.937
        26   01 Jun 2027 07:54:26.907   01 Jun 2027 07:54:32.250             5.343                 Moscow           166.969
        27   01 Jun 2027 07:57:02.779   01 Jun 2027 07:57:14.540            11.761                 Moscow           367.531
        28   01 Jun 2027 09:22:25.887   01 Jun 2027 09:23:22.257            56.370               Magadan1          1761.563
        29   01 Jun 2027 09:23:30.517   01 Jun 2027 09:24:19.271            48.754                Anadyr1          1523.563
        30   01 Jun 2027 09:24:19.271   01 Jun 2027 09:27:09.830           170.559                Anadyr2          5329.969
        31   01 Jun 2027 10:53:01.719   01 Jun 2027 10:54:52.724           111.005               Magadan1          3468.906
        32   01 Jun 2027 10:57:45.829   01 Jun 2027 10:58:56.372            70.543               Magadan1          2204.469
        33   01 Jun 2027 10:58:56.372   01 Jun 2027 11:02:29.235           212.863               Magadan2          6651.969
        34   01 Jun 2027 12:28:01.006   01 Jun 2027 12:28:06.180             5.174                Novosib           161.688
        35   01 Jun 2027 12:29:18.521   01 Jun 2027 12:30:25.403            66.882                Irkutsk          2090.062
        36   01 Jun 2027 12:32:01.998   01 Jun 2027 12:32:10.078             8.080                Norilsk           252.500
        37   01 Jun 2027 13:15:33.909   01 Jun 2027 13:17:38.719           124.810            RioGallegos          3900.312
        38   01 Jun 2027 13:19:11.164   01 Jun 2027 13:20:27.582            76.418            RioGallegos          2388.062
        39   01 Jun 2027 13:49:48.516   01 Jun 2027 13:53:22.460           213.944                Sumatra          6685.750
        40   01 Jun 2027 14:05:26.495   01 Jun 2027 14:09:36.224           249.729                Irkutsk          7804.031
        41   01 Jun 2027 15:35:12.055   01 Jun 2027 15:37:28.316           136.261                  Delhi          4258.156
        42   01 Jun 2027 15:43:42.579   01 Jun 2027 15:48:02.659           260.080                Novosib          8127.500
        43   01 Jun 2027 15:51:59.766   01 Jun 2027 15:52:02.114             2.348                Norilsk            73.375
        44   01 Jun 2027 17:17:31.766   01 Jun 2027 17:17:56.419            24.653                 Moscow           770.406
        45   01 Jun 2027 17:20:14.288   01 Jun 2027 17:22:05.041           110.753                 Moscow          3461.031
        46   01 Jun 2027 17:22:19.719   01 Jun 2027 17:23:22.297            62.578              Murmansk2          1955.562
        47   01 Jun 2027 18:30:34.353   01 Jun 2027 18:32:55.402           141.049               CapeTown          4407.781
        48   01 Jun 2027 18:58:07.880   01 Jun 2027 19:02:10.153           242.273                 Moscow          7571.031
        49   01 Jun 2027 19:03:46.401   01 Jun 2027 19:04:27.857            41.456              Murmansk2          1295.500
        50   01 Jun 2027 20:07:45.434   01 Jun 2027 20:08:26.541            41.107               CapeTown          1284.594
        51   01 Jun 2027 20:09:00.075   01 Jun 2027 20:11:12.175           132.100               CapeTown          4128.125
        52   01 Jun 2027 20:41:19.671   01 Jun 2027 20:43:49.835           150.164              Murmansk2          4692.625
        53   01 Jun 2027 20:49:36.314   01 Jun 2027 20:52:02.888           146.574               Magadan1          4580.438
        54   01 Jun 2027 22:23:00.452   01 Jun 2027 22:24:31.608            91.156                Anadyr2          2848.625
        55   01 Jun 2027 22:24:50.235   01 Jun 2027 22:25:34.200            43.965                Anadyr1          1373.906
        56   01 Jun 2027 22:25:37.107   01 Jun 2027 22:27:47.481           130.374               Magadan1          4074.187
        57   01 Jun 2027 22:29:34.505   01 Jun 2027 22:30:01.249            26.744               Magadan1           835.750
        58   01 Jun 2027 23:17:28.148   01 Jun 2027 23:20:20.923           172.775            RioGallegos          5399.219
        59   01 Jun 2027 23:58:38.247   01 Jun 2027 23:59:35.622            57.375                Anadyr2          1792.969
        60   02 Jun 2027 00:00:48.925   02 Jun 2027 00:02:33.288           104.363                Norilsk          3261.344
        61   02 Jun 2027 00:02:36.580   02 Jun 2027 00:03:12.431            35.851               Magadan2          1120.344
        62   02 Jun 2027 00:03:16.911   02 Jun 2027 00:04:51.648            94.737               Magadan1          2960.531
        63   02 Jun 2027 00:05:01.718   02 Jun 2027 00:06:25.394            83.676                Irkutsk          2614.875
        64   02 Jun 2027 00:07:04.220   02 Jun 2027 00:08:02.431            58.211                Novosib          1819.094
        65   02 Jun 2027 00:18:48.837   02 Jun 2027 00:20:59.165           130.328                Sumatra          4072.750
        66   02 Jun 2027 00:52:42.733   02 Jun 2027 00:53:33.220            50.487            RioGallegos          1577.719
        67   02 Jun 2027 00:53:50.765   02 Jun 2027 00:54:41.018            50.253            RioGallegos          1570.406
        68   02 Jun 2027 01:35:31.663   02 Jun 2027 01:35:53.483            21.820                Anadyr1           681.875
        69   02 Jun 2027 01:36:46.677   02 Jun 2027 01:38:33.824           107.147                Norilsk          3348.344
        70   02 Jun 2027 01:40:39.464   02 Jun 2027 01:43:50.495           191.031                Irkutsk          5969.719
        71   02 Jun 2027 01:45:35.887   02 Jun 2027 01:45:58.090            22.203                Irkutsk           693.844
        72   02 Jun 2027 01:48:37.489   02 Jun 2027 01:49:44.210            66.721                  Delhi          2085.031
        73   02 Jun 2027 01:51:12.508   02 Jun 2027 01:51:53.976            41.468                  Delhi          1295.875
        74   02 Jun 2027 01:56:11.312   02 Jun 2027 01:56:20.070             8.758                Sumatra           273.687
        75   02 Jun 2027 01:59:20.056   02 Jun 2027 02:00:55.672            95.616                Sumatra          2988.000
        76   02 Jun 2027 02:29:07.357   02 Jun 2027 02:29:49.270            41.913            RioGallegos          1309.781
        77   02 Jun 2027 02:30:12.624   02 Jun 2027 02:30:33.573            20.949            RioGallegos           654.656
        78   02 Jun 2027 03:19:57.485   02 Jun 2027 03:20:59.442            61.957              Murmansk1          1936.156
        79   02 Jun 2027 03:21:32.139   02 Jun 2027 03:22:32.712            60.573              Murmansk1          1892.906
        80   02 Jun 2027 03:22:32.712   02 Jun 2027 03:22:39.644             6.932              Murmansk2           216.625
        81   02 Jun 2027 03:22:41.778   02 Jun 2027 03:22:55.018            13.240                 Moscow           413.750
        82   02 Jun 2027 03:22:58.240   02 Jun 2027 03:23:51.573            53.333                Irkutsk          1666.656
        83   02 Jun 2027 03:23:52.563   02 Jun 2027 03:23:53.825             1.262              Murmansk2            39.437
        84   02 Jun 2027 03:24:10.910   02 Jun 2027 03:28:41.499           270.589                  Delhi          8455.906
        85   02 Jun 2027 04:57:30.657   02 Jun 2027 04:57:55.688            25.031              Murmansk2           782.219
        86   02 Jun 2027 04:58:08.988   02 Jun 2027 04:58:18.643             9.655                Norilsk           301.719
        87   02 Jun 2027 04:59:02.325   02 Jun 2027 04:59:10.856             8.531                Norilsk           266.594
        88   02 Jun 2027 04:59:12.025   02 Jun 2027 05:00:22.473            70.448                Novosib          2201.500
        89   02 Jun 2027 05:00:29.371   02 Jun 2027 05:01:38.094            68.723              Murmansk2          2147.594
        90   02 Jun 2027 05:01:38.094   02 Jun 2027 05:01:57.990            19.896              Murmansk1           621.750
        91   02 Jun 2027 05:01:57.990   02 Jun 2027 05:02:00.433             2.443              Murmansk2            76.344
        92   02 Jun 2027 05:02:07.440   02 Jun 2027 05:02:15.918             8.478                 Moscow           264.937
        93   02 Jun 2027 05:02:33.350   02 Jun 2027 05:03:32.060            58.710                 Moscow          1834.688
        94   02 Jun 2027 05:04:48.946   02 Jun 2027 05:06:00.632            71.686                 Moscow          2240.187
        95   02 Jun 2027 05:06:02.960   02 Jun 2027 05:06:14.306            11.346                 Moscow           354.562
        96   02 Jun 2027 05:18:39.145   02 Jun 2027 05:20:00.568            81.423               CapeTown          2544.469
        97   02 Jun 2027 05:21:40.223   02 Jun 2027 05:21:55.115            14.892               CapeTown           465.375
        98   02 Jun 2027 05:22:48.749   02 Jun 2027 05:24:33.597           104.848               CapeTown          3276.500
        99   02 Jun 2027 06:22:24.976   02 Jun 2027 06:25:01.793           156.817                Anadyr2          4900.531
       100   02 Jun 2027 06:34:05.881   02 Jun 2027 06:34:35.776            29.895                Norilsk           934.219
       101   02 Jun 2027 06:35:10.846   02 Jun 2027 06:35:36.822            25.976                 Moscow           811.750
       102   02 Jun 2027 06:35:49.492   02 Jun 2027 06:36:51.693            62.201                 Moscow          1943.781
       103   02 Jun 2027 06:36:53.854   02 Jun 2027 06:37:39.204            45.350              Murmansk2          1417.188
       104   02 Jun 2027 06:39:36.173   02 Jun 2027 06:39:50.164            13.991              Murmansk1           437.219
       105   02 Jun 2027 06:41:51.522   02 Jun 2027 06:42:14.244            22.722                 Moscow           710.063
       106   02 Jun 2027 06:54:43.778   02 Jun 2027 06:55:46.455            62.677               CapeTown          1958.656
       107   02 Jun 2027 06:56:43.669   02 Jun 2027 06:59:00.222           136.553               CapeTown          4267.281
       108   02 Jun 2027 07:57:31.216   02 Jun 2027 07:57:58.181            26.965               Magadan1           842.656
       109   02 Jun 2027 07:57:58.181   02 Jun 2027 07:59:22.752            84.571               Magadan2          2642.844
       110   02 Jun 2027 07:59:46.488   02 Jun 2027 08:02:09.861           143.373                Anadyr1          4480.406
       111   02 Jun 2027 08:02:16.885   02 Jun 2027 08:03:36.399            79.514                Anadyr1          2484.812
       112   02 Jun 2027 08:06:38.015   02 Jun 2027 08:08:02.598            84.583                 Moscow          2643.219
       113   02 Jun 2027 09:31:41.324   02 Jun 2027 09:32:59.008            77.684                Anadyr2          2427.625
       114   02 Jun 2027 09:32:59.008   02 Jun 2027 09:39:04.079           365.071                Anadyr1         11408.469
       115   02 Jun 2027 11:07:59.391   02 Jun 2027 11:10:17.014           137.623               Magadan1          4300.719
       116   02 Jun 2027 11:10:25.451   02 Jun 2027 11:10:29.822             4.371                Norilsk           136.594
       117   02 Jun 2027 11:10:46.625   02 Jun 2027 11:14:17.996           211.371               Magadan2          6605.344
       118   02 Jun 2027 11:14:34.555   02 Jun 2027 11:14:36.915             2.360                Norilsk            73.750
       119   02 Jun 2027 11:14:38.523   02 Jun 2027 11:14:43.484             4.961              Murmansk1           155.031
       120   02 Jun 2027 11:14:47.853   02 Jun 2027 11:15:05.100            17.247              Murmansk1           538.969
       121   02 Jun 2027 11:15:30.403   02 Jun 2027 11:15:36.954             6.551              Murmansk1           204.719
       122   02 Jun 2027 11:16:50.147   02 Jun 2027 11:17:01.489            11.342              Murmansk2           354.437
       123   02 Jun 2027 11:49:38.973   02 Jun 2027 11:51:44.201           125.228            RioGallegos          3913.375
       124   02 Jun 2027 12:25:26.693   02 Jun 2027 12:27:14.134           107.441                Sumatra          3357.531
       125   02 Jun 2027 12:38:20.067   02 Jun 2027 12:38:52.047            31.980                Irkutsk           999.375
       126   02 Jun 2027 12:39:51.888   02 Jun 2027 12:40:29.410            37.522                Novosib          1172.563
       127   02 Jun 2027 12:42:59.544   02 Jun 2027 12:44:20.394            80.850                Norilsk          2526.563
       128   02 Jun 2027 12:52:03.316   02 Jun 2027 12:52:37.649            34.333                Norilsk          1072.906
       129   02 Jun 2027 13:28:15.091   02 Jun 2027 13:30:28.417           133.326            RioGallegos          4166.437
       130   02 Jun 2027 14:05:16.184   02 Jun 2027 14:07:10.690           114.506                Sumatra          3578.313
       131   02 Jun 2027 14:18:29.372   02 Jun 2027 14:22:38.848           249.476                Irkutsk          7796.125
       132   02 Jun 2027 15:48:31.111   02 Jun 2027 15:52:20.276           229.165                  Delhi          7161.406
       133   02 Jun 2027 15:56:34.485   02 Jun 2027 15:56:57.000            22.515              Murmansk2           703.594
       134   02 Jun 2027 15:59:22.793   02 Jun 2027 16:00:12.315            49.522                Norilsk          1547.562
       135   02 Jun 2027 16:00:36.498   02 Jun 2027 16:00:50.663            14.165                Novosib           442.656
       136   02 Jun 2027 16:01:39.534   02 Jun 2027 16:04:00.569           141.035                Norilsk          4407.344
       137   02 Jun 2027 17:16:02.914   02 Jun 2027 17:16:08.385             5.471               CapeTown           170.969
       138   02 Jun 2027 17:29:49.437   02 Jun 2027 17:30:54.403            64.966                 Moscow          2030.187
       139   02 Jun 2027 17:31:33.859   02 Jun 2027 17:32:11.960            38.101                 Moscow          1190.656
       140   02 Jun 2027 17:33:12.206   02 Jun 2027 17:33:53.160            40.954              Murmansk1          1279.812
       141   02 Jun 2027 17:34:11.201   02 Jun 2027 17:34:32.896            21.695                 Moscow           677.969
       142   02 Jun 2027 17:35:19.934   02 Jun 2027 17:35:54.498            34.564              Murmansk2          1080.125
       143   02 Jun 2027 17:36:25.086   02 Jun 2027 17:37:35.880            70.794              Murmansk2          2212.312
       144   02 Jun 2027 17:48:14.879   02 Jun 2027 17:49:03.681            48.802                Anadyr1          1525.063
       145   02 Jun 2027 18:42:34.296   02 Jun 2027 18:44:52.114           137.818               CapeTown          4306.812
       146   02 Jun 2027 19:11:52.347   02 Jun 2027 19:14:33.941           161.594                 Moscow          5049.813
       147   02 Jun 2027 19:15:27.123   02 Jun 2027 19:17:06.691            99.568              Murmansk2          3111.500
       148   02 Jun 2027 19:17:33.925   02 Jun 2027 19:18:18.687            44.762              Murmansk1          1398.813
       149   02 Jun 2027 19:27:26.441   02 Jun 2027 19:27:29.528             3.087               Magadan2            96.469
       150   02 Jun 2027 19:29:49.387   02 Jun 2027 19:30:47.589            58.202               Magadan1          1818.813
       151   02 Jun 2027 20:20:21.406   02 Jun 2027 20:20:37.296            15.890               CapeTown           496.563
       152   02 Jun 2027 20:21:55.395   02 Jun 2027 20:22:57.324            61.929               CapeTown          1935.281
       153   02 Jun 2027 20:27:17.386   02 Jun 2027 20:27:33.438            16.052               CapeTown           501.625
       154   02 Jun 2027 20:59:06.802   02 Jun 2027 21:00:49.448           102.646                Anadyr1          3207.688
       155   02 Jun 2027 21:00:55.320   02 Jun 2027 21:02:12.107            76.787                Anadyr2          2399.594
       156   02 Jun 2027 21:02:29.023   02 Jun 2027 21:03:20.080            51.057               Magadan2          1595.531
       157   02 Jun 2027 21:03:20.080   02 Jun 2027 21:03:39.442            19.362               Magadan1           605.063
       158   02 Jun 2027 21:03:51.651   02 Jun 2027 21:04:28.709            37.058               Magadan2          1158.063
       159   02 Jun 2027 21:06:14.339   02 Jun 2027 21:06:41.137            26.798               Magadan1           837.438
       160   02 Jun 2027 21:08:02.911   02 Jun 2027 21:08:19.641            16.730               Magadan1           522.812
       161   02 Jun 2027 21:10:44.228   02 Jun 2027 21:11:14.736            30.508               Magadan1           953.375
       162   02 Jun 2027 22:35:01.351   02 Jun 2027 22:38:46.077           224.726                Anadyr1          7022.688
       163   02 Jun 2027 22:38:50.930   02 Jun 2027 22:41:20.841           149.911               Magadan1          4684.719
       164   02 Jun 2027 22:41:49.599   02 Jun 2027 22:42:13.155            23.556               Magadan1           736.125
       165   02 Jun 2027 22:42:26.733   02 Jun 2027 22:42:36.399             9.666               Magadan2           302.063
       166   02 Jun 2027 22:42:54.938   02 Jun 2027 22:42:57.711             2.773               Magadan2            86.656
       167   02 Jun 2027 22:43:22.120   02 Jun 2027 22:44:00.821            38.701               Magadan1          1209.406
       168   02 Jun 2027 22:44:06.735   02 Jun 2027 22:44:13.133             6.398                Irkutsk           199.938
       169   02 Jun 2027 22:44:27.417   02 Jun 2027 22:44:54.037            26.620                Irkutsk           831.875
       170   02 Jun 2027 22:45:18.057   02 Jun 2027 22:46:01.348            43.291                Irkutsk          1352.844
       171   02 Jun 2027 23:29:18.061   02 Jun 2027 23:31:01.510           103.449            RioGallegos          3232.781
       172   02 Jun 2027 23:31:18.727   02 Jun 2027 23:31:26.931             8.204            RioGallegos           256.375
       173   02 Jun 2027 23:32:26.751   02 Jun 2027 23:32:29.578             2.827            RioGallegos            88.344
       174   02 Jun 2027 23:35:22.482   02 Jun 2027 23:35:23.751             1.269            RioGallegos            39.656
       175   02 Jun 2027 23:37:29.521   02 Jun 2027 23:37:35.369             5.848            RioGallegos           182.750
       176   02 Jun 2027 23:38:08.371   02 Jun 2027 23:38:46.252            37.881            RioGallegos          1183.781
       177   03 Jun 2027 00:10:34.851   03 Jun 2027 00:12:03.977            89.126                Anadyr1          2785.188
       178   03 Jun 2027 00:12:03.977   03 Jun 2027 00:13:36.680            92.703                Anadyr2          2896.969
       179   03 Jun 2027 00:13:45.348   03 Jun 2027 00:15:00.004            74.656               Magadan1          2333.000
       180   03 Jun 2027 00:16:56.784   03 Jun 2027 00:18:27.493            90.709                Irkutsk          2834.656
       181   03 Jun 2027 00:20:44.920   03 Jun 2027 00:21:33.487            48.567                Novosib          1517.719
       182   03 Jun 2027 00:24:46.597   03 Jun 2027 00:25:07.112            20.515                Novosib           641.094
       183   03 Jun 2027 00:28:39.846   03 Jun 2027 00:28:53.075            13.229                Irkutsk           413.406
       184   03 Jun 2027 00:30:39.084   03 Jun 2027 00:33:31.961           172.877                Sumatra          5402.406
       185   03 Jun 2027 01:12:32.913   03 Jun 2027 01:13:15.135            42.222            RioGallegos          1319.437
       186   03 Jun 2027 01:45:11.492   03 Jun 2027 01:46:34.366            82.874                Anadyr2          2589.812
       187   03 Jun 2027 01:47:19.040   03 Jun 2027 01:47:43.258            24.218                Anadyr1           756.813
       188   03 Jun 2027 01:48:49.090   03 Jun 2027 01:50:26.077            96.987                Norilsk          3030.844
       189   03 Jun 2027 01:52:12.542   03 Jun 2027 01:52:13.960             1.418                Norilsk            44.312
       190   03 Jun 2027 01:52:43.068   03 Jun 2027 01:54:29.286           106.218                Irkutsk          3319.312
       191   03 Jun 2027 01:54:49.420   03 Jun 2027 01:55:02.652            13.232                Novosib           413.500
       192   03 Jun 2027 01:55:26.874   03 Jun 2027 01:55:37.477            10.603                Novosib           331.344
       193   03 Jun 2027 01:56:20.793   03 Jun 2027 01:57:11.512            50.719                Novosib          1584.969
       194   03 Jun 2027 02:00:40.077   03 Jun 2027 02:00:59.228            19.151                  Delhi           598.469
       195   03 Jun 2027 02:06:37.841   03 Jun 2027 02:06:56.159            18.318                  Delhi           572.437
       196   03 Jun 2027 02:09:14.626   03 Jun 2027 02:11:10.782           116.156                Sumatra          3629.875
       197   03 Jun 2027 02:42:39.071   03 Jun 2027 02:43:59.648            80.577            RioGallegos          2518.031
       198   03 Jun 2027 02:46:28.167   03 Jun 2027 02:46:48.487            20.320            RioGallegos           635.000
       199   03 Jun 2027 02:49:48.175   03 Jun 2027 02:50:11.707            23.532            RioGallegos           735.375
       200   03 Jun 2027 03:32:18.959   03 Jun 2027 03:32:35.078            16.119                Norilsk           503.719
       201   03 Jun 2027 03:32:55.656   03 Jun 2027 03:33:40.046            44.390              Murmansk1          1387.187
       202   03 Jun 2027 03:33:40.046   03 Jun 2027 03:34:18.330            38.284              Murmansk2          1196.375
       203   03 Jun 2027 03:35:06.774   03 Jun 2027 03:36:28.278            81.504              Murmansk1          2547.000
       204   03 Jun 2027 03:36:39.640   03 Jun 2027 03:37:28.496            48.856                Irkutsk          1526.750
       205   03 Jun 2027 03:38:07.565   03 Jun 2027 03:39:27.647            80.082                 Moscow          2502.563
       206   03 Jun 2027 04:52:06.837   03 Jun 2027 04:52:10.265             3.428                Anadyr2           107.125
       207   03 Jun 2027 04:52:43.166   03 Jun 2027 04:53:24.734            41.568                Anadyr2          1299.000
       208   03 Jun 2027 05:09:13.529   03 Jun 2027 05:09:15.694             2.165                Novosib            67.656
       209   03 Jun 2027 05:09:31.237   03 Jun 2027 05:10:10.260            39.023              Murmansk1          1219.469
       210   03 Jun 2027 05:10:13.216   03 Jun 2027 05:10:38.151            24.935                 Moscow           779.219
       211   03 Jun 2027 05:11:39.126   03 Jun 2027 05:12:31.406            52.280              Murmansk2          1633.750
       212   03 Jun 2027 05:12:47.515   03 Jun 2027 05:12:59.508            11.993                 Moscow           374.781
       213   03 Jun 2027 05:13:03.105   03 Jun 2027 05:13:13.377            10.272              Murmansk1           321.000
       214   03 Jun 2027 05:13:13.377   03 Jun 2027 05:13:50.988            37.611              Murmansk2          1175.344
       215   03 Jun 2027 05:13:58.897   03 Jun 2027 05:14:22.536            23.639                 Moscow           738.719
       216   03 Jun 2027 05:14:28.862   03 Jun 2027 05:15:36.979            68.117                 Moscow          2128.656
       217   03 Jun 2027 05:18:13.202   03 Jun 2027 05:18:23.863            10.661                 Moscow           333.156
       218   03 Jun 2027 05:30:23.714   03 Jun 2027 05:32:18.396           114.682               CapeTown          3583.813
       219   03 Jun 2027 06:33:56.259   03 Jun 2027 06:35:32.764            96.505                Anadyr1          3015.781
       220   03 Jun 2027 06:36:23.113   03 Jun 2027 06:36:56.696            33.583                Anadyr2          1049.469
       221   03 Jun 2027 06:45:41.345   03 Jun 2027 06:46:27.652            46.307              Murmansk2          1447.094
       222   03 Jun 2027 06:46:40.440   03 Jun 2027 06:46:56.126            15.686              Murmansk2           490.188
       223   03 Jun 2027 06:47:13.929   03 Jun 2027 06:47:52.455            38.526                 Moscow          1203.938
       224   03 Jun 2027 07:07:13.802   03 Jun 2027 07:07:49.951            36.149               CapeTown          1129.656
       225   03 Jun 2027 07:11:00.559   03 Jun 2027 07:12:14.977            74.418               CapeTown          2325.562
       226   03 Jun 2027 08:07:26.690   03 Jun 2027 08:07:38.049            11.359                Anadyr2           354.969
       227   03 Jun 2027 08:07:38.049   03 Jun 2027 08:07:52.997            14.948                Anadyr1           467.125
       228   03 Jun 2027 08:07:57.771   03 Jun 2027 08:08:51.246            53.475                Anadyr2          1671.094
       229   03 Jun 2027 08:09:33.403   03 Jun 2027 08:11:07.673            94.270               Magadan2          2945.938
       230   03 Jun 2027 08:11:25.817   03 Jun 2027 08:12:09.971            44.154               Magadan2          1379.813
       231   03 Jun 2027 08:12:14.420   03 Jun 2027 08:12:56.271            41.851               Magadan1          1307.844
       232   03 Jun 2027 08:14:01.240   03 Jun 2027 08:14:44.797            43.557               Magadan2          1361.156
       233   03 Jun 2027 08:21:19.624   03 Jun 2027 08:21:41.084            21.460                 Moscow           670.625
       234   03 Jun 2027 08:22:06.375   03 Jun 2027 08:22:46.467            40.092                 Moscow          1252.875
       235   03 Jun 2027 09:42:48.140   03 Jun 2027 09:42:57.630             9.490               Magadan1           296.563
       236   03 Jun 2027 09:43:14.084   03 Jun 2027 09:43:30.307            16.223               Magadan1           506.969
       237   03 Jun 2027 09:43:30.307   03 Jun 2027 09:44:15.727            45.420               Magadan2          1419.375
       238   03 Jun 2027 09:44:32.825   03 Jun 2027 09:45:59.496            86.671               Magadan2          2708.469
       239   03 Jun 2027 09:45:59.496   03 Jun 2027 09:47:24.580            85.084               Magadan1          2658.875
       240   03 Jun 2027 09:47:24.965   03 Jun 2027 09:47:33.577             8.612                Anadyr2           269.125
       241   03 Jun 2027 09:47:57.565   03 Jun 2027 09:48:25.653            28.088               Magadan2           877.750
       242   03 Jun 2027 09:48:29.413   03 Jun 2027 09:48:33.866             4.453               Magadan2           139.156
       243   03 Jun 2027 09:48:46.755   03 Jun 2027 09:49:45.039            58.284                Irkutsk          1821.375
       244   03 Jun 2027 09:49:47.254   03 Jun 2027 09:51:11.631            84.377               Magadan2          2636.781
       245   03 Jun 2027 11:18:21.222   03 Jun 2027 11:19:10.126            48.904               Magadan2          1528.250
       246   03 Jun 2027 11:19:10.126   03 Jun 2027 11:26:02.451           412.325               Magadan1         12885.156
       247   03 Jun 2027 11:26:41.547   03 Jun 2027 11:27:32.038            50.491              Murmansk2          1577.844
       248   03 Jun 2027 12:01:45.671   03 Jun 2027 12:02:34.740            49.069            RioGallegos          1533.406
       249   03 Jun 2027 12:10:10.054   03 Jun 2027 12:10:38.264            28.210            RioGallegos           881.562
       250   03 Jun 2027 12:36:36.442   03 Jun 2027 12:39:41.797           185.355                Sumatra          5792.344
       251   03 Jun 2027 12:50:34.415   03 Jun 2027 12:51:43.687            69.272                Irkutsk          2164.750
       252   03 Jun 2027 12:52:54.202   03 Jun 2027 12:52:57.231             3.029                Novosib            94.656
       253   03 Jun 2027 12:55:04.566   03 Jun 2027 12:56:01.913            57.347                Norilsk          1792.094
       254   03 Jun 2027 13:41:06.036   03 Jun 2027 13:42:23.667            77.631            RioGallegos          2425.969
       255   03 Jun 2027 13:43:32.920   03 Jun 2027 13:45:14.371           101.451            RioGallegos          3170.344
       256   03 Jun 2027 14:16:03.464   03 Jun 2027 14:19:47.811           224.347                Sumatra          7010.844
       257   03 Jun 2027 14:32:00.100   03 Jun 2027 14:35:31.884           211.784                Irkutsk          6618.250
       258   03 Jun 2027 16:05:13.007   03 Jun 2027 16:06:24.985            71.978                 Moscow          2249.312
       259   03 Jun 2027 16:08:35.736   03 Jun 2027 16:09:26.172            50.436              Murmansk1          1576.125
       260   03 Jun 2027 16:11:04.684   03 Jun 2027 16:12:28.675            83.991                Novosib          2624.719
       261   03 Jun 2027 16:16:00.803   03 Jun 2027 16:17:34.370            93.567                Norilsk          2923.969
       262   03 Jun 2027 17:20:09.920   03 Jun 2027 17:20:24.042            14.122               CapeTown           441.313
       263   03 Jun 2027 17:21:04.550   03 Jun 2027 17:22:43.258            98.708               CapeTown          3084.625
       264   03 Jun 2027 17:42:11.071   03 Jun 2027 17:42:18.396             7.325                 Moscow           228.906
       265   03 Jun 2027 17:43:01.066   03 Jun 2027 17:44:08.359            67.293                 Moscow          2102.906
       266   03 Jun 2027 17:45:27.256   03 Jun 2027 17:45:54.318            27.062              Murmansk2           845.687
       267   03 Jun 2027 17:46:11.931   03 Jun 2027 17:47:06.022            54.091                 Moscow          1690.344
       268   03 Jun 2027 17:47:56.539   03 Jun 2027 17:48:01.665             5.126              Murmansk2           160.188
       269   03 Jun 2027 17:49:36.129   03 Jun 2027 17:49:36.392             0.263              Murmansk2             8.219
       270   03 Jun 2027 17:49:43.585   03 Jun 2027 17:49:55.911            12.326              Murmansk1           385.187
       271   03 Jun 2027 17:51:44.781   03 Jun 2027 17:52:22.583            37.802              Murmansk1          1181.313
       272   03 Jun 2027 18:01:53.471   03 Jun 2027 18:02:15.222            21.751                Anadyr1           679.719
       273   03 Jun 2027 18:02:41.430   03 Jun 2027 18:03:04.131            22.701                Anadyr1           709.406
       274   03 Jun 2027 18:03:47.923   03 Jun 2027 18:04:00.767            12.844                Anadyr2           401.375
       275   03 Jun 2027 18:05:59.701   03 Jun 2027 18:06:08.801             9.100                Anadyr1           284.375
       276   03 Jun 2027 18:06:24.401   03 Jun 2027 18:06:31.988             7.587                Anadyr1           237.094
       277   03 Jun 2027 18:08:06.099   03 Jun 2027 18:08:29.747            23.648                Anadyr2           739.000
       278   03 Jun 2027 18:54:37.046   03 Jun 2027 18:56:41.377           124.331               CapeTown          3885.344
       279   03 Jun 2027 19:24:29.046   03 Jun 2027 19:25:14.556            45.510              Murmansk1          1422.187
       280   03 Jun 2027 19:25:41.544   03 Jun 2027 19:29:52.160           250.616              Murmansk2          7831.750
       281   03 Jun 2027 19:30:46.193   03 Jun 2027 19:32:00.200            74.007              Murmansk2          2312.719
       282   03 Jun 2027 20:33:17.005   03 Jun 2027 20:36:17.837           180.832               CapeTown          5651.000
       283   03 Jun 2027 21:11:08.665   03 Jun 2027 21:11:58.355            49.690                Anadyr2          1552.813
       284   03 Jun 2027 21:12:04.522   03 Jun 2027 21:12:21.079            16.557                Anadyr2           517.406
       285   03 Jun 2027 21:13:10.969   03 Jun 2027 21:14:18.811            67.842                Anadyr2          2120.063
       286   03 Jun 2027 21:14:30.568   03 Jun 2027 21:15:56.041            85.473               Magadan2          2671.031
       287   03 Jun 2027 21:15:59.189   03 Jun 2027 21:16:00.994             1.805               Magadan1            56.406
       288   03 Jun 2027 21:16:00.994   03 Jun 2027 21:16:08.045             7.051               Magadan2           220.344
       289   03 Jun 2027 21:16:16.815   03 Jun 2027 21:16:31.377            14.562               Magadan1           455.062
       290   03 Jun 2027 21:17:53.480   03 Jun 2027 21:18:27.017            33.537               Magadan1          1048.031
       291   03 Jun 2027 22:47:01.932   03 Jun 2027 22:50:45.631           223.699                Anadyr1          6990.594
       292   03 Jun 2027 22:50:57.643   03 Jun 2027 22:53:43.766           166.123                Norilsk          5191.344
       293   03 Jun 2027 22:54:22.202   03 Jun 2027 22:54:31.439             9.237               Magadan1           288.656
       294   03 Jun 2027 22:54:39.024   03 Jun 2027 22:55:31.680            52.656               Magadan1          1645.500
       295   03 Jun 2027 22:55:39.661   03 Jun 2027 22:56:14.491            34.830                Irkutsk          1088.437
       296   03 Jun 2027 22:56:50.533   03 Jun 2027 22:57:06.130            15.597                Irkutsk           487.406
       297   03 Jun 2027 22:57:40.868   03 Jun 2027 22:58:22.928            42.060                Irkutsk          1314.375
       298   03 Jun 2027 23:12:26.818   03 Jun 2027 23:14:20.507           113.689                Sumatra          3552.781
       299   03 Jun 2027 23:43:04.037   03 Jun 2027 23:43:16.300            12.263            RioGallegos           383.219
       300   03 Jun 2027 23:50:13.713   03 Jun 2027 23:50:40.538            26.825            RioGallegos           838.281
       301   03 Jun 2027 23:52:09.347   03 Jun 2027 23:52:30.170            20.823            RioGallegos           650.719
       302   03 Jun 2027 23:52:39.955   03 Jun 2027 23:52:56.670            16.715            RioGallegos           522.344
       303   04 Jun 2027 00:22:30.540   04 Jun 2027 00:23:08.956            38.416                Anadyr1          1200.500
       304   04 Jun 2027 00:23:50.264   04 Jun 2027 00:25:23.820            93.556                Anadyr1          2923.625
       305   04 Jun 2027 00:25:26.965   04 Jun 2027 00:25:50.548            23.583               Magadan1           736.969
       306   04 Jun 2027 00:25:52.311   04 Jun 2027 00:27:11.220            78.909               Magadan2          2465.906
       307   04 Jun 2027 00:28:08.901   04 Jun 2027 00:28:34.051            25.150               Magadan2           785.938
       308   04 Jun 2027 00:28:53.475   04 Jun 2027 00:30:02.153            68.678                Irkutsk          2146.187
       309   04 Jun 2027 00:31:31.083   04 Jun 2027 00:32:24.984            53.901                Novosib          1684.406
       310   04 Jun 2027 00:37:18.897   04 Jun 2027 00:38:13.500            54.603                Novosib          1706.344
       311   04 Jun 2027 00:42:35.236   04 Jun 2027 00:42:55.195            19.959                Sumatra           623.719
       312   04 Jun 2027 00:45:28.316   04 Jun 2027 00:45:31.802             3.486                Sumatra           108.938
       313   04 Jun 2027 00:46:19.214   04 Jun 2027 00:48:32.075           132.861                Sumatra          4151.906
       314   04 Jun 2027 01:29:06.898   04 Jun 2027 01:29:26.462            19.564            RioGallegos           611.375
       315   04 Jun 2027 01:56:57.474   04 Jun 2027 01:57:40.560            43.086                Anadyr2          1346.438
       316   04 Jun 2027 01:57:53.598   04 Jun 2027 01:58:35.718            42.120                Anadyr1          1316.250
       317   04 Jun 2027 01:59:17.303   04 Jun 2027 01:59:37.211            19.908                Anadyr2           622.125
       318   04 Jun 2027 02:00:51.503   04 Jun 2027 02:02:37.258           105.755                Norilsk          3304.844
       319   04 Jun 2027 02:04:41.347   04 Jun 2027 02:05:16.188            34.841              Murmansk2          1088.781
       320   04 Jun 2027 02:05:29.472   04 Jun 2027 02:07:13.135           103.663                Novosib          3239.469
       321   04 Jun 2027 02:12:10.890   04 Jun 2027 02:12:29.820            18.930                Novosib           591.563
       322   04 Jun 2027 02:13:05.668   04 Jun 2027 02:13:40.876            35.208                  Delhi          1100.250
       323   04 Jun 2027 02:21:41.819   04 Jun 2027 02:22:33.350            51.531                  Delhi          1610.344
       324   04 Jun 2027 02:23:38.775   04 Jun 2027 02:25:11.031            92.256                Sumatra          2883.000
       325   04 Jun 2027 02:54:45.514   04 Jun 2027 02:55:28.591            43.077            RioGallegos          1346.156
       326   04 Jun 2027 02:55:46.675   04 Jun 2027 02:56:36.949            50.274            RioGallegos          1571.062
       327   04 Jun 2027 02:57:01.305   04 Jun 2027 02:57:53.217            51.912            RioGallegos          1622.250
       328   04 Jun 2027 03:02:20.091   04 Jun 2027 03:02:22.744             2.653            RioGallegos            82.906
       329   04 Jun 2027 03:42:49.582   04 Jun 2027 03:43:07.551            17.969                Irkutsk           561.531
       330   04 Jun 2027 03:43:52.915   04 Jun 2027 03:44:13.554            20.639                Irkutsk           644.969
       331   04 Jun 2027 03:45:42.568   04 Jun 2027 03:46:19.901            37.333              Murmansk2          1166.656
       332   04 Jun 2027 03:46:25.145   04 Jun 2027 03:47:11.080            45.935                Norilsk          1435.469
       333   04 Jun 2027 03:47:45.733   04 Jun 2027 03:48:59.753            74.020              Murmansk2          2313.125
       334   04 Jun 2027 03:49:11.858   04 Jun 2027 03:49:34.621            22.763                Norilsk           711.344
       335   04 Jun 2027 05:21:52.955   04 Jun 2027 05:22:21.414            28.459              Murmansk1           889.344
       336   04 Jun 2027 05:22:21.414   04 Jun 2027 05:22:33.845            12.431              Murmansk2           388.469
       337   04 Jun 2027 05:22:48.114   04 Jun 2027 05:23:13.660            25.546                Norilsk           798.313
       338   04 Jun 2027 05:23:47.872   04 Jun 2027 05:24:55.132            67.260              Murmansk2          2101.875
       339   04 Jun 2027 05:25:04.975   04 Jun 2027 05:25:19.552            14.577                 Moscow           455.531
       340   04 Jun 2027 05:25:44.732   04 Jun 2027 05:27:09.749            85.017              Murmansk2          2656.781
       341   04 Jun 2027 05:27:34.095   04 Jun 2027 05:27:42.429             8.334                 Moscow           260.437
       342   04 Jun 2027 05:28:58.518   04 Jun 2027 05:29:08.855            10.337                 Moscow           323.031
       343   04 Jun 2027 05:29:50.528   04 Jun 2027 05:30:25.427            34.899                 Moscow          1090.594
       344   04 Jun 2027 05:42:13.581   04 Jun 2027 05:44:43.036           149.455               CapeTown          4670.469
       345   04 Jun 2027 06:45:02.736   04 Jun 2027 06:45:16.978            14.242                Anadyr2           445.062
       346   04 Jun 2027 06:45:28.603   04 Jun 2027 06:46:41.961            73.358                Anadyr1          2292.438
       347   04 Jun 2027 06:46:59.106   04 Jun 2027 06:47:18.271            19.165               Magadan2           598.906
       348   04 Jun 2027 06:47:18.271   04 Jun 2027 06:47:20.910             2.639               Magadan1            82.469
       349   04 Jun 2027 06:47:32.735   04 Jun 2027 06:48:49.660            76.925                Anadyr2          2403.906
       350   04 Jun 2027 06:57:11.486   04 Jun 2027 06:58:12.763            61.277                Norilsk          1914.906
       351   04 Jun 2027 06:58:28.394   04 Jun 2027 06:59:14.063            45.669                 Moscow          1427.156
       352   04 Jun 2027 07:19:53.598   04 Jun 2027 07:19:58.740             5.142               CapeTown           160.688
       353   04 Jun 2027 07:20:07.909   04 Jun 2027 07:22:18.476           130.567               CapeTown          4080.219
       354   04 Jun 2027 08:19:27.516   04 Jun 2027 08:20:21.580            54.064               Magadan2          1689.500
       355   04 Jun 2027 08:21:04.419   04 Jun 2027 08:21:45.824            41.405                Anadyr2          1293.906
       356   04 Jun 2027 08:22:07.940   04 Jun 2027 08:22:08.026             0.086               Magadan1             2.688
       357   04 Jun 2027 08:22:40.560   04 Jun 2027 08:23:48.945            68.385                Anadyr2          2137.031
       358   04 Jun 2027 08:24:01.299   04 Jun 2027 08:24:06.401             5.102               Magadan1           159.437
       359   04 Jun 2027 08:24:43.370   04 Jun 2027 08:24:46.534             3.164                Norilsk            98.875
       360   04 Jun 2027 08:25:12.889   04 Jun 2027 08:25:22.402             9.513                Anadyr1           297.281
       361   04 Jun 2027 08:25:34.798   04 Jun 2027 08:26:25.910            51.112                Anadyr1          1597.250
       362   04 Jun 2027 08:30:53.516   04 Jun 2027 08:31:29.520            36.004                 Moscow          1125.125
       363   04 Jun 2027 08:36:24.813   04 Jun 2027 08:36:32.674             7.861                 Moscow           245.656
       364   04 Jun 2027 08:38:21.344   04 Jun 2027 08:38:25.571             4.227                 Moscow           132.094
       365   04 Jun 2027 09:08:40.312   04 Jun 2027 09:08:42.978             2.666            RioGallegos            83.312
       366   04 Jun 2027 09:53:37.190   04 Jun 2027 09:54:38.129            60.939               Magadan2          1904.344
       367   04 Jun 2027 09:55:31.937   04 Jun 2027 09:55:37.554             5.617               Magadan2           175.531
       368   04 Jun 2027 09:55:39.866   04 Jun 2027 09:56:26.130            46.264               Magadan1          1445.750
       369   04 Jun 2027 09:56:33.131   04 Jun 2027 09:56:35.470             2.339                Norilsk            73.094
       370   04 Jun 2027 09:56:56.829   04 Jun 2027 09:58:04.766            67.937                Irkutsk          2123.031
       371   04 Jun 2027 09:58:33.766   04 Jun 2027 09:58:37.474             3.708                Norilsk           115.875
       372   04 Jun 2027 09:59:09.116   04 Jun 2027 10:00:42.964            93.848                Anadyr1          2932.750
       373   04 Jun 2027 10:00:42.964   04 Jun 2027 10:01:11.703            28.739                Anadyr2           898.094
       374   04 Jun 2027 10:01:36.356   04 Jun 2027 10:03:10.411            94.055               Magadan1          2939.219
       375   04 Jun 2027 10:42:11.822   04 Jun 2027 10:42:44.989            33.167            RioGallegos          1036.469
       376   04 Jun 2027 11:16:58.982   04 Jun 2027 11:17:13.487            14.505                Sumatra           453.281
       377   04 Jun 2027 11:18:00.255   04 Jun 2027 11:18:04.765             4.510                Sumatra           140.937
       378   04 Jun 2027 11:20:42.680   04 Jun 2027 11:21:14.490            31.810                Sumatra           994.063
       379   04 Jun 2027 11:31:18.173   04 Jun 2027 11:34:18.233           180.060               Magadan1          5626.875
       380   04 Jun 2027 11:34:36.819   04 Jun 2027 11:37:39.932           183.113               Magadan1          5722.281
       381   04 Jun 2027 11:37:55.386   04 Jun 2027 11:38:14.591            19.205                Norilsk           600.156
       382   04 Jun 2027 11:38:27.584   04 Jun 2027 11:38:27.771             0.187                Norilsk             5.844
       383   04 Jun 2027 11:38:29.964   04 Jun 2027 11:39:05.789            35.825              Murmansk1          1119.531
       384   04 Jun 2027 11:46:44.348   04 Jun 2027 11:46:45.941             1.593              Murmansk1            49.781
       385   04 Jun 2027 12:13:56.034   04 Jun 2027 12:13:59.223             3.189            RioGallegos            99.656
       386   04 Jun 2027 12:14:27.155   04 Jun 2027 12:15:32.532            65.377            RioGallegos          2043.031
       387   04 Jun 2027 12:17:38.334   04 Jun 2027 12:18:21.330            42.996            RioGallegos          1343.625
       388   04 Jun 2027 12:48:35.444   04 Jun 2027 12:51:02.815           147.371                Sumatra          4605.344
       389   04 Jun 2027 13:02:52.836   04 Jun 2027 13:03:57.366            64.530                Irkutsk          2016.562
       390   04 Jun 2027 13:04:54.358   04 Jun 2027 13:05:30.326            35.968                Novosib          1124.000
       391   04 Jun 2027 13:07:11.151   04 Jun 2027 13:08:00.790            49.639                Norilsk          1551.219
       392   04 Jun 2027 13:08:49.784   04 Jun 2027 13:09:28.159            38.375                Norilsk          1199.219
       393   04 Jun 2027 13:54:12.003   04 Jun 2027 13:57:36.972           204.969            RioGallegos          6405.281
       394   04 Jun 2027 14:35:53.958   04 Jun 2027 14:37:25.907            91.949                  Delhi          2873.406
       395   04 Jun 2027 14:40:45.662   04 Jun 2027 14:40:58.104            12.442                Novosib           388.812
       396   04 Jun 2027 14:42:35.074   04 Jun 2027 14:44:41.480           126.406                Novosib          3950.187
       397   04 Jun 2027 14:48:15.778   04 Jun 2027 14:49:31.519            75.741                Norilsk          2366.906
       398   04 Jun 2027 16:17:11.653   04 Jun 2027 16:18:24.502            72.849                 Moscow          2276.531
       399   04 Jun 2027 16:19:20.663   04 Jun 2027 16:20:30.087            69.424                 Moscow          2169.500
       400   04 Jun 2027 16:20:38.527   04 Jun 2027 16:21:35.107            56.580              Murmansk1          1768.125
       401   04 Jun 2027 16:24:43.551   04 Jun 2027 16:26:38.679           115.128                Norilsk          3597.750
       402   04 Jun 2027 16:28:19.504   04 Jun 2027 16:30:29.591           130.087                Norilsk          4065.219
       403   04 Jun 2027 17:31:43.075   04 Jun 2027 17:32:12.428            29.353               CapeTown           917.281
       404   04 Jun 2027 17:39:04.547   04 Jun 2027 17:40:29.242            84.695               CapeTown          2646.719
       405   04 Jun 2027 17:54:37.082   04 Jun 2027 17:55:11.476            34.394                 Moscow          1074.812
       406   04 Jun 2027 17:57:44.349   04 Jun 2027 17:58:41.500            57.151              Murmansk2          1785.969
       407   04 Jun 2027 17:59:25.844   04 Jun 2027 17:59:45.430            19.586                 Moscow           612.063
       408   04 Jun 2027 18:01:35.628   04 Jun 2027 18:01:56.708            21.080              Murmansk1           658.750
       409   04 Jun 2027 18:02:23.760   04 Jun 2027 18:04:35.424           131.664                 Moscow          4114.500
       410   04 Jun 2027 19:06:42.590   04 Jun 2027 19:08:16.961            94.371               CapeTown          2949.094
       411   04 Jun 2027 19:09:40.815   04 Jun 2027 19:10:25.749            44.934               CapeTown          1404.188
       412   04 Jun 2027 19:37:06.492   04 Jun 2027 19:38:14.469            67.977              Murmansk1          2124.281
       413   04 Jun 2027 19:39:17.726   04 Jun 2027 19:41:52.539           154.813              Murmansk2          4837.906
       414   04 Jun 2027 19:42:29.096   04 Jun 2027 19:42:38.908             9.812              Murmansk1           306.625
       415   04 Jun 2027 19:44:45.204   04 Jun 2027 19:45:02.274            17.070              Murmansk1           533.437
       416   04 Jun 2027 19:50:35.102   04 Jun 2027 19:51:05.408            30.306               Magadan1           947.063
       417   04 Jun 2027 19:51:05.408   04 Jun 2027 19:51:29.642            24.234               Magadan2           757.312
       418   04 Jun 2027 19:52:06.838   04 Jun 2027 19:52:17.072            10.234               Magadan2           319.812
       419   04 Jun 2027 19:53:43.806   04 Jun 2027 19:53:51.708             7.902               Magadan2           246.938
       420   04 Jun 2027 19:54:37.230   04 Jun 2027 19:56:01.477            84.247               Magadan2          2632.719
       421   04 Jun 2027 21:23:10.498   04 Jun 2027 21:26:40.776           210.278                Anadyr2          6571.187
       422   04 Jun 2027 21:26:42.743   04 Jun 2027 21:29:53.458           190.715               Magadan1          5959.844
       423   04 Jun 2027 21:33:57.637   04 Jun 2027 21:34:13.359            15.722               Magadan1           491.312
       424   04 Jun 2027 21:35:45.415   04 Jun 2027 21:35:46.875             1.460               Magadan1            45.625
       425   04 Jun 2027 21:36:19.592   04 Jun 2027 21:36:48.485            28.893               Magadan1           902.906
       426   04 Jun 2027 22:20:37.524   04 Jun 2027 22:22:14.672            97.148            RioGallegos          3035.875
       427   04 Jun 2027 22:59:02.152   04 Jun 2027 23:02:11.775           189.623                Anadyr2          5925.719
       428   04 Jun 2027 23:02:12.510   04 Jun 2027 23:03:10.837            58.327               Magadan1          1822.719
       429   04 Jun 2027 23:03:36.528   04 Jun 2027 23:03:43.557             7.029                Norilsk           219.656
       430   04 Jun 2027 23:03:48.763   04 Jun 2027 23:03:57.889             9.126               Magadan2           285.187
       431   04 Jun 2027 23:04:12.866   04 Jun 2027 23:04:24.957            12.091                Norilsk           377.844
       432   04 Jun 2027 23:04:31.063   04 Jun 2027 23:04:47.422            16.359               Magadan1           511.219
       433   04 Jun 2027 23:06:06.715   04 Jun 2027 23:06:28.534            21.819               Magadan2           681.844
       434   04 Jun 2027 23:06:53.912   04 Jun 2027 23:07:00.919             7.007               Magadan1           218.969
       435   04 Jun 2027 23:07:05.238   04 Jun 2027 23:07:36.555            31.317                Norilsk           978.656
       436   04 Jun 2027 23:08:03.618   04 Jun 2027 23:08:51.141            47.523                Irkutsk          1485.094
       437   04 Jun 2027 23:09:14.016   04 Jun 2027 23:09:25.960            11.944                Irkutsk           373.250
       438   04 Jun 2027 23:11:30.324   04 Jun 2027 23:11:51.007            20.683                Irkutsk           646.344
       439   04 Jun 2027 23:22:08.912   04 Jun 2027 23:23:46.583            97.671                Sumatra          3052.219
       440   04 Jun 2027 23:24:59.590   04 Jun 2027 23:26:34.769            95.179                Sumatra          2974.344
       441   05 Jun 2027 00:34:25.224   05 Jun 2027 00:34:55.712            30.488                Anadyr1           952.750
       442   05 Jun 2027 00:35:03.708   05 Jun 2027 00:35:50.274            46.566                Anadyr2          1455.187
       443   05 Jun 2027 00:35:50.274   05 Jun 2027 00:36:08.201            17.927                Anadyr1           560.219
       444   05 Jun 2027 00:36:53.225   05 Jun 2027 00:37:26.865            33.640                Norilsk          1051.250
       445   05 Jun 2027 00:37:30.269   05 Jun 2027 00:38:44.161            73.892               Magadan1          2309.125
       446   05 Jun 2027 00:39:29.888   05 Jun 2027 00:39:40.512            10.624               Magadan2           332.000
       447   05 Jun 2027 00:40:51.521   05 Jun 2027 00:43:06.391           134.870                Irkutsk          4214.687
       448   05 Jun 2027 00:45:21.739   05 Jun 2027 00:45:44.935            23.196                Novosib           724.875
       449   05 Jun 2027 00:46:06.486   05 Jun 2027 00:46:39.255            32.769                Novosib          1024.031
       450   05 Jun 2027 00:50:58.181   05 Jun 2027 00:50:59.008             0.827                Novosib            25.844
       451   05 Jun 2027 00:54:37.078   05 Jun 2027 00:56:31.868           114.790                Sumatra          3587.187
       452   05 Jun 2027 01:03:27.762   05 Jun 2027 01:03:44.224            16.462                Sumatra           514.437
       453   05 Jun 2027 01:28:51.834   05 Jun 2027 01:29:34.667            42.833            RioGallegos          1338.531
       454   05 Jun 2027 01:36:48.588   05 Jun 2027 01:37:37.995            49.407            RioGallegos          1543.969
       455   05 Jun 2027 02:08:42.267   05 Jun 2027 02:08:48.957             6.690                Anadyr1           209.063
       456   05 Jun 2027 02:09:15.633   05 Jun 2027 02:09:40.792            25.159                Anadyr1           786.219
       457   05 Jun 2027 02:09:53.069   05 Jun 2027 02:10:37.022            43.953                Anadyr2          1373.531
       458   05 Jun 2027 02:11:08.143   05 Jun 2027 02:11:18.765            10.622                Anadyr2           331.938
       459   05 Jun 2027 02:12:53.877   05 Jun 2027 02:13:54.876            60.999                Norilsk          1906.219
       460   05 Jun 2027 02:14:05.393   05 Jun 2027 02:14:15.820            10.427                Norilsk           325.844
       461   05 Jun 2027 02:16:04.153   05 Jun 2027 02:16:13.301             9.148                Norilsk           285.875
       462   05 Jun 2027 02:16:27.770   05 Jun 2027 02:17:37.919            70.149              Murmansk2          2192.156
       463   05 Jun 2027 02:17:44.421   05 Jun 2027 02:18:48.366            63.945                Novosib          1998.281
       464   05 Jun 2027 02:20:02.038   05 Jun 2027 02:20:32.325            30.287                Novosib           946.469
       465   05 Jun 2027 02:24:06.639   05 Jun 2027 02:24:56.740            50.101                  Delhi          1565.656
       466   05 Jun 2027 02:33:38.788   05 Jun 2027 02:34:19.979            41.191                  Delhi          1287.219
       467   05 Jun 2027 03:05:43.828   05 Jun 2027 03:06:52.987            69.159            RioGallegos          2161.219
       468   05 Jun 2027 03:07:21.864   05 Jun 2027 03:10:18.932           177.068            RioGallegos          5533.375
       469   05 Jun 2027 03:58:21.346   05 Jun 2027 03:59:07.389            46.043              Murmansk2          1438.844
       470   05 Jun 2027 03:59:20.120   05 Jun 2027 04:00:03.602            43.482                Norilsk          1358.812
       471   05 Jun 2027 04:00:14.917   05 Jun 2027 04:00:48.978            34.061                 Moscow          1064.406
       472   05 Jun 2027 04:00:49.416   05 Jun 2027 04:01:28.483            39.067              Murmansk2          1220.844
       473   05 Jun 2027 04:02:00.217   05 Jun 2027 04:03:02.559            62.342                 Moscow          1948.187
       474   05 Jun 2027 04:04:30.317   05 Jun 2027 04:04:36.587             6.270                Novosib           195.937
       475   05 Jun 2027 04:04:46.542   05 Jun 2027 04:07:22.016           155.474                  Delhi          4858.563
       476   05 Jun 2027 05:33:17.659   05 Jun 2027 05:33:42.886            25.227                Novosib           788.344
       477   05 Jun 2027 05:34:45.348   05 Jun 2027 05:35:53.472            68.124                 Moscow          2128.875
       478   05 Jun 2027 05:36:35.658   05 Jun 2027 05:36:39.465             3.807                Novosib           118.969
       479   05 Jun 2027 05:36:46.221   05 Jun 2027 05:37:39.200            52.979              Murmansk1          1655.594
       480   05 Jun 2027 05:37:39.200   05 Jun 2027 05:37:56.390            17.190              Murmansk2           537.187
       481   05 Jun 2027 05:37:56.390   05 Jun 2027 05:38:20.793            24.403              Murmansk1           762.594
       482   05 Jun 2027 05:40:12.491   05 Jun 2027 05:40:46.410            33.919                 Moscow          1059.969
