uniorb/output/strategy_2/Drop/Drop_KinoSat_110310.txt

KinoSat_110310
-------------------------
    Access    *     Start Time (UTCG)     *     Stop Time (UTCG)  *   Duration (s)        *       Station  *  Data (Mbytes)
         1   01 Jun 2027 03:06:10.503   01 Jun 2027 03:06:38.440            27.937               Magadan2          3492.125
         2   01 Jun 2027 03:06:38.440   01 Jun 2027 03:06:51.088            12.648               Magadan1          1121.375
         3   01 Jun 2027 03:07:58.223   01 Jun 2027 03:08:56.296            58.073               Magadan2          7259.125
         4   01 Jun 2027 03:09:05.916   01 Jun 2027 03:09:15.695             9.779                Irkutsk          1222.375
         5   01 Jun 2027 03:09:22.146   01 Jun 2027 03:10:25.362            63.216               Magadan1          7539.500
         6   01 Jun 2027 03:10:25.407   01 Jun 2027 03:10:42.698            17.291                Novosib            22.500
         7   01 Jun 2027 03:10:44.954   01 Jun 2027 03:11:07.687            22.733               Magadan1          1128.000
         8   01 Jun 2027 03:11:13.181   01 Jun 2027 03:11:50.304            37.123               Magadan1          2747.000
         9   01 Jun 2027 03:11:59.943   01 Jun 2027 03:12:48.451            48.508                Norilsk          4819.500
        10   01 Jun 2027 03:13:02.893   01 Jun 2027 03:14:19.730            76.837                Anadyr1          7221.000
        11   01 Jun 2027 03:14:24.697   01 Jun 2027 03:14:46.626            21.929               Magadan2          2483.500
        12   01 Jun 2027 03:14:53.540   01 Jun 2027 03:15:36.266            42.726              Murmansk1          3457.000
        13   01 Jun 2027 03:15:39.806   01 Jun 2027 03:16:02.362            22.556                Norilsk          1770.000
        14   01 Jun 2027 04:44:52.226   01 Jun 2027 04:44:56.536             4.310                Novosib           538.750
        15   01 Jun 2027 04:45:00.458   01 Jun 2027 04:45:24.001            23.543                Norilsk          2408.250
        16   01 Jun 2027 04:45:26.882   01 Jun 2027 04:46:27.377            60.495                Novosib          1440.500
        17   01 Jun 2027 04:46:41.439   01 Jun 2027 04:47:35.908            54.469                Novosib          6808.625
        18   01 Jun 2027 04:48:04.355   01 Jun 2027 04:49:51.333           106.978                Norilsk         13372.250
        19   01 Jun 2027 04:49:51.921   01 Jun 2027 04:50:20.620            28.699                Irkutsk          1367.625
        20   01 Jun 2027 04:50:24.695   01 Jun 2027 04:50:58.151            33.456              Murmansk1          2037.500
        21   01 Jun 2027 04:51:15.365   01 Jun 2027 04:52:17.521            62.156                Norilsk          7769.500
        22   01 Jun 2027 04:52:21.130   01 Jun 2027 04:53:06.578            45.448                Novosib           837.500
        23   01 Jun 2027 06:21:56.813   01 Jun 2027 06:22:08.206            11.393                  Delhi          1424.125
        24   01 Jun 2027 06:22:38.684   01 Jun 2027 06:25:17.280           158.596                 Moscow         18136.375
        25   01 Jun 2027 06:25:22.228   01 Jun 2027 06:26:05.418            43.190                Irkutsk          2474.000
        26   01 Jun 2027 06:26:08.875   01 Jun 2027 06:26:34.990            26.115              Murmansk1          1728.500
        27   01 Jun 2027 06:26:37.166   01 Jun 2027 06:26:51.813            14.647                Novosib          1088.000
        28   01 Jun 2027 06:27:01.060   01 Jun 2027 06:27:26.986            25.926                Norilsk          3240.750
        29   01 Jun 2027 06:27:38.310   01 Jun 2027 06:27:47.240             8.930              Murmansk1            64.750
        30   01 Jun 2027 07:58:46.242   01 Jun 2027 07:59:30.137            43.895                Norilsk          5424.500
        31   01 Jun 2027 07:59:37.498   01 Jun 2027 08:00:07.084            29.586                Novosib          3680.500
        32   01 Jun 2027 08:00:12.703   01 Jun 2027 08:01:00.266            47.563                Norilsk          2809.500
        33   01 Jun 2027 08:01:13.545   01 Jun 2027 08:02:14.019            60.474                Novosib          6639.500
        34   01 Jun 2027 08:02:18.180   01 Jun 2027 08:02:50.798            32.618                Norilsk          2080.500
        35   01 Jun 2027 08:02:56.981   01 Jun 2027 08:03:46.284            49.303              Murmansk1          3091.500
        36   01 Jun 2027 09:37:07.766   01 Jun 2027 09:38:48.789           101.023              Murmansk1         10957.500
        37   02 Jun 2027 03:20:59.045   02 Jun 2027 03:21:22.396            23.351               Magadan1          1887.500
        38   02 Jun 2027 03:21:29.641   02 Jun 2027 03:22:32.584            62.943                Irkutsk          3622.500
        39   02 Jun 2027 03:22:32.776   02 Jun 2027 03:23:05.895            33.119                Novosib            96.000
        40   02 Jun 2027 03:23:14.993   02 Jun 2027 03:23:40.997            26.004                Novosib          3250.500
        41   02 Jun 2027 03:23:47.794   02 Jun 2027 03:24:27.275            39.481               Magadan2          4697.000
        42   02 Jun 2027 03:24:36.375   02 Jun 2027 03:25:46.513            70.138                Irkutsk          4550.000
        43   02 Jun 2027 03:25:49.363   02 Jun 2027 03:26:09.682            20.319                Norilsk          1425.000
        44   02 Jun 2027 03:26:11.173   02 Jun 2027 03:26:28.320            17.147                Irkutsk           745.500
        45   02 Jun 2027 03:26:32.537   02 Jun 2027 03:26:54.477            21.940               Magadan1          2108.500
        46   02 Jun 2027 03:26:54.756   02 Jun 2027 03:27:06.213            11.457              Murmansk1           139.500
        47   02 Jun 2027 03:27:22.111   02 Jun 2027 03:28:29.548            67.437                Norilsk          7949.000
        48   02 Jun 2027 04:57:17.891   02 Jun 2027 04:57:59.003            41.112                Norilsk          1053.000
        49   02 Jun 2027 04:58:00.824   02 Jun 2027 04:58:33.513            32.689                Novosib           910.500
        50   02 Jun 2027 04:58:38.489   02 Jun 2027 04:59:02.325            23.836                Norilsk          2488.000
        51   02 Jun 2027 04:59:10.856   02 Jun 2027 05:00:05.260            54.404                Norilsk          4265.500
        52   02 Jun 2027 05:00:22.473   02 Jun 2027 05:01:13.212            50.739                Novosib          6342.375
        53   02 Jun 2027 05:01:14.051   02 Jun 2027 05:01:37.092            23.041                Norilsk          2683.625
        54   02 Jun 2027 05:01:38.094   02 Jun 2027 05:01:57.990            19.896              Murmansk2           501.000
        55   02 Jun 2027 05:02:00.433   02 Jun 2027 05:02:12.769            12.336              Murmansk2          1221.500
        56   02 Jun 2027 05:02:15.495   02 Jun 2027 05:02:57.379            41.884              Murmansk1          1363.000
        57   02 Jun 2027 05:03:09.885   02 Jun 2027 05:03:37.738            27.853                Irkutsk          3481.625
        58   02 Jun 2027 05:03:56.758   02 Jun 2027 05:04:07.552            10.794                Norilsk          1349.250
        59   02 Jun 2027 05:04:18.591   02 Jun 2027 05:04:41.075            22.484              Murmansk2          1659.625
        60   02 Jun 2027 06:34:51.353   02 Jun 2027 06:35:04.553            13.200              Murmansk2           763.500
        61   02 Jun 2027 06:35:09.734   02 Jun 2027 06:35:31.609            21.875                Norilsk          2590.500
        62   02 Jun 2027 06:35:32.288   02 Jun 2027 06:35:41.056             8.768                Norilsk           339.500
        63   02 Jun 2027 06:35:46.313   02 Jun 2027 06:36:41.785            55.472                Irkutsk          2628.500
        64   02 Jun 2027 06:36:51.693   02 Jun 2027 06:37:45.724            54.031                 Moscow          4954.000
        65   02 Jun 2027 06:37:48.100   02 Jun 2027 06:38:03.668            15.568                Norilsk          1188.000
        66   02 Jun 2027 06:38:05.390   02 Jun 2027 06:38:15.530            10.140              Murmansk1           861.000
        67   02 Jun 2027 06:38:21.929   02 Jun 2027 06:38:52.927            30.998                Norilsk          3199.500
        68   02 Jun 2027 06:38:54.045   02 Jun 2027 06:39:36.173            42.128              Murmansk1           559.000
        69   02 Jun 2027 08:10:56.254   02 Jun 2027 08:12:09.309            73.055                 Moscow          1528.000
        70   02 Jun 2027 08:12:13.673   02 Jun 2027 08:12:44.120            30.447                Novosib          2182.000
        71   02 Jun 2027 08:12:48.086   02 Jun 2027 08:13:03.963            15.877              Murmansk1          1983.000
        72   02 Jun 2027 08:13:14.290   02 Jun 2027 08:14:17.622            63.332                Novosib          5163.500
        73   02 Jun 2027 08:14:20.272   02 Jun 2027 08:14:51.125            30.853                Novosib          1325.000
        74   02 Jun 2027 08:15:01.519   02 Jun 2027 08:15:43.435            41.916                Norilsk          5197.000
        75   03 Jun 2027 03:33:11.812   03 Jun 2027 03:33:54.690            42.878               Magadan1          2287.500
        76   03 Jun 2027 03:33:55.984   03 Jun 2027 03:34:13.250            17.266               Magadan1           647.000
        77   03 Jun 2027 03:34:13.514   03 Jun 2027 03:34:37.067            23.553               Magadan1           132.000
        78   03 Jun 2027 03:34:41.050   03 Jun 2027 03:34:52.557            11.507                Novosib          1438.375
        79   03 Jun 2027 03:34:55.766   03 Jun 2027 03:35:13.846            18.080               Magadan2          2157.625
        80   03 Jun 2027 03:35:16.004   03 Jun 2027 03:36:04.940            48.936               Magadan2          1079.000
        81   03 Jun 2027 03:36:10.026   03 Jun 2027 03:36:50.951            40.925                Norilsk          2543.000
        82   03 Jun 2027 03:36:54.048   03 Jun 2027 03:37:09.885            15.837               Magadan2          1548.500
        83   03 Jun 2027 03:37:16.361   03 Jun 2027 03:37:41.506            25.145                Norilsk          3143.125
        84   03 Jun 2027 03:37:46.316   03 Jun 2027 03:38:34.365            48.049               Magadan1          2499.875
        85   03 Jun 2027 03:38:35.345   03 Jun 2027 03:39:28.892            53.547               Magadan2           490.000
        86   03 Jun 2027 03:39:29.310   03 Jun 2027 03:39:36.389             7.079              Murmansk2           209.000
        87   03 Jun 2027 03:39:50.657   03 Jun 2027 03:40:27.369            36.712                Norilsk          3289.500
        88   03 Jun 2027 05:09:56.303   03 Jun 2027 05:11:48.086           111.783                Irkutsk         13972.875
        89   03 Jun 2027 05:12:05.863   03 Jun 2027 05:13:27.133            81.270                Norilsk         10084.125
        90   03 Jun 2027 05:13:31.042   03 Jun 2027 05:13:57.905            26.863                Novosib          1954.500
        91   03 Jun 2027 05:14:00.428   03 Jun 2027 05:14:17.371            16.943              Murmansk2          1261.500
        92   03 Jun 2027 05:14:19.529   03 Jun 2027 05:15:12.611            53.082              Murmansk1          1079.000
        93   03 Jun 2027 05:15:20.503   03 Jun 2027 05:15:27.535             7.032              Murmansk2           827.500
        94   03 Jun 2027 05:15:49.754   03 Jun 2027 05:16:03.660            13.906              Murmansk2          1405.000
        95   03 Jun 2027 06:46:56.126   03 Jun 2027 06:47:23.161            27.035              Murmansk1          1162.000
        96   03 Jun 2027 06:47:26.449   03 Jun 2027 06:48:10.244            43.795                Novosib          1644.000
        97   03 Jun 2027 06:48:10.720   03 Jun 2027 06:48:19.028             8.308                 Moscow           238.000
        98   03 Jun 2027 06:48:27.638   03 Jun 2027 06:49:12.242            44.604                Novosib          4305.000
        99   03 Jun 2027 06:49:13.152   03 Jun 2027 06:49:55.202            42.050                Novosib           455.000
       100   03 Jun 2027 06:49:56.474   03 Jun 2027 06:50:21.579            25.105                Novosib           636.000
       101   03 Jun 2027 06:50:24.437   03 Jun 2027 06:50:45.449            21.012                Norilsk          1429.000
       102   03 Jun 2027 06:50:46.760   03 Jun 2027 06:51:33.489            46.729              Murmansk2           655.500
       103   03 Jun 2027 08:23:07.111   03 Jun 2027 08:24:06.745            59.634                Novosib          4909.000
       104   03 Jun 2027 08:24:08.952   03 Jun 2027 08:24:19.845            10.893              Murmansk1          1103.500
       105   03 Jun 2027 08:24:21.028   03 Jun 2027 08:24:45.295            24.267              Murmansk1           591.500
       106   03 Jun 2027 08:24:47.199   03 Jun 2027 08:25:42.238            55.039                Norilsk           952.000
       107   03 Jun 2027 08:25:53.002   03 Jun 2027 08:26:28.431            35.429                Norilsk          4428.625
       108   03 Jun 2027 08:26:32.489   03 Jun 2027 08:26:58.215            25.726              Murmansk1          2982.375
       109   03 Jun 2027 08:27:02.041   03 Jun 2027 08:27:21.148            19.107                 Moscow          1913.000
       110   03 Jun 2027 08:27:21.680   03 Jun 2027 08:27:35.728            14.048              Murmansk2           266.000
       111   03 Jun 2027 08:27:39.347   03 Jun 2027 08:27:50.142            10.795                Novosib          1349.375
       112   03 Jun 2027 08:27:53.355   03 Jun 2027 08:28:25.569            32.214                 Moscow           460.125
       113   04 Jun 2027 03:44:36.874   04 Jun 2027 03:45:26.304            49.430                Novosib           296.500
       114   04 Jun 2027 03:45:28.590   04 Jun 2027 03:45:53.799            25.209               Magadan1          1143.000
       115   04 Jun 2027 03:46:05.918   04 Jun 2027 03:47:10.494            64.576               Magadan2          6059.500
       116   04 Jun 2027 03:47:18.606   04 Jun 2027 03:47:42.512            23.906                Norilsk          2988.250
       117   04 Jun 2027 03:47:49.147   04 Jun 2027 03:48:32.512            43.365                Novosib          4385.250
       118   04 Jun 2027 03:48:33.635   04 Jun 2027 03:48:43.860            10.225               Magadan1           561.500
       119   04 Jun 2027 03:48:46.250   04 Jun 2027 03:49:12.970            26.720                Irkutsk          1195.000
       120   04 Jun 2027 03:49:13.567   04 Jun 2027 03:50:11.978            58.411                Irkutsk           298.500
       121   04 Jun 2027 03:50:19.342   04 Jun 2027 03:50:37.892            18.550                Novosib          2318.750
       122   04 Jun 2027 03:50:38.130   04 Jun 2027 03:51:01.135            23.005               Magadan2          1482.250
       123   04 Jun 2027 03:51:09.723   04 Jun 2027 03:52:04.699            54.976              Murmansk1          4294.000
       124   04 Jun 2027 05:21:26.526   04 Jun 2027 05:22:32.224            65.698                Novosib          8212.250
       125   04 Jun 2027 05:22:40.322   04 Jun 2027 05:23:38.721            58.399                Irkutsk          5739.250
       126   04 Jun 2027 05:23:41.323   04 Jun 2027 05:24:06.127            24.804                Norilsk          1301.000
       127   04 Jun 2027 05:24:15.677   04 Jun 2027 05:25:24.038            68.361                Novosib          4775.000
       128   04 Jun 2027 05:25:44.132   04 Jun 2027 05:26:59.536            75.404                Norilsk          9425.500
       129   04 Jun 2027 05:27:09.749   04 Jun 2027 05:27:57.832            48.083              Murmansk2          5728.000
       130   04 Jun 2027 06:59:34.427   04 Jun 2027 07:00:28.601            54.174                Norilsk          4789.500
       131   04 Jun 2027 07:00:29.631   04 Jun 2027 07:01:29.380            59.749                 Moscow           515.000
       132   04 Jun 2027 07:01:29.734   04 Jun 2027 07:01:54.636            24.902              Murmansk1           177.000
       133   04 Jun 2027 07:01:56.849   04 Jun 2027 07:02:08.479            11.630                 Moscow          1106.500
       134   04 Jun 2027 07:02:09.624   04 Jun 2027 07:02:20.032            10.408              Murmansk1           572.500
       135   04 Jun 2027 07:02:28.343   04 Jun 2027 07:03:32.729            64.386              Murmansk2          4155.500
       136   04 Jun 2027 08:35:00.079   04 Jun 2027 08:35:40.759            40.680              Murmansk2          4987.000
       137   04 Jun 2027 08:35:41.326   04 Jun 2027 08:35:57.556            16.230                Novosib           283.500
       138   04 Jun 2027 08:36:02.389   04 Jun 2027 08:36:24.813            22.424                 Moscow          2416.500
       139   04 Jun 2027 08:36:25.888   04 Jun 2027 08:36:41.688            15.800                Norilsk           537.500
       140   04 Jun 2027 08:36:45.543   04 Jun 2027 08:37:21.011            35.468              Murmansk2          1927.500
       141   04 Jun 2027 08:37:35.477   04 Jun 2027 08:38:38.303            62.826              Murmansk2          7233.000
       142   04 Jun 2027 08:38:44.048   04 Jun 2027 08:39:10.979            26.931                Norilsk          2872.500
       143   04 Jun 2027 08:39:17.558   04 Jun 2027 08:39:21.532             3.974                Novosib           496.750
       144   04 Jun 2027 08:39:24.189   04 Jun 2027 08:39:59.820            35.631              Murmansk1          2641.750
       145   04 Jun 2027 08:40:00.093   04 Jun 2027 08:40:06.593             6.500                Norilsk           136.500
       146   04 Jun 2027 08:40:10.996   04 Jun 2027 08:41:17.934            66.938              Murmansk1          2201.500
       147   05 Jun 2027 03:56:41.031   05 Jun 2027 03:57:54.998            73.967                Norilsk          9245.875
       148   05 Jun 2027 03:58:00.751   05 Jun 2027 03:58:14.908            14.157               Magadan1          1769.625
       149   05 Jun 2027 03:58:14.908   05 Jun 2027 03:58:42.768            27.860               Magadan2          2096.500
       150   05 Jun 2027 03:58:51.101   05 Jun 2027 03:59:58.301            67.200                Novosib          4166.500
       151   05 Jun 2027 04:00:00.835   05 Jun 2027 04:00:27.109            26.274                Novosib          1267.000
       152   05 Jun 2027 04:00:27.259   05 Jun 2027 04:00:32.869             5.610                Irkutsk            75.000
       153   05 Jun 2027 04:00:34.436   05 Jun 2027 04:00:50.955            16.519               Magadan2           783.500
       154   05 Jun 2027 04:00:56.367   05 Jun 2027 04:01:01.689             5.322                Irkutsk           665.250
       155   05 Jun 2027 04:01:05.429   05 Jun 2027 04:01:53.545            48.116                Novosib          3910.750
       156   05 Jun 2027 04:01:57.689   05 Jun 2027 04:02:22.228            24.539              Murmansk2          2072.000
       157   05 Jun 2027 04:02:23.927   05 Jun 2027 04:02:47.727            23.800                Norilsk           849.500
       158   05 Jun 2027 04:02:58.538   05 Jun 2027 04:04:06.385            67.847              Murmansk1          5405.500
       159   05 Jun 2027 05:33:42.886   05 Jun 2027 05:34:53.417            70.531                Novosib          8145.500
       160   05 Jun 2027 05:35:08.882   05 Jun 2027 05:35:41.677            32.795                Norilsk          4099.375
       161   05 Jun 2027 05:35:44.381   05 Jun 2027 05:36:38.231            53.850                Irkutsk          4985.125
       162   05 Jun 2027 05:36:39.465   05 Jun 2027 05:36:46.837             7.372                Novosib           617.000
       163   05 Jun 2027 05:36:50.504   05 Jun 2027 05:37:08.889            18.385                Norilsk          1833.500
       164   05 Jun 2027 05:37:10.065   05 Jun 2027 05:37:34.943            24.878              Murmansk2           588.000
       165   05 Jun 2027 05:37:39.200   05 Jun 2027 05:37:56.302            17.102              Murmansk1          2128.500
       166   05 Jun 2027 05:37:56.390   05 Jun 2027 05:38:20.793            24.403              Murmansk2            44.000
       167   05 Jun 2027 05:38:24.474   05 Jun 2027 05:38:52.277            27.803                Norilsk          1840.500
       168   05 Jun 2027 05:38:59.641   05 Jun 2027 05:39:37.240            37.599              Murmansk1          3682.000
       169   05 Jun 2027 07:11:30.166   05 Jun 2027 07:12:06.162            35.996                Norilsk          4018.500
       170   05 Jun 2027 07:12:29.569   05 Jun 2027 07:14:32.516           122.947                Norilsk         11703.500
       171   05 Jun 2027 07:14:34.482   05 Jun 2027 07:15:24.334            49.852              Murmansk1           983.000
       172   05 Jun 2027 08:44:55.036   05 Jun 2027 08:46:52.048           117.012                 Moscow         13577.000
       173   05 Jun 2027 08:47:08.484   05 Jun 2027 08:48:22.152            73.668                Novosib          8218.000
       174   05 Jun 2027 08:48:34.041   05 Jun 2027 08:49:45.442            71.401                 Moscow          5944.500
       175   05 Jun 2027 08:49:49.645   05 Jun 2027 08:50:29.461            39.816                Norilsk          2101.500
       176   05 Jun 2027 08:50:34.424   05 Jun 2027 08:50:56.178            21.754              Murmansk2          2481.500
       177   05 Jun 2027 08:51:32.713   05 Jun 2027 08:52:25.578            52.865                 Moscow          1496.000
       178   05 Jun 2027 08:52:47.137   05 Jun 2027 08:53:21.777            34.640                Norilsk          1826.500
       179   06 Jun 2027 04:08:48.490   06 Jun 2027 04:09:39.880            51.390                Novosib          5320.000
       180   06 Jun 2027 04:09:42.999   06 Jun 2027 04:09:46.052             3.053               Magadan2           381.625
       181   06 Jun 2027 04:09:46.052   06 Jun 2027 04:09:58.026            11.974               Magadan1          1177.875
       182   06 Jun 2027 04:10:26.895   06 Jun 2027 04:12:44.650           137.755                Norilsk         14434.500
       183   06 Jun 2027 04:12:47.064   06 Jun 2027 04:13:09.637            22.573                Novosib          1207.000
       184   06 Jun 2027 04:13:15.853   06 Jun 2027 04:13:56.353            40.500               Magadan1          3108.000
       185   06 Jun 2027 04:14:10.967   06 Jun 2027 04:14:48.018            37.051               Magadan2          4631.375
       186   06 Jun 2027 04:15:02.608   06 Jun 2027 04:15:48.183            45.575                Novosib          5696.875
       187   06 Jun 2027 04:15:51.248   06 Jun 2027 04:15:56.480             5.232                Irkutsk           654.000
       188   06 Jun 2027 04:16:05.514   06 Jun 2027 04:16:12.715             7.201                Norilsk           900.125
       189   06 Jun 2027 04:16:23.566   06 Jun 2027 04:17:00.026            36.460                Norilsk          4301.625
       190   06 Jun 2027 05:45:37.361   06 Jun 2027 05:46:36.565            59.204                Norilsk          7374.500
       191   06 Jun 2027 05:47:05.639   06 Jun 2027 05:49:16.778           131.139                Novosib         14537.000
       192   06 Jun 2027 05:49:17.831   06 Jun 2027 05:49:29.381            11.550                 Moscow           526.500
       193   06 Jun 2027 05:49:34.049   06 Jun 2027 05:49:53.727            19.678                 Moscow          2334.000
       194   06 Jun 2027 05:49:59.227   06 Jun 2027 05:50:24.850            25.623              Murmansk1          2750.000
       195   06 Jun 2027 05:50:27.740   06 Jun 2027 05:51:05.174            37.434                 Moscow          1445.000
       196   06 Jun 2027 05:51:10.597   06 Jun 2027 05:51:50.877            40.280                 Moscow          2711.500
       197   06 Jun 2027 05:51:51.339   06 Jun 2027 05:52:31.393            40.054                Novosib           231.000
       198   06 Jun 2027 07:23:25.249   06 Jun 2027 07:24:03.083            37.834                Norilsk          1930.000
       199   06 Jun 2027 07:24:04.381   06 Jun 2027 07:24:53.988            49.607                 Moscow           649.000
       200   06 Jun 2027 07:24:56.879   06 Jun 2027 07:25:15.689            18.810              Murmansk2          1445.500
       201   06 Jun 2027 07:25:22.495   06 Jun 2027 07:26:15.247            52.752                Novosib          3403.000
       202   06 Jun 2027 07:26:23.301   06 Jun 2027 07:27:49.265            85.964                 Moscow          4027.000
       203   06 Jun 2027 08:57:12.374   06 Jun 2027 08:58:55.645           103.271                 Moscow          6736.000
       204   06 Jun 2027 08:58:59.358   06 Jun 2027 08:59:17.043            17.685                 Moscow          1856.500
       205   06 Jun 2027 08:59:25.056   06 Jun 2027 09:00:05.746            40.690                 Moscow          4006.500
       206   06 Jun 2027 09:00:09.506   06 Jun 2027 09:00:16.639             7.133              Murmansk2           891.625
       207   06 Jun 2027 09:00:16.639   06 Jun 2027 09:00:30.088            13.449              Murmansk1           988.375
       208   06 Jun 2027 09:00:44.655   06 Jun 2027 09:01:57.186            72.531                 Moscow          7283.500
       209   06 Jun 2027 09:02:06.696   06 Jun 2027 09:03:00.161            53.465                 Moscow          4755.000
       210   06 Jun 2027 09:03:02.824   06 Jun 2027 09:03:51.807            48.983              Murmansk1          1331.500
       211   06 Jun 2027 09:03:54.536   06 Jun 2027 09:04:09.657            15.121              Murmansk1          1364.500
       212   06 Jun 2027 09:04:29.478   06 Jun 2027 09:05:38.436            68.958                 Moscow          6914.000
       213   07 Jun 2027 04:20:33.953   07 Jun 2027 04:20:51.380            17.427               Magadan1          1056.000
       214   07 Jun 2027 04:20:55.217   07 Jun 2027 04:21:32.231            37.014                Novosib          1918.500
       215   07 Jun 2027 04:21:33.751   07 Jun 2027 04:22:02.464            28.713                Novosib           760.000
       216   07 Jun 2027 04:22:04.862   07 Jun 2027 04:22:25.367            20.505                Irkutsk          1199.000
       217   07 Jun 2027 04:22:34.870   07 Jun 2027 04:23:31.559            56.689                Novosib          4751.500
       218   07 Jun 2027 04:23:33.289   07 Jun 2027 04:24:06.727            33.438                Novosib           865.000
       219   07 Jun 2027 04:24:15.312   07 Jun 2027 04:25:02.302            46.990               Magadan1          4292.500
       220   07 Jun 2027 04:25:17.364   07 Jun 2027 04:26:17.994            60.630               Magadan2          7531.000
       221   07 Jun 2027 04:26:18.374   07 Jun 2027 04:26:26.223             7.849              Murmansk2           190.000
       222   07 Jun 2027 04:26:35.114   07 Jun 2027 04:27:42.759            67.645              Murmansk2          4445.500
       223   07 Jun 2027 04:27:47.417   07 Jun 2027 04:27:57.485            10.068                Irkutsk          1258.500
       224   07 Jun 2027 04:27:59.697   07 Jun 2027 04:28:10.487            10.790                Novosib          1070.500
       225   07 Jun 2027 05:57:17.250   07 Jun 2027 05:57:30.500            13.250                Novosib           493.500
       226   07 Jun 2027 05:57:32.582   07 Jun 2027 05:57:51.549            18.967                Norilsk          1041.000
       227   07 Jun 2027 05:57:58.137   07 Jun 2027 05:58:31.768            33.631                Norilsk          3294.000
       228   07 Jun 2027 05:58:32.660   07 Jun 2027 05:59:14.009            41.349                Irkutsk           446.000
       229   07 Jun 2027 05:59:16.606   07 Jun 2027 06:00:21.176            64.570                Novosib          1298.500
       230   07 Jun 2027 06:00:25.909   07 Jun 2027 06:01:08.521            42.612              Murmansk2          2366.500
       231   07 Jun 2027 06:01:09.165   07 Jun 2027 06:01:30.201            21.036              Murmansk1           322.000
       232   07 Jun 2027 06:01:46.100   07 Jun 2027 06:02:35.287            49.187                Norilsk          6148.375
       233   07 Jun 2027 06:02:40.809   07 Jun 2027 06:03:34.330            53.521                Irkutsk          4562.125
       234   07 Jun 2027 06:03:34.990   07 Jun 2027 06:03:50.598            15.608                Norilsk           330.000
       235   07 Jun 2027 06:03:52.981   07 Jun 2027 06:04:02.565             9.584                 Moscow          1191.500
       236   07 Jun 2027 07:35:12.462   07 Jun 2027 07:35:30.921            18.459                Novosib          1516.000
       237   07 Jun 2027 07:36:00.553   07 Jun 2027 07:37:55.897           115.344                Norilsk         14418.000
       238   07 Jun 2027 07:37:56.003   07 Jun 2027 07:38:09.652            13.649                 Moscow           451.000
       239   07 Jun 2027 07:38:14.787   07 Jun 2027 07:39:22.145            67.358                 Moscow          2567.500
       240   07 Jun 2027 07:39:28.628   07 Jun 2027 07:40:34.996            66.368                Novosib          3241.500
       241   07 Jun 2027 09:11:16.501   07 Jun 2027 09:12:10.250            53.749                 Moscow          4538.000
       242   07 Jun 2027 09:12:23.489   07 Jun 2027 09:13:21.010            57.521              Murmansk1          6619.500
       243   07 Jun 2027 09:13:32.946   07 Jun 2027 09:14:05.769            32.823                 Moscow          4102.875
       244   07 Jun 2027 09:14:16.281   07 Jun 2027 09:14:40.003            23.722              Murmansk1          2965.250
       245   07 Jun 2027 09:14:40.003   07 Jun 2027 09:15:43.555            63.552              Murmansk2          4155.875
       246   08 Jun 2027 03:00:10.498   08 Jun 2027 03:00:49.477            38.979                Irkutsk          4872.375
       247   08 Jun 2027 03:00:53.628   08 Jun 2027 03:01:13.763            20.135                Novosib          2452.125
       248   08 Jun 2027 03:01:14.961   08 Jun 2027 03:01:22.202             7.241                Norilsk           599.000
       249   08 Jun 2027 03:01:22.929   08 Jun 2027 03:02:11.253            48.324               Magadan2           363.500
       250   08 Jun 2027 03:02:14.168   08 Jun 2027 03:02:32.453            18.285               Magadan1          1457.500
       251   08 Jun 2027 03:02:33.561   08 Jun 2027 03:02:59.773            26.212                Novosib           554.000
       252   08 Jun 2027 03:03:05.997   08 Jun 2027 03:03:09.802             3.805                Anadyr1           475.625
       253   08 Jun 2027 03:03:19.041   08 Jun 2027 03:03:30.960            11.919                Norilsk          1489.875
       254   08 Jun 2027 03:03:32.624   08 Jun 2027 03:04:00.416            27.792               Magadan2          3474.000
       255   08 Jun 2027 03:04:06.303   08 Jun 2027 03:04:41.300            34.997              Murmansk2          2837.000
       256   08 Jun 2027 04:33:02.681   08 Jun 2027 04:33:50.690            48.009                Novosib          6001.125
       257   08 Jun 2027 04:33:57.249   08 Jun 2027 04:35:48.825           111.576               Magadan1          8100.875
       258   08 Jun 2027 04:35:49.432   08 Jun 2027 04:35:57.826             8.394                Norilsk           303.500
       259   08 Jun 2027 04:36:03.201   08 Jun 2027 04:36:43.089            39.888               Magadan2          2687.500
       260   08 Jun 2027 04:36:44.368   08 Jun 2027 04:37:50.298            65.930                Irkutsk           639.500
       261   08 Jun 2027 04:37:52.571   08 Jun 2027 04:38:09.768            17.197                Norilsk          1136.500
       262   08 Jun 2027 04:38:16.314   08 Jun 2027 04:38:49.262            32.948              Murmansk1          3273.000
       263   08 Jun 2027 04:38:50.742   08 Jun 2027 04:39:45.130            54.388              Murmansk2           740.000
       264   08 Jun 2027 04:40:10.414   08 Jun 2027 04:41:12.190            61.776              Murmansk1          5700.000
       265   08 Jun 2027 06:10:27.597   08 Jun 2027 06:11:43.958            76.361                Norilsk          9545.125
       266   08 Jun 2027 06:11:55.586   08 Jun 2027 06:14:00.360           124.774              Murmansk2         12564.875
       267   08 Jun 2027 06:14:02.298   08 Jun 2027 06:14:58.765            56.467                 Moscow           969.000
       268   08 Jun 2027 06:14:59.380   08 Jun 2027 06:15:27.477            28.097              Murmansk1           307.500
       269   08 Jun 2027 06:15:28.052   08 Jun 2027 06:15:47.184            19.132                Novosib           287.500
       270   08 Jun 2027 07:46:39.754   08 Jun 2027 07:46:44.513             4.759                 Moscow           594.875
       271   08 Jun 2027 07:46:46.472   08 Jun 2027 07:47:14.007            27.535                 Moscow          2510.125
       272   08 Jun 2027 07:47:16.892   08 Jun 2027 07:48:01.538            44.646              Murmansk2          1442.500
       273   08 Jun 2027 07:48:06.003   08 Jun 2027 07:48:37.143            31.140                Novosib          2232.500
       274   08 Jun 2027 07:48:39.119   08 Jun 2027 07:48:57.727            18.608              Murmansk1           988.000
       275   08 Jun 2027 07:49:00.750   08 Jun 2027 07:49:14.824            14.074              Murmansk1          1511.500
       276   08 Jun 2027 07:49:26.279   08 Jun 2027 07:50:12.957            46.678                 Moscow          5727.500
       277   08 Jun 2027 07:50:13.491   08 Jun 2027 07:50:18.102             4.611                Norilsk           267.000
       278   08 Jun 2027 07:50:24.864   08 Jun 2027 07:50:41.706            16.842                Novosib          2105.250
       279   08 Jun 2027 07:50:45.048   08 Jun 2027 07:51:48.642            63.594                 Moscow          2946.750
       280   08 Jun 2027 09:22:08.888   08 Jun 2027 09:23:06.433            57.545              Murmansk2          6797.000
       281   08 Jun 2027 09:23:48.593   08 Jun 2027 09:24:55.761            67.168              Murmansk2          7244.500
       282   08 Jun 2027 09:24:58.841   08 Jun 2027 09:25:21.590            22.749              Murmansk2          1540.000
       283   08 Jun 2027 09:25:27.288   08 Jun 2027 09:26:03.922            36.634                 Moscow          2849.000
       284   08 Jun 2027 09:26:04.304   08 Jun 2027 09:26:11.591             7.287              Murmansk1           191.000
       285   08 Jun 2027 09:26:15.875   08 Jun 2027 09:26:22.955             7.080              Murmansk2           885.000
       286   08 Jun 2027 09:26:22.955   08 Jun 2027 09:26:44.151            21.196              Murmansk1          1257.000
       287   09 Jun 2027 03:06:25.162   09 Jun 2027 03:07:05.709            40.547               Magadan1          4366.000
       288   09 Jun 2027 03:08:14.062   09 Jun 2027 03:08:50.567            36.505               Magadan1          4563.125
       289   09 Jun 2027 03:08:50.567   09 Jun 2027 03:09:37.082            46.515               Magadan2          3532.875
       290   09 Jun 2027 03:09:40.381   09 Jun 2027 03:10:35.289            54.908                Irkutsk          1649.500
       291   09 Jun 2027 03:10:38.253   09 Jun 2027 03:11:30.140            51.887                Norilsk          1482.000
       292   09 Jun 2027 03:11:32.326   09 Jun 2027 03:12:05.294            32.968               Magadan2          1093.000
       293   09 Jun 2027 03:12:16.512   09 Jun 2027 03:13:03.361            46.849                Norilsk          5609.000
       294   09 Jun 2027 03:13:05.642   09 Jun 2027 03:13:19.922            14.280               Magadan2          1140.500
       295   09 Jun 2027 03:13:28.921   09 Jun 2027 03:14:05.070            36.149               Magadan1          4499.500
       296   09 Jun 2027 03:14:08.016   09 Jun 2027 03:14:33.742            25.726                Anadyr1          1473.000
       297   09 Jun 2027 03:14:39.798   09 Jun 2027 03:14:53.124            13.326               Magadan1          1665.750
       298   09 Jun 2027 03:14:53.124   09 Jun 2027 03:15:01.143             8.019               Magadan2          1002.375
       299   09 Jun 2027 03:15:04.712   09 Jun 2027 03:15:44.853            40.141                Irkutsk          2144.375
       300   09 Jun 2027 03:15:48.456   09 Jun 2027 03:16:17.180            28.724                Norilsk          1801.500
       301   09 Jun 2027 04:45:06.420   09 Jun 2027 04:45:11.039             4.619                Novosib           577.375
       302   09 Jun 2027 04:45:13.256   09 Jun 2027 04:45:41.576            28.320                Novosib          1272.625
       303   09 Jun 2027 04:46:25.919   09 Jun 2027 04:46:45.376            19.457                Norilsk          2432.125
       304   09 Jun 2027 04:46:45.557   09 Jun 2027 04:48:42.818           117.261                Novosib         14657.625
       305   09 Jun 2027 04:48:44.811   09 Jun 2027 04:50:06.330            81.519                Irkutsk          6168.750
       306   09 Jun 2027 04:50:17.487   09 Jun 2027 04:50:34.163            16.676                Irkutsk          2084.500
       307   09 Jun 2027 04:50:35.395   09 Jun 2027 04:51:18.673            43.278              Murmansk2          4110.000
       308   09 Jun 2027 04:51:32.935   09 Jun 2027 04:52:09.892            36.957                Norilsk          4619.625
       309   09 Jun 2027 04:52:11.763   09 Jun 2027 04:52:33.838            22.075              Murmansk1          2511.375
       310   09 Jun 2027 06:22:11.525   09 Jun 2027 06:22:23.074            11.549                  Delhi          1443.625
       311   09 Jun 2027 06:22:52.867   09 Jun 2027 06:25:31.658           158.791                 Moscow         17871.875
       312   09 Jun 2027 06:25:39.424   09 Jun 2027 06:26:12.678            33.254                Norilsk          3883.000
       313   09 Jun 2027 06:26:15.617   09 Jun 2027 06:26:49.394            33.777                Norilsk          1469.500
       314   09 Jun 2027 06:26:50.568   09 Jun 2027 06:27:17.896            27.328              Murmansk1           587.000
       315   09 Jun 2027 07:59:01.135   09 Jun 2027 07:59:57.006            55.871                Norilsk          5472.000
       316   09 Jun 2027 07:59:58.000   09 Jun 2027 08:00:29.174            31.174              Murmansk1           497.000
       317   09 Jun 2027 08:00:29.627   09 Jun 2027 08:00:35.213             5.586                Norilsk           226.500
       318   09 Jun 2027 08:00:37.311   09 Jun 2027 08:00:47.498            10.187              Murmansk1          1049.000
       319   09 Jun 2027 08:01:01.872   09 Jun 2027 08:01:36.142            34.270                 Moscow          4283.750
       320   09 Jun 2027 08:01:43.591   09 Jun 2027 08:02:05.394            21.803                 Moscow          2725.375
       321   09 Jun 2027 08:02:14.558   09 Jun 2027 08:03:41.837            87.279                Norilsk          8484.375
       322   09 Jun 2027 09:37:22.396   09 Jun 2027 09:39:03.845           101.449              Murmansk1         10960.000
       323   10 Jun 2027 03:21:14.118   10 Jun 2027 03:21:36.957            22.839               Magadan1          2112.000
       324   10 Jun 2027 03:21:42.651   10 Jun 2027 03:22:47.359            64.708                Irkutsk          2847.000
       325   10 Jun 2027 03:22:49.838   10 Jun 2027 03:23:16.848            27.010               Magadan2          1239.500
       326   10 Jun 2027 03:23:22.166   10 Jun 2027 03:23:29.921             7.755                Novosib           969.375
       327   10 Jun 2027 03:23:30.807   10 Jun 2027 03:24:02.324            31.517               Magadan1          2132.625
       328   10 Jun 2027 03:24:07.141   10 Jun 2027 03:24:51.392            44.251                Irkutsk          2408.500
       329   10 Jun 2027 03:24:51.830   10 Jun 2027 03:25:10.163            18.333                Norilsk           219.000
       330   10 Jun 2027 03:25:10.566   10 Jun 2027 03:25:52.386            41.820                Novosib           201.500
       331   10 Jun 2027 03:25:59.914   10 Jun 2027 03:26:26.917            27.003                Norilsk          3375.375
       332   10 Jun 2027 03:26:28.182   10 Jun 2027 03:26:52.009            23.827                Novosib          1021.125
       333   10 Jun 2027 03:27:09.634   10 Jun 2027 03:27:50.826            41.192               Magadan1          5149.000
       334   10 Jun 2027 03:27:54.827   10 Jun 2027 03:28:44.157            49.330                Norilsk          5630.000
       335   10 Jun 2027 04:57:35.005   10 Jun 2027 04:58:15.158            40.153                Norilsk          2291.500
       336   10 Jun 2027 04:58:26.341   10 Jun 2027 04:59:17.341            51.000                Norilsk          5591.500
       337   10 Jun 2027 04:59:23.929   10 Jun 2027 05:00:48.493            84.564                Irkutsk          3294.000
       338   10 Jun 2027 05:00:55.080   10 Jun 2027 05:01:29.959            34.879                Norilsk          3293.500
       339   10 Jun 2027 05:01:30.708   10 Jun 2027 05:01:55.547            24.839              Murmansk2           374.500
       340   10 Jun 2027 05:02:06.461   10 Jun 2027 05:02:54.452            47.991                Norilsk          5457.000
       341   10 Jun 2027 05:02:56.226   10 Jun 2027 05:03:16.227            20.001                Novosib           887.000
       342   10 Jun 2027 05:03:24.646   10 Jun 2027 05:03:54.975            30.329                Irkutsk          3791.125
       343   10 Jun 2027 05:04:11.614   10 Jun 2027 05:04:14.687             3.073                Norilsk           384.125
       344   10 Jun 2027 05:04:35.928   10 Jun 2027 05:04:56.045            20.117              Murmansk2            34.250
       345   10 Jun 2027 06:35:05.906   10 Jun 2027 06:35:20.419            14.513              Murmansk1           713.000
       346   10 Jun 2027 06:35:24.473   10 Jun 2027 06:35:34.689            10.216                Norilsk          1277.000
       347   10 Jun 2027 06:35:46.924   10 Jun 2027 06:36:34.516            47.592                Norilsk          5949.000
       348   10 Jun 2027 06:36:42.124   10 Jun 2027 06:37:13.056            30.932                Norilsk          3866.500
       349   10 Jun 2027 06:37:16.725   10 Jun 2027 06:38:00.638            43.913                 Moscow          2690.501
       350   10 Jun 2027 06:38:02.033   10 Jun 2027 06:38:11.573             9.540                Irkutsk           697.500
       351   10 Jun 2027 06:38:11.662   10 Jun 2027 06:38:12.883             1.221                 Moscow            44.500
       352   10 Jun 2027 06:38:18.822   10 Jun 2027 06:38:38.299            19.477                Norilsk          2434.625
       353   10 Jun 2027 06:38:39.487   10 Jun 2027 06:38:56.571            17.084                Novosib          1128.875
       354   10 Jun 2027 06:39:08.814   10 Jun 2027 06:39:40.263            31.449                Norilsk          3931.125
       355   10 Jun 2027 06:39:43.358   10 Jun 2027 06:40:02.540            19.182                 Moscow          2190.375
       356   10 Jun 2027 08:11:21.045   10 Jun 2027 08:11:46.603            25.558                Norilsk          3194.750
       357   10 Jun 2027 08:11:50.624   10 Jun 2027 08:13:00.890            70.266                Novosib          5427.750
       358   10 Jun 2027 08:13:02.810   10 Jun 2027 08:13:18.924            16.114              Murmansk1           960.000
       359   10 Jun 2027 08:13:28.939   10 Jun 2027 08:14:32.524            63.585                Novosib          5007.500
       360   10 Jun 2027 08:14:34.873   10 Jun 2027 08:15:05.930            31.057                Novosib          1174.500
       361   10 Jun 2027 08:15:15.507   10 Jun 2027 08:15:59.778            44.271                 Moscow          4788.500
       362   11 Jun 2027 03:33:26.719   11 Jun 2027 03:34:09.182            42.463               Magadan1          2409.500
       363   11 Jun 2027 03:34:10.668   11 Jun 2027 03:34:27.937            17.269               Magadan1           743.000
       364   11 Jun 2027 03:34:29.385   11 Jun 2027 03:34:52.621            23.236               Magadan1           724.000
       365   11 Jun 2027 03:34:57.571   11 Jun 2027 03:35:13.134            15.563                Irkutsk          1945.375
       366   11 Jun 2027 03:35:16.861   11 Jun 2027 03:35:40.912            24.051                Irkutsk          2393.125
       367   11 Jun 2027 03:36:08.909   11 Jun 2027 03:38:12.824           123.915                Norilsk         13998.500
       368   11 Jun 2027 03:38:19.883   11 Jun 2027 03:38:50.638            30.755               Magadan2          3529.500
       369   11 Jun 2027 03:38:51.033   11 Jun 2027 03:39:43.489            52.456               Magadan2           197.500
       370   11 Jun 2027 03:39:43.875   11 Jun 2027 03:39:51.113             7.238              Murmansk2           193.000
       371   11 Jun 2027 03:40:07.000   11 Jun 2027 03:40:41.983            34.983                Norilsk          3311.500
       372   11 Jun 2027 05:10:04.056   11 Jun 2027 05:11:55.892           111.836                Norilsk         12095.500
       373   11 Jun 2027 05:12:03.256   11 Jun 2027 05:12:30.758            27.502                Irkutsk          3437.750
       374   11 Jun 2027 05:12:38.232   11 Jun 2027 05:13:37.992            59.760                Irkutsk          3981.250
       375   11 Jun 2027 05:13:42.481   11 Jun 2027 05:14:04.032            21.551                Norilsk          2244.500
       376   11 Jun 2027 05:14:05.597   11 Jun 2027 05:14:14.673             9.076              Murmansk1           782.500
       377   11 Jun 2027 05:14:15.057   11 Jun 2027 05:14:34.061            19.004              Murmansk2           192.000
       378   11 Jun 2027 05:14:37.596   11 Jun 2027 05:15:31.198            53.602              Murmansk1          1767.500
       379   11 Jun 2027 05:15:34.991   11 Jun 2027 05:15:43.400             8.409              Murmansk1           634.000
       380   11 Jun 2027 05:16:09.820   11 Jun 2027 05:16:38.058            28.238              Murmansk1           711.000
       381   11 Jun 2027 06:47:10.686   11 Jun 2027 06:48:01.931            51.245                Irkutsk           972.000
       382   11 Jun 2027 06:48:10.422   11 Jun 2027 06:48:43.265            32.843                 Moscow          4105.375
       383   11 Jun 2027 06:48:48.024   11 Jun 2027 06:49:09.519            21.495              Murmansk2          2519.625
       384   11 Jun 2027 06:49:18.893   11 Jun 2027 06:49:54.053            35.160                Norilsk          4395.000
       385   11 Jun 2027 06:50:06.216   11 Jun 2027 06:50:44.203            37.987                Irkutsk          4748.375
       386   11 Jun 2027 06:50:49.528   11 Jun 2027 06:52:33.473           103.945                Novosib          4287.625
       387   11 Jun 2027 08:23:12.254   11 Jun 2027 08:24:21.043            68.789                 Moscow           118.500
       388   11 Jun 2027 08:24:21.285   11 Jun 2027 08:25:14.779            53.494                Novosib           121.000
       389   11 Jun 2027 08:25:28.991   11 Jun 2027 08:26:13.854            44.863                Novosib          5607.875
       390   11 Jun 2027 08:26:14.563   11 Jun 2027 08:26:43.344            28.781                Norilsk          1852.625
       391   11 Jun 2027 08:26:49.402   11 Jun 2027 08:27:14.928            25.526              Murmansk1          3029.000
       392   11 Jun 2027 08:27:16.669   11 Jun 2027 08:27:39.942            23.273                 Moscow           870.500
       393   11 Jun 2027 08:27:40.681   11 Jun 2027 08:28:07.948            27.267                 Moscow           369.500
       394   12 Jun 2027 03:44:54.413   12 Jun 2027 03:45:40.776            46.363                Novosib          1842.000
       395   12 Jun 2027 03:45:42.889   12 Jun 2027 03:46:09.287            26.398               Magadan1          1056.500
       396   12 Jun 2027 03:46:20.644   12 Jun 2027 03:47:10.361            49.717               Magadan1          5678.500
       397   12 Jun 2027 03:47:19.828   12 Jun 2027 03:49:01.407           101.579                Irkutsk          4733.500
       398   12 Jun 2027 03:49:02.405   12 Jun 2027 03:49:27.348            24.943                Norilsk           499.000
       399   12 Jun 2027 03:49:28.087   12 Jun 2027 03:50:25.934            57.847                Irkutsk           369.500
       400   12 Jun 2027 03:50:29.273   12 Jun 2027 03:50:58.903            29.630              Murmansk2          1669.500
       401   12 Jun 2027 03:51:06.265   12 Jun 2027 03:51:47.287            41.022                Irkutsk          3681.000
       402   12 Jun 2027 03:51:47.810   12 Jun 2027 03:52:03.126            15.316                Irkutsk           261.500
       403   12 Jun 2027 03:52:18.334   12 Jun 2027 03:52:40.285            21.951                Norilsk          2032.500
       404   12 Jun 2027 05:21:30.573   12 Jun 2027 05:22:46.647            76.074                Novosib          4594.000
       405   12 Jun 2027 05:22:55.041   12 Jun 2027 05:23:28.367            33.326                Irkutsk          4165.750
       406   12 Jun 2027 05:23:28.392   12 Jun 2027 05:23:31.238             2.846                Norilsk            43.750
       407   12 Jun 2027 05:23:33.127   12 Jun 2027 05:23:55.944            22.817                Norilsk           944.500
       408   12 Jun 2027 05:24:18.658   12 Jun 2027 05:26:53.784           155.126                Irkutsk         11357.000
       409   12 Jun 2027 05:27:15.543   12 Jun 2027 05:27:46.898            31.355                Novosib          3919.375
       410   12 Jun 2027 05:28:02.543   12 Jun 2027 05:28:13.453            10.910                Norilsk          1363.750
       411   12 Jun 2027 05:28:31.823   12 Jun 2027 05:29:31.332            59.509              Murmansk2          5596.375
       412   12 Jun 2027 06:59:50.168   12 Jun 2027 07:00:43.332            53.164                Norilsk          5171.000
       413   12 Jun 2027 07:00:45.753   12 Jun 2027 07:01:44.156            58.403                 Moscow          1210.500
       414   12 Jun 2027 07:01:46.214   12 Jun 2027 07:02:09.200            22.986              Murmansk1          1029.000
       415   12 Jun 2027 07:02:16.401   12 Jun 2027 07:02:18.507             2.106                Irkutsk           263.250
       416   12 Jun 2027 07:02:19.304   12 Jun 2027 07:02:38.151            18.847              Murmansk2          2355.875
       417   12 Jun 2027 07:02:38.151   12 Jun 2027 07:02:54.785            16.634              Murmansk1          1379.875
       418   12 Jun 2027 07:02:56.694   12 Jun 2027 07:03:09.387            12.693                 Moscow           954.500
       419   12 Jun 2027 07:03:13.810   12 Jun 2027 07:04:14.398            60.588                Novosib          2211.500
       420   12 Jun 2027 08:35:26.419   12 Jun 2027 08:37:26.161           119.742                Novosib         10853.000
       421   12 Jun 2027 08:37:28.270   12 Jun 2027 08:37:55.487            27.217                Novosib          1054.500
       422   12 Jun 2027 08:37:58.664   12 Jun 2027 08:38:28.508            29.844                Norilsk          1588.500
       423   12 Jun 2027 08:38:30.008   12 Jun 2027 08:38:38.253             8.245                Novosib           750.000
       424   12 Jun 2027 08:38:45.960   12 Jun 2027 08:39:05.482            19.522              Murmansk2          2440.250
       425   12 Jun 2027 08:39:05.482   12 Jun 2027 08:39:24.812            19.330              Murmansk1          1413.250
       426   12 Jun 2027 08:39:32.332   12 Jun 2027 08:39:35.752             3.420                Novosib           427.500
       427   12 Jun 2027 08:39:39.477   12 Jun 2027 08:40:16.810            37.333              Murmansk2          3197.000
       428   12 Jun 2027 08:40:21.241   12 Jun 2027 08:40:30.139             8.898                Norilsk          1112.250
       429   12 Jun 2027 08:40:36.040   12 Jun 2027 08:41:35.326            59.286              Murmansk1          1103.250
       430   13 Jun 2027 03:56:56.119   13 Jun 2027 03:58:00.387            64.268                Norilsk          8033.500
       431   13 Jun 2027 03:58:00.930   13 Jun 2027 03:58:33.490            32.560                Novosib          2611.000
       432   13 Jun 2027 03:58:37.276   13 Jun 2027 03:58:50.953            13.677                Irkutsk          1709.625
       433   13 Jun 2027 03:58:58.314   13 Jun 2027 04:00:17.563            79.249               Magadan2          3863.875
       434   13 Jun 2027 04:00:20.518   13 Jun 2027 04:00:36.598            16.080               Magadan2          1477.500
       435   13 Jun 2027 04:00:40.717   13 Jun 2027 04:01:11.599            30.882                Irkutsk          2059.500
       436   13 Jun 2027 04:01:16.252   13 Jun 2027 04:01:37.126            20.874                Irkutsk          2326.500
       437   13 Jun 2027 04:01:42.887   13 Jun 2027 04:01:54.654            11.767                Norilsk          1470.875
       438   13 Jun 2027 04:02:07.721   13 Jun 2027 04:02:41.924            34.203                Novosib          4275.375
       439   13 Jun 2027 04:02:43.283   13 Jun 2027 04:03:20.596            37.313               Magadan1          4347.250
       440   13 Jun 2027 04:03:35.475   13 Jun 2027 04:04:43.833            68.358              Murmansk2          7439.500
       441   13 Jun 2027 05:34:01.377   13 Jun 2027 05:36:50.498           169.121                Novosib         10002.500
       442   13 Jun 2027 05:36:52.484   13 Jun 2027 05:37:20.423            27.939                Irkutsk           993.000
       443   13 Jun 2027 05:37:21.834   13 Jun 2027 05:38:29.210            67.376                Irkutsk           705.500
       444   13 Jun 2027 05:38:32.355   13 Jun 2027 05:39:04.990            32.635                 Moscow          1572.500
       445   13 Jun 2027 05:39:14.145   13 Jun 2027 05:39:55.517            41.372              Murmansk1          4577.500
       446   13 Jun 2027 07:11:47.237   13 Jun 2027 07:12:05.513            18.276                 Moscow          2284.500
       447   13 Jun 2027 07:12:10.711   13 Jun 2027 07:12:56.493            45.782                Novosib          5465.000
       448   13 Jun 2027 07:12:59.250   13 Jun 2027 07:13:54.306            55.056                 Moscow          1378.500
       449   13 Jun 2027 07:14:04.857   13 Jun 2027 07:14:49.224            44.367              Murmansk2          5275.500
       450   13 Jun 2027 07:14:57.176   13 Jun 2027 07:16:01.852            64.676                Norilsk          3976.000
       451   13 Jun 2027 08:45:10.541   13 Jun 2027 08:45:45.088            34.547                 Moscow          4318.375
       452   13 Jun 2027 08:46:02.502   13 Jun 2027 08:48:52.551           170.049                 Moscow         18293.125
       453   13 Jun 2027 08:49:06.017   13 Jun 2027 08:50:33.926            87.909              Murmansk2          6733.000
       454   13 Jun 2027 08:50:38.333   13 Jun 2027 08:51:12.004            33.671              Murmansk2          2203.500
       455   13 Jun 2027 08:51:45.540   13 Jun 2027 08:51:56.899            11.359                 Moscow           517.000
       456   13 Jun 2027 08:52:13.108   13 Jun 2027 08:53:45.838            92.730                Norilsk          8104.500
