uniorb/output/strategy_2/Drop/Drop_KinoSat_111607.txt

KinoSat_111607
-------------------------
    Access    *     Start Time (UTCG)     *     Stop Time (UTCG)  *   Duration (s)        *       Station  *  Data (Mbytes)
         1   01 Jun 2027 03:01:08.653   01 Jun 2027 03:01:34.950            26.297                  Delhi           255.500
         2   01 Jun 2027 04:36:51.718   01 Jun 2027 04:37:10.805            19.087              Murmansk2           596.469
         3   01 Jun 2027 04:37:32.663   01 Jun 2027 04:38:31.774            59.111                 Moscow          1847.219
         4   01 Jun 2027 04:38:33.429   01 Jun 2027 04:39:45.234            71.805              Murmansk1          2243.906
         5   01 Jun 2027 04:40:05.731   01 Jun 2027 04:40:06.376             0.645                 Moscow            20.156
         6   01 Jun 2027 04:54:30.121   01 Jun 2027 04:57:47.187           197.066               CapeTown          6158.312
         7   01 Jun 2027 05:52:21.208   01 Jun 2027 05:52:37.476            16.268                Anadyr1           508.375
         8   01 Jun 2027 05:57:38.171   01 Jun 2027 05:58:55.576            77.405               Magadan2          2418.906
         9   01 Jun 2027 05:58:55.931   01 Jun 2027 05:59:23.920            27.989                Anadyr1           874.656
        10   01 Jun 2027 05:59:23.920   01 Jun 2027 05:59:49.449            25.529                Anadyr2           797.781
        11   01 Jun 2027 07:34:52.345   01 Jun 2027 07:37:28.246           155.901                Anadyr1          4871.906
        12   01 Jun 2027 07:37:28.246   01 Jun 2027 07:39:00.466            92.220                Anadyr2          2881.875
        13   01 Jun 2027 09:08:02.165   01 Jun 2027 09:09:29.985            87.820               Magadan2          2744.375
        14   01 Jun 2027 09:09:49.242   01 Jun 2027 09:13:12.688           203.446               Magadan2          6357.688
        15   01 Jun 2027 09:13:12.688   01 Jun 2027 09:13:46.674            33.986               Magadan1          1062.062
        16   01 Jun 2027 09:13:57.384   01 Jun 2027 09:14:58.932            61.548                Anadyr1          1923.375
        17   01 Jun 2027 10:45:41.650   01 Jun 2027 10:49:51.985           250.335               Magadan2          7822.969
        18   01 Jun 2027 10:50:44.399   01 Jun 2027 10:51:13.015            28.616                Novosib           894.250
        19   01 Jun 2027 10:51:22.643   01 Jun 2027 10:52:36.253            73.610                Novosib          2300.312
        20   01 Jun 2027 11:26:15.724   01 Jun 2027 11:26:39.518            23.794            RioGallegos           743.563
        21   01 Jun 2027 11:27:21.960   01 Jun 2027 11:28:01.369            39.409            RioGallegos          1231.531
        22   01 Jun 2027 11:29:11.527   01 Jun 2027 11:29:50.380            38.853            RioGallegos          1214.156
        23   01 Jun 2027 11:30:31.465   01 Jun 2027 11:30:37.758             6.293            RioGallegos           196.656
        24   01 Jun 2027 12:00:53.455   01 Jun 2027 12:03:12.155           138.700                Sumatra          4334.375
        25   01 Jun 2027 12:04:02.674   01 Jun 2027 12:04:56.511            53.837                Sumatra          1682.406
        26   01 Jun 2027 12:15:52.981   01 Jun 2027 12:16:29.411            36.430                Irkutsk          1138.438
        27   01 Jun 2027 12:17:07.462   01 Jun 2027 12:18:02.995            55.533                Novosib          1735.406
        28   01 Jun 2027 12:18:29.377   01 Jun 2027 12:19:44.182            74.805                Irkutsk          2337.656
        29   01 Jun 2027 13:06:42.861   01 Jun 2027 13:10:33.731           230.870            RioGallegos          7214.688
        30   01 Jun 2027 13:53:14.659   01 Jun 2027 13:53:22.174             7.515                Novosib           234.844
        31   01 Jun 2027 13:54:06.410   01 Jun 2027 13:54:44.708            38.298                Novosib          1196.812
        32   01 Jun 2027 13:54:53.456   01 Jun 2027 13:55:46.413            52.957                Novosib          1654.906
        33   01 Jun 2027 13:58:42.544   01 Jun 2027 13:59:14.420            31.876                Norilsk           996.125
        34   01 Jun 2027 14:00:00.852   01 Jun 2027 14:00:14.806            13.954                Norilsk           436.063
        35   01 Jun 2027 15:29:29.343   01 Jun 2027 15:32:02.341           152.998                 Moscow          4781.188
        36   01 Jun 2027 15:32:56.776   01 Jun 2027 15:34:11.178            74.402              Murmansk1          2325.062
        37   01 Jun 2027 15:37:09.010   01 Jun 2027 15:39:05.193           116.183                Norilsk          3630.719
        38   01 Jun 2027 15:40:21.918   01 Jun 2027 15:41:43.979            82.061                Norilsk          2564.406
        39   01 Jun 2027 17:06:59.425   01 Jun 2027 17:07:28.688            29.263                 Moscow           914.469
        40   01 Jun 2027 17:08:19.543   01 Jun 2027 17:09:15.862            56.319                 Moscow          1759.969
        41   01 Jun 2027 17:10:05.042   01 Jun 2027 17:11:04.738            59.696              Murmansk1          1865.500
        42   01 Jun 2027 17:11:38.682   01 Jun 2027 17:12:03.770            25.088                 Moscow           784.000
        43   01 Jun 2027 17:12:42.288   01 Jun 2027 17:13:49.030            66.742              Murmansk2          2085.687
        44   01 Jun 2027 17:23:57.275   01 Jun 2027 17:24:30.448            33.173                Anadyr2          1036.656
        45   01 Jun 2027 17:24:54.339   01 Jun 2027 17:25:33.791            39.452                Anadyr2          1232.875
        46   01 Jun 2027 18:19:30.326   01 Jun 2027 18:20:26.798            56.472               CapeTown          1764.750
        47   01 Jun 2027 18:27:00.336   01 Jun 2027 18:27:32.703            32.367               CapeTown          1011.469
        48   01 Jun 2027 18:49:30.926   01 Jun 2027 18:54:38.161           307.235              Murmansk1          9601.094
        49   01 Jun 2027 19:05:48.145   01 Jun 2027 19:05:54.337             6.192               Magadan1           193.500
        50   01 Jun 2027 19:07:24.113   01 Jun 2027 19:08:43.996            79.883               Magadan1          2496.344
        51   01 Jun 2027 20:35:28.332   01 Jun 2027 20:39:12.921           224.589                Anadyr2          7018.406
        52   01 Jun 2027 20:40:01.639   01 Jun 2027 20:41:26.775            85.136               Magadan2          2660.500
        53   01 Jun 2027 20:42:40.562   01 Jun 2027 20:42:58.835            18.273               Magadan1           571.031
        54   01 Jun 2027 21:32:38.363   01 Jun 2027 21:34:27.767           109.404            RioGallegos          3418.875
        55   01 Jun 2027 22:11:19.457   01 Jun 2027 22:13:25.297           125.840                Anadyr2          3932.500
        56   01 Jun 2027 22:13:27.498   01 Jun 2027 22:13:44.132            16.634                Anadyr1           519.812
        57   01 Jun 2027 22:13:50.566   01 Jun 2027 22:14:40.061            49.495                Anadyr1          1546.719
        58   01 Jun 2027 22:14:48.607   01 Jun 2027 22:15:09.781            21.174                Norilsk           661.688
        59   01 Jun 2027 22:15:55.804   01 Jun 2027 22:16:47.897            52.093               Magadan1          1627.906
        60   01 Jun 2027 22:18:41.302   01 Jun 2027 22:18:59.701            18.399                Irkutsk           574.969
        61   01 Jun 2027 22:19:19.203   01 Jun 2027 22:19:29.421            10.218                Irkutsk           319.312
        62   01 Jun 2027 22:20:24.654   01 Jun 2027 22:20:46.519            21.865                Norilsk           683.281
        63   01 Jun 2027 22:21:22.627   01 Jun 2027 22:21:29.473             6.846                Irkutsk           213.938
        64   01 Jun 2027 22:21:39.859   01 Jun 2027 22:21:52.652            12.793                Irkutsk           399.781
        65   01 Jun 2027 22:23:57.329   01 Jun 2027 22:24:55.233            57.904                Irkutsk          1809.500
        66   01 Jun 2027 22:34:14.096   01 Jun 2027 22:35:44.988            90.892                Sumatra          2840.375
        67   01 Jun 2027 23:46:41.372   01 Jun 2027 23:47:38.974            57.602                Anadyr2          1800.063
        68   01 Jun 2027 23:47:38.974   01 Jun 2027 23:48:08.599            29.625                Anadyr1           925.781
        69   01 Jun 2027 23:49:06.729   01 Jun 2027 23:49:49.179            42.450                Anadyr1          1326.563
        70   01 Jun 2027 23:50:01.816   01 Jun 2027 23:50:54.405            52.589                Norilsk          1643.406
        71   01 Jun 2027 23:51:30.021   01 Jun 2027 23:53:23.356           113.335               Magadan1          3541.719
        72   01 Jun 2027 23:53:58.651   01 Jun 2027 23:54:42.380            43.729                Novosib          1366.531
        73   01 Jun 2027 23:57:14.260   01 Jun 2027 23:57:36.886            22.626                Novosib           707.063
        74   01 Jun 2027 23:59:41.387   01 Jun 2027 23:59:45.670             4.283                Novosib           133.844
        75   02 Jun 2027 00:00:15.167   02 Jun 2027 00:00:58.583            43.416                Novosib          1356.750
        76   02 Jun 2027 00:06:17.089   02 Jun 2027 00:06:38.818            21.729                  Delhi           679.031
        77   02 Jun 2027 00:15:52.293   02 Jun 2027 00:15:55.881             3.588                Sumatra           112.125
        78   02 Jun 2027 00:41:10.010   02 Jun 2027 00:42:15.620            65.610            RioGallegos          2050.312
        79   02 Jun 2027 00:51:59.201   02 Jun 2027 00:52:12.188            12.987            RioGallegos           405.844
        80   02 Jun 2027 01:20:56.820   02 Jun 2027 01:21:42.861            46.041                Anadyr2          1438.781
        81   02 Jun 2027 01:22:22.066   02 Jun 2027 01:23:22.505            60.439                Anadyr2          1888.719
        82   02 Jun 2027 01:25:11.964   02 Jun 2027 01:27:10.522           118.558                Norilsk          3704.938
        83   02 Jun 2027 01:27:34.078   02 Jun 2027 01:28:01.123            27.045               Magadan1           845.156
        84   02 Jun 2027 01:28:21.758   02 Jun 2027 01:28:26.413             4.655              Murmansk1           145.469
        85   02 Jun 2027 01:28:35.329   02 Jun 2027 01:29:10.659            35.330              Murmansk1          1104.063
        86   02 Jun 2027 01:29:10.878   02 Jun 2027 01:30:26.282            75.404                Irkutsk          2356.375
        87   02 Jun 2027 01:36:00.760   02 Jun 2027 01:36:21.377            20.617                Irkutsk           644.281
        88   02 Jun 2027 01:37:09.315   02 Jun 2027 01:38:37.680            88.365                  Delhi          2761.406
        89   02 Jun 2027 02:18:03.224   02 Jun 2027 02:18:07.430             4.206            RioGallegos           131.438
        90   02 Jun 2027 02:18:51.377   02 Jun 2027 02:19:25.254            33.877            RioGallegos          1058.656
        91   02 Jun 2027 02:19:29.957   02 Jun 2027 02:20:55.646            85.689            RioGallegos          2677.781
        92   02 Jun 2027 02:54:15.477   02 Jun 2027 02:54:29.086            13.609                Anadyr1           425.281
        93   02 Jun 2027 02:54:54.357   02 Jun 2027 02:54:57.625             3.268                Anadyr1           102.125
        94   02 Jun 2027 02:55:31.216   02 Jun 2027 02:56:18.851            47.635                Anadyr2          1488.594
        95   02 Jun 2027 03:09:15.262   02 Jun 2027 03:10:21.119            65.857              Murmansk2          2058.031
        96   02 Jun 2027 03:10:29.582   02 Jun 2027 03:11:58.482            88.900                 Moscow          2778.125
        97   02 Jun 2027 03:12:15.888   02 Jun 2027 03:12:57.765            41.877              Murmansk2          1308.656
        98   02 Jun 2027 03:13:16.699   02 Jun 2027 03:13:40.263            23.564                Novosib           736.375
        99   02 Jun 2027 04:46:49.146   02 Jun 2027 04:46:53.953             4.807              Murmansk2           150.219
       100   02 Jun 2027 04:47:02.204   02 Jun 2027 04:47:14.829            12.625              Murmansk2           394.531
       101   02 Jun 2027 04:47:45.439   02 Jun 2027 04:48:31.737            46.298              Murmansk2          1446.812
       102   02 Jun 2027 04:48:31.737   02 Jun 2027 04:50:09.760            98.023              Murmansk1          3063.219
       103   02 Jun 2027 04:50:27.500   02 Jun 2027 04:51:56.351            88.851              Murmansk1          2776.594
       104   02 Jun 2027 05:06:25.811   02 Jun 2027 05:09:21.113           175.302               CapeTown          5478.188
       105   02 Jun 2027 06:10:25.265   02 Jun 2027 06:12:18.776           113.511                Anadyr2          3547.219
       106   02 Jun 2027 06:12:54.504   02 Jun 2027 06:12:59.582             5.078                Norilsk           158.688
       107   02 Jun 2027 06:13:08.086   02 Jun 2027 06:13:57.452            49.366                Anadyr2          1542.687
       108   02 Jun 2027 07:46:59.212   02 Jun 2027 07:48:12.388            73.176                Anadyr1          2286.750
       109   02 Jun 2027 07:48:54.467   02 Jun 2027 07:48:59.093             4.626                Norilsk           144.562
       110   02 Jun 2027 07:49:30.442   02 Jun 2027 07:50:04.399            33.957                Anadyr2          1061.156
       111   02 Jun 2027 07:50:04.399   02 Jun 2027 07:51:12.843            68.444                Anadyr1          2138.875
       112   02 Jun 2027 07:57:13.170   02 Jun 2027 07:57:14.750             1.580                 Moscow            49.375
       113   02 Jun 2027 09:20:03.115   02 Jun 2027 09:24:49.497           286.382               Magadan2          8949.438
       114   02 Jun 2027 09:24:49.497   02 Jun 2027 09:25:25.904            36.407               Magadan1          1137.719
       115   02 Jun 2027 09:25:48.345   02 Jun 2027 09:27:25.162            96.817               Magadan1          3025.531
       116   02 Jun 2027 10:02:28.354   02 Jun 2027 10:03:04.461            36.107            RioGallegos          1128.344
       117   02 Jun 2027 10:39:39.527   02 Jun 2027 10:41:32.028           112.501                Sumatra          3515.656
       118   02 Jun 2027 10:57:05.158   02 Jun 2027 10:58:41.032            95.874               Magadan1          2996.062
       119   02 Jun 2027 10:58:47.381   02 Jun 2027 10:58:47.855             0.474                Irkutsk            14.813
       120   02 Jun 2027 10:58:49.287   02 Jun 2027 10:58:57.748             8.461                Novosib           264.406
       121   02 Jun 2027 10:59:17.929   02 Jun 2027 10:59:34.287            16.358                Norilsk           511.187
       122   02 Jun 2027 10:59:41.038   02 Jun 2027 11:00:07.798            26.760                Irkutsk           836.250
       123   02 Jun 2027 11:00:17.686   02 Jun 2027 11:00:26.329             8.643                Norilsk           270.094
       124   02 Jun 2027 11:00:27.691   02 Jun 2027 11:00:51.706            24.015                Norilsk           750.469
       125   02 Jun 2027 11:00:54.976   02 Jun 2027 11:01:14.783            19.807                Norilsk           618.969
       126   02 Jun 2027 11:01:20.645   02 Jun 2027 11:01:51.375            30.730              Murmansk2           960.313
       127   02 Jun 2027 11:02:05.140   02 Jun 2027 11:02:35.608            30.468                Irkutsk           952.125
       128   02 Jun 2027 11:02:36.523   02 Jun 2027 11:02:49.042            12.519              Murmansk1           391.219
       129   02 Jun 2027 11:02:53.159   02 Jun 2027 11:03:19.535            26.376                Novosib           824.250
       130   02 Jun 2027 11:03:48.276   02 Jun 2027 11:04:14.050            25.774              Murmansk2           805.438
       131   02 Jun 2027 11:38:30.530   02 Jun 2027 11:39:26.173            55.643            RioGallegos          1738.844
       132   02 Jun 2027 12:12:58.945   02 Jun 2027 12:13:59.514            60.569                Sumatra          1892.781
       133   02 Jun 2027 12:25:15.766   02 Jun 2027 12:25:59.821            44.055                  Delhi          1376.719
       134   02 Jun 2027 12:27:37.445   02 Jun 2027 12:28:37.146            59.701                Irkutsk          1865.656
       135   02 Jun 2027 12:29:06.626   02 Jun 2027 12:30:24.624            77.998                Novosib          2437.437
       136   02 Jun 2027 12:31:38.464   02 Jun 2027 12:33:22.397           103.933                Norilsk          3247.906
       137   02 Jun 2027 13:20:37.156   02 Jun 2027 13:22:59.073           141.917            RioGallegos          4434.906
       138   02 Jun 2027 14:00:03.113   02 Jun 2027 14:02:16.306           133.193                  Delhi          4162.281
       139   02 Jun 2027 14:05:35.090   02 Jun 2027 14:06:11.001            35.911                Novosib          1122.219
       140   02 Jun 2027 14:09:10.329   02 Jun 2027 14:10:42.525            92.196                Novosib          2881.125
       141   02 Jun 2027 14:10:44.246   02 Jun 2027 14:11:22.501            38.255                Norilsk          1195.469
       142   02 Jun 2027 14:11:50.728   02 Jun 2027 14:12:12.713            21.985                Norilsk           687.031
       143   02 Jun 2027 14:19:19.382   02 Jun 2027 14:19:27.414             8.032                Norilsk           251.000
       144   02 Jun 2027 15:41:31.283   02 Jun 2027 15:44:49.595           198.312                 Moscow          6197.250
       145   02 Jun 2027 15:45:01.349   02 Jun 2027 15:46:08.803            67.454              Murmansk2          2107.938
       146   02 Jun 2027 15:46:29.230   02 Jun 2027 15:47:00.287            31.057              Murmansk2           970.531
       147   02 Jun 2027 15:49:56.284   02 Jun 2027 15:54:25.738           269.454                Norilsk          8420.438
       148   02 Jun 2027 17:19:31.175   02 Jun 2027 17:20:00.878            29.703                 Moscow           928.219
       149   02 Jun 2027 17:22:24.510   02 Jun 2027 17:23:19.405            54.895              Murmansk1          1715.469
       150   02 Jun 2027 17:24:17.723   02 Jun 2027 17:24:46.533            28.810              Murmansk1           900.312
       151   02 Jun 2027 17:26:18.568   02 Jun 2027 17:27:34.672            76.104              Murmansk1          2378.250
       152   02 Jun 2027 17:35:53.467   02 Jun 2027 17:36:30.119            36.652                Anadyr2          1145.375
       153   02 Jun 2027 17:36:30.119   02 Jun 2027 17:36:51.662            21.543                Anadyr1           673.219
       154   02 Jun 2027 18:31:10.053   02 Jun 2027 18:32:59.850           109.797               CapeTown          3431.156
       155   02 Jun 2027 18:39:53.739   02 Jun 2027 18:40:10.967            17.228               CapeTown           538.375
       156   02 Jun 2027 19:02:12.713   02 Jun 2027 19:07:59.039           346.326              Murmansk1         10822.688
       157   02 Jun 2027 19:17:54.993   02 Jun 2027 19:17:59.274             4.281               Magadan2           133.781
       158   02 Jun 2027 19:23:28.815   02 Jun 2027 19:23:43.686            14.871               Magadan2           464.719
       159   02 Jun 2027 20:47:29.981   02 Jun 2027 20:49:05.014            95.033                Anadyr2          2969.781
       160   02 Jun 2027 20:49:07.812   02 Jun 2027 20:51:19.933           132.121                Anadyr1          4128.781
       161   02 Jun 2027 20:51:46.059   02 Jun 2027 20:52:01.370            15.311               Magadan2           478.469
       162   02 Jun 2027 20:52:04.135   02 Jun 2027 20:52:54.785            50.650               Magadan1          1582.812
       163   02 Jun 2027 20:53:10.259   02 Jun 2027 20:53:27.373            17.114               Magadan2           534.813
       164   02 Jun 2027 20:53:42.819   02 Jun 2027 20:54:26.024            43.205               Magadan2          1350.156
       165   02 Jun 2027 20:54:37.679   02 Jun 2027 20:55:09.373            31.694               Magadan1           990.437
       166   02 Jun 2027 20:57:55.510   02 Jun 2027 20:58:05.207             9.697               Magadan1           303.031
       167   02 Jun 2027 20:58:09.426   02 Jun 2027 20:58:16.452             7.026               Magadan1           219.562
       168   02 Jun 2027 20:58:24.330   02 Jun 2027 20:58:42.177            17.847               Magadan2           557.719
       169   02 Jun 2027 20:59:00.634   02 Jun 2027 20:59:43.198            42.564               Magadan1          1330.125
       170   02 Jun 2027 21:43:31.213   02 Jun 2027 21:46:06.037           154.824            RioGallegos          4838.250
       171   02 Jun 2027 22:23:19.073   02 Jun 2027 22:24:30.757            71.684                Anadyr2          2240.125
       172   02 Jun 2027 22:24:50.200   02 Jun 2027 22:25:14.441            24.241                Anadyr2           757.531
       173   02 Jun 2027 22:25:26.180   02 Jun 2027 22:26:56.945            90.765                Norilsk          2836.406
       174   02 Jun 2027 22:27:34.065   02 Jun 2027 22:27:52.915            18.850               Magadan1           589.062
       175   02 Jun 2027 22:28:03.121   02 Jun 2027 22:28:11.821             8.700               Magadan1           271.875
       176   02 Jun 2027 22:28:21.986   02 Jun 2027 22:28:40.473            18.487               Magadan1           577.719
       177   02 Jun 2027 22:30:18.978   02 Jun 2027 22:30:56.674            37.696                Irkutsk          1178.000
       178   02 Jun 2027 22:32:10.275   02 Jun 2027 22:32:49.887            39.612                Irkutsk          1237.875
       179   02 Jun 2027 22:35:47.086   02 Jun 2027 22:36:49.439            62.353                Irkutsk          1948.531
       180   02 Jun 2027 22:45:11.502   02 Jun 2027 22:47:03.874           112.372                Sumatra          3511.625
       181   02 Jun 2027 23:58:34.690   03 Jun 2027 00:01:06.504           151.814                Anadyr1          4744.188
       182   03 Jun 2027 00:01:13.391   03 Jun 2027 00:02:26.485            73.094                Norilsk          2284.187
       183   03 Jun 2027 00:03:07.972   03 Jun 2027 00:03:34.058            26.086               Magadan1           815.188
       184   03 Jun 2027 00:04:09.098   03 Jun 2027 00:04:46.419            37.321               Magadan2          1166.281
       185   03 Jun 2027 00:05:46.361   03 Jun 2027 00:06:51.838            65.477                Novosib          2046.156
       186   03 Jun 2027 00:07:12.639   03 Jun 2027 00:07:26.774            14.135                Novosib           441.719
       187   03 Jun 2027 00:08:04.274   03 Jun 2027 00:08:54.511            50.237                Novosib          1569.906
       188   03 Jun 2027 00:15:33.193   03 Jun 2027 00:17:05.325            92.132                  Delhi          2879.125
       189   03 Jun 2027 00:24:56.876   03 Jun 2027 00:25:12.281            15.405                Sumatra           481.406
       190   03 Jun 2027 00:53:14.803   03 Jun 2027 00:54:24.226            69.423            RioGallegos          2169.469
       191   03 Jun 2027 01:04:07.657   03 Jun 2027 01:04:12.376             4.719            RioGallegos           147.469
       192   03 Jun 2027 01:04:44.874   03 Jun 2027 01:05:14.531            29.657            RioGallegos           926.781
       193   03 Jun 2027 01:32:40.366   03 Jun 2027 01:33:00.855            20.489                Anadyr1           640.281
       194   03 Jun 2027 01:33:40.338   03 Jun 2027 01:34:14.956            34.618                Anadyr1          1081.813
       195   03 Jun 2027 01:34:51.157   03 Jun 2027 01:35:14.629            23.472                Anadyr1           733.500
       196   03 Jun 2027 01:37:14.170   03 Jun 2027 01:39:12.922           118.752                Norilsk          3711.000
       197   03 Jun 2027 01:40:05.507   03 Jun 2027 01:41:09.934            64.427              Murmansk2          2013.344
       198   03 Jun 2027 01:41:16.468   03 Jun 2027 01:42:28.670            72.202              Murmansk1          2256.312
       199   03 Jun 2027 01:42:30.852   03 Jun 2027 01:43:05.893            35.041                Irkutsk          1095.031
       200   03 Jun 2027 01:48:21.869   03 Jun 2027 01:48:54.410            32.541                  Delhi          1016.906
       201   03 Jun 2027 01:51:33.867   03 Jun 2027 01:52:11.355            37.488                  Delhi          1171.500
       202   03 Jun 2027 01:56:26.040   03 Jun 2027 01:57:13.950            47.910                  Delhi          1497.188
       203   03 Jun 2027 02:30:21.175   03 Jun 2027 02:32:33.141           131.966            RioGallegos          4123.937
       204   03 Jun 2027 02:33:00.435   03 Jun 2027 02:34:37.782            97.347            RioGallegos          3042.094
       205   03 Jun 2027 03:22:25.213   03 Jun 2027 03:22:52.175            26.962              Murmansk1           842.562
       206   03 Jun 2027 03:22:53.991   03 Jun 2027 03:23:32.781            38.790                Novosib          1212.187
       207   03 Jun 2027 03:23:59.461   03 Jun 2027 03:24:42.547            43.086              Murmansk2          1346.437
       208   03 Jun 2027 03:24:47.680   03 Jun 2027 03:24:54.253             6.573                 Moscow           205.406
       209   03 Jun 2027 03:24:58.609   03 Jun 2027 03:25:17.343            18.734              Murmansk1           585.437
       210   03 Jun 2027 03:25:29.691   03 Jun 2027 03:25:55.785            26.094                 Moscow           815.438
       211   03 Jun 2027 04:58:20.235   03 Jun 2027 04:58:37.751            17.516                Novosib           547.375
       212   03 Jun 2027 04:59:10.535   03 Jun 2027 04:59:19.975             9.440                Norilsk           295.000
       213   03 Jun 2027 04:59:59.039   03 Jun 2027 05:00:35.774            36.735              Murmansk2          1147.969
       214   03 Jun 2027 05:00:35.774   03 Jun 2027 05:00:53.969            18.195              Murmansk1           568.594
       215   03 Jun 2027 05:01:07.139   03 Jun 2027 05:02:12.450            65.311              Murmansk1          2040.969
       216   03 Jun 2027 05:02:12.450   03 Jun 2027 05:03:34.269            81.819              Murmansk2          2556.844
       217   03 Jun 2027 05:18:26.516   03 Jun 2027 05:18:55.124            28.608               CapeTown           894.000
       218   03 Jun 2027 06:21:31.469   03 Jun 2027 06:22:15.241            43.772                Anadyr2          1367.875
       219   03 Jun 2027 06:22:15.241   03 Jun 2027 06:23:07.055            51.814                Anadyr1          1619.187
       220   03 Jun 2027 06:23:22.173   03 Jun 2027 06:23:47.283            25.110                Anadyr1           784.688
       221   03 Jun 2027 06:23:47.283   03 Jun 2027 06:24:20.573            33.290                Anadyr2          1040.312
       222   03 Jun 2027 06:25:58.112   03 Jun 2027 06:26:16.075            17.963                Anadyr2           561.344
       223   03 Jun 2027 06:26:49.074   03 Jun 2027 06:27:26.426            37.352                Anadyr2          1167.250
       224   03 Jun 2027 06:58:39.984   03 Jun 2027 07:01:26.313           166.329               CapeTown          5197.781
       225   03 Jun 2027 07:57:49.763   03 Jun 2027 07:57:51.846             2.083               Magadan2            65.094
       226   03 Jun 2027 07:57:52.410   03 Jun 2027 07:58:35.735            43.325               Magadan2          1353.906
       227   03 Jun 2027 07:58:42.454   03 Jun 2027 07:59:16.021            33.567               Magadan2          1048.969
       228   03 Jun 2027 07:59:16.021   03 Jun 2027 07:59:16.760             0.739               Magadan1            23.094
       229   03 Jun 2027 07:59:24.940   03 Jun 2027 07:59:57.409            32.469               Magadan1          1014.656
       230   03 Jun 2027 08:00:12.564   03 Jun 2027 08:01:24.215            71.651                Anadyr1          2239.094
       231   03 Jun 2027 08:12:20.945   03 Jun 2027 08:12:22.060             1.115                 Moscow            34.844
       232   03 Jun 2027 08:41:22.045   03 Jun 2027 08:41:41.475            19.430            RioGallegos           607.187
       233   03 Jun 2027 08:42:58.714   03 Jun 2027 08:43:44.395            45.681            RioGallegos          1427.531
       234   03 Jun 2027 09:31:23.508   03 Jun 2027 09:31:31.911             8.403                Irkutsk           262.594
       235   03 Jun 2027 09:32:03.582   03 Jun 2027 09:33:19.869            76.287               Magadan1          2383.969
       236   03 Jun 2027 09:33:23.766   03 Jun 2027 09:33:51.988            28.222               Magadan1           881.938
       237   03 Jun 2027 09:33:54.563   03 Jun 2027 09:34:35.235            40.672               Magadan2          1271.000
       238   03 Jun 2027 09:34:44.330   03 Jun 2027 09:35:05.415            21.085                Norilsk           658.906
       239   03 Jun 2027 09:35:10.090   03 Jun 2027 09:35:21.449            11.359                Irkutsk           354.969
       240   03 Jun 2027 09:35:22.140   03 Jun 2027 09:37:32.293           130.153                Anadyr1          4067.281
       241   03 Jun 2027 09:37:48.116   03 Jun 2027 09:38:07.127            19.011                Novosib           594.094
       242   03 Jun 2027 09:38:11.951   03 Jun 2027 09:39:21.658            69.707               Magadan1          2178.344
       243   03 Jun 2027 09:40:46.550   03 Jun 2027 09:41:34.289            47.739              Murmansk1          1491.844
       244   03 Jun 2027 10:14:19.143   03 Jun 2027 10:14:54.296            35.153            RioGallegos          1098.531
       245   03 Jun 2027 10:50:48.167   03 Jun 2027 10:52:29.210           101.043                Sumatra          3157.594
       246   03 Jun 2027 11:08:52.310   03 Jun 2027 11:09:04.746            12.436                Norilsk           388.625
       247   03 Jun 2027 11:09:08.584   03 Jun 2027 11:09:57.918            49.334                Irkutsk          1541.688
       248   03 Jun 2027 11:11:38.550   03 Jun 2027 11:11:42.462             3.912                Novosib           122.250
       249   03 Jun 2027 11:12:08.157   03 Jun 2027 11:12:26.188            18.031                Irkutsk           563.469
       250   03 Jun 2027 11:12:28.372   03 Jun 2027 11:12:34.045             5.673                Norilsk           177.281
       251   03 Jun 2027 11:12:36.628   03 Jun 2027 11:12:51.958            15.330                Norilsk           479.063
       252   03 Jun 2027 11:12:52.898   03 Jun 2027 11:13:08.480            15.582              Murmansk2           486.937
       253   03 Jun 2027 11:13:11.960   03 Jun 2027 11:13:20.726             8.766                Irkutsk           273.937
       254   03 Jun 2027 11:13:24.197   03 Jun 2027 11:13:25.853             1.656                Norilsk            51.750
       255   03 Jun 2027 11:13:39.508   03 Jun 2027 11:13:45.654             6.146                Novosib           192.062
       256   03 Jun 2027 11:14:23.443   03 Jun 2027 11:14:36.003            12.560                Novosib           392.500
       257   03 Jun 2027 11:14:37.328   03 Jun 2027 11:14:58.854            21.526              Murmansk1           672.687
       258   03 Jun 2027 11:14:59.289   03 Jun 2027 11:15:26.413            27.124                Irkutsk           847.625
       259   03 Jun 2027 11:16:34.617   03 Jun 2027 11:16:48.455            13.838                Novosib           432.437
       260   03 Jun 2027 11:50:49.575   03 Jun 2027 11:51:29.504            39.929            RioGallegos          1247.781
       261   03 Jun 2027 11:53:04.915   03 Jun 2027 11:54:08.161            63.246            RioGallegos          1976.438
       262   03 Jun 2027 12:25:10.449   03 Jun 2027 12:27:07.046           116.597                Sumatra          3643.656
       263   03 Jun 2027 12:40:01.477   03 Jun 2027 12:41:04.841            63.364                Novosib          1980.125
       264   03 Jun 2027 12:43:48.551   03 Jun 2027 12:45:26.210            97.659                Norilsk          3051.844
       265   03 Jun 2027 14:09:52.828   03 Jun 2027 14:11:01.544            68.716                  Delhi          2147.375
       266   03 Jun 2027 14:14:22.844   03 Jun 2027 14:15:01.872            39.028                  Delhi          1219.625
       267   03 Jun 2027 14:17:02.574   03 Jun 2027 14:18:00.074            57.500                  Delhi          1796.875
       268   03 Jun 2027 14:18:08.020   03 Jun 2027 14:23:05.750           297.730                Novosib          9304.062
       269   03 Jun 2027 14:26:32.985   03 Jun 2027 14:27:08.107            35.122                Norilsk          1097.563
       270   03 Jun 2027 15:53:36.218   03 Jun 2027 15:56:53.352           197.134                 Moscow          6160.437
       271   03 Jun 2027 15:57:07.574   03 Jun 2027 15:58:05.112            57.538              Murmansk1          1798.063
       272   03 Jun 2027 16:02:49.696   03 Jun 2027 16:06:26.435           216.739                Norilsk          6773.094
       273   03 Jun 2027 17:07:25.867   03 Jun 2027 17:07:47.562            21.695               CapeTown           677.969
       274   03 Jun 2027 17:09:46.819   03 Jun 2027 17:10:51.153            64.334               CapeTown          2010.437
       275   03 Jun 2027 17:32:08.922   03 Jun 2027 17:32:19.343            10.421                 Moscow           325.656
       276   03 Jun 2027 17:34:37.065   03 Jun 2027 17:35:02.596            25.531                 Moscow           797.844
       277   03 Jun 2027 17:35:03.440   03 Jun 2027 17:35:40.922            37.482              Murmansk2          1171.313
       278   03 Jun 2027 17:36:37.203   03 Jun 2027 17:37:05.027            27.824                 Moscow           869.500
       279   03 Jun 2027 17:37:44.882   03 Jun 2027 17:38:20.673            35.791              Murmansk1          1118.469
       280   03 Jun 2027 17:40:01.733   03 Jun 2027 17:40:05.577             3.844              Murmansk1           120.125
       281   03 Jun 2027 17:44:04.269   03 Jun 2027 17:44:16.034            11.765              Murmansk2           367.656
       282   03 Jun 2027 17:47:50.870   03 Jun 2027 17:49:19.198            88.328                Anadyr2          2760.250
       283   03 Jun 2027 17:55:52.239   03 Jun 2027 17:55:59.528             7.289                Anadyr1           227.781
       284   03 Jun 2027 17:56:55.080   03 Jun 2027 17:56:56.351             1.271                Anadyr1            39.719
       285   03 Jun 2027 18:43:22.150   03 Jun 2027 18:45:00.385            98.235               CapeTown          3069.844
       286   03 Jun 2027 19:14:59.145   03 Jun 2027 19:19:40.942           281.797              Murmansk2          8806.156
       287   03 Jun 2027 19:19:59.814   03 Jun 2027 19:21:00.003            60.189              Murmansk1          1880.906
       288   03 Jun 2027 19:26:27.400   03 Jun 2027 19:26:52.321            24.921               Magadan2           778.781
       289   03 Jun 2027 19:29:30.223   03 Jun 2027 19:29:44.288            14.065               Magadan1           439.531
       290   03 Jun 2027 19:35:49.458   03 Jun 2027 19:35:55.675             6.217               Magadan2           194.281
       291   03 Jun 2027 20:59:31.530   03 Jun 2027 21:03:48.422           256.892                Anadyr2          8027.875
       292   03 Jun 2027 21:04:05.534   03 Jun 2027 21:07:07.542           182.008               Magadan2          5687.750
       293   03 Jun 2027 21:08:18.387   03 Jun 2027 21:08:33.381            14.994               Magadan1           468.562
       294   03 Jun 2027 21:08:51.206   03 Jun 2027 21:08:56.446             5.240               Magadan1           163.750
       295   03 Jun 2027 21:09:05.664   03 Jun 2027 21:09:35.148            29.484               Magadan1           921.375
       296   03 Jun 2027 21:54:55.128   03 Jun 2027 21:57:37.953           162.825            RioGallegos          5088.281
       297   03 Jun 2027 22:01:01.375   03 Jun 2027 22:01:08.455             7.080            RioGallegos           221.250
       298   03 Jun 2027 22:35:18.191   03 Jun 2027 22:36:24.773            66.582                Anadyr2          2080.687
       299   03 Jun 2027 22:36:33.625   03 Jun 2027 22:37:00.147            26.522                Anadyr2           828.813
       300   03 Jun 2027 22:37:24.472   03 Jun 2027 22:37:29.425             4.953                Norilsk           154.781
       301   03 Jun 2027 22:37:33.876   03 Jun 2027 22:38:15.167            41.291                Anadyr2          1290.344
       302   03 Jun 2027 22:38:50.033   03 Jun 2027 22:38:58.485             8.452                Norilsk           264.125
       303   03 Jun 2027 22:39:04.139   03 Jun 2027 22:39:33.964            29.825               Magadan2           932.031
       304   03 Jun 2027 22:39:41.503   03 Jun 2027 22:39:58.639            17.136                Norilsk           535.500
       305   03 Jun 2027 22:40:12.511   03 Jun 2027 22:40:31.853            19.342               Magadan2           604.437
       306   03 Jun 2027 22:40:49.996   03 Jun 2027 22:40:58.891             8.895                Norilsk           277.969
       307   03 Jun 2027 22:41:34.466   03 Jun 2027 22:41:34.776             0.310               Magadan2             9.688
       308   03 Jun 2027 22:42:02.849   03 Jun 2027 22:42:54.929            52.080                Irkutsk          1627.500
       309   03 Jun 2027 22:44:37.472   03 Jun 2027 22:45:20.763            43.291                Irkutsk          1352.844
       310   03 Jun 2027 22:50:16.651   03 Jun 2027 22:50:30.987            14.336                Irkutsk           448.000
       311   03 Jun 2027 22:56:28.475   03 Jun 2027 22:57:44.097            75.622                Sumatra          2363.187
       312   03 Jun 2027 22:59:46.483   03 Jun 2027 23:01:01.301            74.818                Sumatra          2338.062
       313   04 Jun 2027 00:10:26.819   04 Jun 2027 00:11:36.899            70.080                Anadyr1          2190.000
       314   04 Jun 2027 00:12:10.952   04 Jun 2027 00:12:52.302            41.350                Anadyr2          1292.188
       315   04 Jun 2027 00:13:54.177   04 Jun 2027 00:16:11.251           137.074               Magadan2          4283.563
       316   04 Jun 2027 00:16:11.251   04 Jun 2027 00:16:15.627             4.376               Magadan1           136.750
       317   04 Jun 2027 00:16:28.417   04 Jun 2027 00:16:48.177            19.760               Magadan1           617.500
       318   04 Jun 2027 00:17:08.671   04 Jun 2027 00:17:50.079            41.408                Irkutsk          1294.000
       319   04 Jun 2027 00:18:16.561   04 Jun 2027 00:20:15.755           119.194                Irkutsk          3724.812
       320   04 Jun 2027 00:26:33.844   04 Jun 2027 00:28:55.026           141.182                  Delhi          4411.937
       321   04 Jun 2027 01:10:25.957   04 Jun 2027 01:10:39.437            13.480            RioGallegos           421.250
       322   04 Jun 2027 01:11:41.999   04 Jun 2027 01:12:01.833            19.834            RioGallegos           619.812
       323   04 Jun 2027 01:16:47.523   04 Jun 2027 01:17:03.980            16.457            RioGallegos           514.281
       324   04 Jun 2027 01:44:23.031   04 Jun 2027 01:45:11.551            48.520                Anadyr1          1516.250
       325   04 Jun 2027 01:45:39.620   04 Jun 2027 01:46:22.354            42.734                Anadyr1          1335.437
       326   04 Jun 2027 01:46:36.574   04 Jun 2027 01:47:07.937            31.363                Anadyr2           980.094
       327   04 Jun 2027 01:49:16.286   04 Jun 2027 01:50:30.180            73.894                Norilsk          2309.187
       328   04 Jun 2027 01:50:45.979   04 Jun 2027 01:51:06.667            20.688                Norilsk           646.500
       329   04 Jun 2027 01:51:55.530   04 Jun 2027 01:53:35.439            99.909              Murmansk2          3122.156
       330   04 Jun 2027 01:53:46.388   04 Jun 2027 01:56:21.689           155.301                Novosib          4853.156
       331   04 Jun 2027 02:42:44.716   04 Jun 2027 02:45:06.130           141.414            RioGallegos          4419.187
       332   04 Jun 2027 02:46:22.256   04 Jun 2027 02:47:33.361            71.105            RioGallegos          2222.031
       333   04 Jun 2027 03:33:59.747   04 Jun 2027 03:34:10.149            10.402                Novosib           325.062
       334   04 Jun 2027 03:34:12.111   04 Jun 2027 03:34:21.778             9.667                Norilsk           302.094
       335   04 Jun 2027 03:34:22.856   04 Jun 2027 03:34:31.994             9.138                Irkutsk           285.562
       336   04 Jun 2027 03:34:56.842   04 Jun 2027 03:35:27.250            30.408                Norilsk           950.250
       337   04 Jun 2027 03:36:07.014   04 Jun 2027 03:36:15.592             8.578              Murmansk1           268.063
       338   04 Jun 2027 03:36:44.199   04 Jun 2027 03:36:59.801            15.602              Murmansk1           487.562
       339   04 Jun 2027 03:36:59.801   04 Jun 2027 03:37:35.306            35.505              Murmansk2          1109.531
       340   04 Jun 2027 03:38:09.509   04 Jun 2027 03:38:38.979            29.470              Murmansk1           920.937
       341   04 Jun 2027 03:56:28.469   04 Jun 2027 03:59:03.496           155.027               CapeTown          4844.594
       342   04 Jun 2027 05:11:09.334   04 Jun 2027 05:11:33.762            24.428                 Moscow           763.375
       343   04 Jun 2027 05:11:55.831   04 Jun 2027 05:12:09.626            13.795              Murmansk1           431.094
       344   04 Jun 2027 05:12:09.626   04 Jun 2027 05:12:56.126            46.500              Murmansk2          1453.125
       345   04 Jun 2027 05:12:56.126   04 Jun 2027 05:12:57.929             1.803              Murmansk1            56.344
       346   04 Jun 2027 05:13:13.968   04 Jun 2027 05:13:22.607             8.639              Murmansk1           269.969
       347   04 Jun 2027 05:13:26.888   04 Jun 2027 05:14:10.812            43.924                 Moscow          1372.625
       348   04 Jun 2027 05:14:57.589   04 Jun 2027 05:15:27.110            29.521              Murmansk1           922.531
       349   04 Jun 2027 05:30:48.806   04 Jun 2027 05:31:15.690            26.884               CapeTown           840.125
       350   04 Jun 2027 05:33:25.956   04 Jun 2027 05:33:38.467            12.511               CapeTown           390.969
       351   04 Jun 2027 05:37:04.208   04 Jun 2027 05:39:01.157           116.949               CapeTown          3654.656
       352   04 Jun 2027 06:33:02.717   04 Jun 2027 06:34:22.425            79.708                Anadyr2          2490.875
       353   04 Jun 2027 06:34:31.509   04 Jun 2027 06:35:14.952            43.443               Magadan1          1357.594
       354   04 Jun 2027 06:35:38.992   04 Jun 2027 06:36:20.007            41.015                Anadyr2          1281.719
       355   04 Jun 2027 06:37:58.425   04 Jun 2027 06:38:48.996            50.571                Anadyr2          1580.344
       356   04 Jun 2027 08:09:51.418   04 Jun 2027 08:10:11.179            19.761                Anadyr1           617.531
       357   04 Jun 2027 08:10:11.179   04 Jun 2027 08:10:19.152             7.973                Anadyr2           249.156
       358   04 Jun 2027 08:10:20.795   04 Jun 2027 08:10:57.249            36.454               Magadan2          1139.188
       359   04 Jun 2027 08:11:05.123   04 Jun 2027 08:11:59.544            54.421               Magadan1          1700.656
       360   04 Jun 2027 08:12:12.235   04 Jun 2027 08:13:15.546            63.311                Anadyr2          1978.469
       361   04 Jun 2027 08:13:33.091   04 Jun 2027 08:13:52.211            19.120               Magadan1           597.500
       362   04 Jun 2027 08:15:13.095   04 Jun 2027 08:15:31.332            18.237                Anadyr2           569.906
       363   04 Jun 2027 08:56:50.300   04 Jun 2027 08:57:00.007             9.707            RioGallegos           303.344
       364   04 Jun 2027 09:44:03.480   04 Jun 2027 09:45:11.973            68.493               Magadan1          2140.406
       365   04 Jun 2027 09:45:31.457   04 Jun 2027 09:45:56.469            25.012               Magadan1           781.625
       366   04 Jun 2027 09:46:43.436   04 Jun 2027 09:49:50.487           187.051               Magadan1          5845.344
       367   04 Jun 2027 09:50:29.774   04 Jun 2027 09:51:03.072            33.298               Magadan2          1040.562
       368   04 Jun 2027 09:51:07.149   04 Jun 2027 09:51:10.944             3.795                Irkutsk           118.594
       369   04 Jun 2027 09:51:11.491   04 Jun 2027 09:51:35.711            24.220              Murmansk1           756.875
       370   04 Jun 2027 09:52:04.194   04 Jun 2027 09:52:14.403            10.209              Murmansk2           319.031
       371   04 Jun 2027 09:52:15.683   04 Jun 2027 09:52:19.725             4.042                Norilsk           126.312
       372   04 Jun 2027 09:54:57.643   04 Jun 2027 09:55:01.301             3.658              Murmansk2           114.312
       373   04 Jun 2027 10:26:13.149   04 Jun 2027 10:27:16.934            63.785            RioGallegos          1993.281
       374   04 Jun 2027 11:02:11.763   04 Jun 2027 11:02:47.058            35.295                Sumatra          1102.969
       375   04 Jun 2027 11:16:06.114   04 Jun 2027 11:16:56.779            50.665                Irkutsk          1583.281
       376   04 Jun 2027 11:21:04.497   04 Jun 2027 11:21:20.978            16.481                Norilsk           515.031
       377   04 Jun 2027 11:21:26.872   04 Jun 2027 11:22:35.009            68.137                Norilsk          2129.281
       378   04 Jun 2027 11:22:46.479   04 Jun 2027 11:23:04.693            18.214                Irkutsk           569.187
       379   04 Jun 2027 11:23:13.434   04 Jun 2027 11:23:20.556             7.122                Norilsk           222.562
       380   04 Jun 2027 11:23:41.611   04 Jun 2027 11:24:11.792            30.181                Irkutsk           943.156
       381   04 Jun 2027 11:24:26.539   04 Jun 2027 11:24:54.273            27.734              Murmansk2           866.688
       382   04 Jun 2027 11:24:56.733   04 Jun 2027 11:25:10.083            13.350              Murmansk2           417.188
       383   04 Jun 2027 11:25:17.843   04 Jun 2027 11:25:35.512            17.669              Murmansk1           552.156
       384   04 Jun 2027 11:25:38.693   04 Jun 2027 11:26:30.127            51.434                Norilsk          1607.312
       385   04 Jun 2027 11:26:32.926   04 Jun 2027 11:26:53.709            20.783                Novosib           649.469
       386   04 Jun 2027 11:27:03.025   04 Jun 2027 11:27:21.871            18.846                Novosib           588.938
       387   04 Jun 2027 11:27:41.805   04 Jun 2027 11:28:02.852            21.047                Norilsk           657.719
       388   04 Jun 2027 12:03:13.304   04 Jun 2027 12:03:33.019            19.715            RioGallegos           616.094
       389   04 Jun 2027 12:04:05.862   04 Jun 2027 12:04:13.268             7.406            RioGallegos           231.437
       390   04 Jun 2027 12:04:59.044   04 Jun 2027 12:06:01.382            62.338            RioGallegos          1948.062
       391   04 Jun 2027 12:37:28.731   04 Jun 2027 12:38:33.277            64.546                Sumatra          2017.062
       392   04 Jun 2027 12:52:07.060   04 Jun 2027 12:53:01.931            54.871                Novosib          1714.719
       393   04 Jun 2027 12:53:03.648   04 Jun 2027 12:54:20.620            76.972                Irkutsk          2405.375
       394   04 Jun 2027 12:55:19.984   04 Jun 2027 12:55:29.143             9.159                Novosib           286.219
       395   04 Jun 2027 12:55:40.802   04 Jun 2027 12:56:06.750            25.948                Irkutsk           810.875
       396   04 Jun 2027 12:56:20.503   04 Jun 2027 12:57:31.547            71.044                Norilsk          2220.125
       397   04 Jun 2027 12:59:28.836   04 Jun 2027 12:59:42.343            13.507              Murmansk1           422.094
       398   04 Jun 2027 14:22:23.391   04 Jun 2027 14:27:31.828           308.437                  Delhi          9638.656
       399   04 Jun 2027 14:30:47.197   04 Jun 2027 14:31:52.124            64.927                Novosib          2028.969
       400   04 Jun 2027 14:33:05.809   04 Jun 2027 14:35:06.880           121.071                Novosib          3783.469
       401   04 Jun 2027 16:05:44.256   04 Jun 2027 16:07:38.234           113.978                 Moscow          3561.813
       402   04 Jun 2027 16:08:50.640   04 Jun 2027 16:09:26.420            35.780                 Moscow          1118.125
       403   04 Jun 2027 16:09:54.828   04 Jun 2027 16:09:56.745             1.917                 Moscow            59.906
       404   04 Jun 2027 16:09:59.590   04 Jun 2027 16:11:57.982           118.392              Murmansk1          3699.750
       405   04 Jun 2027 16:15:53.493   04 Jun 2027 16:16:40.235            46.742                Norilsk          1460.688
       406   04 Jun 2027 16:16:43.263   04 Jun 2027 16:18:26.531           103.268                Norilsk          3227.125
       407   04 Jun 2027 16:25:48.012   04 Jun 2027 16:25:49.276             1.264                Anadyr2            39.500
       408   04 Jun 2027 17:19:16.812   04 Jun 2027 17:20:17.454            60.642               CapeTown          1895.063
       409   04 Jun 2027 17:20:50.173   04 Jun 2027 17:20:58.320             8.147               CapeTown           254.594
       410   04 Jun 2027 17:27:17.467   04 Jun 2027 17:28:18.688            61.221               CapeTown          1913.156
       411   04 Jun 2027 17:44:54.165   04 Jun 2027 17:45:28.649            34.484                 Moscow          1077.625
       412   04 Jun 2027 17:46:31.527   04 Jun 2027 17:48:37.778           126.251                 Moscow          3945.344
       413   04 Jun 2027 17:52:01.736   04 Jun 2027 17:52:11.131             9.395              Murmansk2           293.594
       414   04 Jun 2027 17:54:10.803   04 Jun 2027 17:55:36.197            85.394              Murmansk1          2668.563
       415   04 Jun 2027 18:10:55.605   04 Jun 2027 18:11:05.106             9.501                Anadyr1           296.906
       416   04 Jun 2027 18:55:38.126   04 Jun 2027 18:57:03.711            85.585               CapeTown          2674.531
       417   04 Jun 2027 18:59:22.958   04 Jun 2027 19:00:11.849            48.891               CapeTown          1527.844
       418   04 Jun 2027 19:27:51.763   04 Jun 2027 19:32:24.677           272.914              Murmansk2          8528.563
       419   04 Jun 2027 19:32:27.504   04 Jun 2027 19:33:09.038            41.534              Murmansk1          1297.937
       420   04 Jun 2027 19:38:20.017   04 Jun 2027 19:40:03.060           103.043               Magadan2          3220.094
       421   04 Jun 2027 21:11:32.935   04 Jun 2027 21:15:16.178           223.243                Anadyr1          6976.344
       422   04 Jun 2027 21:15:23.128   04 Jun 2027 21:16:43.899            80.771                Anadyr2          2524.094
       423   04 Jun 2027 21:16:53.380   04 Jun 2027 21:18:24.873            91.493               Magadan2          2859.156
       424   04 Jun 2027 21:18:25.586   04 Jun 2027 21:18:29.162             3.576               Magadan2           111.750
       425   04 Jun 2027 21:18:35.981   04 Jun 2027 21:18:54.573            18.592               Magadan2           581.000
       426   04 Jun 2027 21:20:52.801   04 Jun 2027 21:21:19.901            27.100               Magadan1           846.875
       427   04 Jun 2027 22:06:30.949   04 Jun 2027 22:09:02.035           151.086            RioGallegos          4721.437
       428   04 Jun 2027 22:09:24.325   04 Jun 2027 22:09:38.465            14.140            RioGallegos           441.875
       429   04 Jun 2027 22:12:27.834   04 Jun 2027 22:13:02.632            34.798            RioGallegos          1087.438
       430   04 Jun 2027 22:47:16.724   04 Jun 2027 22:48:17.670            60.946                Anadyr1          1904.563
       431   04 Jun 2027 22:49:23.754   04 Jun 2027 22:51:00.225            96.471                Norilsk          3014.719
       432   04 Jun 2027 22:51:14.669   04 Jun 2027 22:51:55.476            40.807               Magadan1          1275.219
       433   04 Jun 2027 22:52:13.797   04 Jun 2027 22:52:20.558             6.761               Magadan2           211.281
       434   04 Jun 2027 22:52:53.245   04 Jun 2027 22:52:54.929             1.684                Norilsk            52.625
       435   04 Jun 2027 22:53:02.734   04 Jun 2027 22:53:07.368             4.634               Magadan1           144.812
       436   04 Jun 2027 22:53:07.368   04 Jun 2027 22:53:35.631            28.263               Magadan2           883.219
       437   04 Jun 2027 22:53:50.899   04 Jun 2027 22:53:58.671             7.772                Irkutsk           242.875
       438   04 Jun 2027 22:54:37.136   04 Jun 2027 22:54:54.295            17.159                Irkutsk           536.219
       439   04 Jun 2027 22:56:04.073   04 Jun 2027 22:56:21.067            16.994                Irkutsk           531.062
       440   04 Jun 2027 22:59:56.618   04 Jun 2027 23:00:03.115             6.497                Irkutsk           203.031
       441   04 Jun 2027 23:01:57.656   04 Jun 2027 23:02:34.409            36.753                Irkutsk          1148.531
       442   04 Jun 2027 23:07:57.584   04 Jun 2027 23:10:58.410           180.826                Sumatra          5650.813
       443   05 Jun 2027 00:22:17.683   05 Jun 2027 00:23:34.781            77.098                Anadyr1          2409.313
       444   05 Jun 2027 00:23:34.781   05 Jun 2027 00:23:46.096            11.315                Anadyr2           353.594
       445   05 Jun 2027 00:24:12.251   05 Jun 2027 00:24:52.882            40.631                Anadyr2          1269.719
       446   05 Jun 2027 00:25:17.601   05 Jun 2027 00:27:00.636           103.035                Norilsk          3219.844
       447   05 Jun 2027 00:27:58.946   05 Jun 2027 00:28:50.257            51.311               Magadan2          1603.469
       448   05 Jun 2027 00:29:19.938   05 Jun 2027 00:29:27.231             7.293                Irkutsk           227.906
       449   05 Jun 2027 00:29:30.408   05 Jun 2027 00:30:03.616            33.208                Novosib          1037.750
       450   05 Jun 2027 00:30:33.905   05 Jun 2027 00:31:02.042            28.137                Novosib           879.281
       451   05 Jun 2027 00:31:16.646   05 Jun 2027 00:31:38.881            22.235                Novosib           694.844
       452   05 Jun 2027 00:36:50.449   05 Jun 2027 00:37:51.166            60.717                Novosib          1897.406
       453   05 Jun 2027 00:37:55.298   05 Jun 2027 00:38:39.603            44.305                  Delhi          1384.531
       454   05 Jun 2027 00:42:21.586   05 Jun 2027 00:42:40.088            18.502                  Delhi           578.187
       455   05 Jun 2027 00:53:39.282   05 Jun 2027 00:53:45.955             6.673                Sumatra           208.531
       456   05 Jun 2027 01:17:27.161   05 Jun 2027 01:18:38.901            71.740            RioGallegos          2241.875
       457   05 Jun 2027 01:24:01.576   05 Jun 2027 01:24:12.409            10.833            RioGallegos           338.531
       458   05 Jun 2027 01:24:43.101   05 Jun 2027 01:24:56.641            13.540            RioGallegos           423.125
       459   05 Jun 2027 01:26:45.631   05 Jun 2027 01:27:07.501            21.870            RioGallegos           683.437
       460   05 Jun 2027 01:56:04.986   05 Jun 2027 01:56:38.042            33.056                Anadyr2          1033.000
       461   05 Jun 2027 01:56:38.042   05 Jun 2027 01:56:50.337            12.295                Anadyr1           384.219
       462   05 Jun 2027 01:57:09.999   05 Jun 2027 01:57:24.569            14.570                Anadyr2           455.312
       463   05 Jun 2027 01:58:22.954   05 Jun 2027 01:58:41.299            18.345                Anadyr2           573.281
       464   05 Jun 2027 02:01:18.289   05 Jun 2027 02:03:17.741           119.452                Norilsk          3732.875
       465   05 Jun 2027 02:03:49.052   05 Jun 2027 02:04:29.299            40.247              Murmansk1          1257.719
       466   05 Jun 2027 02:05:04.591   05 Jun 2027 02:05:42.438            37.847                Novosib          1182.719
       467   05 Jun 2027 02:06:25.243   05 Jun 2027 02:06:56.388            31.145              Murmansk2           973.281
       468   05 Jun 2027 02:07:26.927   05 Jun 2027 02:08:36.284            69.357                Irkutsk          2167.406
       469   05 Jun 2027 02:14:05.813   05 Jun 2027 02:15:29.957            84.144                  Delhi          2629.500
       470   05 Jun 2027 02:55:19.673   05 Jun 2027 02:56:20.752            61.079            RioGallegos          1908.719
       471   05 Jun 2027 02:57:12.782   05 Jun 2027 02:57:44.910            32.128            RioGallegos          1004.000
       472   05 Jun 2027 02:58:09.924   05 Jun 2027 02:58:51.262            41.338            RioGallegos          1291.812
       473   05 Jun 2027 03:45:49.634   05 Jun 2027 03:46:10.664            21.030                Novosib           657.187
       474   05 Jun 2027 03:46:23.252   05 Jun 2027 03:47:18.809            55.557              Murmansk1          1736.156
       475   05 Jun 2027 03:48:06.053   05 Jun 2027 03:48:26.491            20.438              Murmansk1           638.688
       476   05 Jun 2027 03:49:01.264   05 Jun 2027 03:49:41.662            40.398              Murmansk2          1262.437
       477   05 Jun 2027 03:49:48.287   05 Jun 2027 03:50:10.268            21.981              Murmansk1           686.906
       478   05 Jun 2027 03:50:35.474   05 Jun 2027 03:51:41.562            66.088                 Moscow          2065.250
       479   05 Jun 2027 03:51:58.952   05 Jun 2027 03:52:28.175            29.223                 Moscow           913.219
       480   05 Jun 2027 03:53:23.643   05 Jun 2027 03:53:54.930            31.287                 Moscow           977.719
       481   05 Jun 2027 04:17:15.658   05 Jun 2027 04:17:52.858            37.200               CapeTown          1162.500
       482   05 Jun 2027 04:18:11.833   05 Jun 2027 04:18:51.464            39.631               CapeTown          1238.469
