uniorb/output/strategy_2/Drop/Drop_KinoSat_111105.txt

KinoSat_111105
-------------------------
    Access    *     Start Time (UTCG)     *     Stop Time (UTCG)  *   Duration (s)        *       Station  *  Data (Mbytes)
         1   01 Jun 2027 03:24:54.235   01 Jun 2027 03:25:19.721            25.486                Anadyr2           796.437
         2   01 Jun 2027 03:25:45.065   01 Jun 2027 03:25:59.392            14.327               Magadan1           447.719
         3   01 Jun 2027 03:28:09.654   01 Jun 2027 03:29:11.646            61.992               Magadan2          1937.250
         4   01 Jun 2027 03:39:02.324   01 Jun 2027 03:39:17.279            14.955              Murmansk1           467.344
         5   01 Jun 2027 03:41:00.033   01 Jun 2027 03:41:21.840            21.807              Murmansk2           681.469
         6   01 Jun 2027 03:41:23.210   01 Jun 2027 03:42:12.838            49.628              Murmansk1          1550.875
         7   01 Jun 2027 03:42:12.838   01 Jun 2027 03:42:23.669            10.831              Murmansk2           338.469
         8   01 Jun 2027 04:59:45.748   01 Jun 2027 05:00:38.530            52.782                Anadyr2          1649.438
         9   01 Jun 2027 05:00:51.928   01 Jun 2027 05:01:43.595            51.667               Magadan1          1614.594
        10   01 Jun 2027 05:01:57.716   01 Jun 2027 05:05:51.139           233.423               Magadan1          7294.469
        11   01 Jun 2027 05:06:09.064   01 Jun 2027 05:06:09.592             0.528                Anadyr2            16.500
        12   01 Jun 2027 05:06:56.192   01 Jun 2027 05:07:39.051            42.859              Murmansk2          1339.344
        13   01 Jun 2027 05:47:25.292   01 Jun 2027 05:47:34.040             8.748            RioGallegos           273.375
        14   01 Jun 2027 06:36:25.716   01 Jun 2027 06:36:39.063            13.347                Irkutsk           417.094
        15   01 Jun 2027 06:37:58.030   01 Jun 2027 06:39:57.139           119.109               Magadan1          3722.156
        16   01 Jun 2027 06:40:06.680   01 Jun 2027 06:40:32.863            26.183                Irkutsk           818.219
        17   01 Jun 2027 06:40:35.111   01 Jun 2027 06:41:37.591            62.480                Anadyr1          1952.500
        18   01 Jun 2027 08:13:07.082   01 Jun 2027 08:13:47.763            40.681                Novosib          1271.281
        19   01 Jun 2027 08:14:04.854   01 Jun 2027 08:16:53.151           168.297               Magadan1          5259.281
        20   01 Jun 2027 08:17:10.491   01 Jun 2027 08:18:28.059            77.568                Novosib          2424.000
        21   01 Jun 2027 08:19:22.389   01 Jun 2027 08:19:59.075            36.686              Murmansk1          1146.437
        22   01 Jun 2027 08:19:59.075   01 Jun 2027 08:20:31.159            32.084              Murmansk2          1002.625
        23   01 Jun 2027 08:20:50.722   01 Jun 2027 08:21:12.874            22.152                Norilsk           692.250
        24   01 Jun 2027 08:52:11.926   01 Jun 2027 08:54:27.298           135.372            RioGallegos          4230.375
        25   01 Jun 2027 08:59:49.504   01 Jun 2027 09:00:15.980            26.476            RioGallegos           827.375
        26   01 Jun 2027 09:00:38.330   01 Jun 2027 09:01:10.371            32.041            RioGallegos          1001.281
        27   01 Jun 2027 09:27:20.423   01 Jun 2027 09:28:00.799            40.376                Sumatra          1261.750
        28   01 Jun 2027 09:29:52.528   01 Jun 2027 09:30:51.777            59.249                Sumatra          1851.531
        29   01 Jun 2027 09:49:18.767   01 Jun 2027 09:49:32.953            14.186                Norilsk           443.312
        30   01 Jun 2027 09:49:40.130   01 Jun 2027 09:53:24.538           224.408                Irkutsk          7012.750
        31   01 Jun 2027 09:53:29.789   01 Jun 2027 09:54:33.634            63.845                Norilsk          1995.156
        32   01 Jun 2027 09:54:34.637   01 Jun 2027 09:55:02.208            27.571                Novosib           861.594
        33   01 Jun 2027 09:57:32.702   01 Jun 2027 09:58:17.185            44.483              Murmansk1          1390.094
        34   01 Jun 2027 10:30:38.272   01 Jun 2027 10:30:41.882             3.610            RioGallegos           112.812
        35   01 Jun 2027 10:31:42.145   01 Jun 2027 10:32:10.731            28.586            RioGallegos           893.312
        36   01 Jun 2027 10:33:10.513   01 Jun 2027 10:34:31.705            81.192            RioGallegos          2537.250
        37   01 Jun 2027 11:04:56.552   01 Jun 2027 11:05:06.538             9.986                Sumatra           312.062
        38   01 Jun 2027 11:05:28.198   01 Jun 2027 11:07:19.203           111.005                Sumatra          3468.906
        39   01 Jun 2027 11:15:10.345   01 Jun 2027 11:15:23.407            13.062                  Delhi           408.187
        40   01 Jun 2027 11:26:30.009   01 Jun 2027 11:27:28.737            58.728                Irkutsk          1835.250
        41   01 Jun 2027 11:27:34.432   01 Jun 2027 11:28:51.780            77.348              Murmansk2          2417.125
        42   01 Jun 2027 11:28:56.624   01 Jun 2027 11:30:09.102            72.478              Murmansk1          2264.937
        43   01 Jun 2027 11:31:13.987   01 Jun 2027 11:31:20.673             6.686                Norilsk           208.938
        44   01 Jun 2027 11:32:23.872   01 Jun 2027 11:32:26.654             2.782                Norilsk            86.937
        45   01 Jun 2027 12:50:40.380   01 Jun 2027 12:51:50.690            70.310                  Delhi          2197.188
        46   01 Jun 2027 12:52:01.660   01 Jun 2027 12:54:15.422           133.762                  Delhi          4180.063
        47   01 Jun 2027 12:56:47.609   01 Jun 2027 12:58:35.359           107.750                 Moscow          3367.188
        48   01 Jun 2027 12:59:08.410   01 Jun 2027 13:01:44.636           156.226              Murmansk1          4882.063
        49   01 Jun 2027 13:01:49.001   01 Jun 2027 13:02:47.657            58.656                Norilsk          1833.000
        50   01 Jun 2027 14:11:38.206   01 Jun 2027 14:14:02.631           144.425               CapeTown          4513.281
        51   01 Jun 2027 14:32:18.727   01 Jun 2027 14:32:27.492             8.765                 Moscow           273.906
        52   01 Jun 2027 14:32:32.880   01 Jun 2027 14:32:37.651             4.771                 Moscow           149.094
        53   01 Jun 2027 14:32:47.541   01 Jun 2027 14:33:07.865            20.324                 Moscow           635.125
        54   01 Jun 2027 14:35:42.985   01 Jun 2027 14:36:45.278            62.293              Murmansk1          1946.656
        55   01 Jun 2027 14:37:02.434   01 Jun 2027 14:37:07.356             4.922              Murmansk2           153.812
        56   01 Jun 2027 14:38:27.269   01 Jun 2027 14:38:43.713            16.444              Murmansk1           513.875
        57   01 Jun 2027 14:39:16.895   01 Jun 2027 14:40:06.111            49.216              Murmansk1          1538.000
        58   01 Jun 2027 14:50:32.791   01 Jun 2027 14:51:05.272            32.481                Anadyr1          1015.031
        59   01 Jun 2027 14:53:38.454   01 Jun 2027 14:54:05.063            26.609                Anadyr1           831.531
        60   01 Jun 2027 14:54:53.202   01 Jun 2027 14:55:29.603            36.401                Anadyr2          1137.531
        61   01 Jun 2027 14:56:02.498   01 Jun 2027 14:56:24.258            21.760                Anadyr2           680.000
        62   01 Jun 2027 15:45:08.167   01 Jun 2027 15:47:36.624           148.457               CapeTown          4639.281
        63   01 Jun 2027 16:14:21.664   01 Jun 2027 16:15:29.945            68.281              Murmansk2          2133.781
        64   01 Jun 2027 16:16:21.235   01 Jun 2027 16:16:40.813            19.578              Murmansk2           611.812
        65   01 Jun 2027 16:19:04.203   01 Jun 2027 16:19:19.704            15.501              Murmansk2           484.406
        66   01 Jun 2027 16:25:48.063   01 Jun 2027 16:27:56.396           128.333                Anadyr2          4010.406
        67   01 Jun 2027 16:28:03.198   01 Jun 2027 16:28:07.599             4.401                Anadyr1           137.531
        68   01 Jun 2027 16:29:19.897   01 Jun 2027 16:29:39.975            20.078                Anadyr2           627.437
        69   01 Jun 2027 16:30:18.580   01 Jun 2027 16:30:40.338            21.758               Magadan1           679.937
        70   01 Jun 2027 16:30:56.451   01 Jun 2027 16:32:57.954           121.503               Magadan2          3796.969
        71   01 Jun 2027 17:22:42.070   01 Jun 2027 17:22:51.731             9.661               CapeTown           301.906
        72   01 Jun 2027 18:01:40.296   01 Jun 2027 18:04:01.944           141.648                Anadyr1          4426.500
        73   01 Jun 2027 18:04:02.195   01 Jun 2027 18:05:34.905            92.710                Anadyr2          2897.187
        74   01 Jun 2027 18:05:35.178   01 Jun 2027 18:08:00.486           145.308               Magadan2          4540.875
        75   01 Jun 2027 19:37:34.263   01 Jun 2027 19:41:25.062           230.799                Anadyr2          7212.469
        76   01 Jun 2027 19:41:38.053   01 Jun 2027 19:44:07.257           149.204               Magadan1          4662.625
        77   01 Jun 2027 19:45:07.679   01 Jun 2027 19:45:48.888            41.209               Magadan1          1287.781
        78   01 Jun 2027 19:47:33.648   01 Jun 2027 19:48:46.954            73.306                Irkutsk          2290.812
        79   01 Jun 2027 20:31:55.930   01 Jun 2027 20:35:10.855           194.925            RioGallegos          6091.406
        80   01 Jun 2027 21:15:40.747   01 Jun 2027 21:17:50.135           129.388                Norilsk          4043.375
        81   01 Jun 2027 21:18:07.049   01 Jun 2027 21:18:13.913             6.864               Magadan2           214.500
        82   01 Jun 2027 21:19:19.001   01 Jun 2027 21:20:05.305            46.304                Norilsk          1447.000
        83   01 Jun 2027 21:20:34.119   01 Jun 2027 21:20:39.893             5.774                Norilsk           180.437
        84   01 Jun 2027 21:20:45.562   01 Jun 2027 21:20:48.015             2.453               Magadan2            76.656
        85   01 Jun 2027 21:20:49.527   01 Jun 2027 21:21:11.131            21.604                Norilsk           675.125
        86   01 Jun 2027 21:21:11.619   01 Jun 2027 21:22:26.531            74.912                Novosib          2341.000
        87   01 Jun 2027 21:22:31.784   01 Jun 2027 21:23:15.919            44.135                Irkutsk          1379.219
        88   01 Jun 2027 21:23:51.345   01 Jun 2027 21:24:11.468            20.123                Novosib           628.844
        89   01 Jun 2027 21:24:52.912   01 Jun 2027 21:24:59.287             6.375                Novosib           199.219
        90   01 Jun 2027 21:33:15.342   01 Jun 2027 21:36:13.824           178.482                Sumatra          5577.562
        91   01 Jun 2027 22:47:57.267   01 Jun 2027 22:48:34.549            37.282                Anadyr1          1165.063
        92   01 Jun 2027 22:50:05.018   01 Jun 2027 22:50:33.874            28.856                Anadyr1           901.750
        93   01 Jun 2027 22:51:23.044   01 Jun 2027 22:51:44.917            21.873                Norilsk           683.531
        94   01 Jun 2027 22:52:00.748   01 Jun 2027 22:53:30.529            89.781               Magadan2          2805.656
        95   01 Jun 2027 22:53:30.529   01 Jun 2027 22:53:56.328            25.799               Magadan1           806.219
        96   01 Jun 2027 22:55:15.603   01 Jun 2027 22:56:18.897            63.294                Irkutsk          1977.938
        97   01 Jun 2027 22:56:38.843   01 Jun 2027 22:57:46.194            67.351                Novosib          2104.719
        98   01 Jun 2027 23:00:45.087   01 Jun 2027 23:01:08.474            23.387                Novosib           730.844
        99   01 Jun 2027 23:03:00.934   01 Jun 2027 23:06:30.122           209.188                  Delhi          6537.125
       100   02 Jun 2027 00:21:26.719   02 Jun 2027 00:21:31.877             5.158                Anadyr2           161.187
       101   02 Jun 2027 00:22:06.345   02 Jun 2027 00:23:04.538            58.193                Anadyr1          1818.531
       102   02 Jun 2027 00:25:52.270   02 Jun 2027 00:26:30.663            38.393                Anadyr1          1199.781
       103   02 Jun 2027 00:26:51.666   02 Jun 2027 00:27:06.714            15.048                Anadyr1           470.250
       104   02 Jun 2027 00:27:21.860   02 Jun 2027 00:27:35.226            13.366                Norilsk           417.688
       105   02 Jun 2027 00:27:36.671   02 Jun 2027 00:28:44.109            67.438               Magadan2          2107.437
       106   02 Jun 2027 00:29:01.368   02 Jun 2027 00:30:10.990            69.622               Magadan2          2175.687
       107   02 Jun 2027 00:30:13.333   02 Jun 2027 00:31:54.486           101.153              Murmansk2          3161.031
       108   02 Jun 2027 00:31:54.486   02 Jun 2027 00:32:05.973            11.487              Murmansk1           358.969
       109   02 Jun 2027 00:34:18.597   02 Jun 2027 00:37:22.684           184.087                 Moscow          5752.719
       110   02 Jun 2027 00:50:06.177   02 Jun 2027 00:50:08.291             2.114                  Delhi            66.063
       111   02 Jun 2027 01:54:43.762   02 Jun 2027 01:57:16.154           152.392                Anadyr2          4762.250
       112   02 Jun 2027 01:57:16.154   02 Jun 2027 01:57:25.308             9.154                Anadyr1           286.063
       113   02 Jun 2027 01:57:51.684   02 Jun 2027 01:58:01.672             9.988                Anadyr1           312.125
       114   02 Jun 2027 01:58:59.327   02 Jun 2027 01:59:08.658             9.331                Anadyr2           291.594
       115   02 Jun 2027 01:59:38.676   02 Jun 2027 02:00:56.674            77.998               Magadan2          2437.438
       116   02 Jun 2027 02:00:56.674   02 Jun 2027 02:01:06.050             9.376               Magadan1           293.000
       117   02 Jun 2027 02:02:06.498   02 Jun 2027 02:02:08.167             1.669               Magadan1            52.156
       118   02 Jun 2027 02:02:53.003   02 Jun 2027 02:03:20.201            27.198               Magadan2           849.937
       119   02 Jun 2027 02:04:06.060   02 Jun 2027 02:04:41.477            35.417               Magadan2          1106.781
       120   02 Jun 2027 02:05:29.814   02 Jun 2027 02:06:46.631            76.817              Murmansk1          2400.531
       121   02 Jun 2027 02:06:46.631   02 Jun 2027 02:06:59.933            13.302              Murmansk2           415.688
       122   02 Jun 2027 02:08:49.608   02 Jun 2027 02:09:31.298            41.690                 Moscow          1302.812
       123   02 Jun 2027 02:12:02.267   02 Jun 2027 02:12:28.279            26.012                Novosib           812.875
       124   02 Jun 2027 02:14:49.785   02 Jun 2027 02:15:00.202            10.417                 Moscow           325.531
       125   02 Jun 2027 02:16:18.842   02 Jun 2027 02:16:37.902            19.060                 Moscow           595.625
       126   02 Jun 2027 02:19:54.153   02 Jun 2027 02:20:39.160            45.007                 Moscow          1406.469
       127   02 Jun 2027 02:35:47.189   02 Jun 2027 02:36:26.977            39.788               CapeTown          1243.375
       128   02 Jun 2027 02:41:05.257   02 Jun 2027 02:41:54.931            49.674               CapeTown          1552.313
       129   02 Jun 2027 03:36:56.203   02 Jun 2027 03:37:05.064             8.861               Magadan1           276.906
       130   02 Jun 2027 03:37:05.064   02 Jun 2027 03:37:45.226            40.162               Magadan2          1255.062
       131   02 Jun 2027 03:37:45.226   02 Jun 2027 03:37:53.566             8.340               Magadan1           260.625
       132   02 Jun 2027 03:38:31.115   02 Jun 2027 03:38:57.097            25.982               Magadan1           811.938
       133   02 Jun 2027 03:49:01.792   02 Jun 2027 03:49:04.589             2.797                Norilsk            87.406
       134   02 Jun 2027 05:12:13.283   02 Jun 2027 05:12:30.294            17.011               Magadan2           531.594
       135   02 Jun 2027 05:12:40.202   02 Jun 2027 05:16:16.170           215.968                Anadyr2          6749.000
       136   02 Jun 2027 06:48:45.117   02 Jun 2027 06:49:03.415            18.298               Magadan2           571.812
       137   02 Jun 2027 06:49:03.415   02 Jun 2027 06:50:57.978           114.563               Magadan1          3580.094
       138   02 Jun 2027 06:51:03.772   02 Jun 2027 06:51:21.856            18.084               Magadan2           565.125
       139   02 Jun 2027 06:51:29.126   02 Jun 2027 06:53:29.615           120.489                Anadyr1          3765.281
       140   02 Jun 2027 06:53:44.194   02 Jun 2027 06:53:45.001             0.807               Magadan1            25.219
       141   02 Jun 2027 07:37:33.615   02 Jun 2027 07:37:59.680            26.065            RioGallegos           814.531
       142   02 Jun 2027 08:23:39.138   02 Jun 2027 08:25:33.998           114.860                Irkutsk          3589.375
       143   02 Jun 2027 08:26:14.356   02 Jun 2027 08:26:36.062            21.706                Irkutsk           678.312
       144   02 Jun 2027 08:26:53.924   02 Jun 2027 08:28:12.481            78.557               Magadan1          2454.906
       145   02 Jun 2027 08:28:14.410   02 Jun 2027 08:28:31.853            17.443              Murmansk1           545.094
       146   02 Jun 2027 08:28:39.488   02 Jun 2027 08:29:45.949            66.461              Murmansk1          2076.906
       147   02 Jun 2027 08:30:34.628   02 Jun 2027 08:31:10.594            35.966              Murmansk2          1123.938
       148   02 Jun 2027 09:04:17.437   02 Jun 2027 09:05:25.213            67.776            RioGallegos          2118.000
       149   02 Jun 2027 09:39:11.733   02 Jun 2027 09:40:01.206            49.473                Sumatra          1546.031
       150   02 Jun 2027 09:42:31.210   02 Jun 2027 09:42:34.537             3.327                Sumatra           103.969
       151   02 Jun 2027 09:52:24.942   02 Jun 2027 09:52:59.093            34.151                  Delhi          1067.219
       152   02 Jun 2027 09:58:21.516   02 Jun 2027 09:58:47.248            25.732                  Delhi           804.125
       153   02 Jun 2027 09:59:49.896   02 Jun 2027 10:00:54.813            64.917                Norilsk          2028.656
       154   02 Jun 2027 10:01:03.736   02 Jun 2027 10:01:24.492            20.756                Novosib           648.625
       155   02 Jun 2027 10:01:39.759   02 Jun 2027 10:01:39.921             0.162                Irkutsk             5.062
       156   02 Jun 2027 10:01:40.620   02 Jun 2027 10:02:21.665            41.045              Murmansk2          1282.656
       157   02 Jun 2027 10:02:29.968   02 Jun 2027 10:03:15.190            45.222              Murmansk2          1413.187
       158   02 Jun 2027 10:03:18.478   02 Jun 2027 10:04:18.373            59.895                 Moscow          1871.719
       159   02 Jun 2027 10:04:37.860   02 Jun 2027 10:05:21.405            43.545                Irkutsk          1360.781
       160   02 Jun 2027 10:07:56.050   02 Jun 2027 10:08:11.250            15.200              Murmansk2           475.000
       161   02 Jun 2027 10:43:26.056   02 Jun 2027 10:43:44.722            18.666            RioGallegos           583.313
       162   02 Jun 2027 10:44:33.594   02 Jun 2027 10:45:05.518            31.924            RioGallegos           997.625
       163   02 Jun 2027 10:47:28.004   02 Jun 2027 10:47:58.451            30.447            RioGallegos           951.469
       164   02 Jun 2027 11:18:06.666   02 Jun 2027 11:19:10.662            63.996                Sumatra          1999.875
       165   02 Jun 2027 11:29:08.153   02 Jun 2027 11:29:37.754            29.601                  Delhi           925.031
       166   02 Jun 2027 11:37:24.137   02 Jun 2027 11:37:36.688            12.551              Murmansk2           392.219
       167   02 Jun 2027 11:37:43.858   02 Jun 2027 11:38:40.587            56.729              Murmansk2          1772.781
       168   02 Jun 2027 11:38:47.570   02 Jun 2027 11:40:09.434            81.864                 Moscow          2558.250
       169   02 Jun 2027 11:40:17.033   02 Jun 2027 11:40:25.225             8.192                Novosib           256.000
       170   02 Jun 2027 11:40:31.636   02 Jun 2027 11:41:40.054            68.418                 Moscow          2138.062
       171   02 Jun 2027 13:05:01.283   02 Jun 2027 13:06:53.225           111.942                  Delhi          3498.187
       172   02 Jun 2027 13:08:56.393   02 Jun 2027 13:10:52.815           116.422                 Moscow          3638.188
       173   02 Jun 2027 13:11:09.056   02 Jun 2027 13:13:18.662           129.606              Murmansk1          4050.188
       174   02 Jun 2027 13:13:39.387   02 Jun 2027 13:14:30.609            51.222              Murmansk2          1600.688
       175   02 Jun 2027 13:20:50.995   02 Jun 2027 13:21:37.931            46.936                Norilsk          1466.750
       176   02 Jun 2027 14:23:36.594   02 Jun 2027 14:25:44.511           127.917               CapeTown          3997.406
       177   02 Jun 2027 14:27:58.356   02 Jun 2027 14:29:10.102            71.746               CapeTown          2242.062
       178   02 Jun 2027 14:47:57.235   02 Jun 2027 14:49:01.794            64.559              Murmansk2          2017.469
       179   02 Jun 2027 14:50:28.950   02 Jun 2027 14:52:25.239           116.289              Murmansk1          3634.031
       180   02 Jun 2027 15:02:23.576   02 Jun 2027 15:03:06.393            42.817                Anadyr2          1338.031
       181   02 Jun 2027 15:04:03.567   02 Jun 2027 15:05:20.489            76.922                Anadyr1          2403.812
       182   02 Jun 2027 15:59:25.108   02 Jun 2027 15:59:47.057            21.949               CapeTown           685.906
       183   02 Jun 2027 16:01:37.689   02 Jun 2027 16:01:47.623             9.934               CapeTown           310.437
       184   02 Jun 2027 16:05:37.239   02 Jun 2027 16:05:54.375            17.136               CapeTown           535.500
       185   02 Jun 2027 16:06:42.756   02 Jun 2027 16:06:47.326             4.570               CapeTown           142.813
       186   02 Jun 2027 16:07:04.273   02 Jun 2027 16:08:35.833            91.560               CapeTown          2861.250
       187   02 Jun 2027 16:26:54.800   02 Jun 2027 16:28:22.318            87.518              Murmansk2          2734.937
       188   02 Jun 2027 16:37:48.171   02 Jun 2027 16:39:06.132            77.961                Anadyr1          2436.281
       189   02 Jun 2027 16:39:20.575   02 Jun 2027 16:39:54.023            33.448                Anadyr2          1045.250
       190   02 Jun 2027 16:40:56.141   02 Jun 2027 16:41:02.691             6.550                Anadyr1           204.687
       191   02 Jun 2027 16:41:40.279   02 Jun 2027 16:44:33.997           173.718               Magadan2          5428.688
       192   02 Jun 2027 16:45:33.257   02 Jun 2027 16:45:42.879             9.622               Magadan2           300.688
       193   02 Jun 2027 16:47:28.065   02 Jun 2027 16:47:55.027            26.962               Magadan2           842.562
       194   02 Jun 2027 18:13:41.783   02 Jun 2027 18:16:02.355           140.572                Anadyr2          4392.875
       195   02 Jun 2027 18:16:06.746   02 Jun 2027 18:19:48.839           222.093               Magadan1          6940.406
       196   02 Jun 2027 18:27:55.803   02 Jun 2027 18:27:56.977             1.174               Magadan2            36.688
       197   02 Jun 2027 19:49:34.568   02 Jun 2027 19:53:24.318           229.750                Anadyr2          7179.688
       198   02 Jun 2027 19:53:29.878   02 Jun 2027 19:55:34.752           124.874                Norilsk          3902.313
       199   02 Jun 2027 19:56:59.750   02 Jun 2027 19:57:22.430            22.680               Magadan1           708.750
       200   02 Jun 2027 19:57:53.782   02 Jun 2027 19:58:19.729            25.947                Irkutsk           810.844
       201   02 Jun 2027 19:59:22.755   02 Jun 2027 20:01:07.997           105.242                Irkutsk          3288.812
       202   02 Jun 2027 20:01:59.522   02 Jun 2027 20:03:11.183            71.661                Irkutsk          2239.406
       203   02 Jun 2027 20:49:44.976   02 Jun 2027 20:49:50.580             5.604            RioGallegos           175.125
       204   02 Jun 2027 20:52:49.774   02 Jun 2027 20:53:16.664            26.890            RioGallegos           840.313
       205   02 Jun 2027 21:25:03.717   02 Jun 2027 21:25:06.433             2.716                Anadyr2            84.875
       206   02 Jun 2027 21:25:11.813   02 Jun 2027 21:25:18.462             6.649                Anadyr2           207.781
       207   02 Jun 2027 21:25:26.373   02 Jun 2027 21:27:20.283           113.910                Anadyr2          3559.687
       208   02 Jun 2027 21:27:40.110   02 Jun 2027 21:28:06.336            26.226                Norilsk           819.562
       209   02 Jun 2027 21:28:29.304   02 Jun 2027 21:29:24.640            55.336               Magadan1          1729.250
       210   02 Jun 2027 21:30:28.597   02 Jun 2027 21:30:59.040            30.443               Magadan1           951.344
       211   02 Jun 2027 21:32:09.822   02 Jun 2027 21:32:55.241            45.419                Irkutsk          1419.344
       212   02 Jun 2027 21:33:00.040   02 Jun 2027 21:34:10.911            70.871                Novosib          2214.719
       213   02 Jun 2027 21:35:51.757   02 Jun 2027 21:36:06.421            14.664                Novosib           458.250
       214   02 Jun 2027 21:36:28.895   02 Jun 2027 21:36:59.275            30.380                Novosib           949.375
       215   02 Jun 2027 21:45:09.561   02 Jun 2027 21:46:29.219            79.658                Sumatra          2489.312
       216   02 Jun 2027 21:53:41.176   02 Jun 2027 21:54:05.696            24.520                Sumatra           766.250
       217   02 Jun 2027 22:59:33.018   02 Jun 2027 22:59:56.968            23.950                Anadyr1           748.437
       218   02 Jun 2027 23:00:21.155   02 Jun 2027 23:01:31.429            70.274                Anadyr2          2196.062
       219   02 Jun 2027 23:03:25.083   02 Jun 2027 23:03:41.087            16.004                Norilsk           500.125
       220   02 Jun 2027 23:04:02.239   02 Jun 2027 23:05:32.774            90.535               Magadan1          2829.219
       221   02 Jun 2027 23:05:43.299   02 Jun 2027 23:06:21.853            38.554               Magadan2          1204.813
       222   02 Jun 2027 23:07:18.563   02 Jun 2027 23:07:46.474            27.911                Novosib           872.219
       223   02 Jun 2027 23:08:48.435   02 Jun 2027 23:09:37.926            49.491                Novosib          1546.594
       224   02 Jun 2027 23:14:49.257   02 Jun 2027 23:15:57.084            67.827                  Delhi          2119.594
       225   02 Jun 2027 23:16:57.868   02 Jun 2027 23:17:56.254            58.386                  Delhi          1824.563
       226   02 Jun 2027 23:22:58.489   02 Jun 2027 23:24:17.458            78.969                  Delhi          2467.781
       227   03 Jun 2027 00:32:57.286   03 Jun 2027 00:33:07.649            10.363                Anadyr2           323.844
       228   03 Jun 2027 00:35:11.762   03 Jun 2027 00:35:31.010            19.248                Anadyr1           601.500
       229   03 Jun 2027 00:35:44.531   03 Jun 2027 00:36:17.729            33.198                Anadyr2          1037.438
       230   03 Jun 2027 00:38:32.001   03 Jun 2027 00:38:47.850            15.849                Anadyr2           495.281
       231   03 Jun 2027 00:39:07.114   03 Jun 2027 00:41:40.235           153.121               Magadan2          4785.031
       232   03 Jun 2027 00:41:40.818   03 Jun 2027 00:44:24.482           163.664              Murmansk2          5114.500
       233   03 Jun 2027 00:45:57.264   03 Jun 2027 00:47:17.525            80.261                 Moscow          2508.156
       234   03 Jun 2027 01:01:29.298   03 Jun 2027 01:01:37.084             7.786                  Delhi           243.312
       235   03 Jun 2027 01:14:15.378   03 Jun 2027 01:15:10.390            55.012               CapeTown          1719.125
       236   03 Jun 2027 01:15:59.714   03 Jun 2027 01:16:38.442            38.728               CapeTown          1210.250
       237   03 Jun 2027 01:17:35.611   03 Jun 2027 01:18:29.258            53.647               CapeTown          1676.469
       238   03 Jun 2027 02:06:30.546   03 Jun 2027 02:06:47.386            16.840                Anadyr2           526.250
       239   03 Jun 2027 02:09:14.932   03 Jun 2027 02:09:35.130            20.198                Anadyr2           631.188
       240   03 Jun 2027 02:11:06.685   03 Jun 2027 02:12:06.626            59.941               Magadan1          1873.156
       241   03 Jun 2027 02:12:26.647   03 Jun 2027 02:12:58.261            31.614               Magadan1           987.938
       242   03 Jun 2027 02:15:06.591   03 Jun 2027 02:15:09.797             3.206                Norilsk           100.188
       243   03 Jun 2027 02:15:45.012   03 Jun 2027 02:16:19.748            34.736                Norilsk          1085.500
       244   03 Jun 2027 02:17:31.452   03 Jun 2027 02:18:01.492            30.040              Murmansk1           938.750
       245   03 Jun 2027 02:18:33.721   03 Jun 2027 02:20:10.439            96.718              Murmansk2          3022.438
       246   03 Jun 2027 02:24:27.048   03 Jun 2027 02:24:41.471            14.423                 Moscow           450.719
       247   03 Jun 2027 02:28:10.349   03 Jun 2027 02:28:40.152            29.803                 Moscow           931.344
       248   03 Jun 2027 02:32:34.032   03 Jun 2027 02:33:32.732            58.700                 Moscow          1834.375
       249   03 Jun 2027 02:52:04.199   03 Jun 2027 02:52:58.055            53.856               CapeTown          1683.000
       250   03 Jun 2027 03:48:09.128   03 Jun 2027 03:48:12.048             2.920               Magadan2            91.250
       251   03 Jun 2027 03:48:37.292   03 Jun 2027 03:49:32.214            54.922                Anadyr1          1716.313
       252   03 Jun 2027 03:49:33.125   03 Jun 2027 03:50:35.271            62.146               Magadan1          1942.062
       253   03 Jun 2027 03:51:08.795   03 Jun 2027 03:52:30.813            82.018                Anadyr1          2563.063
       254   03 Jun 2027 04:00:36.900   03 Jun 2027 04:00:54.129            17.229                Norilsk           538.406
       255   03 Jun 2027 05:24:41.902   03 Jun 2027 05:27:16.696           154.794                Anadyr1          4837.312
       256   03 Jun 2027 05:27:20.234   03 Jun 2027 05:28:00.298            40.064               Magadan1          1252.000
       257   03 Jun 2027 05:28:12.563   03 Jun 2027 05:28:13.809             1.246                Anadyr1            38.938
       258   03 Jun 2027 06:57:08.754   03 Jun 2027 06:58:26.845            78.091               Magadan1          2440.344
       259   03 Jun 2027 06:58:54.907   03 Jun 2027 07:00:35.056           100.149                Anadyr1          3129.656
       260   03 Jun 2027 07:00:37.239   03 Jun 2027 07:01:14.917            37.678                Irkutsk          1177.437
       261   03 Jun 2027 07:01:18.669   03 Jun 2027 07:01:53.880            35.211                Anadyr1          1100.344
       262   03 Jun 2027 07:01:58.911   03 Jun 2027 07:02:18.771            19.860               Magadan1           620.625
       263   03 Jun 2027 07:02:36.922   03 Jun 2027 07:02:42.477             5.555                Anadyr1           173.594
       264   03 Jun 2027 07:02:42.944   03 Jun 2027 07:03:41.895            58.951                Anadyr1          1842.219
       265   03 Jun 2027 07:03:48.388   03 Jun 2027 07:04:59.866            71.478                Irkutsk          2233.688
       266   03 Jun 2027 07:05:09.448   03 Jun 2027 07:06:07.814            58.366                Norilsk          1823.937
       267   03 Jun 2027 07:06:11.680   03 Jun 2027 07:06:57.308            45.628              Murmansk1          1425.875
       268   03 Jun 2027 07:41:02.914   03 Jun 2027 07:41:54.139            51.225            RioGallegos          1600.781
       269   03 Jun 2027 08:20:13.310   03 Jun 2027 08:20:43.998            30.688                Sumatra           959.000
       270   03 Jun 2027 08:34:32.018   03 Jun 2027 08:35:02.735            30.717               Magadan1           959.906
       271   03 Jun 2027 08:35:05.646   03 Jun 2027 08:35:13.690             8.044                Irkutsk           251.375
       272   03 Jun 2027 08:35:18.747   03 Jun 2027 08:35:37.451            18.704                Novosib           584.500
       273   03 Jun 2027 08:35:53.130   03 Jun 2027 08:36:06.880            13.750                Norilsk           429.687
       274   03 Jun 2027 08:36:09.874   03 Jun 2027 08:37:06.041            56.167               Magadan1          1755.219
       275   03 Jun 2027 08:37:12.038   03 Jun 2027 08:37:58.295            46.257               Magadan2          1445.531
       276   03 Jun 2027 08:38:06.788   03 Jun 2027 08:38:28.663            21.875                Irkutsk           683.594
       277   03 Jun 2027 08:38:32.095   03 Jun 2027 08:39:20.382            48.287                Irkutsk          1508.969
       278   03 Jun 2027 08:39:21.631   03 Jun 2027 08:39:44.135            22.504              Murmansk1           703.250
       279   03 Jun 2027 08:39:54.111   03 Jun 2027 08:40:42.764            48.653                Irkutsk          1520.406
       280   03 Jun 2027 08:40:54.268   03 Jun 2027 08:41:03.380             9.112                Norilsk           284.750
       281   03 Jun 2027 08:41:08.141   03 Jun 2027 08:41:42.323            34.182              Murmansk1          1068.188
       282   03 Jun 2027 08:42:27.032   03 Jun 2027 08:42:58.381            31.349              Murmansk2           979.656
       283   03 Jun 2027 08:45:29.912   03 Jun 2027 08:45:38.556             8.644              Murmansk1           270.125
       284   03 Jun 2027 09:16:26.521   03 Jun 2027 09:17:16.724            50.203            RioGallegos          1568.844
       285   03 Jun 2027 09:51:08.796   03 Jun 2027 09:51:56.004            47.208                Sumatra          1475.250
       286   03 Jun 2027 09:53:30.496   03 Jun 2027 09:54:02.874            32.378                Sumatra          1011.812
       287   03 Jun 2027 10:01:26.631   03 Jun 2027 10:01:49.184            22.553                  Delhi           704.781
       288   03 Jun 2027 10:02:34.488   03 Jun 2027 10:02:39.440             4.952                  Delhi           154.750
       289   03 Jun 2027 10:06:08.160   03 Jun 2027 10:06:38.562            30.402                  Delhi           950.063
       290   03 Jun 2027 10:11:31.692   03 Jun 2027 10:11:46.789            15.097                Norilsk           471.781
       291   03 Jun 2027 10:11:58.290   03 Jun 2027 10:12:05.683             7.393                Irkutsk           231.031
       292   03 Jun 2027 10:12:21.797   03 Jun 2027 10:13:10.781            48.984                Novosib          1530.750
       293   03 Jun 2027 10:13:11.506   03 Jun 2027 10:13:38.664            27.158                Irkutsk           848.687
       294   03 Jun 2027 10:13:47.655   03 Jun 2027 10:14:37.178            49.523                Irkutsk          1547.594
       295   03 Jun 2027 10:14:48.444   03 Jun 2027 10:14:52.813             4.369                Novosib           136.531
       296   03 Jun 2027 10:14:53.154   03 Jun 2027 10:15:21.367            28.213                Norilsk           881.656
       297   03 Jun 2027 10:15:23.399   03 Jun 2027 10:15:28.738             5.339                Norilsk           166.844
       298   03 Jun 2027 10:15:30.128   03 Jun 2027 10:15:48.993            18.865                Novosib           589.531
       299   03 Jun 2027 10:15:56.834   03 Jun 2027 10:16:42.665            45.831              Murmansk2          1432.219
       300   03 Jun 2027 10:16:47.062   03 Jun 2027 10:17:03.183            16.121              Murmansk2           503.781
       301   03 Jun 2027 10:17:15.524   03 Jun 2027 10:17:36.350            20.826              Murmansk1           650.813
       302   03 Jun 2027 10:17:56.224   03 Jun 2027 10:18:27.897            31.673                Norilsk           989.781
       303   03 Jun 2027 10:18:53.256   03 Jun 2027 10:19:29.561            36.305              Murmansk2          1134.531
       304   03 Jun 2027 10:56:58.560   03 Jun 2027 10:57:42.401            43.841            RioGallegos          1370.031
       305   03 Jun 2027 11:35:26.202   03 Jun 2027 11:35:31.564             5.362                  Delhi           167.563
       306   03 Jun 2027 11:37:07.887   03 Jun 2027 11:37:36.603            28.716                  Delhi           897.375
       307   03 Jun 2027 11:38:28.497   03 Jun 2027 11:39:58.733            90.236                  Delhi          2819.875
       308   03 Jun 2027 11:49:29.861   03 Jun 2027 11:49:56.876            27.015                Novosib           844.219
       309   03 Jun 2027 11:50:02.383   03 Jun 2027 11:50:25.668            23.285                 Moscow           727.656
       310   03 Jun 2027 11:50:29.567   03 Jun 2027 11:50:44.117            14.550              Murmansk1           454.688
       311   03 Jun 2027 11:50:47.439   03 Jun 2027 11:51:14.734            27.295              Murmansk2           852.969
       312   03 Jun 2027 11:51:14.734   03 Jun 2027 11:51:22.826             8.092              Murmansk1           252.875
       313   03 Jun 2027 11:51:27.350   03 Jun 2027 11:51:57.719            30.369                Novosib           949.031
       314   03 Jun 2027 11:51:59.671   03 Jun 2027 11:52:03.277             3.606                 Moscow           112.687
       315   03 Jun 2027 11:52:09.062   03 Jun 2027 11:52:30.899            21.837                Norilsk           682.406
       316   03 Jun 2027 11:52:47.243   03 Jun 2027 11:53:49.264            62.021              Murmansk2          1938.156
       317   03 Jun 2027 13:19:45.255   03 Jun 2027 13:23:43.323           238.068                 Moscow          7439.625
       318   03 Jun 2027 13:24:01.210   03 Jun 2027 13:26:30.250           149.040              Murmansk2          4657.500
       319   03 Jun 2027 13:27:07.626   03 Jun 2027 13:28:14.730            67.104                Norilsk          2097.000
       320   03 Jun 2027 13:29:38.827   03 Jun 2027 13:30:32.400            53.573                Norilsk          1674.156
       321   03 Jun 2027 13:35:05.754   03 Jun 2027 13:36:07.956            62.202              Murmansk2          1943.812
       322   03 Jun 2027 14:34:24.821   03 Jun 2027 14:35:29.015            64.194               CapeTown          2006.063
       323   03 Jun 2027 14:35:59.733   03 Jun 2027 14:37:25.061            85.328               CapeTown          2666.500
       324   03 Jun 2027 14:39:47.735   03 Jun 2027 14:40:09.196            21.461               CapeTown           670.656
       325   03 Jun 2027 15:00:13.479   03 Jun 2027 15:01:22.816            69.337              Murmansk1          2166.781
       326   03 Jun 2027 15:02:30.522   03 Jun 2027 15:02:46.470            15.948              Murmansk2           498.375
       327   03 Jun 2027 15:02:52.414   03 Jun 2027 15:04:27.154            94.740              Murmansk2          2960.625
       328   03 Jun 2027 15:14:16.917   03 Jun 2027 15:17:09.308           172.391                Anadyr2          5387.219
       329   03 Jun 2027 15:23:35.489   03 Jun 2027 15:23:40.620             5.131                Anadyr2           160.344
       330   03 Jun 2027 16:19:18.169   03 Jun 2027 16:20:48.143            89.974               CapeTown          2811.687
       331   03 Jun 2027 16:39:31.126   03 Jun 2027 16:40:12.321            41.195              Murmansk2          1287.344
       332   03 Jun 2027 16:40:44.898   03 Jun 2027 16:41:26.817            41.919              Murmansk1          1309.969
       333   03 Jun 2027 16:49:48.647   03 Jun 2027 16:52:10.341           141.694                Anadyr2          4427.937
       334   03 Jun 2027 16:53:16.750   03 Jun 2027 16:54:34.593            77.843               Magadan2          2432.594
       335   03 Jun 2027 16:55:28.633   03 Jun 2027 16:56:19.706            51.073               Magadan1          1596.031
       336   03 Jun 2027 16:57:44.679   03 Jun 2027 16:59:11.257            86.578               Magadan2          2705.562
       337   03 Jun 2027 18:25:43.257   03 Jun 2027 18:28:17.335           154.078                Anadyr2          4814.938
       338   03 Jun 2027 18:28:37.830   03 Jun 2027 18:30:21.365           103.535               Magadan2          3235.469
       339   03 Jun 2027 18:30:34.248   03 Jun 2027 18:30:41.541             7.293               Magadan1           227.906
       340   03 Jun 2027 18:35:03.648   03 Jun 2027 18:35:57.608            53.960               Magadan1          1686.250
       341   03 Jun 2027 20:01:34.529   03 Jun 2027 20:03:36.378           121.849                Anadyr1          3807.781
       342   03 Jun 2027 20:03:49.727   03 Jun 2027 20:07:23.281           213.554                Norilsk          6673.563
       343   03 Jun 2027 20:07:47.167   03 Jun 2027 20:08:48.281            61.114               Magadan1          1909.812
       344   03 Jun 2027 20:08:52.402   03 Jun 2027 20:10:06.616            74.214                Norilsk          2319.187
       345   03 Jun 2027 20:11:56.466   03 Jun 2027 20:12:37.549            41.083                Irkutsk          1283.844
       346   03 Jun 2027 20:13:12.203   03 Jun 2027 20:13:26.121            13.918                Irkutsk           434.937
       347   03 Jun 2027 20:13:59.194   03 Jun 2027 20:14:58.692            59.498                Irkutsk          1859.313
       348   03 Jun 2027 20:15:51.968   03 Jun 2027 20:16:23.411            31.443                Irkutsk           982.594
       349   03 Jun 2027 20:25:09.515   03 Jun 2027 20:26:31.012            81.497                Sumatra          2546.781
       350   03 Jun 2027 20:28:05.358   03 Jun 2027 20:29:24.878            79.520                Sumatra          2485.000
       351   03 Jun 2027 21:39:27.589   03 Jun 2027 21:40:06.564            38.975                Norilsk          1217.969
       352   03 Jun 2027 21:40:21.803   03 Jun 2027 21:40:45.708            23.905                Norilsk           747.031
       353   03 Jun 2027 21:43:26.009   03 Jun 2027 21:44:54.686            88.677                Irkutsk          2771.156
       354   03 Jun 2027 21:47:09.429   03 Jun 2027 21:47:49.354            39.925                Novosib          1247.656
       355   03 Jun 2027 21:49:05.914   03 Jun 2027 21:51:03.880           117.966                Novosib          3686.437
       356   03 Jun 2027 21:57:23.130   03 Jun 2027 21:57:28.894             5.764                Sumatra           180.125
       357   03 Jun 2027 22:04:44.037   03 Jun 2027 22:05:08.024            23.987                Sumatra           749.594
       358   03 Jun 2027 23:11:18.021   03 Jun 2027 23:11:57.633            39.612                Anadyr1          1237.875
       359   03 Jun 2027 23:12:09.023   03 Jun 2027 23:13:28.434            79.411                Anadyr2          2481.594
       360   03 Jun 2027 23:15:27.101   03 Jun 2027 23:15:41.779            14.678                Norilsk           458.687
       361   03 Jun 2027 23:16:03.140   03 Jun 2027 23:17:16.432            73.292               Magadan1          2290.375
       362   03 Jun 2027 23:18:54.301   03 Jun 2027 23:20:09.275            74.974              Murmansk2          2342.937
       363   03 Jun 2027 23:20:54.425   03 Jun 2027 23:21:04.363             9.938                Novosib           310.562
       364   03 Jun 2027 23:21:24.830   03 Jun 2027 23:22:03.996            39.166              Murmansk1          1223.937
       365   03 Jun 2027 23:26:41.805   03 Jun 2027 23:27:49.048            67.243                  Delhi          2101.344
       366   03 Jun 2027 23:29:38.857   03 Jun 2027 23:29:46.304             7.447                  Delhi           232.719
       367   03 Jun 2027 23:30:29.800   03 Jun 2027 23:30:47.351            17.551                  Delhi           548.469
       368   03 Jun 2027 23:32:35.743   03 Jun 2027 23:32:44.084             8.341                  Delhi           260.656
       369   03 Jun 2027 23:33:40.496   03 Jun 2027 23:34:08.235            27.739                  Delhi           866.844
       370   03 Jun 2027 23:34:58.264   03 Jun 2027 23:35:56.835            58.571                  Delhi          1830.344
       371   04 Jun 2027 00:44:38.499   04 Jun 2027 00:45:09.765            31.266                Anadyr2           977.062
       372   04 Jun 2027 00:46:08.687   04 Jun 2027 00:47:12.544            63.857                Anadyr2          1995.531
       373   04 Jun 2027 00:50:15.726   04 Jun 2027 00:50:29.280            13.554                Anadyr2           423.563
       374   04 Jun 2027 00:50:33.335   04 Jun 2027 00:50:55.499            22.164                Anadyr2           692.625
       375   04 Jun 2027 00:51:14.909   04 Jun 2027 00:54:31.638           196.729               Magadan2          6147.781
       376   04 Jun 2027 00:56:23.381   04 Jun 2027 00:57:33.501            70.120                Irkutsk          2191.250
       377   04 Jun 2027 00:57:41.851   04 Jun 2027 00:58:08.450            26.599                 Moscow           831.219
       378   04 Jun 2027 01:01:35.681   04 Jun 2027 01:01:55.217            19.536                 Moscow           610.500
       379   04 Jun 2027 01:09:38.153   04 Jun 2027 01:09:46.692             8.539                  Delhi           266.844
       380   04 Jun 2027 01:10:33.502   04 Jun 2027 01:12:46.728           133.226                  Delhi          4163.312
       381   04 Jun 2027 02:18:18.617   04 Jun 2027 02:18:36.907            18.290                Anadyr2           571.563
       382   04 Jun 2027 02:19:06.460   04 Jun 2027 02:19:50.699            44.239                Anadyr1          1382.469
       383   04 Jun 2027 02:20:56.689   04 Jun 2027 02:21:12.977            16.288                Anadyr2           509.000
       384   04 Jun 2027 02:22:35.200   04 Jun 2027 02:23:55.550            80.350               Magadan1          2510.937
       385   04 Jun 2027 02:27:04.701   04 Jun 2027 02:27:38.227            33.526                Norilsk          1047.688
       386   04 Jun 2027 02:29:33.186   04 Jun 2027 02:31:12.000            98.814              Murmansk2          3087.938
       387   04 Jun 2027 02:31:58.834   04 Jun 2027 02:32:35.558            36.724                Novosib          1147.625
       388   04 Jun 2027 02:37:09.640   04 Jun 2027 02:37:25.851            16.211                Novosib           506.594
       389   04 Jun 2027 02:41:30.591   04 Jun 2027 02:41:41.723            11.132                 Moscow           347.875
       390   04 Jun 2027 02:43:44.045   04 Jun 2027 02:43:58.020            13.975                 Moscow           436.719
       391   04 Jun 2027 02:44:43.793   04 Jun 2027 02:44:54.246            10.453                 Moscow           326.656
       392   04 Jun 2027 02:56:42.870   04 Jun 2027 02:57:27.444            44.574               CapeTown          1392.937
       393   04 Jun 2027 03:04:47.315   04 Jun 2027 03:05:20.081            32.766               CapeTown          1023.937
       394   04 Jun 2027 04:00:38.520   04 Jun 2027 04:01:22.482            43.962                Anadyr2          1373.813
       395   04 Jun 2027 04:01:23.142   04 Jun 2027 04:01:33.745            10.603               Magadan2           331.344
       396   04 Jun 2027 04:01:36.851   04 Jun 2027 04:01:49.295            12.444                Anadyr1           388.875
       397   04 Jun 2027 04:03:56.445   04 Jun 2027 04:04:11.793            15.348               Magadan2           479.625
       398   04 Jun 2027 04:05:29.599   04 Jun 2027 04:05:53.373            23.774               Magadan1           742.938
       399   04 Jun 2027 05:36:15.157   04 Jun 2027 05:37:11.587            56.430               Magadan2          1763.438
       400   04 Jun 2027 05:37:14.135   04 Jun 2027 05:38:15.836            61.701                Anadyr2          1928.156
       401   04 Jun 2027 05:38:22.947   04 Jun 2027 05:38:48.183            25.236                Anadyr1           788.625
       402   04 Jun 2027 05:39:15.074   04 Jun 2027 05:40:07.555            52.481                Anadyr1          1640.031
       403   04 Jun 2027 05:40:07.555   04 Jun 2027 05:40:45.176            37.621                Anadyr2          1175.656
       404   04 Jun 2027 05:41:39.784   04 Jun 2027 05:42:09.102            29.318                Anadyr1           916.188
       405   04 Jun 2027 06:23:40.534   04 Jun 2027 06:25:04.690            84.156            RioGallegos          2629.875
       406   04 Jun 2027 07:08:32.722   04 Jun 2027 07:09:04.940            32.218               Magadan1          1006.813
       407   04 Jun 2027 07:09:21.443   04 Jun 2027 07:10:14.599            53.156               Magadan2          1661.125
       408   04 Jun 2027 07:10:41.548   04 Jun 2027 07:11:09.957            28.409               Magadan1           887.781
       409   04 Jun 2027 07:11:24.183   04 Jun 2027 07:11:28.977             4.794                Irkutsk           149.812
       410   04 Jun 2027 07:11:41.661   04 Jun 2027 07:11:48.411             6.750                Irkutsk           210.938
       411   04 Jun 2027 07:11:50.847   04 Jun 2027 07:11:55.482             4.635               Magadan1           144.844
       412   04 Jun 2027 07:12:11.787   04 Jun 2027 07:12:20.552             8.765               Magadan2           273.906
       413   04 Jun 2027 07:12:24.556   04 Jun 2027 07:13:58.560            94.004               Magadan1          2937.625
       414   04 Jun 2027 07:14:21.788   04 Jun 2027 07:14:50.045            28.257               Magadan2           883.031
       415   04 Jun 2027 07:15:05.082   04 Jun 2027 07:15:25.921            20.839               Magadan2           651.219
       416   04 Jun 2027 07:15:37.997   04 Jun 2027 07:15:38.747             0.750                Norilsk            23.438
       417   04 Jun 2027 07:15:40.542   04 Jun 2027 07:16:05.532            24.990               Magadan1           780.937
       418   04 Jun 2027 07:16:11.562   04 Jun 2027 07:16:12.249             0.687               Magadan2            21.469
       419   04 Jun 2027 07:16:13.484   04 Jun 2027 07:16:40.796            27.312                Anadyr2           853.500
       420   04 Jun 2027 07:16:42.163   04 Jun 2027 07:17:41.339            59.176               Magadan1          1849.250
       421   04 Jun 2027 07:19:12.979   04 Jun 2027 07:20:06.269            53.290              Murmansk1          1665.313
       422   04 Jun 2027 07:52:55.226   04 Jun 2027 07:53:23.354            28.128            RioGallegos           879.000
       423   04 Jun 2027 08:30:26.105   04 Jun 2027 08:32:14.853           108.748                Sumatra          3398.375
       424   04 Jun 2027 08:46:45.386   04 Jun 2027 08:47:09.033            23.647               Magadan2           738.969
       425   04 Jun 2027 08:48:00.668   04 Jun 2027 08:48:12.391            11.723                Norilsk           366.344
       426   04 Jun 2027 08:48:13.196   04 Jun 2027 08:48:39.176            25.980                Norilsk           811.875
       427   04 Jun 2027 08:48:56.121   04 Jun 2027 08:49:22.459            26.338                Novosib           823.063
       428   04 Jun 2027 08:49:24.461   04 Jun 2027 08:50:27.018            62.557                Novosib          1954.906
       429   04 Jun 2027 08:50:54.702   04 Jun 2027 08:50:55.348             0.646                Novosib            20.187
       430   04 Jun 2027 08:51:04.329   04 Jun 2027 08:51:25.288            20.959                Norilsk           654.969
       431   04 Jun 2027 08:51:28.864   04 Jun 2027 08:51:52.755            23.891                Irkutsk           746.594
       432   04 Jun 2027 08:52:11.164   04 Jun 2027 08:53:06.523            55.359              Murmansk2          1729.969
       433   04 Jun 2027 08:53:10.186   04 Jun 2027 08:53:39.306            29.120                Irkutsk           910.000
       434   04 Jun 2027 08:54:58.201   04 Jun 2027 08:55:23.106            24.905              Murmansk1           778.281
       435   04 Jun 2027 09:28:39.377   04 Jun 2027 09:28:44.816             5.439            RioGallegos           169.969
       436   04 Jun 2027 09:29:05.406   04 Jun 2027 09:29:42.697            37.291            RioGallegos          1165.344
       437   04 Jun 2027 09:32:07.842   04 Jun 2027 09:32:43.939            36.097            RioGallegos          1128.031
       438   04 Jun 2027 10:06:17.145   04 Jun 2027 10:06:46.273            29.128                Sumatra           910.250
       439   04 Jun 2027 10:12:50.822   04 Jun 2027 10:13:47.367            56.545                  Delhi          1767.031
       440   04 Jun 2027 10:23:24.873   04 Jun 2027 10:23:36.978            12.105                Novosib           378.281
       441   04 Jun 2027 10:23:46.937   04 Jun 2027 10:24:01.873            14.936                Irkutsk           466.750
       442   04 Jun 2027 10:24:29.807   04 Jun 2027 10:25:36.218            66.411                Irkutsk          2075.344
       443   04 Jun 2027 10:25:40.289   04 Jun 2027 10:26:40.976            60.687                Novosib          1896.469
       444   04 Jun 2027 10:26:54.763   04 Jun 2027 10:27:04.966            10.203                Norilsk           318.844
       445   04 Jun 2027 10:27:07.009   04 Jun 2027 10:27:57.914            50.905              Murmansk2          1590.781
       446   04 Jun 2027 10:28:01.705   04 Jun 2027 10:29:10.611            68.906                Novosib          2153.313
       447   04 Jun 2027 10:29:18.130   04 Jun 2027 10:30:08.506            50.376                Novosib          1574.250
       448   04 Jun 2027 11:09:54.072   04 Jun 2027 11:10:19.843            25.771            RioGallegos           805.344
       449   04 Jun 2027 11:11:17.583   04 Jun 2027 11:11:54.811            37.228            RioGallegos          1163.375
       450   04 Jun 2027 11:47:38.602   04 Jun 2027 11:48:28.325            49.723                  Delhi          1553.844
       451   04 Jun 2027 11:50:22.363   04 Jun 2027 11:50:49.260            26.897                  Delhi           840.531
       452   04 Jun 2027 12:06:08.452   04 Jun 2027 12:06:34.004            25.552                Novosib           798.500
       453   04 Jun 2027 12:07:30.207   04 Jun 2027 12:07:44.526            14.319                 Moscow           447.469
       454   04 Jun 2027 12:08:41.218   04 Jun 2027 12:09:10.423            29.205              Murmansk1           912.656
       455   04 Jun 2027 12:11:45.495   04 Jun 2027 12:12:04.866            19.371              Murmansk1           605.344
       456   04 Jun 2027 13:31:45.769   04 Jun 2027 13:35:51.535           245.766                 Moscow          7680.187
       457   04 Jun 2027 13:36:16.902   04 Jun 2027 13:37:30.753            73.851              Murmansk2          2307.844
       458   04 Jun 2027 13:38:35.578   04 Jun 2027 13:38:58.247            22.669              Murmansk1           708.406
       459   04 Jun 2027 13:39:52.844   04 Jun 2027 13:40:32.808            39.964                Norilsk          1248.875
       460   04 Jun 2027 13:43:02.178   04 Jun 2027 13:44:19.323            77.145                Norilsk          2410.781
       461   04 Jun 2027 14:46:03.159   04 Jun 2027 14:47:21.073            77.914               CapeTown          2434.812
       462   04 Jun 2027 14:47:43.776   04 Jun 2027 14:49:22.501            98.725               CapeTown          3085.156
       463   04 Jun 2027 15:11:18.068   04 Jun 2027 15:11:31.624            13.556                 Moscow           423.625
       464   04 Jun 2027 15:12:31.801   04 Jun 2027 15:13:33.207            61.406              Murmansk1          1918.938
       465   04 Jun 2027 15:16:29.058   04 Jun 2027 15:16:42.530            13.472              Murmansk2           421.000
       466   04 Jun 2027 15:18:11.413   04 Jun 2027 15:18:25.057            13.644              Murmansk2           426.375
       467   04 Jun 2027 15:18:44.877   04 Jun 2027 15:20:17.114            92.237              Murmansk1          2882.406
       468   04 Jun 2027 15:26:12.092   04 Jun 2027 15:26:20.250             8.158                Anadyr2           254.938
       469   04 Jun 2027 15:26:22.450   04 Jun 2027 15:27:08.928            46.478                Anadyr1          1452.437
       470   04 Jun 2027 15:27:31.914   04 Jun 2027 15:28:49.594            77.680                Anadyr2          2427.500
       471   04 Jun 2027 16:29:21.439   04 Jun 2027 16:30:08.109            46.670               CapeTown          1458.437
       472   04 Jun 2027 16:52:11.071   04 Jun 2027 16:54:31.882           140.811              Murmansk1          4400.344
       473   04 Jun 2027 16:56:14.534   04 Jun 2027 16:56:36.225            21.691              Murmansk2           677.844
       474   04 Jun 2027 17:01:49.406   04 Jun 2027 17:03:02.941            73.535                Anadyr2          2297.969
       475   04 Jun 2027 17:04:31.119   04 Jun 2027 17:04:48.590            17.471                Anadyr2           545.969
       476   04 Jun 2027 17:05:00.441   04 Jun 2027 17:06:33.078            92.637               Magadan2          2894.906
       477   04 Jun 2027 17:07:17.110   04 Jun 2027 17:07:36.225            19.115               Magadan1           597.344
       478   04 Jun 2027 17:08:40.398   04 Jun 2027 17:09:02.572            22.174               Magadan1           692.938
       479   04 Jun 2027 17:09:46.703   04 Jun 2027 17:10:52.527            65.824               Magadan1          2057.000
       480   04 Jun 2027 18:37:44.675   04 Jun 2027 18:39:42.231           117.556                Anadyr1          3673.625
       481   04 Jun 2027 18:40:04.227   04 Jun 2027 18:42:16.407           132.180               Magadan2          4130.625
       482   04 Jun 2027 18:42:56.042   04 Jun 2027 18:43:09.600            13.558               Magadan2           423.687
