uniorb/output/strategy_2/Drop/Drop_KinoSat_110705.txt

KinoSat_110705
-------------------------
    Access    *     Start Time (UTCG)     *     Stop Time (UTCG)  *   Duration (s)        *       Station  *  Data (Mbytes)
         1   01 Jun 2027 03:38:29.226   01 Jun 2027 03:39:21.527            52.301               Magadan2          1634.406
         2   01 Jun 2027 03:39:21.527   01 Jun 2027 03:39:22.055             0.528               Magadan1            16.500
         3   01 Jun 2027 03:39:33.572   01 Jun 2027 03:40:52.790            79.218                Anadyr2          2475.563
         4   01 Jun 2027 03:40:52.790   01 Jun 2027 03:41:48.622            55.832                Anadyr1          1744.750
         5   01 Jun 2027 03:41:48.622   01 Jun 2027 03:42:22.479            33.857                Anadyr2          1058.031
         6   01 Jun 2027 03:42:22.479   01 Jun 2027 03:45:36.041           193.562                Anadyr1          6048.812
         7   01 Jun 2027 04:24:39.788   01 Jun 2027 04:24:47.755             7.967            RioGallegos           248.969
         8   01 Jun 2027 05:15:27.407   01 Jun 2027 05:15:45.480            18.073               Magadan2           564.781
         9   01 Jun 2027 05:16:03.803   01 Jun 2027 05:17:48.287           104.484               Magadan1          3265.125
        10   01 Jun 2027 05:17:58.411   01 Jun 2027 05:21:09.431           191.020                Anadyr2          5969.375
        11   01 Jun 2027 05:21:10.792   01 Jun 2027 05:21:50.521            39.729               Magadan1          1241.531
        12   01 Jun 2027 06:04:04.737   01 Jun 2027 06:04:49.699            44.962            RioGallegos          1405.063
        13   01 Jun 2027 06:05:19.814   01 Jun 2027 06:05:44.827            25.013            RioGallegos           781.656
        14   01 Jun 2027 06:34:31.524   01 Jun 2027 06:36:30.859           119.335                Sumatra          3729.219
        15   01 Jun 2027 06:37:59.771   01 Jun 2027 06:40:08.092           128.321                Sumatra          4010.031
        16   01 Jun 2027 06:52:31.023   01 Jun 2027 06:53:32.272            61.249                Irkutsk          1914.031
        17   01 Jun 2027 06:54:10.347   01 Jun 2027 06:54:33.853            23.506                Irkutsk           734.562
        18   01 Jun 2027 06:54:39.152   01 Jun 2027 06:55:04.328            25.176                Irkutsk           786.750
        19   01 Jun 2027 06:55:10.340   01 Jun 2027 06:55:15.538             5.198               Magadan1           162.437
        20   01 Jun 2027 06:55:15.538   01 Jun 2027 06:55:49.927            34.389               Magadan2          1074.656
        21   01 Jun 2027 06:56:46.242   01 Jun 2027 06:57:49.203            62.961                Irkutsk          1967.531
        22   01 Jun 2027 06:57:57.071   01 Jun 2027 06:58:28.109            31.038                Novosib           969.937
        23   01 Jun 2027 06:58:32.446   01 Jun 2027 06:59:55.964            83.518              Murmansk2          2609.938
        24   01 Jun 2027 07:02:19.230   01 Jun 2027 07:03:13.623            54.393              Murmansk2          1699.781
        25   01 Jun 2027 07:32:50.081   01 Jun 2027 07:33:23.412            33.331            RioGallegos          1041.594
        26   01 Jun 2027 07:34:25.199   01 Jun 2027 07:35:34.873            69.674            RioGallegos          2177.313
        27   01 Jun 2027 08:07:21.470   01 Jun 2027 08:09:03.534           102.064                Sumatra          3189.500
        28   01 Jun 2027 08:10:26.562   01 Jun 2027 08:11:00.559            33.997                Sumatra          1062.406
        29   01 Jun 2027 08:16:58.552   01 Jun 2027 08:17:55.089            56.537                  Delhi          1766.781
        30   01 Jun 2027 08:17:58.876   01 Jun 2027 08:19:50.781           111.905                  Delhi          3497.031
        31   01 Jun 2027 08:22:01.181   01 Jun 2027 08:22:59.064            57.883                  Delhi          1808.844
        32   01 Jun 2027 08:27:28.599   01 Jun 2027 08:27:49.844            21.245                  Delhi           663.906
        33   01 Jun 2027 08:30:20.241   01 Jun 2027 08:30:20.905             0.664                Irkutsk            20.750
        34   01 Jun 2027 08:30:23.261   01 Jun 2027 08:30:35.080            11.819                Novosib           369.344
        35   01 Jun 2027 08:31:05.452   01 Jun 2027 08:33:19.161           133.709                Irkutsk          4178.406
        36   01 Jun 2027 08:33:27.823   01 Jun 2027 08:33:40.190            12.367                Norilsk           386.469
        37   01 Jun 2027 08:33:49.921   01 Jun 2027 08:35:18.147            88.226                Novosib          2757.063
        38   01 Jun 2027 08:35:34.616   01 Jun 2027 08:36:12.703            38.087              Murmansk2          1190.219
        39   01 Jun 2027 09:51:49.255   01 Jun 2027 09:55:20.504           211.249                  Delhi          6601.531
        40   01 Jun 2027 10:06:47.120   01 Jun 2027 10:06:50.238             3.118              Murmansk1            97.438
        41   01 Jun 2027 10:06:50.238   01 Jun 2027 10:08:20.235            89.997              Murmansk2          2812.406
        42   01 Jun 2027 10:08:20.235   01 Jun 2027 10:08:36.658            16.423              Murmansk1           513.219
        43   01 Jun 2027 10:08:44.496   01 Jun 2027 10:08:53.815             9.319                 Moscow           291.219
        44   01 Jun 2027 10:09:01.094   01 Jun 2027 10:09:23.267            22.173                Norilsk           692.906
        45   01 Jun 2027 10:09:24.974   01 Jun 2027 10:11:56.407           151.433              Murmansk1          4732.281
        46   01 Jun 2027 10:11:56.407   01 Jun 2027 10:12:00.824             4.417              Murmansk2           138.031
        47   01 Jun 2027 10:12:16.484   01 Jun 2027 10:12:18.074             1.590              Murmansk1            49.688
        48   01 Jun 2027 10:12:48.051   01 Jun 2027 10:13:19.678            31.627              Murmansk1           988.344
        49   01 Jun 2027 11:41:52.061   01 Jun 2027 11:44:00.755           128.694              Murmansk2          4021.687
        50   01 Jun 2027 11:44:03.235   01 Jun 2027 11:44:45.810            42.575              Murmansk2          1330.469
        51   01 Jun 2027 11:45:27.298   01 Jun 2027 11:45:42.899            15.601              Murmansk1           487.531
        52   01 Jun 2027 11:46:00.678   01 Jun 2027 11:46:19.799            19.121                Norilsk           597.531
        53   01 Jun 2027 11:47:30.473   01 Jun 2027 11:47:38.042             7.569                 Moscow           236.531
        54   01 Jun 2027 11:50:07.542   01 Jun 2027 11:50:13.700             6.158                Norilsk           192.438
        55   01 Jun 2027 11:50:58.056   01 Jun 2027 11:51:27.773            29.717              Murmansk1           928.656
        56   01 Jun 2027 11:52:05.402   01 Jun 2027 11:52:19.382            13.980              Murmansk1           436.875
        57   01 Jun 2027 12:50:12.123   01 Jun 2027 12:53:23.030           190.907               CapeTown          5965.844
        58   01 Jun 2027 12:53:51.119   01 Jun 2027 12:56:36.257           165.138               CapeTown          5160.562
        59   01 Jun 2027 13:16:42.918   01 Jun 2027 13:16:57.374            14.456              Murmansk1           451.750
        60   01 Jun 2027 13:17:08.066   01 Jun 2027 13:18:08.500            60.434              Murmansk2          1888.563
        61   01 Jun 2027 13:18:29.059   01 Jun 2027 13:18:41.312            12.253              Murmansk2           382.906
        62   01 Jun 2027 13:30:22.183   01 Jun 2027 13:32:40.525           138.342                Anadyr1          4323.188
        63   01 Jun 2027 13:33:29.037   01 Jun 2027 13:36:06.017           156.980                Anadyr2          4905.625
        64   01 Jun 2027 13:36:49.930   01 Jun 2027 13:40:14.544           204.614                Anadyr2          6394.187
        65   01 Jun 2027 15:05:59.320   01 Jun 2027 15:07:25.763            86.443                Anadyr1          2701.344
        66   01 Jun 2027 15:08:24.880   01 Jun 2027 15:09:01.197            36.317                Anadyr2          1134.906
        67   01 Jun 2027 15:09:10.155   01 Jun 2027 15:15:21.728           371.573               Magadan2         11611.656
        68   01 Jun 2027 15:16:31.153   01 Jun 2027 15:17:51.068            79.915               Magadan1          2497.344
        69   01 Jun 2027 16:44:14.073   01 Jun 2027 16:47:12.877           178.804               Magadan1          5587.625
        70   01 Jun 2027 16:47:54.747   01 Jun 2027 16:48:28.177            33.430               Magadan1          1044.687
        71   01 Jun 2027 16:51:19.986   01 Jun 2027 16:51:40.323            20.337               Magadan1           635.531
        72   01 Jun 2027 17:38:21.508   01 Jun 2027 17:42:05.482           223.974            RioGallegos          6999.188
        73   01 Jun 2027 18:17:43.298   01 Jun 2027 18:18:18.008            34.710                Anadyr1          1084.688
        74   01 Jun 2027 18:19:03.923   01 Jun 2027 18:19:22.743            18.820                Anadyr1           588.125
        75   01 Jun 2027 18:19:55.865   01 Jun 2027 18:25:21.090           325.225                Norilsk         10163.281
        76   01 Jun 2027 18:25:21.945   01 Jun 2027 18:28:23.819           181.874                Irkutsk          5683.562
        77   01 Jun 2027 18:30:29.591   01 Jun 2027 18:31:38.160            68.569                Irkutsk          2142.781
        78   01 Jun 2027 18:39:58.747   01 Jun 2027 18:42:19.624           140.877                Sumatra          4402.406
        79   01 Jun 2027 18:46:07.192   01 Jun 2027 18:47:49.552           102.360                Sumatra          3198.750
        80   01 Jun 2027 20:01:23.686   01 Jun 2027 20:03:04.959           101.273                Novosib          3164.781
        81   01 Jun 2027 20:03:39.643   01 Jun 2027 20:05:27.088           107.445                Novosib          3357.656
        82   01 Jun 2027 20:10:36.874   01 Jun 2027 20:12:14.462            97.588                  Delhi          3049.625
        83   01 Jun 2027 20:12:41.601   01 Jun 2027 20:13:41.034            59.433                  Delhi          1857.281
        84   01 Jun 2027 21:34:41.856   01 Jun 2027 21:39:41.574           299.718              Murmansk2          9366.188
        85   01 Jun 2027 21:50:01.483   01 Jun 2027 21:50:59.669            58.186                  Delhi          1818.313
        86   01 Jun 2027 21:52:21.695   01 Jun 2027 21:53:12.015            50.320                  Delhi          1572.500
        87   01 Jun 2027 21:54:31.068   01 Jun 2027 21:55:34.395            63.327                  Delhi          1978.969
        88   01 Jun 2027 23:06:30.330   01 Jun 2027 23:08:20.214           109.884               Magadan2          3433.875
        89   01 Jun 2027 23:09:50.341   01 Jun 2027 23:11:25.062            94.721              Murmansk2          2960.031
        90   01 Jun 2027 23:11:29.479   01 Jun 2027 23:14:56.826           207.347              Murmansk1          6479.594
        91   01 Jun 2027 23:15:11.178   01 Jun 2027 23:16:39.223            88.045                 Moscow          2751.406
        92   01 Jun 2027 23:21:46.610   01 Jun 2027 23:22:05.389            18.779                 Moscow           586.844
        93   01 Jun 2027 23:39:53.581   01 Jun 2027 23:43:33.860           220.279               CapeTown          6883.719
        94   01 Jun 2027 23:45:44.073   01 Jun 2027 23:47:49.535           125.462               CapeTown          3920.688
        95   02 Jun 2027 00:48:14.614   02 Jun 2027 00:48:44.997            30.383              Murmansk2           949.469
        96   02 Jun 2027 00:50:07.013   02 Jun 2027 00:50:31.381            24.368                 Moscow           761.500
        97   02 Jun 2027 00:52:36.614   02 Jun 2027 00:52:54.022            17.408              Murmansk2           544.000
        98   02 Jun 2027 00:53:37.702   02 Jun 2027 00:53:53.564            15.862              Murmansk1           495.688
        99   02 Jun 2027 00:53:58.393   02 Jun 2027 00:54:28.676            30.283              Murmansk2           946.344
       100   02 Jun 2027 00:56:49.098   02 Jun 2027 00:57:03.489            14.391              Murmansk1           449.719
       101   02 Jun 2027 00:57:26.686   02 Jun 2027 00:57:32.724             6.038                 Moscow           188.688
       102   02 Jun 2027 00:57:47.290   02 Jun 2027 00:57:49.207             1.917                 Moscow            59.906
       103   02 Jun 2027 00:57:49.441   02 Jun 2027 00:58:27.069            37.628              Murmansk1          1175.875
       104   02 Jun 2027 00:59:50.328   02 Jun 2027 01:00:17.388            27.060                 Moscow           845.625
       105   02 Jun 2027 01:17:33.181   02 Jun 2027 01:18:27.664            54.483               CapeTown          1702.594
       106   02 Jun 2027 01:21:23.816   02 Jun 2027 01:21:47.796            23.980               CapeTown           749.375
       107   02 Jun 2027 01:23:33.097   02 Jun 2027 01:23:49.294            16.197               CapeTown           506.156
       108   02 Jun 2027 02:09:36.487   02 Jun 2027 02:10:02.932            26.445                Anadyr2           826.406
       109   02 Jun 2027 02:10:42.045   02 Jun 2027 02:11:18.557            36.512               Magadan1          1141.000
       110   02 Jun 2027 02:11:34.326   02 Jun 2027 02:11:42.712             8.386               Magadan2           262.062
       111   02 Jun 2027 02:12:29.687   02 Jun 2027 02:12:55.766            26.079               Magadan2           814.969
       112   02 Jun 2027 02:14:04.652   02 Jun 2027 02:14:10.572             5.920               Magadan1           185.000
       113   02 Jun 2027 02:15:03.962   02 Jun 2027 02:15:51.698            47.736               Magadan2          1491.750
       114   02 Jun 2027 02:16:51.372   02 Jun 2027 02:16:51.916             0.544               Magadan1            17.000
       115   02 Jun 2027 02:17:28.675   02 Jun 2027 02:17:35.088             6.413               Magadan1           200.406
       116   02 Jun 2027 02:17:51.115   02 Jun 2027 02:18:05.661            14.546               Magadan1           454.563
       117   02 Jun 2027 02:18:22.527   02 Jun 2027 02:18:30.887             8.360                Norilsk           261.250
       118   02 Jun 2027 02:19:16.756   02 Jun 2027 02:19:33.093            16.337               Magadan2           510.531
       119   02 Jun 2027 02:20:09.505   02 Jun 2027 02:20:12.164             2.659                Norilsk            83.094
       120   02 Jun 2027 02:20:29.415   02 Jun 2027 02:20:50.539            21.124               Magadan2           660.125
       121   02 Jun 2027 02:21:41.844   02 Jun 2027 02:22:46.062            64.218              Murmansk2          2006.812
       122   02 Jun 2027 02:24:16.216   02 Jun 2027 02:24:58.785            42.569              Murmansk2          1330.281
       123   02 Jun 2027 02:27:56.965   02 Jun 2027 02:29:25.932            88.967                 Moscow          2780.219
       124   02 Jun 2027 02:33:37.527   02 Jun 2027 02:33:45.334             7.807              Murmansk2           243.969
       125   02 Jun 2027 02:34:04.516   02 Jun 2027 02:34:17.244            12.728              Murmansk2           397.750
       126   02 Jun 2027 02:36:10.852   02 Jun 2027 02:36:23.316            12.464                 Moscow           389.500
       127   02 Jun 2027 02:55:06.766   02 Jun 2027 02:55:38.739            31.973               CapeTown           999.156
       128   02 Jun 2027 02:56:26.034   02 Jun 2027 02:57:58.854            92.820               CapeTown          2900.625
       129   02 Jun 2027 03:52:49.389   02 Jun 2027 03:53:50.552            61.163               Magadan2          1911.344
       130   02 Jun 2027 03:54:02.469   02 Jun 2027 03:55:22.641            80.172               Magadan2          2505.375
       131   02 Jun 2027 03:55:22.641   02 Jun 2027 03:56:49.259            86.618               Magadan1          2706.812
       132   02 Jun 2027 03:56:49.259   02 Jun 2027 03:57:57.507            68.248               Magadan2          2132.750
       133   02 Jun 2027 05:25:45.015   02 Jun 2027 05:26:13.252            28.237                Irkutsk           882.406
       134   02 Jun 2027 05:29:22.983   02 Jun 2027 05:33:47.023           264.040               Magadan2          8251.250
       135   02 Jun 2027 05:34:14.367   02 Jun 2027 05:34:27.833            13.466                Novosib           420.813
       136   02 Jun 2027 05:35:40.389   02 Jun 2027 05:36:02.780            22.391                Norilsk           699.719
       137   02 Jun 2027 06:08:47.289   02 Jun 2027 06:09:36.604            49.315            RioGallegos          1541.094
       138   02 Jun 2027 06:11:38.383   02 Jun 2027 06:11:44.799             6.416            RioGallegos           200.500
       139   02 Jun 2027 06:12:18.111   02 Jun 2027 06:12:39.762            21.651            RioGallegos           676.594
       140   02 Jun 2027 06:17:30.558   02 Jun 2027 06:17:58.448            27.890            RioGallegos           871.563
       141   02 Jun 2027 06:18:57.710   02 Jun 2027 06:19:52.545            54.835            RioGallegos          1713.594
       142   02 Jun 2027 06:45:31.890   02 Jun 2027 06:48:10.258           158.368                Sumatra          4949.000
       143   02 Jun 2027 06:52:07.675   02 Jun 2027 06:54:09.803           122.128                Sumatra          3816.500
       144   02 Jun 2027 07:05:30.477   02 Jun 2027 07:06:47.538            77.061                Irkutsk          2408.156
       145   02 Jun 2027 07:06:49.487   02 Jun 2027 07:07:13.267            23.780                Novosib           743.125
       146   02 Jun 2027 07:07:47.907   02 Jun 2027 07:08:34.988            47.081                Irkutsk          1471.281
       147   02 Jun 2027 07:08:41.952   02 Jun 2027 07:09:50.944            68.992                Irkutsk          2156.000
       148   02 Jun 2027 08:29:40.795   02 Jun 2027 08:30:18.896            38.101                  Delhi          1190.656
       149   02 Jun 2027 08:41:23.496   02 Jun 2027 08:42:07.087            43.591                Irkutsk          1362.219
       150   02 Jun 2027 08:42:50.108   02 Jun 2027 08:43:08.082            17.974                 Moscow           561.687
       151   02 Jun 2027 08:43:13.659   02 Jun 2027 08:43:20.224             6.565              Murmansk2           205.156
       152   02 Jun 2027 08:43:20.224   02 Jun 2027 08:43:47.118            26.894              Murmansk1           840.438
       153   02 Jun 2027 08:43:50.763   02 Jun 2027 08:44:10.473            19.710                Norilsk           615.937
       154   02 Jun 2027 08:44:19.575   02 Jun 2027 08:45:10.172            50.597                Irkutsk          1581.156
       155   02 Jun 2027 08:45:24.478   02 Jun 2027 08:47:07.628           103.150                 Moscow          3223.438
       156   02 Jun 2027 10:04:08.367   02 Jun 2027 10:08:02.906           234.539                  Delhi          7329.344
       157   02 Jun 2027 10:16:58.285   02 Jun 2027 10:17:30.651            32.366              Murmansk2          1011.438
       158   02 Jun 2027 10:17:35.422   02 Jun 2027 10:18:41.412            65.990              Murmansk2          2062.187
       159   02 Jun 2027 10:18:47.992   02 Jun 2027 10:18:54.325             6.333                Novosib           197.906
       160   02 Jun 2027 10:18:56.178   02 Jun 2027 10:19:34.536            38.358                 Moscow          1198.687
       161   02 Jun 2027 10:19:44.440   02 Jun 2027 10:20:43.442            59.002                 Moscow          1843.812
       162   02 Jun 2027 10:20:50.014   02 Jun 2027 10:21:16.349            26.335              Murmansk1           822.969
       163   02 Jun 2027 10:22:17.262   02 Jun 2027 10:22:28.022            10.760              Murmansk2           336.250
       164   02 Jun 2027 10:23:08.871   02 Jun 2027 10:24:02.245            53.374                 Moscow          1667.938
       165   02 Jun 2027 11:54:28.798   02 Jun 2027 11:54:52.362            23.564              Murmansk2           736.375
       166   02 Jun 2027 11:55:16.151   02 Jun 2027 11:56:04.270            48.119              Murmansk2          1503.719
       167   02 Jun 2027 11:56:11.496   02 Jun 2027 11:56:17.783             6.287              Murmansk2           196.469
       168   02 Jun 2027 11:57:08.714   02 Jun 2027 11:57:17.457             8.743              Murmansk1           273.219
       169   02 Jun 2027 11:57:49.214   02 Jun 2027 11:57:52.675             3.461              Murmansk2           108.156
       170   02 Jun 2027 11:58:24.210   02 Jun 2027 11:58:29.244             5.034              Murmansk1           157.313
       171   02 Jun 2027 11:58:56.661   02 Jun 2027 11:59:04.130             7.469                 Moscow           233.406
       172   02 Jun 2027 12:00:52.900   02 Jun 2027 12:01:10.227            17.327              Murmansk2           541.469
       173   02 Jun 2027 12:01:17.956   02 Jun 2027 12:01:41.292            23.336              Murmansk1           729.250
       174   02 Jun 2027 12:02:15.732   02 Jun 2027 12:02:57.023            41.291              Murmansk2          1290.344
       175   02 Jun 2027 13:01:56.550   02 Jun 2027 13:05:36.932           220.382               CapeTown          6886.937
       176   02 Jun 2027 13:11:14.526   02 Jun 2027 13:11:52.851            38.325               CapeTown          1197.656
       177   02 Jun 2027 13:13:10.980   02 Jun 2027 13:13:46.959            35.979               CapeTown          1124.344
       178   02 Jun 2027 13:29:03.435   02 Jun 2027 13:30:27.239            83.804              Murmansk1          2618.875
       179   02 Jun 2027 13:30:43.681   02 Jun 2027 13:31:02.306            18.625              Murmansk1           582.031
       180   02 Jun 2027 13:32:40.784   02 Jun 2027 13:33:42.070            61.286              Murmansk1          1915.187
       181   02 Jun 2027 13:36:07.245   02 Jun 2027 13:36:20.361            13.116              Murmansk2           409.875
       182   02 Jun 2027 13:37:36.595   02 Jun 2027 13:37:43.174             6.579              Murmansk2           205.594
       183   02 Jun 2027 13:37:47.919   02 Jun 2027 13:38:31.859            43.940              Murmansk2          1373.125
       184   02 Jun 2027 13:42:18.631   02 Jun 2027 13:42:56.284            37.653                Anadyr1          1176.656
       185   02 Jun 2027 13:42:56.284   02 Jun 2027 13:45:30.292           154.008                Anadyr2          4812.750
       186   02 Jun 2027 13:47:09.507   02 Jun 2027 13:47:55.317            45.810                Anadyr2          1431.562
       187   02 Jun 2027 13:48:57.185   02 Jun 2027 13:50:19.946            82.761                Anadyr1          2586.281
       188   02 Jun 2027 15:11:52.697   02 Jun 2027 15:12:18.839            26.142              Murmansk1           816.938
       189   02 Jun 2027 15:13:53.451   02 Jun 2027 15:14:15.686            22.235              Murmansk1           694.844
       190   02 Jun 2027 15:18:00.195   02 Jun 2027 15:19:24.835            84.640                Anadyr1          2645.000
       191   02 Jun 2027 15:19:56.065   02 Jun 2027 15:20:23.233            27.168                Anadyr2           849.000
       192   02 Jun 2027 15:20:58.287   02 Jun 2027 15:24:50.865           232.578               Magadan2          7268.063
       193   02 Jun 2027 15:26:21.421   02 Jun 2027 15:27:07.603            46.182               Magadan1          1443.187
       194   02 Jun 2027 15:29:03.170   02 Jun 2027 15:30:25.533            82.363               Magadan1          2573.844
       195   02 Jun 2027 16:54:57.734   02 Jun 2027 16:55:15.204            17.470                Anadyr1           545.937
       196   02 Jun 2027 16:56:13.706   02 Jun 2027 16:57:33.887            80.181               Magadan1          2505.656
       197   02 Jun 2027 16:59:16.346   02 Jun 2027 16:59:50.352            34.006               Magadan1          1062.688
       198   02 Jun 2027 17:00:10.987   02 Jun 2027 17:02:13.055           122.068               Magadan2          3814.625
       199   02 Jun 2027 17:49:35.956   02 Jun 2027 17:52:43.698           187.742            RioGallegos          5866.937
       200   02 Jun 2027 17:56:28.998   02 Jun 2027 17:56:37.365             8.367            RioGallegos           261.469
       201   02 Jun 2027 18:31:52.992   02 Jun 2027 18:33:18.757            85.765                Norilsk          2680.156
       202   02 Jun 2027 18:33:53.512   02 Jun 2027 18:35:23.720            90.208                Norilsk          2819.000
       203   02 Jun 2027 18:36:35.797   02 Jun 2027 18:39:15.269           159.472                Irkutsk          4983.500
       204   02 Jun 2027 18:39:21.316   02 Jun 2027 18:40:16.152            54.836                Irkutsk          1713.625
       205   02 Jun 2027 18:42:33.345   02 Jun 2027 18:42:53.804            20.459                Irkutsk           639.344
       206   02 Jun 2027 18:51:09.384   02 Jun 2027 18:55:36.718           267.334                Sumatra          8354.187
       207   02 Jun 2027 18:57:46.255   02 Jun 2027 18:58:57.757            71.502                Sumatra          2234.437
       208   02 Jun 2027 20:13:17.603   02 Jun 2027 20:13:42.693            25.090                Novosib           784.062
       209   02 Jun 2027 20:15:09.425   02 Jun 2027 20:15:32.138            22.713                Novosib           709.781
       210   02 Jun 2027 20:21:21.138   02 Jun 2027 20:23:52.516           151.378                  Delhi          4730.562
       211   02 Jun 2027 20:27:37.970   02 Jun 2027 20:28:51.253            73.283                  Delhi          2290.094
       212   02 Jun 2027 21:46:28.489   02 Jun 2027 21:52:35.496           367.007              Murmansk1         11468.969
       213   02 Jun 2027 23:18:40.249   02 Jun 2027 23:19:23.255            43.006               Magadan1          1343.937
       214   02 Jun 2027 23:20:41.184   02 Jun 2027 23:21:02.407            21.223               Magadan1           663.219
       215   02 Jun 2027 23:21:50.644   02 Jun 2027 23:23:21.233            90.589              Murmansk1          2830.906
       216   02 Jun 2027 23:23:27.868   02 Jun 2027 23:23:54.461            26.593              Murmansk2           831.031
       217   02 Jun 2027 23:25:17.614   02 Jun 2027 23:25:47.853            30.239              Murmansk1           944.969
       218   02 Jun 2027 23:26:07.261   02 Jun 2027 23:27:28.547            81.286              Murmansk2          2540.187
       219   02 Jun 2027 23:29:29.879   02 Jun 2027 23:30:27.155            57.276                 Moscow          1789.875
       220   02 Jun 2027 23:33:36.709   02 Jun 2027 23:33:46.436             9.727                 Moscow           303.969
       221   02 Jun 2027 23:33:55.085   02 Jun 2027 23:34:28.395            33.310                 Moscow          1040.937
       222   02 Jun 2027 23:51:08.158   02 Jun 2027 23:53:52.607           164.449               CapeTown          5139.031
       223   02 Jun 2027 23:55:41.362   02 Jun 2027 23:57:12.427            91.065               CapeTown          2845.781
       224   03 Jun 2027 00:57:46.590   03 Jun 2027 00:57:51.200             4.610              Murmansk2           144.063
       225   03 Jun 2027 00:57:51.200   03 Jun 2027 00:59:12.966            81.766              Murmansk1          2555.187
       226   03 Jun 2027 01:00:59.041   03 Jun 2027 01:01:37.207            38.166                 Moscow          1192.688
       227   03 Jun 2027 01:04:48.275   03 Jun 2027 01:04:57.677             9.402                 Moscow           293.812
       228   03 Jun 2027 01:06:29.807   03 Jun 2027 01:07:15.615            45.808              Murmansk1          1431.500
       229   03 Jun 2027 01:11:04.820   03 Jun 2027 01:12:00.640            55.820                 Moscow          1744.375
       230   03 Jun 2027 01:28:56.966   03 Jun 2027 01:29:05.155             8.189               CapeTown           255.906
       231   03 Jun 2027 01:29:54.584   03 Jun 2027 01:30:20.443            25.859               CapeTown           808.094
       232   03 Jun 2027 01:33:29.210   03 Jun 2027 01:34:12.462            43.252               CapeTown          1351.625
       233   03 Jun 2027 02:21:41.577   03 Jun 2027 02:22:16.641            35.064                Anadyr2          1095.750
       234   03 Jun 2027 02:22:25.466   03 Jun 2027 02:23:44.635            79.169               Magadan1          2474.031
       235   03 Jun 2027 02:24:04.529   03 Jun 2027 02:24:32.355            27.826               Magadan1           869.563
       236   03 Jun 2027 02:25:54.377   03 Jun 2027 02:26:12.041            17.664               Magadan2           552.000
       237   03 Jun 2027 02:29:25.302   03 Jun 2027 02:29:41.349            16.047               Magadan2           501.469
       238   03 Jun 2027 02:33:08.016   03 Jun 2027 02:33:11.577             3.561               Magadan1           111.281
       239   03 Jun 2027 02:33:12.980   03 Jun 2027 02:33:20.543             7.563               Magadan2           236.344
       240   03 Jun 2027 02:33:42.693   03 Jun 2027 02:34:54.802            72.109              Murmansk2          2253.406
       241   03 Jun 2027 02:35:44.531   03 Jun 2027 02:36:08.273            23.742              Murmansk2           741.937
       242   03 Jun 2027 02:36:26.477   03 Jun 2027 02:36:43.157            16.680              Murmansk2           521.250
       243   03 Jun 2027 02:37:10.724   03 Jun 2027 02:37:33.932            23.208                 Moscow           725.250
       244   03 Jun 2027 02:39:32.544   03 Jun 2027 02:39:47.103            14.559                 Moscow           454.969
       245   03 Jun 2027 02:41:20.060   03 Jun 2027 02:41:36.804            16.744                 Moscow           523.250
       246   03 Jun 2027 02:44:11.250   03 Jun 2027 02:44:26.519            15.269                 Moscow           477.156
       247   03 Jun 2027 02:45:54.571   03 Jun 2027 02:46:34.425            39.854                 Moscow          1245.437
       248   03 Jun 2027 03:06:50.611   03 Jun 2027 03:07:54.690            64.079               CapeTown          2002.469
       249   03 Jun 2027 04:04:50.973   03 Jun 2027 04:05:41.414            50.441                Irkutsk          1576.281
       250   03 Jun 2027 04:05:51.437   03 Jun 2027 04:07:48.141           116.704                Anadyr1          3647.000
       251   03 Jun 2027 04:07:48.141   03 Jun 2027 04:07:57.694             9.553                Anadyr2           298.531
       252   03 Jun 2027 04:08:27.224   03 Jun 2027 04:08:31.003             3.779               Magadan1           118.094
       253   03 Jun 2027 04:10:06.672   03 Jun 2027 04:10:11.677             5.005                Anadyr2           156.406
       254   03 Jun 2027 04:53:41.652   03 Jun 2027 04:54:14.428            32.776            RioGallegos          1024.250
       255   03 Jun 2027 04:56:30.951   03 Jun 2027 04:56:34.335             3.384            RioGallegos           105.750
       256   03 Jun 2027 05:39:58.502   03 Jun 2027 05:40:30.002            31.500                Irkutsk           984.375
       257   03 Jun 2027 05:41:04.177   03 Jun 2027 05:41:08.400             4.223                Irkutsk           131.969
       258   03 Jun 2027 05:41:55.813   03 Jun 2027 05:43:59.271           123.458                Irkutsk          3858.063
       259   03 Jun 2027 05:44:27.417   03 Jun 2027 05:45:42.237            74.820               Magadan1          2338.125
       260   03 Jun 2027 05:45:52.399   03 Jun 2027 05:46:20.669            28.270                Norilsk           883.437
       261   03 Jun 2027 05:46:44.085   03 Jun 2027 05:46:58.939            14.854                Norilsk           464.187
       262   03 Jun 2027 05:47:28.911   03 Jun 2027 05:47:53.270            24.359                Norilsk           761.219
       263   03 Jun 2027 05:49:35.456   03 Jun 2027 05:49:40.144             4.688                Norilsk           146.500
       264   03 Jun 2027 06:21:19.249   03 Jun 2027 06:22:28.367            69.118            RioGallegos          2159.937
       265   03 Jun 2027 06:23:48.264   03 Jun 2027 06:24:48.159            59.895            RioGallegos          1871.719
       266   03 Jun 2027 06:30:35.388   03 Jun 2027 06:30:55.198            19.810            RioGallegos           619.062
       267   03 Jun 2027 06:32:21.980   03 Jun 2027 06:33:24.956            62.976            RioGallegos          1968.000
       268   03 Jun 2027 06:57:41.873   03 Jun 2027 06:59:50.063           128.190                Sumatra          4005.938
       269   03 Jun 2027 07:02:44.387   03 Jun 2027 07:03:04.832            20.445                Sumatra           638.906
       270   03 Jun 2027 07:04:11.521   03 Jun 2027 07:06:00.060           108.539                Sumatra          3391.844
       271   03 Jun 2027 07:15:44.736   03 Jun 2027 07:16:29.382            44.646                Irkutsk          1395.187
       272   03 Jun 2027 07:16:48.178   03 Jun 2027 07:16:54.661             6.483                Norilsk           202.594
       273   03 Jun 2027 07:17:46.521   03 Jun 2027 07:18:34.895            48.374                Irkutsk          1511.687
       274   03 Jun 2027 07:18:54.989   03 Jun 2027 07:19:05.612            10.623              Murmansk2           331.969
       275   03 Jun 2027 07:19:12.796   03 Jun 2027 07:20:35.233            82.437                Novosib          2576.156
       276   03 Jun 2027 07:20:42.508   03 Jun 2027 07:21:01.474            18.966                Irkutsk           592.687
       277   03 Jun 2027 07:21:03.470   03 Jun 2027 07:21:24.607            21.137              Murmansk1           660.531
       278   03 Jun 2027 07:21:24.607   03 Jun 2027 07:21:44.804            20.197              Murmansk2           631.156
       279   03 Jun 2027 07:21:50.829   03 Jun 2027 07:22:31.729            40.900                Novosib          1278.125
       280   03 Jun 2027 07:57:28.668   03 Jun 2027 07:57:48.461            19.793            RioGallegos           618.531
       281   03 Jun 2027 07:59:25.421   03 Jun 2027 07:59:51.163            25.742            RioGallegos           804.438
       282   03 Jun 2027 08:31:45.066   03 Jun 2027 08:32:55.751            70.685                Sumatra          2208.906
       283   03 Jun 2027 08:34:52.995   03 Jun 2027 08:35:40.809            47.814                Sumatra          1494.187
       284   03 Jun 2027 08:40:10.619   03 Jun 2027 08:42:33.760           143.141                  Delhi          4473.156
       285   03 Jun 2027 08:52:59.888   03 Jun 2027 08:53:18.576            18.688                Irkutsk           584.000
       286   03 Jun 2027 08:53:38.370   03 Jun 2027 08:54:04.273            25.903              Murmansk2           809.469
       287   03 Jun 2027 08:54:11.490   03 Jun 2027 08:54:53.120            41.630              Murmansk2          1300.938
       288   03 Jun 2027 08:54:58.778   03 Jun 2027 08:55:16.849            18.071              Murmansk1           564.719
       289   03 Jun 2027 08:55:19.850   03 Jun 2027 08:55:26.762             6.912                Norilsk           216.000
       290   03 Jun 2027 08:55:28.966   03 Jun 2027 08:56:09.475            40.509                Novosib          1265.906
       291   03 Jun 2027 08:56:13.116   03 Jun 2027 08:56:55.422            42.306                Irkutsk          1322.062
       292   03 Jun 2027 08:56:56.331   03 Jun 2027 08:57:51.878            55.547              Murmansk2          1735.844
       293   03 Jun 2027 10:16:35.036   03 Jun 2027 10:19:42.391           187.355                  Delhi          5854.844
       294   03 Jun 2027 10:29:15.794   03 Jun 2027 10:29:57.204            41.410                 Moscow          1294.063
       295   03 Jun 2027 10:30:20.354   03 Jun 2027 10:30:52.206            31.852                 Moscow           995.375
       296   03 Jun 2027 10:30:55.369   03 Jun 2027 10:31:37.382            42.013                 Moscow          1312.906
       297   03 Jun 2027 10:31:46.643   03 Jun 2027 10:32:12.345            25.702              Murmansk1           803.187
       298   03 Jun 2027 10:32:16.926   03 Jun 2027 10:32:17.545             0.619              Murmansk1            19.344
       299   03 Jun 2027 10:32:19.401   03 Jun 2027 10:32:30.546            11.145                 Moscow           348.281
       300   03 Jun 2027 10:32:34.603   03 Jun 2027 10:33:55.983            81.380                Novosib          2543.125
       301   03 Jun 2027 12:01:17.123   03 Jun 2027 12:01:28.311            11.188                 Moscow           349.625
       302   03 Jun 2027 12:01:51.708   03 Jun 2027 12:01:55.981             4.273                 Moscow           133.531
       303   03 Jun 2027 12:02:04.409   03 Jun 2027 12:03:15.128            70.719                 Moscow          2209.969
       304   03 Jun 2027 12:04:34.953   03 Jun 2027 12:05:22.667            47.714                 Moscow          1491.063
       305   03 Jun 2027 12:06:46.852   03 Jun 2027 12:07:09.723            22.871              Murmansk2           714.719
       306   03 Jun 2027 12:08:15.420   03 Jun 2027 12:08:24.100             8.680              Murmansk1           271.250
       307   03 Jun 2027 12:09:12.759   03 Jun 2027 12:09:47.696            34.937                 Moscow          1091.781
       308   03 Jun 2027 12:12:10.696   03 Jun 2027 12:12:16.556             5.860              Murmansk1           183.125
       309   03 Jun 2027 12:13:10.324   03 Jun 2027 12:13:39.714            29.390              Murmansk1           918.438
       310   03 Jun 2027 12:15:36.645   03 Jun 2027 12:15:43.517             6.872              Murmansk1           214.750
       311   03 Jun 2027 12:20:01.609   03 Jun 2027 12:23:52.614           231.005                Anadyr1          7218.906
       312   03 Jun 2027 13:24:40.610   03 Jun 2027 13:26:03.793            83.183               CapeTown          2599.469
       313   03 Jun 2027 13:41:36.699   03 Jun 2027 13:41:52.744            16.045              Murmansk2           501.406
       314   03 Jun 2027 13:42:43.131   03 Jun 2027 13:43:20.583            37.452              Murmansk2          1170.375
       315   03 Jun 2027 13:45:36.842   03 Jun 2027 13:46:06.730            29.888              Murmansk1           934.000
       316   03 Jun 2027 13:51:59.508   03 Jun 2027 13:52:14.390            14.882              Murmansk2           465.062
       317   03 Jun 2027 13:54:16.140   03 Jun 2027 13:56:08.773           112.633                Anadyr1          3519.781
       318   03 Jun 2027 13:57:31.437   03 Jun 2027 14:00:28.912           177.475                Anadyr2          5546.094
       319   03 Jun 2027 15:21:58.880   03 Jun 2027 15:23:38.973           100.093              Murmansk2          3127.906
       320   03 Jun 2027 15:30:01.253   03 Jun 2027 15:32:19.809           138.556                Anadyr2          4329.875
       321   03 Jun 2027 15:32:49.416   03 Jun 2027 15:36:59.197           249.781               Magadan2          7805.656
       322   03 Jun 2027 15:40:34.467   03 Jun 2027 15:40:43.109             8.642               Magadan1           270.063
       323   03 Jun 2027 15:41:02.431   03 Jun 2027 15:42:18.088            75.657               Magadan1          2364.281
       324   03 Jun 2027 17:08:13.867   03 Jun 2027 17:08:58.396            44.529               Magadan2          1391.531
       325   03 Jun 2027 17:10:26.259   03 Jun 2027 17:11:04.927            38.668               Magadan1          1208.375
       326   03 Jun 2027 17:11:55.998   03 Jun 2027 17:14:18.307           142.309               Magadan1          4447.156
       327   03 Jun 2027 18:01:07.069   03 Jun 2027 18:04:32.741           205.672            RioGallegos          6427.250
       328   03 Jun 2027 18:06:37.146   03 Jun 2027 18:07:59.342            82.196            RioGallegos          2568.625
       329   03 Jun 2027 18:44:24.425   03 Jun 2027 18:48:04.437           220.012                Norilsk          6875.375
       330   03 Jun 2027 18:49:17.915   03 Jun 2027 18:49:51.127            33.212                Irkutsk          1037.875
       331   03 Jun 2027 18:51:16.587   03 Jun 2027 18:52:10.493            53.906                Irkutsk          1684.562
       332   03 Jun 2027 18:54:51.694   03 Jun 2027 18:55:57.019            65.325                Irkutsk          2041.406
       333   03 Jun 2027 19:02:34.058   03 Jun 2027 19:03:33.716            59.658                Sumatra          1864.313
       334   03 Jun 2027 19:04:01.031   03 Jun 2027 19:05:52.001           110.970                Sumatra          3467.813
       335   03 Jun 2027 20:23:34.132   03 Jun 2027 20:25:15.501           101.369                Irkutsk          3167.781
       336   03 Jun 2027 20:32:25.983   03 Jun 2027 20:33:11.910            45.927                Novosib          1435.219
       337   03 Jun 2027 20:33:12.307   03 Jun 2027 20:37:29.668           257.361                  Delhi          8042.531
       338   03 Jun 2027 21:58:19.827   03 Jun 2027 22:02:20.951           241.124              Murmansk1          7535.125
       339   03 Jun 2027 22:03:27.307   03 Jun 2027 22:04:34.458            67.151              Murmansk2          2098.469
       340   03 Jun 2027 23:29:57.550   03 Jun 2027 23:30:19.689            22.139               Magadan1           691.844
       341   03 Jun 2027 23:31:29.195   03 Jun 2027 23:32:50.216            81.021               Magadan2          2531.906
       342   03 Jun 2027 23:33:51.322   03 Jun 2027 23:35:54.943           123.621              Murmansk2          3863.156
       343   03 Jun 2027 23:36:17.101   03 Jun 2027 23:37:18.333            61.232              Murmansk2          1913.500
       344   03 Jun 2027 23:37:24.852   03 Jun 2027 23:39:27.702           122.850                 Moscow          3839.063
       345   03 Jun 2027 23:45:29.361   03 Jun 2027 23:45:46.969            17.608                 Moscow           550.250
       346   03 Jun 2027 23:46:03.452   03 Jun 2027 23:46:55.417            51.965                 Moscow          1623.906
       347   04 Jun 2027 00:02:32.136   04 Jun 2027 00:04:59.549           147.413               CapeTown          4606.656
       348   04 Jun 2027 01:09:48.260   04 Jun 2027 01:11:22.044            93.784              Murmansk1          2930.750
       349   04 Jun 2027 01:12:13.634   04 Jun 2027 01:12:54.873            41.239              Murmansk2          1288.719
       350   04 Jun 2027 01:14:25.776   04 Jun 2027 01:16:04.241            98.465                 Moscow          3077.031
       351   04 Jun 2027 01:37:03.141   04 Jun 2027 01:37:19.309            16.168               CapeTown           505.250
       352   04 Jun 2027 01:40:00.582   04 Jun 2027 01:41:16.110            75.528               CapeTown          2360.250
       353   04 Jun 2027 02:33:48.756   04 Jun 2027 02:33:51.105             2.349                Anadyr1            73.406
       354   04 Jun 2027 02:33:58.136   04 Jun 2027 02:34:18.403            20.267                Anadyr2           633.344
       355   04 Jun 2027 02:34:21.392   04 Jun 2027 02:36:34.957           133.565               Magadan2          4173.906
       356   04 Jun 2027 02:41:23.726   04 Jun 2027 02:41:56.571            32.845               Magadan2          1026.406
       357   04 Jun 2027 02:45:43.306   04 Jun 2027 02:46:55.830            72.524              Murmansk1          2266.375
       358   04 Jun 2027 02:48:31.778   04 Jun 2027 02:48:44.964            13.186              Murmansk2           412.063
       359   04 Jun 2027 02:49:16.300   04 Jun 2027 02:50:19.961            63.661                 Moscow          1989.406
       360   04 Jun 2027 02:53:17.811   04 Jun 2027 02:53:51.581            33.770                 Moscow          1055.313
       361   04 Jun 2027 04:17:47.292   04 Jun 2027 04:18:27.158            39.866               Magadan2          1245.813
       362   04 Jun 2027 04:18:27.158   04 Jun 2027 04:18:57.014            29.856               Magadan1           933.000
       363   04 Jun 2027 04:19:20.000   04 Jun 2027 04:20:56.045            96.045               Magadan2          3001.406
       364   04 Jun 2027 04:20:56.045   04 Jun 2027 04:21:02.474             6.429               Magadan1           200.906
       365   04 Jun 2027 04:21:06.946   04 Jun 2027 04:21:10.592             3.646                Norilsk           113.937
       366   04 Jun 2027 04:21:12.659   04 Jun 2027 04:22:10.218            57.559               Magadan1          1798.719
       367   04 Jun 2027 04:58:53.891   04 Jun 2027 05:01:54.365           180.474            RioGallegos          5639.812
       368   04 Jun 2027 05:54:02.304   04 Jun 2027 05:57:01.827           179.523               Magadan1          5610.094
       369   04 Jun 2027 05:57:04.388   04 Jun 2027 05:57:13.275             8.887                Irkutsk           277.719
       370   04 Jun 2027 05:57:15.588   04 Jun 2027 05:57:27.414            11.826               Magadan2           369.563
       371   04 Jun 2027 05:57:39.152   04 Jun 2027 05:58:27.668            48.516                Norilsk          1516.125
       372   04 Jun 2027 05:59:04.841   04 Jun 2027 05:59:19.676            14.835              Murmansk2           463.594
       373   04 Jun 2027 06:01:10.521   04 Jun 2027 06:01:37.276            26.755                Norilsk           836.094
       374   04 Jun 2027 06:32:35.658   04 Jun 2027 06:34:54.603           138.945            RioGallegos          4342.031
       375   04 Jun 2027 06:35:28.364   04 Jun 2027 06:35:50.886            22.522            RioGallegos           703.812
       376   04 Jun 2027 06:36:36.120   04 Jun 2027 06:36:57.153            21.033            RioGallegos           657.281
       377   04 Jun 2027 07:08:20.232   04 Jun 2027 07:11:48.905           208.673                Sumatra          6521.031
       378   04 Jun 2027 07:28:05.232   04 Jun 2027 07:28:26.882            21.650                Irkutsk           676.563
       379   04 Jun 2027 07:28:58.626   04 Jun 2027 07:29:17.362            18.736                Novosib           585.500
       380   04 Jun 2027 07:29:22.819   04 Jun 2027 07:29:41.539            18.720                Norilsk           585.000
       381   04 Jun 2027 07:30:07.128   04 Jun 2027 07:30:40.043            32.915                Novosib          1028.594
       382   04 Jun 2027 07:30:42.429   04 Jun 2027 07:31:12.260            29.831              Murmansk2           932.219
       383   04 Jun 2027 07:31:21.089   04 Jun 2027 07:32:11.457            50.368                Irkutsk          1574.000
       384   04 Jun 2027 07:32:18.664   04 Jun 2027 07:32:28.446             9.782              Murmansk1           305.688
       385   04 Jun 2027 07:32:28.446   04 Jun 2027 07:33:14.593            46.147              Murmansk2          1442.094
       386   04 Jun 2027 07:33:22.000   04 Jun 2027 07:33:51.874            29.874                Irkutsk           933.562
       387   04 Jun 2027 07:34:07.471   04 Jun 2027 07:34:26.706            19.235              Murmansk1           601.094
       388   04 Jun 2027 07:34:48.306   04 Jun 2027 07:35:03.120            14.814              Murmansk2           462.938
       389   04 Jun 2027 07:36:29.696   04 Jun 2027 07:36:45.733            16.037              Murmansk2           501.156
       390   04 Jun 2027 08:10:47.405   04 Jun 2027 08:11:42.331            54.926            RioGallegos          1716.438
       391   04 Jun 2027 08:44:07.462   04 Jun 2027 08:44:47.469            40.007                Sumatra          1250.219
       392   04 Jun 2027 08:45:45.811   04 Jun 2027 08:47:16.672            90.861                Sumatra          2839.406
       393   04 Jun 2027 08:51:55.956   04 Jun 2027 08:53:39.429           103.473                  Delhi          3233.531
       394   04 Jun 2027 09:05:10.843   04 Jun 2027 09:05:36.844            26.001              Murmansk1           812.531
       395   04 Jun 2027 09:05:39.985   04 Jun 2027 09:07:06.281            86.296              Murmansk2          2696.750
       396   04 Jun 2027 09:07:11.057   04 Jun 2027 09:07:45.230            34.173                Novosib          1067.906
       397   04 Jun 2027 09:07:50.762   04 Jun 2027 09:08:12.380            21.618                Norilsk           675.563
       398   04 Jun 2027 09:08:13.208   04 Jun 2027 09:08:29.533            16.325                Irkutsk           510.156
       399   04 Jun 2027 09:08:37.748   04 Jun 2027 09:08:57.346            19.598                Novosib           612.437
       400   04 Jun 2027 09:09:23.336   04 Jun 2027 09:09:51.122            27.786                Novosib           868.313
       401   04 Jun 2027 09:10:21.800   04 Jun 2027 09:10:23.163             1.363              Murmansk2            42.594
       402   04 Jun 2027 09:10:56.435   04 Jun 2027 09:11:25.061            28.626                 Moscow           894.563
       403   04 Jun 2027 10:29:11.179   04 Jun 2027 10:31:18.787           127.608                  Delhi          3987.750
       404   04 Jun 2027 10:31:28.367   04 Jun 2027 10:32:07.084            38.717                  Delhi          1209.906
       405   04 Jun 2027 10:41:29.267   04 Jun 2027 10:41:31.096             1.829              Murmansk1            57.156
       406   04 Jun 2027 10:41:34.902   04 Jun 2027 10:41:58.557            23.655              Murmansk1           739.219
       407   04 Jun 2027 10:42:00.519   04 Jun 2027 10:42:26.107            25.588              Murmansk1           799.625
       408   04 Jun 2027 10:42:32.120   04 Jun 2027 10:42:51.820            19.700              Murmansk2           615.625
       409   04 Jun 2027 10:42:53.664   04 Jun 2027 10:43:07.568            13.904                 Moscow           434.500
       410   04 Jun 2027 10:43:38.255   04 Jun 2027 10:43:59.753            21.498              Murmansk1           671.812
       411   04 Jun 2027 10:44:04.968   04 Jun 2027 10:44:16.836            11.868              Murmansk1           370.875
       412   04 Jun 2027 10:44:26.852   04 Jun 2027 10:45:01.379            34.527              Murmansk1          1078.969
       413   04 Jun 2027 10:45:12.367   04 Jun 2027 10:45:17.073             4.706              Murmansk2           147.063
       414   04 Jun 2027 10:45:20.119   04 Jun 2027 10:45:37.757            17.638                Norilsk           551.187
       415   04 Jun 2027 10:45:39.803   04 Jun 2027 10:46:06.414            26.611                Norilsk           831.594
       416   04 Jun 2027 10:46:52.152   04 Jun 2027 10:47:11.111            18.959                 Moscow           592.469
       417   04 Jun 2027 12:12:15.387   04 Jun 2027 12:13:23.404            68.017                 Moscow          2125.531
       418   04 Jun 2027 12:13:47.418   04 Jun 2027 12:14:10.592            23.174                 Moscow           724.187
       419   04 Jun 2027 12:14:37.120   04 Jun 2027 12:15:14.375            37.255                 Moscow          1164.219
       420   04 Jun 2027 12:15:45.991   04 Jun 2027 12:18:34.314           168.323              Murmansk2          5260.094
       421   04 Jun 2027 12:20:13.598   04 Jun 2027 12:20:38.632            25.034              Murmansk2           782.312
       422   04 Jun 2027 12:23:50.659   04 Jun 2027 12:23:53.109             2.450              Murmansk2            76.563
       423   04 Jun 2027 12:23:53.109   04 Jun 2027 12:24:04.661            11.552              Murmansk1           361.000
       424   04 Jun 2027 12:24:14.454   04 Jun 2027 12:24:32.980            18.526                Norilsk           578.938
       425   04 Jun 2027 12:31:29.681   04 Jun 2027 12:35:01.176           211.495                Anadyr2          6609.219
       426   04 Jun 2027 12:35:53.954   04 Jun 2027 12:37:04.463            70.509                Anadyr1          2203.406
       427   04 Jun 2027 13:53:51.394   04 Jun 2027 13:54:33.081            41.687              Murmansk2          1302.719
       428   04 Jun 2027 13:55:57.228   04 Jun 2027 13:56:34.275            37.047              Murmansk1          1157.719
       429   04 Jun 2027 13:58:06.785   04 Jun 2027 13:58:27.239            20.454              Murmansk2           639.187
       430   04 Jun 2027 14:03:01.691   04 Jun 2027 14:03:30.171            28.480              Murmansk2           890.000
       431   04 Jun 2027 14:06:14.485   04 Jun 2027 14:09:32.435           197.950                Anadyr2          6185.938
       432   04 Jun 2027 14:09:44.871   04 Jun 2027 14:10:26.664            41.793                Anadyr2          1306.031
       433   04 Jun 2027 15:34:57.622   04 Jun 2027 15:37:34.290           156.668              Murmansk1          4895.875
       434   04 Jun 2027 15:42:02.441   04 Jun 2027 15:44:14.682           132.241                Anadyr2          4132.531
       435   04 Jun 2027 15:44:42.741   04 Jun 2027 15:47:49.141           186.400               Magadan1          5825.000
       436   04 Jun 2027 15:47:49.141   04 Jun 2027 15:48:44.824            55.683               Magadan2          1740.094
       437   04 Jun 2027 15:52:45.875   04 Jun 2027 15:53:02.273            16.398               Magadan1           512.437
       438   04 Jun 2027 15:53:35.530   04 Jun 2027 15:54:49.474            73.944               Magadan1          2310.750
       439   04 Jun 2027 17:20:14.483   04 Jun 2027 17:20:36.093            21.610               Magadan1           675.313
       440   04 Jun 2027 17:21:39.634   04 Jun 2027 17:22:54.748            75.114                Norilsk          2347.312
       441   04 Jun 2027 17:28:59.372   04 Jun 2027 17:29:27.840            28.468               Magadan1           889.625
       442   04 Jun 2027 18:12:46.660   04 Jun 2027 18:17:21.965           275.305            RioGallegos          8603.281
       443   04 Jun 2027 18:18:12.854   04 Jun 2027 18:19:09.183            56.329            RioGallegos          1760.281
       444   04 Jun 2027 18:55:50.490   04 Jun 2027 19:00:05.260           254.770                Norilsk          7961.563
       445   04 Jun 2027 19:01:06.700   04 Jun 2027 19:01:59.773            53.073                Irkutsk          1658.531
       446   04 Jun 2027 19:03:18.712   04 Jun 2027 19:03:26.677             7.965                Irkutsk           248.906
       447   04 Jun 2027 19:14:08.528   04 Jun 2027 19:17:47.224           218.696                Sumatra          6834.250
       448   04 Jun 2027 19:24:55.905   04 Jun 2027 19:25:53.237            57.332                Sumatra          1791.625
       449   04 Jun 2027 20:35:52.957   04 Jun 2027 20:36:49.100            56.143                Novosib          1754.469
       450   04 Jun 2027 20:43:27.512   04 Jun 2027 20:43:59.448            31.936                Novosib           998.000
       451   04 Jun 2027 20:44:03.956   04 Jun 2027 20:46:48.299           164.343                  Delhi          5135.719
       452   04 Jun 2027 20:47:19.631   04 Jun 2027 20:47:25.781             6.150                  Delhi           192.187
       453   04 Jun 2027 20:50:05.766   04 Jun 2027 20:50:58.053            52.287                  Delhi          1633.969
       454   04 Jun 2027 22:10:14.009   04 Jun 2027 22:15:57.468           343.459              Murmansk1         10733.094
       455   04 Jun 2027 22:16:06.984   04 Jun 2027 22:19:48.373           221.389                 Moscow          6918.406
       456   04 Jun 2027 23:45:52.299   04 Jun 2027 23:47:01.869            69.570              Murmansk2          2174.063
       457   04 Jun 2027 23:50:06.671   04 Jun 2027 23:50:17.210            10.539                 Moscow           329.344
       458   04 Jun 2027 23:51:29.979   04 Jun 2027 23:51:32.505             2.526                 Moscow            78.938
       459   04 Jun 2027 23:52:46.464   04 Jun 2027 23:53:42.870            56.406                 Moscow          1762.688
       460   04 Jun 2027 23:55:49.242   04 Jun 2027 23:56:01.476            12.234                 Moscow           382.312
       461   04 Jun 2027 23:56:30.622   04 Jun 2027 23:57:33.719            63.097                 Moscow          1971.781
       462   05 Jun 2027 00:14:03.552   05 Jun 2027 00:17:20.527           196.975               CapeTown          6155.469
       463   05 Jun 2027 00:19:24.101   05 Jun 2027 00:19:41.988            17.887               CapeTown           558.969
       464   05 Jun 2027 01:21:49.902   05 Jun 2027 01:24:11.080           141.178              Murmansk2          4411.812
       465   05 Jun 2027 01:25:07.612   05 Jun 2027 01:25:24.744            17.132              Murmansk1           535.375
       466   05 Jun 2027 01:26:24.527   05 Jun 2027 01:28:14.483           109.956                 Moscow          3436.125
       467   05 Jun 2027 01:56:29.620   05 Jun 2027 01:56:55.828            26.208               CapeTown           819.000
       468   05 Jun 2027 01:58:59.730   05 Jun 2027 01:59:07.915             8.185               CapeTown           255.781
       469   05 Jun 2027 02:45:58.105   05 Jun 2027 02:47:56.649           118.544                Anadyr1          3704.500
       470   05 Jun 2027 02:48:37.474   05 Jun 2027 02:48:56.005            18.531               Magadan2           579.094
       471   05 Jun 2027 02:49:14.168   05 Jun 2027 02:49:43.616            29.448               Magadan1           920.250
       472   05 Jun 2027 02:51:26.572   05 Jun 2027 02:51:37.805            11.233               Magadan2           351.031
       473   05 Jun 2027 02:52:57.975   05 Jun 2027 02:53:23.452            25.477               Magadan1           796.156
       474   05 Jun 2027 02:54:05.433   05 Jun 2027 02:54:10.147             4.714                Norilsk           147.312
       475   05 Jun 2027 02:54:26.556   05 Jun 2027 02:54:39.122            12.566                Norilsk           392.688
       476   05 Jun 2027 02:56:05.307   05 Jun 2027 02:56:07.618             2.311                Norilsk            72.219
       477   05 Jun 2027 02:56:45.895   05 Jun 2027 02:57:10.404            24.509               Magadan1           765.906
       478   05 Jun 2027 02:57:43.651   05 Jun 2027 02:59:05.557            81.906              Murmansk1          2559.562
       479   05 Jun 2027 04:28:32.737   05 Jun 2027 04:30:19.771           107.034                Irkutsk          3344.813
       480   05 Jun 2027 06:06:00.557   05 Jun 2027 06:07:22.836            82.279               Magadan1          2571.219
       481   05 Jun 2027 06:07:26.419   05 Jun 2027 06:07:31.779             5.360               Magadan1           167.500
       482   05 Jun 2027 06:07:31.779   05 Jun 2027 06:08:29.531            57.752               Magadan2          1804.750
