uniorb/output/strategy_2/Drop/Drop_KinoSat_111408.txt

KinoSat_111408
-------------------------
    Access    *     Start Time (UTCG)     *     Stop Time (UTCG)  *   Duration (s)        *       Station  *  Data (Mbytes)
         1   01 Jun 2027 04:35:08.790   01 Jun 2027 04:36:06.208            57.418                 Moscow          1794.312
         2   01 Jun 2027 05:55:53.110   01 Jun 2027 05:56:00.148             7.038               Magadan1           219.937
         3   01 Jun 2027 05:56:05.325   01 Jun 2027 05:57:43.634            98.309                Anadyr1          3072.156
         4   01 Jun 2027 05:58:12.483   01 Jun 2027 05:58:55.931            43.448                Anadyr1          1357.750
         5   01 Jun 2027 07:34:13.553   01 Jun 2027 07:34:52.345            38.792                Anadyr2          1212.250
         6   01 Jun 2027 07:35:22.836   01 Jun 2027 07:35:44.184            21.348               Magadan2           667.125
         7   01 Jun 2027 09:08:48.215   01 Jun 2027 09:09:29.304            41.089                Novosib          1284.031
         8   01 Jun 2027 09:09:29.985   01 Jun 2027 09:09:49.242            19.257               Magadan2           601.781
         9   01 Jun 2027 09:09:49.242   01 Jun 2027 09:11:47.707           118.465               Magadan1          3702.031
        10   01 Jun 2027 09:12:30.644   01 Jun 2027 09:14:25.011           114.367                Norilsk          3573.969
        11   01 Jun 2027 09:47:58.154   01 Jun 2027 09:48:53.936            55.782            RioGallegos          1743.187
        12   01 Jun 2027 09:50:01.799   01 Jun 2027 09:50:26.495            24.696            RioGallegos           771.750
        13   01 Jun 2027 10:23:36.676   01 Jun 2027 10:24:57.556            80.880                Sumatra          2527.500
        14   01 Jun 2027 10:45:28.566   01 Jun 2027 10:48:43.268           194.702                Novosib          6084.438
        15   01 Jun 2027 10:48:47.110   01 Jun 2027 10:50:44.399           117.289                Novosib          3665.281
        16   01 Jun 2027 10:50:46.370   01 Jun 2027 10:51:26.461            40.091              Murmansk2          1252.844
        17   01 Jun 2027 10:52:15.006   01 Jun 2027 10:52:28.338            13.332              Murmansk1           416.625
        18   01 Jun 2027 11:25:25.378   01 Jun 2027 11:26:15.724            50.346            RioGallegos          1573.313
        19   01 Jun 2027 11:28:01.369   01 Jun 2027 11:29:11.527            70.158            RioGallegos          2192.438
        20   01 Jun 2027 11:59:38.066   01 Jun 2027 12:00:53.455            75.389                Sumatra          2355.906
        21   01 Jun 2027 12:03:12.155   01 Jun 2027 12:04:02.674            50.519                Sumatra          1578.719
        22   01 Jun 2027 12:15:03.881   01 Jun 2027 12:15:52.981            49.100                Irkutsk          1534.375
        23   01 Jun 2027 12:16:29.411   01 Jun 2027 12:18:29.377           119.966                Irkutsk          3748.937
        24   01 Jun 2027 12:19:44.182   01 Jun 2027 12:20:38.207            54.025                Irkutsk          1688.281
        25   01 Jun 2027 13:44:45.258   01 Jun 2027 13:49:42.701           297.443                  Delhi          9295.094
        26   01 Jun 2027 13:57:11.045   01 Jun 2027 13:58:01.056            50.011                Novosib          1562.844
        27   01 Jun 2027 13:59:14.420   01 Jun 2027 14:00:00.852            46.432                Norilsk          1451.000
        28   01 Jun 2027 15:27:41.267   01 Jun 2027 15:29:29.343           108.076                 Moscow          3377.375
        29   01 Jun 2027 15:31:11.314   01 Jun 2027 15:32:10.818            59.504              Murmansk1          1859.500
        30   01 Jun 2027 15:37:58.732   01 Jun 2027 15:38:44.959            46.227              Murmansk1          1444.594
        31   01 Jun 2027 15:39:05.193   01 Jun 2027 15:40:21.918            76.725                Norilsk          2397.656
        32   01 Jun 2027 15:46:43.638   01 Jun 2027 15:47:32.216            48.578                Anadyr1          1518.062
        33   01 Jun 2027 16:43:39.467   01 Jun 2027 16:43:57.627            18.160               CapeTown           567.500
        34   01 Jun 2027 16:47:03.639   01 Jun 2027 16:47:33.992            30.353               CapeTown           948.531
        35   01 Jun 2027 17:07:28.688   01 Jun 2027 17:08:19.543            50.855                 Moscow          1589.219
        36   01 Jun 2027 17:09:15.862   01 Jun 2027 17:11:38.682           142.820                 Moscow          4463.125
        37   01 Jun 2027 17:14:16.405   01 Jun 2027 17:14:39.177            22.772              Murmansk1           711.625
        38   01 Jun 2027 17:21:36.298   01 Jun 2027 17:22:20.216            43.918                Anadyr2          1372.438
        39   01 Jun 2027 17:22:29.034   01 Jun 2027 17:22:35.634             6.600                Anadyr1           206.250
        40   01 Jun 2027 17:22:58.160   01 Jun 2027 17:23:19.376            21.216                Anadyr2           663.000
        41   01 Jun 2027 18:17:42.632   01 Jun 2027 18:18:23.385            40.753               CapeTown          1273.531
        42   01 Jun 2027 18:21:02.204   01 Jun 2027 18:21:57.066            54.862               CapeTown          1714.438
        43   01 Jun 2027 18:50:33.224   01 Jun 2027 18:54:25.255           232.031              Murmansk2          7250.969
        44   01 Jun 2027 18:54:38.161   01 Jun 2027 18:54:39.048             0.887              Murmansk1            27.719
        45   01 Jun 2027 19:00:03.258   01 Jun 2027 19:00:26.059            22.801               Magadan2           712.531
        46   01 Jun 2027 19:00:26.059   01 Jun 2027 19:00:57.923            31.864               Magadan1           995.750
        47   01 Jun 2027 19:01:07.980   01 Jun 2027 19:01:56.928            48.948               Magadan2          1529.625
        48   01 Jun 2027 19:05:54.337   01 Jun 2027 19:06:10.672            16.335               Magadan1           510.469
        49   01 Jun 2027 20:33:21.320   01 Jun 2027 20:37:04.844           223.524                Anadyr1          6985.125
        50   01 Jun 2027 20:37:08.010   01 Jun 2027 20:38:59.126           111.116                Norilsk          3472.375
        51   01 Jun 2027 20:39:03.886   01 Jun 2027 20:40:01.639            57.753               Magadan2          1804.781
        52   01 Jun 2027 20:44:15.431   01 Jun 2027 20:44:40.350            24.919               Magadan1           778.719
        53   01 Jun 2027 21:28:03.963   01 Jun 2027 21:30:25.254           141.291            RioGallegos          4415.344
        54   01 Jun 2027 21:37:10.071   01 Jun 2027 21:37:27.221            17.150            RioGallegos           535.937
        55   01 Jun 2027 22:09:02.041   01 Jun 2027 22:09:34.518            32.477                Anadyr1          1014.906
        56   01 Jun 2027 22:11:11.884   01 Jun 2027 22:12:54.666           102.782                Norilsk          3211.938
        57   01 Jun 2027 22:13:12.880   01 Jun 2027 22:13:25.261            12.381               Magadan1           386.906
        58   01 Jun 2027 22:14:22.330   01 Jun 2027 22:14:48.607            26.277                Norilsk           821.156
        59   01 Jun 2027 22:16:03.111   01 Jun 2027 22:16:51.121            48.010                Irkutsk          1500.313
        60   01 Jun 2027 22:18:59.791   01 Jun 2027 22:20:19.731            79.940                Novosib          2498.125
        61   01 Jun 2027 22:32:40.754   01 Jun 2027 22:33:19.385            38.631                Sumatra          1207.219
        62   01 Jun 2027 22:35:44.988   01 Jun 2027 22:35:55.505            10.517                Sumatra           328.656
        63   01 Jun 2027 22:38:47.292   01 Jun 2027 22:39:27.928            40.636                Sumatra          1269.875
        64   01 Jun 2027 23:43:55.767   01 Jun 2027 23:45:22.807            87.040                Anadyr2          2720.000
        65   01 Jun 2027 23:45:33.190   01 Jun 2027 23:46:13.470            40.280                Anadyr1          1258.750
        66   01 Jun 2027 23:46:27.353   01 Jun 2027 23:46:45.067            17.714                Anadyr1           553.562
        67   01 Jun 2027 23:47:07.271   01 Jun 2027 23:47:27.595            20.324                Norilsk           635.125
        68   01 Jun 2027 23:47:46.286   01 Jun 2027 23:48:31.298            45.012               Magadan2          1406.625
        69   01 Jun 2027 23:48:31.298   01 Jun 2027 23:49:19.406            48.108               Magadan1          1503.375
        70   01 Jun 2027 23:50:59.092   01 Jun 2027 23:51:36.596            37.504                Irkutsk          1172.000
        71   01 Jun 2027 23:52:32.818   01 Jun 2027 23:54:15.564           102.746                Irkutsk          3210.812
        72   01 Jun 2027 23:59:57.252   02 Jun 2027 00:00:06.507             9.255                  Delhi           289.219
        73   02 Jun 2027 00:00:14.223   02 Jun 2027 00:02:07.457           113.234                  Delhi          3538.563
        74   02 Jun 2027 01:17:36.248   02 Jun 2027 01:18:17.772            41.524                Anadyr1          1297.625
        75   02 Jun 2027 01:18:30.241   02 Jun 2027 01:18:58.520            28.279                Anadyr1           883.719
        76   02 Jun 2027 01:19:39.606   02 Jun 2027 01:20:25.447            45.841                Anadyr1          1432.531
        77   02 Jun 2027 01:23:07.414   02 Jun 2027 01:23:17.514            10.100                Norilsk           315.625
        78   02 Jun 2027 01:23:28.228   02 Jun 2027 01:25:31.111           122.883               Magadan1          3840.094
        79   02 Jun 2027 01:25:33.720   02 Jun 2027 01:26:28.580            54.860              Murmansk2          1714.375
        80   02 Jun 2027 01:26:53.981   02 Jun 2027 01:27:27.284            33.303                Novosib          1040.719
        81   02 Jun 2027 01:28:57.272   02 Jun 2027 01:29:03.802             6.530                Novosib           204.063
        82   02 Jun 2027 01:30:26.282   02 Jun 2027 01:30:37.514            11.232                Irkutsk           351.000
        83   02 Jun 2027 01:31:23.314   02 Jun 2027 01:31:30.376             7.062                 Moscow           220.687
        84   02 Jun 2027 01:31:40.904   02 Jun 2027 01:31:44.801             3.897                 Moscow           121.781
        85   02 Jun 2027 01:31:47.695   02 Jun 2027 01:32:17.208            29.513                 Moscow           922.281
        86   02 Jun 2027 01:37:02.229   02 Jun 2027 01:37:09.315             7.086                  Delhi           221.437
        87   02 Jun 2027 01:39:19.248   02 Jun 2027 01:39:27.658             8.410                  Delhi           262.813
        88   02 Jun 2027 01:39:44.405   02 Jun 2027 01:40:05.515            21.110                  Delhi           659.687
        89   02 Jun 2027 01:42:22.142   02 Jun 2027 01:42:26.002             3.860                  Delhi           120.625
        90   02 Jun 2027 01:42:47.572   02 Jun 2027 01:43:14.679            27.107                  Delhi           847.094
        91   02 Jun 2027 02:18:07.430   02 Jun 2027 02:18:51.377            43.947            RioGallegos          1373.344
        92   02 Jun 2027 02:19:25.254   02 Jun 2027 02:19:29.957             4.703            RioGallegos           146.969
        93   02 Jun 2027 02:50:56.517   02 Jun 2027 02:51:19.651            23.134                Anadyr1           722.937
        94   02 Jun 2027 02:51:20.564   02 Jun 2027 02:52:27.142            66.578                Anadyr2          2080.563
        95   02 Jun 2027 02:52:36.750   02 Jun 2027 02:53:51.181            74.431                Anadyr2          2325.969
        96   02 Jun 2027 02:56:21.540   02 Jun 2027 02:57:06.480            44.940               Magadan2          1404.375
        97   02 Jun 2027 02:58:57.600   02 Jun 2027 02:59:18.721            21.121                Norilsk           660.031
        98   02 Jun 2027 03:08:11.003   02 Jun 2027 03:08:14.529             3.526              Murmansk2           110.187
        99   02 Jun 2027 03:08:20.545   02 Jun 2027 03:08:53.726            33.181                 Moscow          1036.906
       100   02 Jun 2027 03:08:56.418   02 Jun 2027 03:10:14.581            78.163                 Moscow          2442.594
       101   02 Jun 2027 03:10:21.119   02 Jun 2027 03:11:29.667            68.548              Murmansk2          2142.125
       102   02 Jun 2027 03:13:14.552   02 Jun 2027 03:13:33.362            18.810                 Moscow           587.812
       103   02 Jun 2027 03:29:20.534   02 Jun 2027 03:30:17.447            56.913               CapeTown          1778.531
       104   02 Jun 2027 03:30:34.345   02 Jun 2027 03:31:05.836            31.491               CapeTown           984.094
       105   02 Jun 2027 04:25:16.509   02 Jun 2027 04:26:13.092            56.583                Anadyr2          1768.219
       106   02 Jun 2027 04:45:45.269   02 Jun 2027 04:48:03.155           137.886              Murmansk1          4308.937
       107   02 Jun 2027 06:07:48.202   02 Jun 2027 06:08:58.672            70.470                Anadyr1          2202.188
       108   02 Jun 2027 06:09:38.516   02 Jun 2027 06:10:25.265            46.749                Anadyr2          1460.906
       109   02 Jun 2027 06:10:45.351   02 Jun 2027 06:12:12.483            87.132               Magadan1          2722.875
       110   02 Jun 2027 06:12:18.776   02 Jun 2027 06:12:46.303            27.527                Anadyr2           860.219
       111   02 Jun 2027 06:13:07.240   02 Jun 2027 06:13:24.359            17.119              Murmansk2           534.969
       112   02 Jun 2027 06:13:42.866   02 Jun 2027 06:14:02.532            19.666              Murmansk1           614.563
       113   02 Jun 2027 07:45:17.712   02 Jun 2027 07:48:12.388           174.676                Anadyr2          5458.625
       114   02 Jun 2027 09:19:57.816   02 Jun 2027 09:20:40.238            42.422                Novosib          1325.688
       115   02 Jun 2027 09:20:48.541   02 Jun 2027 09:20:51.231             2.690                Norilsk            84.062
       116   02 Jun 2027 09:21:06.528   02 Jun 2027 09:24:49.497           222.969               Magadan1          6967.781
       117   02 Jun 2027 09:25:09.091   02 Jun 2027 09:25:13.262             4.171                Irkutsk           130.344
       118   02 Jun 2027 09:25:16.198   02 Jun 2027 09:26:17.103            60.905              Murmansk2          1903.281
       119   02 Jun 2027 09:26:43.803   02 Jun 2027 09:26:56.377            12.574              Murmansk2           392.938
       120   02 Jun 2027 09:59:58.143   02 Jun 2027 10:01:00.849            62.706            RioGallegos          1959.563
       121   02 Jun 2027 10:35:17.290   02 Jun 2027 10:37:15.901           118.611                Sumatra          3706.594
       122   02 Jun 2027 10:55:02.204   02 Jun 2027 10:55:16.373            14.169                Norilsk           442.781
       123   02 Jun 2027 10:55:17.644   02 Jun 2027 10:55:38.153            20.509                Irkutsk           640.906
       124   02 Jun 2027 10:55:40.877   02 Jun 2027 10:56:37.259            56.382                Irkutsk          1761.938
       125   02 Jun 2027 10:56:41.644   02 Jun 2027 10:56:43.164             1.520                Novosib            47.500
       126   02 Jun 2027 10:56:43.351   02 Jun 2027 10:57:00.180            16.829                Novosib           525.906
       127   02 Jun 2027 10:57:05.406   02 Jun 2027 10:57:11.056             5.650                Norilsk           176.562
       128   02 Jun 2027 10:57:25.622   02 Jun 2027 10:57:33.699             8.077                Irkutsk           252.406
       129   02 Jun 2027 10:57:39.792   02 Jun 2027 10:58:49.287            69.495                Novosib          2171.719
       130   02 Jun 2027 10:58:57.748   02 Jun 2027 10:59:49.268            51.520                Novosib          1610.000
       131   02 Jun 2027 11:00:02.067   02 Jun 2027 11:00:46.628            44.561                Novosib          1392.531
       132   02 Jun 2027 11:00:51.399   02 Jun 2027 11:01:20.645            29.246              Murmansk2           913.938
       133   02 Jun 2027 11:05:08.775   02 Jun 2027 11:05:14.425             5.650              Murmansk2           176.563
       134   02 Jun 2027 11:37:59.578   02 Jun 2027 11:38:30.530            30.952            RioGallegos           967.250
       135   02 Jun 2027 11:39:26.173   02 Jun 2027 11:40:01.893            35.720            RioGallegos          1116.250
       136   02 Jun 2027 12:12:13.579   02 Jun 2027 12:12:31.678            18.099                Sumatra           565.594
       137   02 Jun 2027 12:12:49.027   02 Jun 2027 12:12:58.945             9.918                Sumatra           309.937
       138   02 Jun 2027 12:15:59.243   02 Jun 2027 12:16:36.405            37.162                Sumatra          1161.313
       139   02 Jun 2027 12:19:59.524   02 Jun 2027 12:22:15.833           136.309                  Delhi          4259.656
       140   02 Jun 2027 12:27:30.062   02 Jun 2027 12:29:06.626            96.564                Novosib          3017.625
       141   02 Jun 2027 12:30:14.693   02 Jun 2027 12:30:38.574            23.881                Norilsk           746.281
       142   02 Jun 2027 12:34:54.795   02 Jun 2027 12:35:16.785            21.990              Murmansk1           687.187
       143   02 Jun 2027 13:57:39.442   02 Jun 2027 14:00:03.113           143.671                  Delhi          4489.719
       144   02 Jun 2027 14:03:45.578   02 Jun 2027 14:04:42.885            57.307                 Moscow          1790.844
       145   02 Jun 2027 14:06:11.001   02 Jun 2027 14:09:10.329           179.328                Novosib          5604.000
       146   02 Jun 2027 14:09:13.269   02 Jun 2027 14:09:46.879            33.610                Norilsk          1050.312
       147   02 Jun 2027 14:11:22.501   02 Jun 2027 14:11:50.728            28.227                Norilsk           882.094
       148   02 Jun 2027 14:12:44.622   02 Jun 2027 14:14:24.248            99.626                Norilsk          3113.312
       149   02 Jun 2027 15:20:06.788   02 Jun 2027 15:21:40.951            94.163               CapeTown          2942.594
       150   02 Jun 2027 15:40:07.715   02 Jun 2027 15:40:28.525            20.810                 Moscow           650.313
       151   02 Jun 2027 15:41:02.887   02 Jun 2027 15:41:11.558             8.671                 Moscow           270.969
       152   02 Jun 2027 15:43:22.511   02 Jun 2027 15:44:12.221            49.710              Murmansk1          1553.437
       153   02 Jun 2027 15:44:32.573   02 Jun 2027 15:46:08.803            96.230              Murmansk1          3007.188
       154   02 Jun 2027 15:58:27.329   02 Jun 2027 15:59:29.447            62.118                Anadyr1          1941.188
       155   02 Jun 2027 16:00:09.554   02 Jun 2027 16:00:33.981            24.427                Anadyr2           763.344
       156   02 Jun 2027 16:52:56.580   02 Jun 2027 16:53:42.468            45.888               CapeTown          1434.000
       157   02 Jun 2027 16:55:02.927   02 Jun 2027 16:55:25.304            22.377               CapeTown           699.281
       158   02 Jun 2027 17:01:44.676   02 Jun 2027 17:02:02.745            18.069               CapeTown           564.656
       159   02 Jun 2027 17:20:38.200   02 Jun 2027 17:22:39.640           121.440                 Moscow          3795.000
       160   02 Jun 2027 17:23:19.405   02 Jun 2027 17:24:17.723            58.318              Murmansk1          1822.437
       161   02 Jun 2027 17:33:35.787   02 Jun 2027 17:35:19.337           103.550                Anadyr1          3235.937
       162   02 Jun 2027 17:37:21.924   02 Jun 2027 17:38:08.555            46.631                Anadyr2          1457.219
       163   02 Jun 2027 17:38:51.438   02 Jun 2027 17:39:59.343            67.905               Magadan1          2122.031
       164   02 Jun 2027 19:03:56.931   02 Jun 2027 19:06:00.096           123.165              Murmansk2          3848.906
       165   02 Jun 2027 19:09:27.314   02 Jun 2027 19:11:19.159           111.845                Anadyr2          3495.156
       166   02 Jun 2027 19:11:42.302   02 Jun 2027 19:12:14.460            32.158                Anadyr2          1004.938
       167   02 Jun 2027 19:12:28.078   02 Jun 2027 19:13:49.770            81.692               Magadan2          2552.875
       168   02 Jun 2027 19:14:23.977   02 Jun 2027 19:14:37.369            13.392               Magadan2           418.500
       169   02 Jun 2027 19:14:57.966   02 Jun 2027 19:15:52.478            54.512               Magadan1          1703.500
       170   02 Jun 2027 20:45:22.239   02 Jun 2027 20:49:07.812           225.573                Anadyr1          7049.156
       171   02 Jun 2027 20:49:13.717   02 Jun 2027 20:51:46.059           152.342               Magadan2          4760.688
       172   02 Jun 2027 20:51:46.059   02 Jun 2027 20:51:58.776            12.717               Magadan1           397.406
       173   02 Jun 2027 20:59:00.634   02 Jun 2027 20:59:43.198            42.564               Magadan2          1330.125
       174   02 Jun 2027 21:39:50.380   02 Jun 2027 21:42:18.482           148.102            RioGallegos          4628.187
       175   02 Jun 2027 21:43:11.432   02 Jun 2027 21:43:31.213            19.781            RioGallegos           618.156
       176   02 Jun 2027 22:20:59.196   02 Jun 2027 22:21:42.969            43.773                Anadyr2          1367.906
       177   02 Jun 2027 22:23:12.270   02 Jun 2027 22:23:20.873             8.603                Norilsk           268.844
       178   02 Jun 2027 22:23:42.214   02 Jun 2027 22:25:38.269           116.055               Magadan2          3626.719
       179   02 Jun 2027 22:27:04.570   02 Jun 2027 22:27:34.065            29.495               Magadan1           921.719
       180   02 Jun 2027 22:27:47.032   02 Jun 2027 22:28:13.197            26.165                Irkutsk           817.656
       181   02 Jun 2027 22:28:58.199   02 Jun 2027 22:29:51.567            53.368                Irkutsk          1667.750
       182   02 Jun 2027 22:30:18.867   02 Jun 2027 22:30:51.954            33.087                Novosib          1033.969
       183   02 Jun 2027 22:31:34.512   02 Jun 2027 22:32:12.774            38.262                Novosib          1195.688
       184   02 Jun 2027 22:41:10.212   02 Jun 2027 22:43:31.293           141.081                Sumatra          4408.781
       185   02 Jun 2027 23:56:28.447   02 Jun 2027 23:58:00.285            91.838                Anadyr2          2869.937
       186   02 Jun 2027 23:58:08.697   02 Jun 2027 23:58:28.079            19.382                Anadyr2           605.687
       187   02 Jun 2027 23:59:09.441   02 Jun 2027 23:59:26.652            17.211                Norilsk           537.844
       188   02 Jun 2027 23:59:48.672   03 Jun 2027 00:01:10.331            81.659               Magadan1          2551.844
       189   03 Jun 2027 00:02:26.485   03 Jun 2027 00:02:32.137             5.652                Norilsk           176.625
       190   03 Jun 2027 00:03:01.715   03 Jun 2027 00:03:59.330            57.615                Irkutsk          1800.469
       191   03 Jun 2027 00:04:12.228   03 Jun 2027 00:05:11.213            58.985                Novosib          1843.281
       192   03 Jun 2027 00:06:51.838   03 Jun 2027 00:07:12.639            20.801                Novosib           650.031
       193   03 Jun 2027 00:07:26.774   03 Jun 2027 00:08:04.274            37.500                Novosib          1171.875
       194   03 Jun 2027 00:10:58.889   03 Jun 2027 00:12:12.075            73.186                  Delhi          2287.062
       195   03 Jun 2027 00:12:46.280   03 Jun 2027 00:14:13.673            87.393                  Delhi          2731.031
       196   03 Jun 2027 00:59:47.358   03 Jun 2027 01:00:03.063            15.705            RioGallegos           490.781
       197   03 Jun 2027 01:01:11.559   03 Jun 2027 01:01:46.830            35.271            RioGallegos          1102.219
       198   03 Jun 2027 01:29:17.407   03 Jun 2027 01:29:35.514            18.107                Anadyr2           565.844
       199   03 Jun 2027 01:30:25.762   03 Jun 2027 01:30:52.576            26.814                Anadyr1           837.937
       200   03 Jun 2027 01:31:40.920   03 Jun 2027 01:32:14.656            33.736                Anadyr1          1054.250
       201   03 Jun 2027 01:35:09.042   03 Jun 2027 01:35:48.950            39.908                Norilsk          1247.125
       202   03 Jun 2027 01:35:50.282   03 Jun 2027 01:37:07.074            76.792               Magadan2          2399.750
       203   03 Jun 2027 01:37:30.679   03 Jun 2027 01:39:30.554           119.875              Murmansk1          3746.094
       204   03 Jun 2027 01:40:14.204   03 Jun 2027 01:42:04.439           110.235                Novosib          3444.844
       205   03 Jun 2027 01:52:11.355   03 Jun 2027 01:52:40.777            29.422                  Delhi           919.437
       206   03 Jun 2027 01:56:20.070   03 Jun 2027 01:56:26.040             5.970                  Delhi           186.563
       207   03 Jun 2027 03:10:15.494   03 Jun 2027 03:10:59.863            44.369               Magadan1          1386.531
       208   03 Jun 2027 03:20:25.982   03 Jun 2027 03:20:31.966             5.984              Murmansk1           187.000
       209   03 Jun 2027 03:20:53.324   03 Jun 2027 03:22:15.384            82.060                Norilsk          2564.375
       210   03 Jun 2027 03:22:23.335   03 Jun 2027 03:23:59.461            96.126              Murmansk2          3003.937
       211   03 Jun 2027 03:24:54.253   03 Jun 2027 03:25:29.691            35.438                 Moscow          1107.437
       212   03 Jun 2027 03:25:55.785   03 Jun 2027 03:27:55.955           120.170                 Moscow          3755.312
       213   03 Jun 2027 03:40:59.847   03 Jun 2027 03:44:07.942           188.095               CapeTown          5877.969
       214   03 Jun 2027 04:44:39.489   03 Jun 2027 04:45:49.483            69.994                Anadyr2          2187.313
       215   03 Jun 2027 04:46:11.897   03 Jun 2027 04:46:14.641             2.744               Magadan2            85.750
       216   03 Jun 2027 04:48:16.951   03 Jun 2027 04:48:30.081            13.130                Norilsk           410.313
       217   03 Jun 2027 04:48:55.684   03 Jun 2027 04:49:16.146            20.462                Anadyr2           639.438
       218   03 Jun 2027 04:49:38.245   03 Jun 2027 04:50:02.609            24.364                Anadyr2           761.375
       219   03 Jun 2027 04:57:08.797   03 Jun 2027 04:57:37.304            28.507              Murmansk2           890.844
       220   03 Jun 2027 04:57:51.704   03 Jun 2027 04:58:16.786            25.082                 Moscow           783.812
       221   03 Jun 2027 04:58:18.698   03 Jun 2027 04:58:45.755            27.057                 Moscow           845.531
       222   03 Jun 2027 04:58:50.897   03 Jun 2027 04:59:59.039            68.142              Murmansk2          2129.437
       223   03 Jun 2027 05:17:07.963   03 Jun 2027 05:18:14.643            66.680               CapeTown          2083.750
       224   03 Jun 2027 05:18:20.828   03 Jun 2027 05:18:26.516             5.688               CapeTown           177.750
       225   03 Jun 2027 05:19:04.365   03 Jun 2027 05:21:01.223           116.858               CapeTown          3651.812
       226   03 Jun 2027 06:18:56.333   03 Jun 2027 06:19:01.221             4.888               Magadan2           152.750
       227   03 Jun 2027 06:19:06.155   03 Jun 2027 06:19:11.549             5.394                Anadyr2           168.562
       228   03 Jun 2027 06:19:18.444   03 Jun 2027 06:19:40.374            21.930               Magadan1           685.313
       229   03 Jun 2027 06:19:50.920   03 Jun 2027 06:19:51.976             1.056               Magadan1            33.000
       230   03 Jun 2027 06:19:59.389   03 Jun 2027 06:20:19.328            19.939               Magadan1           623.094
       231   03 Jun 2027 06:20:32.043   03 Jun 2027 06:21:31.469            59.426                Anadyr1          1857.063
       232   03 Jun 2027 06:21:42.302   03 Jun 2027 06:21:43.829             1.527               Magadan1            47.719
       233   03 Jun 2027 06:21:43.829   03 Jun 2027 06:21:52.587             8.758               Magadan2           273.687
       234   03 Jun 2027 06:21:54.462   03 Jun 2027 06:22:25.159            30.697                Norilsk           959.281
       235   03 Jun 2027 06:22:31.694   03 Jun 2027 06:22:37.309             5.615               Magadan1           175.469
       236   03 Jun 2027 06:23:07.055   03 Jun 2027 06:23:09.910             2.855                Anadyr1            89.219
       237   03 Jun 2027 06:23:31.448   03 Jun 2027 06:23:38.990             7.542               Magadan1           235.687
       238   03 Jun 2027 06:23:47.283   03 Jun 2027 06:24:20.573            33.290                Anadyr1          1040.312
       239   03 Jun 2027 06:24:49.879   03 Jun 2027 06:24:52.015             2.136                Anadyr2            66.750
       240   03 Jun 2027 06:24:52.015   03 Jun 2027 06:25:58.112            66.097                Anadyr1          2065.531
       241   03 Jun 2027 07:07:36.433   03 Jun 2027 07:08:17.329            40.896            RioGallegos          1278.000
       242   03 Jun 2027 07:53:41.462   03 Jun 2027 07:54:19.352            37.890                Anadyr2          1184.063
       243   03 Jun 2027 07:55:16.343   03 Jun 2027 07:56:27.386            71.043                Anadyr1          2220.094
       244   03 Jun 2027 07:56:43.274   03 Jun 2027 07:57:49.763            66.489               Magadan1          2077.781
       245   03 Jun 2027 07:57:55.342   03 Jun 2027 07:58:17.367            22.025                Anadyr2           688.281
       246   03 Jun 2027 07:58:31.994   03 Jun 2027 07:58:43.200            11.206                Norilsk           350.187
       247   03 Jun 2027 07:59:02.354   03 Jun 2027 07:59:18.934            16.580                Norilsk           518.125
       248   03 Jun 2027 07:59:24.940   03 Jun 2027 07:59:57.409            32.469               Magadan2          1014.656
       249   03 Jun 2027 08:00:12.564   03 Jun 2027 08:01:24.215            71.651                Anadyr2          2239.094
       250   03 Jun 2027 08:37:21.368   03 Jun 2027 08:37:33.606            12.238            RioGallegos           382.438
       251   03 Jun 2027 09:29:50.222   03 Jun 2027 09:32:03.582           133.360               Magadan1          4167.500
       252   03 Jun 2027 09:32:48.555   03 Jun 2027 09:32:53.133             4.578                Norilsk           143.062
       253   03 Jun 2027 09:32:54.124   03 Jun 2027 09:33:51.988            57.864               Magadan2          1808.250
       254   03 Jun 2027 09:33:59.369   03 Jun 2027 09:34:30.745            31.376                Irkutsk           980.500
       255   03 Jun 2027 09:34:35.235   03 Jun 2027 09:35:46.169            70.934               Magadan1          2216.687
       256   03 Jun 2027 09:35:46.169   03 Jun 2027 09:36:37.649            51.480               Magadan2          1608.750
       257   03 Jun 2027 09:36:43.575   03 Jun 2027 09:37:17.941            34.366                Novosib          1073.937
       258   03 Jun 2027 09:38:23.887   03 Jun 2027 09:38:41.146            17.259              Murmansk2           539.344
       259   03 Jun 2027 09:39:44.679   03 Jun 2027 09:39:52.163             7.484              Murmansk1           233.875
       260   03 Jun 2027 09:44:32.377   03 Jun 2027 09:45:07.504            35.127              Murmansk1          1097.719
       261   03 Jun 2027 10:12:01.491   03 Jun 2027 10:12:16.256            14.765            RioGallegos           461.406
       262   03 Jun 2027 10:12:54.054   03 Jun 2027 10:13:00.367             6.313            RioGallegos           197.281
       263   03 Jun 2027 10:13:26.657   03 Jun 2027 10:14:19.143            52.486            RioGallegos          1640.188
       264   03 Jun 2027 10:47:04.719   03 Jun 2027 10:47:46.837            42.118                Sumatra          1316.187
       265   03 Jun 2027 11:00:07.178   03 Jun 2027 11:00:30.885            23.707                  Delhi           740.844
       266   03 Jun 2027 11:07:02.927   03 Jun 2027 11:07:26.540            23.613                Norilsk           737.906
       267   03 Jun 2027 11:07:28.714   03 Jun 2027 11:08:00.933            32.219                Norilsk          1006.844
       268   03 Jun 2027 11:08:21.540   03 Jun 2027 11:08:28.152             6.612                Novosib           206.625
       269   03 Jun 2027 11:08:30.251   03 Jun 2027 11:09:08.584            38.333                Irkutsk          1197.906
       270   03 Jun 2027 11:09:18.144   03 Jun 2027 11:10:33.058            74.914                Norilsk          2341.063
       271   03 Jun 2027 11:10:38.424   03 Jun 2027 11:11:21.262            42.838                Irkutsk          1338.688
       272   03 Jun 2027 11:11:28.891   03 Jun 2027 11:12:28.372            59.481                Norilsk          1858.781
       273   03 Jun 2027 11:12:34.045   03 Jun 2027 11:12:36.628             2.583                Norilsk            80.719
       274   03 Jun 2027 11:12:37.287   03 Jun 2027 11:12:52.898            15.611              Murmansk1           487.844
       275   03 Jun 2027 11:12:55.338   03 Jun 2027 11:12:57.067             1.729                Norilsk            54.031
       276   03 Jun 2027 11:13:08.480   03 Jun 2027 11:13:25.485            17.005              Murmansk2           531.406
       277   03 Jun 2027 11:14:20.139   03 Jun 2027 11:14:22.112             1.973                 Moscow            61.656
       278   03 Jun 2027 11:15:48.607   03 Jun 2027 11:16:17.248            28.641                Norilsk           895.031
       279   03 Jun 2027 11:50:41.273   03 Jun 2027 11:50:49.575             8.302            RioGallegos           259.437
       280   03 Jun 2027 11:51:29.504   03 Jun 2027 11:52:05.816            36.312            RioGallegos          1134.750
       281   03 Jun 2027 11:52:57.523   03 Jun 2027 11:53:04.915             7.392            RioGallegos           231.000
       282   03 Jun 2027 11:54:08.161   03 Jun 2027 11:55:20.900            72.739            RioGallegos          2273.094
       283   03 Jun 2027 12:25:05.389   03 Jun 2027 12:25:10.449             5.060                Sumatra           158.125
       284   03 Jun 2027 12:30:42.881   03 Jun 2027 12:30:46.593             3.712                Sumatra           116.000
       285   03 Jun 2027 12:34:41.523   03 Jun 2027 12:35:02.763            21.240                  Delhi           663.750
       286   03 Jun 2027 12:38:28.195   03 Jun 2027 12:40:01.477            93.282                Novosib          2915.063
       287   03 Jun 2027 12:41:15.976   03 Jun 2027 12:42:20.355            64.379                Irkutsk          2011.844
       288   03 Jun 2027 12:42:31.736   03 Jun 2027 12:43:48.551            76.815                Norilsk          2400.469
       289   03 Jun 2027 14:11:01.544   03 Jun 2027 14:14:22.844           201.300                  Delhi          6290.625
       290   03 Jun 2027 14:16:45.496   03 Jun 2027 14:16:49.466             3.970                 Moscow           124.063
       291   03 Jun 2027 14:17:19.765   03 Jun 2027 14:17:41.841            22.076                 Moscow           689.875
       292   03 Jun 2027 14:18:56.576   03 Jun 2027 14:20:31.257            94.681              Murmansk2          2958.781
       293   03 Jun 2027 14:20:41.812   03 Jun 2027 14:21:13.802            31.990              Murmansk1           999.688
       294   03 Jun 2027 14:21:48.869   03 Jun 2027 14:22:39.576            50.707                Norilsk          1584.594
       295   03 Jun 2027 14:23:05.750   03 Jun 2027 14:23:32.750            27.000                Novosib           843.750
       296   03 Jun 2027 14:24:09.169   03 Jun 2027 14:24:46.903            37.734                Norilsk          1179.187
       297   03 Jun 2027 15:31:08.251   03 Jun 2027 15:33:38.809           150.558               CapeTown          4704.938
       298   03 Jun 2027 15:53:05.271   03 Jun 2027 15:53:36.218            30.947                 Moscow           967.094
       299   03 Jun 2027 15:55:35.605   03 Jun 2027 15:56:34.465            58.860              Murmansk1          1839.375
       300   03 Jun 2027 15:58:05.112   03 Jun 2027 15:58:30.502            25.390              Murmansk2           793.438
       301   03 Jun 2027 15:58:30.502   03 Jun 2027 15:59:00.366            29.864              Murmansk1           933.250
       302   03 Jun 2027 16:10:16.147   03 Jun 2027 16:11:43.803            87.656                Anadyr1          2739.250
       303   03 Jun 2027 16:12:41.102   03 Jun 2027 16:14:01.775            80.673                Anadyr1          2521.031
       304   03 Jun 2027 17:04:56.477   03 Jun 2027 17:07:25.867           149.390               CapeTown          4668.438
       305   03 Jun 2027 17:34:20.270   03 Jun 2027 17:35:03.440            43.170              Murmansk2          1349.063
       306   03 Jun 2027 17:36:19.110   03 Jun 2027 17:36:52.425            33.315              Murmansk2          1041.094
       307   03 Jun 2027 17:37:44.882   03 Jun 2027 17:38:20.673            35.791              Murmansk2          1118.469
       308   03 Jun 2027 17:45:35.784   03 Jun 2027 17:45:38.972             3.188                Anadyr1            99.625
       309   03 Jun 2027 17:46:05.347   03 Jun 2027 17:47:20.733            75.386                Anadyr1          2355.813
       310   03 Jun 2027 17:48:26.780   03 Jun 2027 17:48:29.363             2.583                Anadyr1            80.719
       311   03 Jun 2027 17:48:44.192   03 Jun 2027 17:49:11.343            27.151                Anadyr1           848.469
       312   03 Jun 2027 17:49:48.573   03 Jun 2027 17:51:18.083            89.510               Magadan2          2797.188
       313   03 Jun 2027 17:51:42.256   03 Jun 2027 17:52:34.237            51.981               Magadan2          1624.406
       314   03 Jun 2027 19:21:28.950   03 Jun 2027 19:25:14.553           225.603                Anadyr1          7050.094
       315   03 Jun 2027 19:25:39.226   03 Jun 2027 19:27:29.674           110.448               Magadan1          3451.500
       316   03 Jun 2027 19:34:31.298   03 Jun 2027 19:35:02.444            31.146               Magadan2           973.313
       317   03 Jun 2027 20:57:22.899   03 Jun 2027 21:01:04.796           221.897                Anadyr1          6934.281
       318   03 Jun 2027 21:01:07.057   03 Jun 2027 21:01:25.881            18.824                Norilsk           588.250
       319   03 Jun 2027 21:01:47.001   03 Jun 2027 21:03:15.753            88.752                Norilsk          2773.500
       320   03 Jun 2027 21:03:18.986   03 Jun 2027 21:04:25.745            66.759               Magadan1          2086.219
       321   03 Jun 2027 21:06:25.900   03 Jun 2027 21:08:21.978           116.078                Irkutsk          3627.437
       322   03 Jun 2027 21:51:40.243   03 Jun 2027 21:53:29.545           109.302            RioGallegos          3415.688
       323   03 Jun 2027 21:57:37.953   03 Jun 2027 21:57:50.224            12.271            RioGallegos           383.469
       324   03 Jun 2027 22:32:55.538   03 Jun 2027 22:33:37.624            42.086                Anadyr1          1315.187
       325   03 Jun 2027 22:34:33.921   03 Jun 2027 22:35:18.191            44.270                Anadyr2          1383.437
       326   03 Jun 2027 22:35:23.650   03 Jun 2027 22:37:02.818            99.168                Norilsk          3099.000
       327   03 Jun 2027 22:37:07.641   03 Jun 2027 22:37:40.569            32.928               Magadan2          1029.000
       328   03 Jun 2027 22:39:19.035   03 Jun 2027 22:40:11.465            52.430                Irkutsk          1638.438
       329   03 Jun 2027 22:40:46.874   03 Jun 2027 22:42:09.326            82.452                Novosib          2576.625
       330   03 Jun 2027 22:53:00.734   03 Jun 2027 22:55:01.591           120.857                Sumatra          3776.781
       331   04 Jun 2027 00:07:31.216   04 Jun 2027 00:08:58.316            87.100                Anadyr1          2721.875
       332   04 Jun 2027 00:10:10.361   04 Jun 2027 00:10:18.320             7.959                Anadyr1           248.719
       333   04 Jun 2027 00:11:11.640   04 Jun 2027 00:13:15.437           123.797                Norilsk          3868.656
       334   04 Jun 2027 00:13:50.415   04 Jun 2027 00:14:12.578            22.163               Magadan1           692.594
       335   04 Jun 2027 00:14:45.736   04 Jun 2027 00:15:20.572            34.836               Magadan1          1088.625
       336   04 Jun 2027 00:16:16.467   04 Jun 2027 00:17:49.807            93.340                Novosib          2916.875
       337   04 Jun 2027 00:18:17.495   04 Jun 2027 00:18:32.082            14.587                Novosib           455.844
       338   04 Jun 2027 00:19:02.983   04 Jun 2027 00:19:32.512            29.529                Novosib           922.781
       339   04 Jun 2027 00:20:32.108   04 Jun 2027 00:21:58.709            86.601                Novosib          2706.281
       340   04 Jun 2027 00:33:01.732   04 Jun 2027 00:34:18.662            76.930                  Delhi          2404.062
       341   04 Jun 2027 01:08:23.736   04 Jun 2027 01:09:03.997            40.261            RioGallegos          1258.156
       342   04 Jun 2027 01:40:58.433   04 Jun 2027 01:41:20.509            22.076                Anadyr1           689.875
       343   04 Jun 2027 01:41:39.820   04 Jun 2027 01:42:19.611            39.791                Anadyr1          1243.469
       344   04 Jun 2027 01:42:58.724   04 Jun 2027 01:43:27.169            28.445                Anadyr2           888.906
       345   04 Jun 2027 01:43:58.734   04 Jun 2027 01:44:17.226            18.492                Anadyr2           577.875
       346   04 Jun 2027 01:46:22.354   04 Jun 2027 01:46:36.574            14.220                Anadyr1           444.375
       347   04 Jun 2027 01:47:08.282   04 Jun 2027 01:48:27.228            78.946               Magadan1          2467.062
       348   04 Jun 2027 01:48:41.724   04 Jun 2027 01:48:51.305             9.581                Norilsk           299.406
       349   04 Jun 2027 01:49:28.848   04 Jun 2027 01:51:32.882           124.034              Murmansk2          3876.062
       350   04 Jun 2027 01:52:25.582   04 Jun 2027 01:53:19.461            53.879                Novosib          1683.719
       351   04 Jun 2027 01:58:49.296   04 Jun 2027 01:59:07.189            17.893                  Delhi           559.156
       352   04 Jun 2027 01:59:42.100   04 Jun 2027 01:59:43.576             1.476                  Delhi            46.125
       353   04 Jun 2027 01:59:58.862   04 Jun 2027 02:00:23.364            24.502                  Delhi           765.688
       354   04 Jun 2027 02:06:32.688   04 Jun 2027 02:06:56.415            23.727                  Delhi           741.469
       355   04 Jun 2027 03:20:53.726   04 Jun 2027 03:21:26.239            32.513               Magadan1          1016.031
       356   04 Jun 2027 03:21:47.997   04 Jun 2027 03:22:54.978            66.981               Magadan1          2093.156
       357   04 Jun 2027 03:32:21.096   04 Jun 2027 03:32:29.280             8.184                Norilsk           255.750
       358   04 Jun 2027 03:32:49.415   04 Jun 2027 03:32:53.540             4.125                Norilsk           128.906
       359   04 Jun 2027 03:33:44.560   04 Jun 2027 03:36:07.014           142.454              Murmansk1          4451.688
       360   04 Jun 2027 03:37:28.427   04 Jun 2027 03:41:15.121           226.694                 Moscow          7084.188
       361   04 Jun 2027 03:52:44.753   04 Jun 2027 03:56:11.404           206.651               CapeTown          6457.844
       362   04 Jun 2027 04:55:48.558   04 Jun 2027 04:56:21.310            32.752               Magadan2          1023.500
       363   04 Jun 2027 04:56:39.912   04 Jun 2027 04:56:53.856            13.944                Anadyr2           435.750
       364   04 Jun 2027 04:58:05.172   04 Jun 2027 04:58:33.463            28.291               Magadan2           884.094
       365   04 Jun 2027 05:00:27.135   04 Jun 2027 05:01:36.194            69.059               Magadan1          2158.094
       366   04 Jun 2027 05:08:18.136   04 Jun 2027 05:08:20.033             1.897              Murmansk2            59.281
       367   04 Jun 2027 05:08:20.033   04 Jun 2027 05:08:27.346             7.313              Murmansk1           228.531
       368   04 Jun 2027 05:08:40.267   04 Jun 2027 05:09:25.907            45.640                 Moscow          1426.250
       369   04 Jun 2027 05:09:28.399   04 Jun 2027 05:10:27.634            59.235              Murmansk2          1851.094
       370   04 Jun 2027 05:29:38.403   04 Jun 2027 05:29:45.375             6.972               CapeTown           217.875
       371   04 Jun 2027 05:33:38.467   04 Jun 2027 05:34:48.537            70.070               CapeTown          2189.688
       372   04 Jun 2027 06:29:50.998   04 Jun 2027 06:30:12.642            21.644                Anadyr1           676.375
       373   04 Jun 2027 06:30:17.939   04 Jun 2027 06:31:22.767            64.828                Anadyr2          2025.875
       374   04 Jun 2027 06:31:29.349   04 Jun 2027 06:32:05.290            35.941                Anadyr2          1123.156
       375   04 Jun 2027 06:32:22.939   04 Jun 2027 06:33:42.687            79.748               Magadan1          2492.125
       376   04 Jun 2027 06:33:45.002   04 Jun 2027 06:34:31.509            46.507               Magadan1          1453.344
       377   04 Jun 2027 06:35:03.365   04 Jun 2027 06:35:40.138            36.773               Magadan2          1149.156
       378   04 Jun 2027 06:36:59.857   04 Jun 2027 06:37:58.425            58.568                Anadyr2          1830.250
       379   04 Jun 2027 07:17:43.727   04 Jun 2027 07:18:15.727            32.000            RioGallegos          1000.000
       380   04 Jun 2027 07:21:57.155   04 Jun 2027 07:21:57.765             0.610            RioGallegos            19.062
       381   04 Jun 2027 08:05:16.280   04 Jun 2027 08:06:26.546            70.266                Irkutsk          2195.813
       382   04 Jun 2027 08:06:46.489   04 Jun 2027 08:07:37.665            51.176               Magadan1          1599.250
       383   04 Jun 2027 08:07:46.369   04 Jun 2027 08:08:09.835            23.466               Magadan1           733.313
       384   04 Jun 2027 08:08:09.835   04 Jun 2027 08:08:25.114            15.279               Magadan2           477.469
       385   04 Jun 2027 08:08:28.164   04 Jun 2027 08:09:51.418            83.254                Anadyr1          2601.687
       386   04 Jun 2027 08:09:53.035   04 Jun 2027 08:10:20.795            27.760               Magadan1           867.500
       387   04 Jun 2027 08:10:28.215   04 Jun 2027 08:12:12.235           104.020                Anadyr2          3250.625
       388   04 Jun 2027 08:12:48.393   04 Jun 2027 08:13:04.153            15.760              Murmansk2           492.500
       389   04 Jun 2027 08:13:04.153   04 Jun 2027 08:13:23.694            19.541              Murmansk1           610.656
       390   04 Jun 2027 08:14:58.885   04 Jun 2027 08:15:36.115            37.230              Murmansk2          1163.437
       391   04 Jun 2027 08:50:24.390   04 Jun 2027 08:50:33.048             8.658            RioGallegos           270.563
       392   04 Jun 2027 08:51:14.462   04 Jun 2027 08:52:11.461            56.999            RioGallegos          1781.219
       393   04 Jun 2027 09:42:36.781   04 Jun 2027 09:45:11.973           155.192               Magadan2          4849.750
       394   04 Jun 2027 09:45:30.448   04 Jun 2027 09:46:21.392            50.944                Irkutsk          1592.000
       395   04 Jun 2027 09:46:33.780   04 Jun 2027 09:46:34.874             1.094                Norilsk            34.187
       396   04 Jun 2027 09:46:40.556   04 Jun 2027 09:47:11.915            31.359                Irkutsk           979.969
       397   04 Jun 2027 09:47:17.339   04 Jun 2027 09:47:31.068            13.729              Murmansk2           429.031
       398   04 Jun 2027 09:47:31.950   04 Jun 2027 09:47:48.391            16.441                Novosib           513.781
       399   04 Jun 2027 09:47:55.242   04 Jun 2027 09:48:32.694            37.452                Norilsk          1170.375
       400   04 Jun 2027 09:48:46.485   04 Jun 2027 09:49:03.517            17.032              Murmansk2           532.250
       401   04 Jun 2027 09:49:16.240   04 Jun 2027 09:50:30.361            74.121                Norilsk          2316.281
       402   04 Jun 2027 10:24:54.537   04 Jun 2027 10:25:32.394            37.857            RioGallegos          1183.031
       403   04 Jun 2027 10:58:58.202   04 Jun 2027 10:59:18.159            19.957                Sumatra           623.656
       404   04 Jun 2027 11:02:04.204   04 Jun 2027 11:02:11.763             7.559                Sumatra           236.219
       405   04 Jun 2027 11:05:43.251   04 Jun 2027 11:07:13.881            90.630                Sumatra          2832.188
       406   04 Jun 2027 11:19:28.264   04 Jun 2027 11:20:04.290            36.026                Norilsk          1125.812
       407   04 Jun 2027 11:20:11.159   04 Jun 2027 11:20:28.128            16.969                Novosib           530.281
       408   04 Jun 2027 11:20:43.761   04 Jun 2027 11:20:53.393             9.632                Norilsk           301.000
       409   04 Jun 2027 11:20:55.158   04 Jun 2027 11:21:04.097             8.939                Novosib           279.344
       410   04 Jun 2027 11:21:17.701   04 Jun 2027 11:21:33.621            15.920                Irkutsk           497.500
       411   04 Jun 2027 11:21:36.493   04 Jun 2027 11:21:48.625            12.132              Murmansk2           379.125
       412   04 Jun 2027 11:22:12.157   04 Jun 2027 11:22:18.754             6.597              Murmansk1           206.156
       413   04 Jun 2027 11:22:20.580   04 Jun 2027 11:22:41.603            21.023                Novosib           656.969
       414   04 Jun 2027 11:22:43.147   04 Jun 2027 11:23:19.285            36.138              Murmansk2          1129.312
       415   04 Jun 2027 11:23:38.403   04 Jun 2027 11:24:49.268            70.865                Novosib          2214.531
       416   04 Jun 2027 11:24:54.273   04 Jun 2027 11:24:56.733             2.460              Murmansk1            76.875
       417   04 Jun 2027 11:24:57.618   04 Jun 2027 11:25:21.788            24.170                Norilsk           755.313
       418   04 Jun 2027 11:28:58.286   04 Jun 2027 11:29:02.039             3.753              Murmansk1           117.281
       419   04 Jun 2027 11:30:49.390   04 Jun 2027 11:31:00.922            11.532              Murmansk2           360.375
       420   04 Jun 2027 12:03:33.019   04 Jun 2027 12:04:05.862            32.843            RioGallegos          1026.344
       421   04 Jun 2027 12:07:20.862   04 Jun 2027 12:08:11.514            50.652            RioGallegos          1582.875
       422   04 Jun 2027 12:38:33.277   04 Jun 2027 12:39:01.511            28.234                Sumatra           882.312
       423   04 Jun 2027 12:43:50.951   04 Jun 2027 12:45:39.345           108.394                  Delhi          3387.313
       424   04 Jun 2027 12:50:46.801   04 Jun 2027 12:52:07.060            80.259                Novosib          2508.094
       425   04 Jun 2027 12:54:50.753   04 Jun 2027 12:56:20.503            89.750                Norilsk          2804.688
       426   04 Jun 2027 12:57:38.918   04 Jun 2027 12:57:41.750             2.832                Irkutsk            88.500
       427   04 Jun 2027 13:04:05.740   04 Jun 2027 13:04:22.467            16.727              Murmansk1           522.719
       428   04 Jun 2027 14:27:34.687   04 Jun 2027 14:31:18.118           223.431                 Moscow          6982.219
       429   04 Jun 2027 14:32:17.806   04 Jun 2027 14:33:22.715            64.909              Murmansk1          2028.406
       430   04 Jun 2027 14:34:19.360   04 Jun 2027 14:34:45.665            26.305              Murmansk2           822.031
       431   04 Jun 2027 14:34:45.665   04 Jun 2027 14:35:44.199            58.534              Murmansk1          1829.187
       432   04 Jun 2027 14:36:49.077   04 Jun 2027 14:38:27.947            98.870                Norilsk          3089.688
       433   04 Jun 2027 14:39:13.776   04 Jun 2027 14:39:22.868             9.092                Norilsk           284.125
       434   04 Jun 2027 15:42:30.650   04 Jun 2027 15:45:21.587           170.937               CapeTown          5341.781
       435   04 Jun 2027 16:04:34.989   04 Jun 2027 16:04:42.841             7.852                 Moscow           245.375
       436   04 Jun 2027 16:07:50.647   04 Jun 2027 16:09:59.590           128.943              Murmansk2          4029.469
       437   04 Jun 2027 16:22:08.191   04 Jun 2027 16:23:30.272            82.081                Anadyr1          2565.031
       438   04 Jun 2027 16:23:31.915   04 Jun 2027 16:23:42.900            10.985                Anadyr2           343.281
       439   04 Jun 2027 16:24:42.251   04 Jun 2027 16:24:54.508            12.257                Anadyr2           383.031
       440   04 Jun 2027 16:25:15.463   04 Jun 2027 16:25:42.771            27.308                Anadyr2           853.375
       441   04 Jun 2027 17:16:59.151   04 Jun 2027 17:19:16.812           137.661               CapeTown          4301.906
       442   04 Jun 2027 17:46:54.564   04 Jun 2027 17:47:40.989            46.425              Murmansk2          1450.781
       443   04 Jun 2027 17:47:56.389   04 Jun 2027 17:48:20.196            23.807              Murmansk1           743.969
       444   04 Jun 2027 17:49:00.030   04 Jun 2027 17:49:40.791            40.761              Murmansk1          1273.781
       445   04 Jun 2027 17:50:22.693   04 Jun 2027 17:52:01.736            99.043              Murmansk1          3095.094
       446   04 Jun 2027 17:57:36.194   04 Jun 2027 17:57:40.198             4.004                Anadyr2           125.125
       447   04 Jun 2027 17:59:19.298   04 Jun 2027 17:59:22.194             2.896                Anadyr1            90.500
       448   04 Jun 2027 18:00:41.171   04 Jun 2027 18:01:02.046            20.875                Anadyr2           652.344
       449   04 Jun 2027 18:01:17.619   04 Jun 2027 18:03:21.324           123.705               Magadan2          3865.781
       450   04 Jun 2027 19:33:30.588   04 Jun 2027 19:35:16.338           105.750                Anadyr1          3304.688
       451   04 Jun 2027 19:35:36.383   04 Jun 2027 19:37:16.016            99.633                Anadyr2          3113.531
       452   04 Jun 2027 19:37:24.645   04 Jun 2027 19:39:34.124           129.479               Magadan1          4046.219
       453   04 Jun 2027 19:41:09.288   04 Jun 2027 19:41:16.133             6.845               Magadan2           213.906
       454   04 Jun 2027 19:41:54.919   04 Jun 2027 19:42:34.808            39.889               Magadan2          1246.531
       455   04 Jun 2027 19:43:30.421   04 Jun 2027 19:43:40.601            10.180               Magadan1           318.125
       456   04 Jun 2027 19:44:18.103   04 Jun 2027 19:44:24.480             6.377               Magadan1           199.281
       457   04 Jun 2027 19:44:34.823   04 Jun 2027 19:44:37.183             2.360               Magadan1            73.750
       458   04 Jun 2027 19:45:12.118   04 Jun 2027 19:45:20.331             8.213               Magadan1           256.656
       459   04 Jun 2027 19:46:37.090   04 Jun 2027 19:47:16.280            39.190               Magadan2          1224.688
       460   04 Jun 2027 21:09:23.245   04 Jun 2027 21:11:32.935           129.690                Anadyr1          4052.813
       461   04 Jun 2027 21:11:40.334   04 Jun 2027 21:15:12.761           212.427                Norilsk          6638.344
       462   04 Jun 2027 21:15:28.521   04 Jun 2027 21:15:57.089            28.568               Magadan2           892.750
       463   04 Jun 2027 21:16:08.514   04 Jun 2027 21:16:53.380            44.866               Magadan1          1402.062
       464   04 Jun 2027 21:18:33.697   04 Jun 2027 21:20:01.210            87.513                Irkutsk          2734.781
       465   04 Jun 2027 21:23:13.575   04 Jun 2027 21:23:15.048             1.473                Irkutsk            46.031
       466   04 Jun 2027 21:34:30.649   04 Jun 2027 21:37:12.151           161.502                Sumatra          5046.938
       467   04 Jun 2027 22:44:50.973   04 Jun 2027 22:45:31.443            40.470                Anadyr2          1264.688
       468   04 Jun 2027 22:45:36.686   04 Jun 2027 22:45:38.883             2.197                Anadyr2            68.656
       469   04 Jun 2027 22:45:42.851   04 Jun 2027 22:46:19.150            36.299                Anadyr1          1134.344
       470   04 Jun 2027 22:47:14.355   04 Jun 2027 22:48:18.694            64.339                Norilsk          2010.594
       471   04 Jun 2027 22:48:38.533   04 Jun 2027 22:49:04.842            26.309                Norilsk           822.156
       472   04 Jun 2027 22:50:32.521   04 Jun 2027 22:50:50.255            17.734               Magadan2           554.188
       473   04 Jun 2027 22:51:15.583   04 Jun 2027 22:52:22.988            67.405                Irkutsk          2106.406
       474   04 Jun 2027 22:52:40.937   04 Jun 2027 22:54:18.699            97.762                Novosib          3055.062
       475   04 Jun 2027 23:04:57.091   04 Jun 2027 23:05:48.145            51.054                Sumatra          1595.437
       476   04 Jun 2027 23:13:48.910   04 Jun 2027 23:14:06.397            17.487                Sumatra           546.469
       477   04 Jun 2027 23:51:28.031   04 Jun 2027 23:51:47.954            19.923            RioGallegos           622.594
       478   05 Jun 2027 00:19:17.034   05 Jun 2027 00:20:55.102            98.068                Anadyr2          3064.625
       479   05 Jun 2027 00:20:59.534   05 Jun 2027 00:21:32.929            33.395                Anadyr2          1043.594
       480   05 Jun 2027 00:23:13.831   05 Jun 2027 00:23:27.103            13.272                Norilsk           414.750
       481   05 Jun 2027 00:23:52.280   05 Jun 2027 00:25:24.137            91.857               Magadan1          2870.531
       482   05 Jun 2027 00:26:29.328   05 Jun 2027 00:26:49.249            19.921               Magadan1           622.531
