uniorb/output/strategy_2/Drop/Drop_KinoSat_110704.txt

KinoSat_110704
-------------------------
    Access    *     Start Time (UTCG)     *     Stop Time (UTCG)  *   Duration (s)        *       Station  *  Data (Mbytes)
         1   01 Jun 2027 03:50:23.852   01 Jun 2027 03:51:30.541            66.689               Magadan2          2084.031
         2   01 Jun 2027 03:51:39.181   01 Jun 2027 03:52:22.944            43.763               Magadan2          1367.594
         3   01 Jun 2027 03:52:52.524   01 Jun 2027 03:52:56.562             4.038               Magadan1           126.187
         4   01 Jun 2027 03:53:12.813   01 Jun 2027 03:54:12.440            59.627               Magadan1          1863.344
         5   01 Jun 2027 03:54:12.533   01 Jun 2027 03:55:11.665            59.132                Anadyr1          1847.875
         6   01 Jun 2027 03:55:38.383   01 Jun 2027 03:55:42.772             4.389               Magadan2           137.156
         7   01 Jun 2027 04:33:42.068   01 Jun 2027 04:34:47.763            65.695            RioGallegos          2052.969
         8   01 Jun 2027 05:23:14.194   01 Jun 2027 05:23:51.255            37.061                Irkutsk          1158.156
         9   01 Jun 2027 05:25:58.031   01 Jun 2027 05:27:30.495            92.464                Irkutsk          2889.500
        10   01 Jun 2027 05:28:00.388   01 Jun 2027 05:28:20.883            20.495                Novosib           640.469
        11   01 Jun 2027 05:28:24.151   01 Jun 2027 05:30:23.870           119.719                Anadyr1          3741.219
        12   01 Jun 2027 05:30:45.352   01 Jun 2027 05:31:22.350            36.998               Magadan2          1156.188
        13   01 Jun 2027 05:31:36.093   01 Jun 2027 05:31:38.758             2.665                Novosib            83.281
        14   01 Jun 2027 06:06:23.693   01 Jun 2027 06:10:22.738           239.045            RioGallegos          7470.156
        15   01 Jun 2027 06:43:16.646   01 Jun 2027 06:45:48.354           151.708                Sumatra          4740.875
        16   01 Jun 2027 06:49:41.854   01 Jun 2027 06:51:43.359           121.505                Sumatra          3797.031
        17   01 Jun 2027 07:03:10.080   01 Jun 2027 07:04:07.266            57.186                Irkutsk          1787.062
        18   01 Jun 2027 07:04:16.140   01 Jun 2027 07:04:20.409             4.269                Irkutsk           133.406
        19   01 Jun 2027 07:04:22.722   01 Jun 2027 07:04:48.240            25.518                Novosib           797.437
        20   01 Jun 2027 07:05:18.531   01 Jun 2027 07:06:13.428            54.897                Novosib          1715.531
        21   01 Jun 2027 07:06:17.479   01 Jun 2027 07:07:25.186            67.707                Irkutsk          2115.844
        22   01 Jun 2027 07:07:29.675   01 Jun 2027 07:08:46.305            76.630                Novosib          2394.688
        23   01 Jun 2027 08:18:48.428   01 Jun 2027 08:19:55.739            67.311                Sumatra          2103.469
        24   01 Jun 2027 08:26:10.708   01 Jun 2027 08:27:28.599            77.891                  Delhi          2434.094
        25   01 Jun 2027 08:27:49.844   01 Jun 2027 08:29:35.492           105.648                  Delhi          3301.500
        26   01 Jun 2027 08:39:29.122   01 Jun 2027 08:39:31.551             2.429                Novosib            75.906
        27   01 Jun 2027 08:39:55.471   01 Jun 2027 08:40:34.416            38.945                Novosib          1217.031
        28   01 Jun 2027 08:40:41.265   01 Jun 2027 08:40:51.699            10.434                Irkutsk           326.063
        29   01 Jun 2027 08:41:24.094   01 Jun 2027 08:41:39.821            15.727              Murmansk1           491.469
        30   01 Jun 2027 08:41:44.790   01 Jun 2027 08:42:17.873            33.083                Norilsk          1033.844
        31   01 Jun 2027 08:42:24.675   01 Jun 2027 08:42:46.723            22.048                Irkutsk           689.000
        32   01 Jun 2027 08:42:56.043   01 Jun 2027 08:44:12.365            76.322                 Moscow          2385.062
        33   01 Jun 2027 08:44:28.014   01 Jun 2027 08:45:25.257            57.243                Norilsk          1788.844
        34   01 Jun 2027 08:45:56.269   01 Jun 2027 08:47:36.584           100.315              Murmansk1          3134.844
        35   01 Jun 2027 10:01:38.481   01 Jun 2027 10:06:35.294           296.813                  Delhi          9275.406
        36   01 Jun 2027 10:07:05.575   01 Jun 2027 10:07:43.964            38.389                  Delhi          1199.656
        37   01 Jun 2027 10:16:05.598   01 Jun 2027 10:16:16.838            11.240                Novosib           351.250
        38   01 Jun 2027 10:16:51.767   01 Jun 2027 10:18:06.293            74.526              Murmansk2          2328.938
        39   01 Jun 2027 10:18:09.132   01 Jun 2027 10:19:15.255            66.123                Novosib          2066.344
        40   01 Jun 2027 10:19:17.288   01 Jun 2027 10:21:36.496           139.208                 Moscow          4350.250
        41   01 Jun 2027 11:52:51.863   01 Jun 2027 11:53:38.545            46.682              Murmansk1          1458.813
        42   01 Jun 2027 11:53:43.722   01 Jun 2027 11:53:52.707             8.985              Murmansk1           280.781
        43   01 Jun 2027 11:54:02.797   01 Jun 2027 11:54:23.617            20.820                 Moscow           650.625
        44   01 Jun 2027 11:55:11.721   01 Jun 2027 11:55:37.420            25.699                 Moscow           803.094
        45   01 Jun 2027 12:59:33.823   01 Jun 2027 13:04:15.902           282.079               CapeTown          8814.969
        46   01 Jun 2027 13:26:33.650   01 Jun 2027 13:26:40.155             6.505              Murmansk1           203.281
        47   01 Jun 2027 13:27:14.647   01 Jun 2027 13:28:39.179            84.532              Murmansk2          2641.625
        48   01 Jun 2027 13:31:16.190   01 Jun 2027 13:31:55.844            39.654              Murmansk2          1239.187
        49   01 Jun 2027 13:32:04.869   01 Jun 2027 13:32:31.617            26.748              Murmansk2           835.875
        50   01 Jun 2027 13:33:13.735   01 Jun 2027 13:34:45.017            91.282              Murmansk1          2852.562
        51   01 Jun 2027 13:35:06.961   01 Jun 2027 13:35:22.207            15.246              Murmansk1           476.438
        52   01 Jun 2027 13:35:55.017   01 Jun 2027 13:36:47.118            52.101              Murmansk2          1628.156
        53   01 Jun 2027 13:37:00.975   01 Jun 2027 13:37:33.597            32.622              Murmansk2          1019.438
        54   01 Jun 2027 13:39:53.779   01 Jun 2027 13:41:59.306           125.527                Anadyr1          3922.719
        55   01 Jun 2027 13:43:04.564   01 Jun 2027 13:45:31.084           146.520                Anadyr1          4578.750
        56   01 Jun 2027 13:45:58.132   01 Jun 2027 13:48:21.929           143.797                Anadyr2          4493.656
        57   01 Jun 2027 13:49:26.087   01 Jun 2027 13:50:22.657            56.570                Anadyr2          1767.812
        58   01 Jun 2027 15:07:14.467   01 Jun 2027 15:07:27.520            13.053              Murmansk2           407.906
        59   01 Jun 2027 15:07:30.010   01 Jun 2027 15:07:54.641            24.631              Murmansk1           769.719
        60   01 Jun 2027 15:09:27.708   01 Jun 2027 15:10:23.644            55.936              Murmansk2          1748.000
        61   01 Jun 2027 15:10:31.958   01 Jun 2027 15:11:08.122            36.164              Murmansk1          1130.125
        62   01 Jun 2027 15:11:48.489   01 Jun 2027 15:12:24.634            36.145              Murmansk1          1129.531
        63   01 Jun 2027 15:12:59.380   01 Jun 2027 15:13:20.957            21.577              Murmansk1           674.281
        64   01 Jun 2027 15:15:34.532   01 Jun 2027 15:16:38.787            64.255                Anadyr2          2007.969
        65   01 Jun 2027 15:18:34.930   01 Jun 2027 15:27:57.711           562.781               Magadan2         17586.906
        66   01 Jun 2027 16:53:48.263   01 Jun 2027 16:54:27.325            39.062               Magadan1          1220.687
        67   01 Jun 2027 16:56:45.444   01 Jun 2027 16:57:24.340            38.896               Magadan1          1215.500
        68   01 Jun 2027 16:57:50.344   01 Jun 2027 16:57:53.080             2.736               Magadan2            85.500
        69   01 Jun 2027 16:58:03.506   01 Jun 2027 16:59:17.448            73.942               Magadan1          2310.687
        70   01 Jun 2027 17:01:05.222   01 Jun 2027 17:01:39.911            34.689                Anadyr2          1084.031
        71   01 Jun 2027 17:01:48.029   01 Jun 2027 17:02:10.678            22.649               Magadan1           707.781
        72   01 Jun 2027 17:02:19.643   01 Jun 2027 17:02:29.074             9.431               Magadan2           294.719
        73   01 Jun 2027 17:03:04.671   01 Jun 2027 17:03:26.217            21.546                Anadyr1           673.312
        74   01 Jun 2027 17:03:35.244   01 Jun 2027 17:04:03.080            27.836                Anadyr2           869.875
        75   01 Jun 2027 17:04:19.444   01 Jun 2027 17:05:37.744            78.300               Magadan2          2446.875
        76   01 Jun 2027 17:05:55.012   01 Jun 2027 17:06:32.086            37.074               Magadan2          1158.563
        77   01 Jun 2027 17:47:17.857   01 Jun 2027 17:50:20.839           182.982            RioGallegos          5718.188
        78   01 Jun 2027 17:50:37.690   01 Jun 2027 17:53:33.161           175.471            RioGallegos          5483.469
        79   01 Jun 2027 18:31:25.435   01 Jun 2027 18:31:42.291            16.856                Norilsk           526.750
        80   01 Jun 2027 18:34:13.670   01 Jun 2027 18:35:01.893            48.223                Irkutsk          1506.969
        81   01 Jun 2027 18:36:38.256   01 Jun 2027 18:37:52.055            73.799                Irkutsk          2306.219
        82   01 Jun 2027 18:38:57.824   01 Jun 2027 18:41:58.521           180.697                Irkutsk          5646.781
        83   01 Jun 2027 18:43:36.012   01 Jun 2027 18:43:39.534             3.522                Irkutsk           110.062
        84   01 Jun 2027 18:48:52.522   01 Jun 2027 18:51:07.712           135.190                Sumatra          4224.687
        85   01 Jun 2027 18:51:40.027   01 Jun 2027 18:53:15.236            95.209                Sumatra          2975.281
        86   01 Jun 2027 18:54:08.878   01 Jun 2027 18:55:34.726            85.848                Sumatra          2682.750
        87   01 Jun 2027 18:55:43.169   01 Jun 2027 18:56:56.329            73.160                Sumatra          2286.250
        88   01 Jun 2027 20:17:04.797   01 Jun 2027 20:18:08.997            64.200                Novosib          2006.250
        89   01 Jun 2027 20:19:07.501   01 Jun 2027 20:22:46.618           219.117                  Delhi          6847.406
        90   01 Jun 2027 20:25:13.386   01 Jun 2027 20:26:11.453            58.067                  Delhi          1814.594
        91   01 Jun 2027 21:44:05.236   01 Jun 2027 21:49:59.799           354.563              Murmansk1         11080.094
        92   01 Jun 2027 23:15:02.272   01 Jun 2027 23:15:30.434            28.162                Anadyr1           880.063
        93   01 Jun 2027 23:15:43.600   01 Jun 2027 23:16:16.126            32.526               Magadan1          1016.438
        94   01 Jun 2027 23:16:57.326   01 Jun 2027 23:17:36.454            39.128               Magadan2          1222.750
        95   01 Jun 2027 23:18:22.148   01 Jun 2027 23:18:47.384            25.236               Magadan1           788.625
        96   01 Jun 2027 23:19:08.751   01 Jun 2027 23:19:35.923            27.172               Magadan2           849.125
        97   01 Jun 2027 23:20:29.957   01 Jun 2027 23:23:31.882           181.925              Murmansk1          5685.156
        98   01 Jun 2027 23:24:07.422   01 Jun 2027 23:24:18.040            10.618                 Moscow           331.813
        99   01 Jun 2027 23:24:53.840   01 Jun 2027 23:26:06.719            72.879                 Moscow          2277.469
       100   01 Jun 2027 23:27:42.949   01 Jun 2027 23:28:06.726            23.777              Murmansk2           743.031
       101   01 Jun 2027 23:29:33.479   01 Jun 2027 23:30:59.282            85.803                 Moscow          2681.344
       102   01 Jun 2027 23:32:36.307   01 Jun 2027 23:33:44.514            68.207                 Moscow          2131.469
       103   01 Jun 2027 23:50:35.981   01 Jun 2027 23:51:31.014            55.033               CapeTown          1719.781
       104   01 Jun 2027 23:51:58.096   01 Jun 2027 23:53:16.874            78.778               CapeTown          2461.813
       105   01 Jun 2027 23:55:14.717   01 Jun 2027 23:56:11.122            56.405               CapeTown          1762.656
       106   02 Jun 2027 00:54:50.713   02 Jun 2027 00:55:06.399            15.686               Magadan2           490.187
       107   02 Jun 2027 00:56:49.098   02 Jun 2027 00:57:49.441            60.343              Murmansk2          1885.719
       108   02 Jun 2027 00:58:55.684   02 Jun 2027 00:59:16.753            21.069                 Moscow           658.406
       109   02 Jun 2027 01:00:53.403   02 Jun 2027 01:02:07.736            74.333              Murmansk1          2322.906
       110   02 Jun 2027 01:06:14.696   02 Jun 2027 01:07:23.358            68.662              Murmansk1          2145.687
       111   02 Jun 2027 01:09:35.546   02 Jun 2027 01:10:37.079            61.533                 Moscow          1922.906
       112   02 Jun 2027 01:31:42.487   02 Jun 2027 01:32:08.029            25.542               CapeTown           798.188
       113   02 Jun 2027 01:32:43.406   02 Jun 2027 01:33:51.303            67.897               CapeTown          2121.781
       114   02 Jun 2027 02:20:03.175   02 Jun 2027 02:20:16.858            13.683               Magadan2           427.594
       115   02 Jun 2027 02:20:50.539   02 Jun 2027 02:21:07.975            17.436               Magadan2           544.875
       116   02 Jun 2027 02:21:45.565   02 Jun 2027 02:22:06.349            20.784               Magadan2           649.500
       117   02 Jun 2027 02:22:32.913   02 Jun 2027 02:23:12.551            39.638               Magadan2          1238.688
       118   02 Jun 2027 02:25:23.682   02 Jun 2027 02:25:50.683            27.001               Magadan2           843.781
       119   02 Jun 2027 02:27:00.219   02 Jun 2027 02:27:14.981            14.762               Magadan1           461.312
       120   02 Jun 2027 02:27:43.206   02 Jun 2027 02:28:02.540            19.334                Norilsk           604.188
       121   02 Jun 2027 02:29:07.422   02 Jun 2027 02:29:15.336             7.914                Norilsk           247.312
       122   02 Jun 2027 02:29:34.751   02 Jun 2027 02:29:42.867             8.116                Norilsk           253.625
       123   02 Jun 2027 02:30:24.477   02 Jun 2027 02:30:36.999            12.522               Magadan1           391.313
       124   02 Jun 2027 02:30:38.163   02 Jun 2027 02:30:44.025             5.862                Norilsk           183.187
       125   02 Jun 2027 02:31:11.565   02 Jun 2027 02:31:42.975            31.410               Magadan2           981.562
       126   02 Jun 2027 02:32:53.061   02 Jun 2027 02:33:07.429            14.368              Murmansk2           449.000
       127   02 Jun 2027 02:33:53.409   02 Jun 2027 02:34:04.516            11.107              Murmansk1           347.094
       128   02 Jun 2027 02:34:37.110   02 Jun 2027 02:34:41.362             4.252              Murmansk2           132.875
       129   02 Jun 2027 02:35:21.332   02 Jun 2027 02:35:39.329            17.997                Norilsk           562.406
       130   02 Jun 2027 02:36:23.316   02 Jun 2027 02:36:33.459            10.143                 Moscow           316.969
       131   02 Jun 2027 02:37:03.512   02 Jun 2027 02:37:11.593             8.081              Murmansk1           252.531
       132   02 Jun 2027 02:37:41.553   02 Jun 2027 02:38:12.490            30.937                Norilsk           966.781
       133   02 Jun 2027 02:40:01.681   02 Jun 2027 02:40:31.924            30.243              Murmansk1           945.094
       134   02 Jun 2027 02:41:53.558   02 Jun 2027 02:42:14.225            20.667                 Moscow           645.844
       135   02 Jun 2027 02:43:23.210   02 Jun 2027 02:43:31.160             7.950              Murmansk1           248.437
       136   02 Jun 2027 02:44:06.612   02 Jun 2027 02:44:23.041            16.429                 Moscow           513.406
       137   02 Jun 2027 02:45:39.967   02 Jun 2027 02:45:41.096             1.129                 Moscow            35.281
       138   02 Jun 2027 03:04:37.121   02 Jun 2027 03:05:26.825            49.704               CapeTown          1553.250
       139   02 Jun 2027 04:02:19.900   02 Jun 2027 04:05:22.402           182.502                Anadyr1          5703.188
       140   02 Jun 2027 05:38:59.562   02 Jun 2027 05:40:59.360           119.798               Magadan2          3743.688
       141   02 Jun 2027 05:40:59.360   02 Jun 2027 05:43:17.848           138.488               Magadan1          4327.750
       142   02 Jun 2027 05:43:36.641   02 Jun 2027 05:43:43.725             7.084                Novosib           221.375
       143   02 Jun 2027 05:43:53.403   02 Jun 2027 05:44:11.646            18.243                Novosib           570.094
       144   02 Jun 2027 06:54:32.147   02 Jun 2027 06:57:33.334           181.187                Sumatra          5662.094
       145   02 Jun 2027 07:00:57.440   02 Jun 2027 07:01:45.905            48.465                Sumatra          1514.531
       146   02 Jun 2027 07:14:12.253   02 Jun 2027 07:14:59.936            47.683                Novosib          1490.094
       147   02 Jun 2027 07:15:38.309   02 Jun 2027 07:16:28.822            50.513                Novosib          1578.531
       148   02 Jun 2027 07:17:29.942   02 Jun 2027 07:17:44.070            14.128                Novosib           441.500
       149   02 Jun 2027 07:17:58.636   02 Jun 2027 07:19:26.276            87.640                Irkutsk          2738.750
       150   02 Jun 2027 07:20:06.009   02 Jun 2027 07:20:50.753            44.744                Novosib          1398.250
       151   02 Jun 2027 08:29:16.029   02 Jun 2027 08:30:32.655            76.626                Sumatra          2394.563
       152   02 Jun 2027 08:37:48.804   02 Jun 2027 08:40:45.255           176.451                  Delhi          5514.094
       153   02 Jun 2027 08:50:54.220   02 Jun 2027 08:51:33.237            39.017                Irkutsk          1219.281
       154   02 Jun 2027 08:52:25.331   02 Jun 2027 08:52:43.897            18.566                Novosib           580.188
       155   02 Jun 2027 08:52:46.032   02 Jun 2027 08:53:11.285            25.253              Murmansk2           789.156
       156   02 Jun 2027 08:53:11.285   02 Jun 2027 08:53:28.940            17.655              Murmansk1           551.719
       157   02 Jun 2027 08:53:39.551   02 Jun 2027 08:54:47.320            67.769                 Moscow          2117.781
       158   02 Jun 2027 08:55:27.544   02 Jun 2027 08:55:55.636            28.092              Murmansk1           877.875
       159   02 Jun 2027 08:56:20.073   02 Jun 2027 08:56:20.174             0.101                 Moscow             3.156
       160   02 Jun 2027 09:02:07.364   02 Jun 2027 09:02:18.748            11.384              Murmansk1           355.750
       161   02 Jun 2027 10:14:03.508   02 Jun 2027 10:17:22.487           198.979                  Delhi          6218.094
       162   02 Jun 2027 10:26:47.257   02 Jun 2027 10:27:34.273            47.016                 Moscow          1469.250
       163   02 Jun 2027 10:27:34.301   02 Jun 2027 10:28:09.542            35.241                Novosib          1101.281
       164   02 Jun 2027 10:28:11.809   02 Jun 2027 10:28:25.440            13.631              Murmansk2           425.969
       165   02 Jun 2027 10:28:30.135   02 Jun 2027 10:29:11.384            41.249                 Moscow          1289.031
       166   02 Jun 2027 10:29:21.182   02 Jun 2027 10:29:49.160            27.978              Murmansk2           874.313
       167   02 Jun 2027 10:29:49.160   02 Jun 2027 10:29:52.232             3.072              Murmansk1            96.000
       168   02 Jun 2027 10:30:01.457   02 Jun 2027 10:30:28.608            27.151                Norilsk           848.469
       169   02 Jun 2027 10:30:38.475   02 Jun 2027 10:31:48.672            70.197                 Moscow          2193.656
       170   02 Jun 2027 12:02:01.362   02 Jun 2027 12:02:31.661            30.299                 Moscow           946.844
       171   02 Jun 2027 12:03:18.165   02 Jun 2027 12:03:39.069            20.904                 Moscow           653.250
       172   02 Jun 2027 12:04:45.275   02 Jun 2027 12:05:39.733            54.458              Murmansk1          1701.813
       173   02 Jun 2027 12:06:15.859   02 Jun 2027 12:07:20.142            64.283                 Moscow          2008.844
       174   02 Jun 2027 12:08:23.819   02 Jun 2027 12:09:32.359            68.540                Norilsk          2141.875
       175   02 Jun 2027 12:17:45.869   02 Jun 2027 12:21:09.056           203.187                Anadyr2          6349.594
       176   02 Jun 2027 13:20:49.767   02 Jun 2027 13:22:00.940            71.173               CapeTown          2224.156
       177   02 Jun 2027 13:38:55.973   02 Jun 2027 13:39:26.857            30.884              Murmansk1           965.125
       178   02 Jun 2027 13:40:17.531   02 Jun 2027 13:40:26.636             9.105              Murmansk1           284.531
       179   02 Jun 2027 13:40:56.604   02 Jun 2027 13:41:30.346            33.742              Murmansk2          1054.438
       180   02 Jun 2027 13:43:14.250   02 Jun 2027 13:43:41.076            26.826              Murmansk2           838.312
       181   02 Jun 2027 13:45:52.898   02 Jun 2027 13:46:32.275            39.377              Murmansk1          1230.531
       182   02 Jun 2027 13:49:51.151   02 Jun 2027 13:49:52.486             1.335              Murmansk1            41.719
       183   02 Jun 2027 13:51:51.096   02 Jun 2027 13:53:45.504           114.408                Anadyr2          3575.250
       184   02 Jun 2027 13:54:53.241   02 Jun 2027 13:56:01.216            67.975                Anadyr1          2124.219
       185   02 Jun 2027 13:57:13.663   02 Jun 2027 13:58:04.927            51.264                Anadyr2          1602.000
       186   02 Jun 2027 13:58:36.018   02 Jun 2027 13:59:54.748            78.730                Anadyr2          2460.313
       187   02 Jun 2027 15:21:12.993   02 Jun 2027 15:21:24.780            11.787              Murmansk2           368.344
       188   02 Jun 2027 15:22:39.340   02 Jun 2027 15:23:08.677            29.337              Murmansk2           916.781
       189   02 Jun 2027 15:25:01.039   02 Jun 2027 15:25:11.148            10.109              Murmansk1           315.906
       190   02 Jun 2027 15:27:35.557   02 Jun 2027 15:29:55.171           139.614                Anadyr2          4362.938
       191   02 Jun 2027 15:30:25.533   02 Jun 2027 15:33:37.331           191.798               Magadan1          5993.687
       192   02 Jun 2027 15:36:06.565   02 Jun 2027 15:36:46.864            40.299               Magadan1          1259.344
       193   02 Jun 2027 15:38:08.617   02 Jun 2027 15:38:17.052             8.435               Magadan1           263.594
       194   02 Jun 2027 15:38:37.068   02 Jun 2027 15:39:56.329            79.261               Magadan1          2476.906
       195   02 Jun 2027 17:03:47.462   02 Jun 2027 17:04:05.816            18.354                Anadyr2           573.562
       196   02 Jun 2027 17:05:48.323   02 Jun 2027 17:07:20.587            92.264               Magadan1          2883.250
       197   02 Jun 2027 17:08:30.135   02 Jun 2027 17:08:59.158            29.023               Magadan2           906.969
       198   02 Jun 2027 17:09:26.913   02 Jun 2027 17:09:30.021             3.108               Magadan2            97.125
       199   02 Jun 2027 17:13:24.098   02 Jun 2027 17:13:58.551            34.453               Magadan1          1076.656
       200   02 Jun 2027 17:58:46.583   02 Jun 2027 18:02:09.243           202.660            RioGallegos          6333.125
       201   02 Jun 2027 18:04:10.585   02 Jun 2027 18:05:35.842            85.257            RioGallegos          2664.281
       202   02 Jun 2027 18:41:26.084   02 Jun 2027 18:45:38.856           252.772                Norilsk          7899.125
       203   02 Jun 2027 18:45:58.830   02 Jun 2027 18:46:54.336            55.506                Irkutsk          1734.562
       204   02 Jun 2027 18:48:50.791   02 Jun 2027 18:50:38.747           107.956                Irkutsk          3373.625
       205   02 Jun 2027 19:00:14.816   02 Jun 2027 19:01:10.127            55.311                Sumatra          1728.469
       206   02 Jun 2027 19:01:15.485   02 Jun 2027 19:03:28.189           132.704                Sumatra          4147.000
       207   02 Jun 2027 19:04:52.362   02 Jun 2027 19:06:07.501            75.139                Sumatra          2348.094
       208   02 Jun 2027 20:22:43.005   02 Jun 2027 20:24:45.518           122.513                Novosib          3828.531
       209   02 Jun 2027 20:30:17.879   02 Jun 2027 20:33:14.012           176.133                  Delhi          5504.156
       210   02 Jun 2027 20:37:10.424   02 Jun 2027 20:38:25.523            75.099                  Delhi          2346.844
       211   02 Jun 2027 21:55:55.824   02 Jun 2027 21:59:55.887           240.063              Murmansk2          7501.969
       212   02 Jun 2027 22:00:57.785   02 Jun 2027 22:01:50.276            52.491              Murmansk1          1640.344
       213   02 Jun 2027 23:27:14.703   02 Jun 2027 23:27:58.668            43.965               Magadan1          1373.906
       214   02 Jun 2027 23:29:09.069   02 Jun 2027 23:29:53.326            44.257                Norilsk          1383.031
       215   02 Jun 2027 23:30:24.466   02 Jun 2027 23:30:32.796             8.330               Magadan2           260.312
       216   02 Jun 2027 23:31:25.686   02 Jun 2027 23:32:53.667            87.981              Murmansk1          2749.406
       217   02 Jun 2027 23:32:53.922   02 Jun 2027 23:34:52.725           118.803              Murmansk2          3712.594
       218   02 Jun 2027 23:35:00.542   02 Jun 2027 23:36:07.685            67.143                 Moscow          2098.219
       219   02 Jun 2027 23:37:01.142   02 Jun 2027 23:37:33.117            31.975                 Moscow           999.219
       220   02 Jun 2027 23:42:46.287   02 Jun 2027 23:43:03.065            16.778                 Moscow           524.313
       221   02 Jun 2027 23:43:21.347   02 Jun 2027 23:43:36.174            14.827                 Moscow           463.344
       222   03 Jun 2027 00:00:13.271   03 Jun 2027 00:01:14.882            61.611               CapeTown          1925.344
       223   03 Jun 2027 00:02:30.658   03 Jun 2027 00:03:13.965            43.307               CapeTown          1353.344
       224   03 Jun 2027 00:05:05.385   03 Jun 2027 00:07:14.289           128.904               CapeTown          4028.250
       225   03 Jun 2027 01:06:53.390   03 Jun 2027 01:07:39.396            46.006               Magadan1          1437.687
       226   03 Jun 2027 01:08:40.755   03 Jun 2027 01:09:48.524            67.769              Murmansk1          2117.781
       227   03 Jun 2027 01:10:34.744   03 Jun 2027 01:11:04.820            30.076                 Moscow           939.875
       228   03 Jun 2027 01:14:37.112   03 Jun 2027 01:14:47.619            10.507                 Moscow           328.344
       229   03 Jun 2027 01:17:45.008   03 Jun 2027 01:18:01.761            16.753                 Moscow           523.531
       230   03 Jun 2027 01:19:29.761   03 Jun 2027 01:19:39.761            10.000                 Moscow           312.500
       231   03 Jun 2027 01:19:52.953   03 Jun 2027 01:19:58.619             5.666                 Moscow           177.063
       232   03 Jun 2027 01:20:16.389   03 Jun 2027 01:21:23.142            66.753                 Moscow          2086.031
       233   03 Jun 2027 01:39:06.125   03 Jun 2027 01:39:22.401            16.276               CapeTown           508.625
       234   03 Jun 2027 01:44:20.048   03 Jun 2027 01:45:37.878            77.830               CapeTown          2432.187
       235   03 Jun 2027 02:31:21.665   03 Jun 2027 02:31:36.256            14.591                Anadyr1           455.969
       236   03 Jun 2027 02:31:48.190   03 Jun 2027 02:32:49.737            61.547               Magadan2          1923.344
       237   03 Jun 2027 02:32:49.737   03 Jun 2027 02:33:08.016            18.279               Magadan1           571.219
       238   03 Jun 2027 02:34:08.966   03 Jun 2027 02:34:38.487            29.521               Magadan1           922.531
       239   03 Jun 2027 02:37:19.427   03 Jun 2027 02:37:23.799             4.372               Magadan2           136.625
       240   03 Jun 2027 02:39:17.638   03 Jun 2027 02:39:30.537            12.899               Magadan1           403.094
       241   03 Jun 2027 02:39:34.577   03 Jun 2027 02:39:53.696            19.119                Norilsk           597.469
       242   03 Jun 2027 02:40:08.383   03 Jun 2027 02:40:38.587            30.204                Norilsk           943.875
       243   03 Jun 2027 02:43:17.727   03 Jun 2027 02:44:38.683            80.956              Murmansk1          2529.875
       244   03 Jun 2027 02:46:27.854   03 Jun 2027 02:46:34.147             6.293              Murmansk2           196.656
       245   03 Jun 2027 02:47:07.688   03 Jun 2027 02:47:53.785            46.097                 Moscow          1440.531
       246   03 Jun 2027 02:53:13.449   03 Jun 2027 02:53:27.314            13.865                 Moscow           433.281
       247   03 Jun 2027 02:54:51.507   03 Jun 2027 02:56:19.323            87.816                 Moscow          2744.250
       248   03 Jun 2027 04:14:47.049   03 Jun 2027 04:15:27.059            40.010                Anadyr1          1250.313
       249   03 Jun 2027 04:15:34.233   03 Jun 2027 04:16:30.235            56.002               Magadan1          1750.062
       250   03 Jun 2027 04:16:49.751   03 Jun 2027 04:19:44.643           174.892               Magadan2          5465.375
       251   03 Jun 2027 04:56:34.335   03 Jun 2027 04:59:32.621           178.286            RioGallegos          5571.438
       252   03 Jun 2027 05:51:21.584   03 Jun 2027 05:54:38.581           196.997                Irkutsk          6156.156
       253   03 Jun 2027 05:55:58.537   03 Jun 2027 05:56:16.189            17.652                Novosib           551.625
       254   03 Jun 2027 05:56:54.174   03 Jun 2027 05:57:20.516            26.342                Norilsk           823.187
       255   03 Jun 2027 05:57:44.246   03 Jun 2027 05:57:49.572             5.326                Norilsk           166.437
       256   03 Jun 2027 06:34:20.742   03 Jun 2027 06:34:30.174             9.432            RioGallegos           294.750
       257   03 Jun 2027 07:06:00.060   03 Jun 2027 07:08:33.106           153.046                Sumatra          4782.688
       258   03 Jun 2027 07:25:57.650   03 Jun 2027 07:26:20.288            22.638                Norilsk           707.438
       259   03 Jun 2027 07:27:16.208   03 Jun 2027 07:28:13.469            57.261                Irkutsk          1789.406
       260   03 Jun 2027 07:28:34.326   03 Jun 2027 07:28:49.019            14.693                Novosib           459.156
       261   03 Jun 2027 07:28:49.447   03 Jun 2027 07:29:47.781            58.334                Irkutsk          1822.938
       262   03 Jun 2027 07:29:55.050   03 Jun 2027 07:30:04.258             9.208                Irkutsk           287.750
       263   03 Jun 2027 07:30:09.233   03 Jun 2027 07:30:50.002            40.769                Irkutsk          1274.031
       264   03 Jun 2027 07:30:51.063   03 Jun 2027 07:31:44.111            53.048              Murmansk1          1657.750
       265   03 Jun 2027 08:07:23.934   03 Jun 2027 08:07:27.261             3.327            RioGallegos           103.969
       266   03 Jun 2027 08:08:20.624   03 Jun 2027 08:08:54.072            33.448            RioGallegos          1045.250
       267   03 Jun 2027 08:12:02.270   03 Jun 2027 08:12:06.721             4.451            RioGallegos           139.094
       268   03 Jun 2027 08:12:19.687   03 Jun 2027 08:12:20.797             1.110            RioGallegos            34.688
       269   03 Jun 2027 08:41:36.800   03 Jun 2027 08:42:23.173            46.373                Sumatra          1449.156
       270   03 Jun 2027 08:43:25.002   03 Jun 2027 08:45:18.068           113.066                Sumatra          3533.313
       271   03 Jun 2027 08:49:32.982   03 Jun 2027 08:51:16.098           103.116                  Delhi          3222.375
       272   03 Jun 2027 09:03:09.899   03 Jun 2027 09:04:10.392            60.493                 Moscow          1890.406
       273   03 Jun 2027 09:04:21.630   03 Jun 2027 09:04:22.847             1.217                Irkutsk            38.031
       274   03 Jun 2027 09:04:23.944   03 Jun 2027 09:04:24.655             0.711                 Moscow            22.219
       275   03 Jun 2027 09:04:33.185   03 Jun 2027 09:04:42.901             9.716              Murmansk1           303.625
       276   03 Jun 2027 09:04:43.821   03 Jun 2027 09:04:52.619             8.798              Murmansk1           274.937
       277   03 Jun 2027 09:04:55.174   03 Jun 2027 09:05:20.910            25.736                 Moscow           804.250
       278   03 Jun 2027 09:05:43.732   03 Jun 2027 09:06:12.081            28.349                Irkutsk           885.906
       279   03 Jun 2027 09:06:19.360   03 Jun 2027 09:06:24.084             4.724                Norilsk           147.625
       280   03 Jun 2027 09:06:25.163   03 Jun 2027 09:07:07.306            42.143                Norilsk          1316.969
       281   03 Jun 2027 09:07:09.197   03 Jun 2027 09:07:22.814            13.617                 Moscow           425.531
       282   03 Jun 2027 10:26:37.526   03 Jun 2027 10:28:57.507           139.981                  Delhi          4374.406
       283   03 Jun 2027 10:29:21.249   03 Jun 2027 10:29:41.760            20.511                  Delhi           640.969
       284   03 Jun 2027 10:39:00.719   03 Jun 2027 10:39:19.976            19.257                 Moscow           601.781
       285   03 Jun 2027 10:39:28.205   03 Jun 2027 10:39:32.772             4.567              Murmansk1           142.719
       286   03 Jun 2027 10:40:05.234   03 Jun 2027 10:40:20.630            15.396                Norilsk           481.125
       287   03 Jun 2027 10:40:24.370   03 Jun 2027 10:40:42.961            18.591                Norilsk           580.969
       288   03 Jun 2027 10:41:10.505   03 Jun 2027 10:41:51.450            40.945              Murmansk1          1279.531
       289   03 Jun 2027 10:42:03.439   03 Jun 2027 10:42:37.144            33.705              Murmansk2          1053.281
       290   03 Jun 2027 10:42:46.497   03 Jun 2027 10:42:48.011             1.514              Murmansk1            47.312
       291   03 Jun 2027 10:43:07.208   03 Jun 2027 10:43:11.148             3.940                Norilsk           123.125
       292   03 Jun 2027 10:43:20.051   03 Jun 2027 10:43:41.882            21.831                Novosib           682.219
       293   03 Jun 2027 10:45:52.264   03 Jun 2027 10:45:54.678             2.414              Murmansk1            75.438
       294   03 Jun 2027 10:47:32.068   03 Jun 2027 10:47:37.283             5.215              Murmansk2           162.969
       295   03 Jun 2027 12:09:47.696   03 Jun 2027 12:12:49.121           181.425                 Moscow          5669.531
       296   03 Jun 2027 12:13:18.614   03 Jun 2027 12:14:19.546            60.932              Murmansk2          1904.125
       297   03 Jun 2027 12:14:36.187   03 Jun 2027 12:14:51.784            15.597                 Moscow           487.406
       298   03 Jun 2027 12:14:55.137   03 Jun 2027 12:15:16.917            21.780              Murmansk2           680.625
       299   03 Jun 2027 12:15:30.278   03 Jun 2027 12:15:36.645             6.367              Murmansk1           198.969
       300   03 Jun 2027 12:16:01.308   03 Jun 2027 12:16:22.726            21.418              Murmansk1           669.313
       301   03 Jun 2027 12:19:13.985   03 Jun 2027 12:19:24.323            10.338              Murmansk2           323.063
       302   03 Jun 2027 12:19:59.122   03 Jun 2027 12:20:10.837            11.715              Murmansk1           366.094
       303   03 Jun 2027 12:21:44.330   03 Jun 2027 12:21:48.470             4.140                Norilsk           129.375
       304   03 Jun 2027 12:22:39.080   03 Jun 2027 12:23:17.514            38.434              Murmansk1          1201.062
       305   03 Jun 2027 12:29:09.222   03 Jun 2027 12:34:26.135           316.913                Anadyr1          9903.531
       306   03 Jun 2027 13:52:14.390   03 Jun 2027 13:53:30.637            76.247              Murmansk2          2382.719
       307   03 Jun 2027 14:00:37.661   03 Jun 2027 14:01:04.246            26.585              Murmansk2           830.781
       308   03 Jun 2027 14:03:49.287   03 Jun 2027 14:07:06.761           197.474                Anadyr2          6171.062
       309   03 Jun 2027 14:07:19.143   03 Jun 2027 14:08:01.162            42.019                Anadyr2          1313.094
       310   03 Jun 2027 15:32:19.362   03 Jun 2027 15:33:35.060            75.698              Murmansk2          2365.562
       311   03 Jun 2027 15:35:27.478   03 Jun 2027 15:36:06.946            39.468              Murmansk1          1233.375
       312   03 Jun 2027 15:39:36.720   03 Jun 2027 15:41:50.385           133.665                Anadyr2          4177.031
       313   03 Jun 2027 15:42:18.464   03 Jun 2027 15:46:19.788           241.324               Magadan1          7541.375
       314   03 Jun 2027 15:48:50.471   03 Jun 2027 15:50:10.584            80.113               Magadan2          2503.531
       315   03 Jun 2027 17:16:04.731   03 Jun 2027 17:16:11.846             7.115                Anadyr2           222.344
       316   03 Jun 2027 17:17:48.850   03 Jun 2027 17:19:03.456            74.606               Magadan2          2331.437
       317   03 Jun 2027 17:19:54.942   03 Jun 2027 17:20:59.481            64.539               Magadan1          2016.844
       318   03 Jun 2027 17:26:33.435   03 Jun 2027 17:27:06.875            33.440               Magadan2          1045.000
       319   03 Jun 2027 18:10:24.799   03 Jun 2027 18:15:00.320           275.521            RioGallegos          8610.031
       320   03 Jun 2027 18:15:42.201   03 Jun 2027 18:16:51.660            69.459            RioGallegos          2170.594
       321   03 Jun 2027 18:53:25.120   03 Jun 2027 18:54:15.855            50.735                Norilsk          1585.469
       322   03 Jun 2027 18:55:11.825   03 Jun 2027 18:56:52.799           100.974                Norilsk          3155.437
       323   03 Jun 2027 18:57:47.679   03 Jun 2027 18:58:48.497            60.818                Irkutsk          1900.562
       324   03 Jun 2027 18:59:32.852   03 Jun 2027 19:00:52.757            79.905                Irkutsk          2497.031
       325   03 Jun 2027 19:08:07.605   03 Jun 2027 19:08:46.882            39.277                Irkutsk          1227.406
       326   03 Jun 2027 19:11:47.529   03 Jun 2027 19:13:08.691            81.162                Sumatra          2536.313
       327   03 Jun 2027 19:13:31.824   03 Jun 2027 19:15:22.267           110.443                Sumatra          3451.344
       328   03 Jun 2027 19:22:33.528   03 Jun 2027 19:23:24.084            50.556                Sumatra          1579.875
       329   03 Jun 2027 20:33:28.577   03 Jun 2027 20:34:34.437            65.860                Novosib          2058.125
       330   03 Jun 2027 20:35:10.716   03 Jun 2027 20:35:31.487            20.771                Novosib           649.094
       331   03 Jun 2027 20:41:44.033   03 Jun 2027 20:44:20.497           156.464                  Delhi          4889.500
       332   03 Jun 2027 20:44:27.936   03 Jun 2027 20:45:02.170            34.234                  Delhi          1069.813
       333   03 Jun 2027 22:07:49.531   03 Jun 2027 22:14:14.262           384.731              Murmansk2         12022.844
       334   03 Jun 2027 22:14:32.650   03 Jun 2027 22:16:57.220           144.570                 Moscow          4517.812
       335   03 Jun 2027 23:43:26.607   03 Jun 2027 23:45:15.561           108.954              Murmansk1          3404.813
       336   03 Jun 2027 23:46:55.417   03 Jun 2027 23:49:00.186           124.769                 Moscow          3899.031
       337   03 Jun 2027 23:54:03.424   03 Jun 2027 23:55:07.330            63.906                 Moscow          1997.062
       338   04 Jun 2027 00:11:43.298   04 Jun 2027 00:14:50.290           186.992               CapeTown          5843.500
       339   04 Jun 2027 01:19:24.102   04 Jun 2027 01:20:52.205            88.103              Murmansk1          2753.219
       340   04 Jun 2027 01:22:24.195   04 Jun 2027 01:23:14.008            49.813              Murmansk1          1556.656
       341   04 Jun 2027 01:23:31.793   04 Jun 2027 01:24:11.818            40.025                Novosib          1250.781
       342   04 Jun 2027 01:26:51.074   04 Jun 2027 01:26:51.953             0.879                 Moscow            27.469
       343   04 Jun 2027 01:27:53.381   04 Jun 2027 01:28:57.243            63.862                 Moscow          1995.687
       344   04 Jun 2027 01:46:48.641   04 Jun 2027 01:48:01.292            72.651               CapeTown          2270.344
       345   04 Jun 2027 02:43:30.573   04 Jun 2027 02:44:33.049            62.476                Anadyr2          1952.375
       346   04 Jun 2027 02:44:40.739   04 Jun 2027 02:46:34.209           113.470               Magadan1          3545.937
       347   04 Jun 2027 02:48:38.395   04 Jun 2027 02:48:52.857            14.462               Magadan1           451.938
       348   04 Jun 2027 02:51:21.622   04 Jun 2027 02:51:33.247            11.625               Magadan1           363.281
       349   04 Jun 2027 02:51:46.202   04 Jun 2027 02:52:01.413            15.211                Norilsk           475.344
       350   04 Jun 2027 02:54:14.600   04 Jun 2027 02:54:25.207            10.607                Norilsk           331.469
       351   04 Jun 2027 02:55:18.131   04 Jun 2027 02:56:40.125            81.994              Murmansk1          2562.312
       352   04 Jun 2027 02:57:19.060   04 Jun 2027 02:57:22.905             3.845              Murmansk1           120.156
       353   04 Jun 2027 02:58:30.583   04 Jun 2027 02:58:40.103             9.520              Murmansk2           297.500
       354   04 Jun 2027 02:58:55.715   04 Jun 2027 02:59:38.173            42.458                 Moscow          1326.812
       355   04 Jun 2027 04:27:04.417   04 Jun 2027 04:27:49.970            45.553                Irkutsk          1423.531
       356   04 Jun 2027 04:28:58.389   04 Jun 2027 04:29:04.397             6.008               Magadan1           187.750
       357   04 Jun 2027 04:29:13.881   04 Jun 2027 04:30:06.048            52.167                Anadyr1          1630.219
       358   04 Jun 2027 05:08:06.458   04 Jun 2027 05:11:15.444           188.986            RioGallegos          5905.812
       359   04 Jun 2027 05:58:25.364   04 Jun 2027 05:59:12.425            47.061                Irkutsk          1470.656
       360   04 Jun 2027 06:03:15.145   04 Jun 2027 06:04:56.631           101.486               Magadan2          3171.438
       361   04 Jun 2027 06:05:00.906   04 Jun 2027 06:05:05.501             4.595               Magadan2           143.594
       362   04 Jun 2027 06:05:51.117   04 Jun 2027 06:07:22.773            91.656                Irkutsk          2864.250
       363   04 Jun 2027 06:08:20.560   04 Jun 2027 06:08:30.081             9.521                Norilsk           297.531
       364   04 Jun 2027 06:09:12.075   04 Jun 2027 06:09:37.121            25.046                Norilsk           782.688
       365   04 Jun 2027 06:42:09.129   04 Jun 2027 06:44:15.361           126.232            RioGallegos          3944.750
       366   04 Jun 2027 06:46:34.889   04 Jun 2027 06:46:39.149             4.260            RioGallegos           133.125
       367   04 Jun 2027 07:17:36.991   04 Jun 2027 07:21:21.418           224.427                Sumatra          7013.344
       368   04 Jun 2027 07:31:01.866   04 Jun 2027 07:31:39.308            37.442                  Delhi          1170.063
       369   04 Jun 2027 07:34:01.516   04 Jun 2027 07:34:30.113            28.597                  Delhi           893.656
       370   04 Jun 2027 07:37:16.550   04 Jun 2027 07:37:47.778            31.228                Irkutsk           975.875
       371   04 Jun 2027 07:38:12.269   04 Jun 2027 07:38:23.744            11.475                Irkutsk           358.594
       372   04 Jun 2027 07:38:37.200   04 Jun 2027 07:38:57.408            20.208                Novosib           631.500
       373   04 Jun 2027 07:39:11.596   04 Jun 2027 07:39:42.977            31.381                Novosib           980.656
       374   04 Jun 2027 07:40:06.765   04 Jun 2027 07:41:26.654            79.889              Murmansk2          2496.531
       375   04 Jun 2027 07:41:39.158   04 Jun 2027 07:41:39.979             0.821                Irkutsk            25.656
       376   04 Jun 2027 07:41:45.349   04 Jun 2027 07:42:40.459            55.110              Murmansk2          1722.188
       377   04 Jun 2027 07:42:40.459   04 Jun 2027 07:42:56.159            15.700              Murmansk1           490.625
       378   04 Jun 2027 07:43:33.773   04 Jun 2027 07:43:59.307            25.534              Murmansk2           797.938
       379   04 Jun 2027 07:44:51.105   04 Jun 2027 07:44:58.220             7.115                Novosib           222.344
       380   04 Jun 2027 08:19:55.005   04 Jun 2027 08:20:26.184            31.179            RioGallegos           974.344
       381   04 Jun 2027 08:21:10.609   04 Jun 2027 08:21:12.029             1.420            RioGallegos            44.375
       382   04 Jun 2027 08:22:38.511   04 Jun 2027 08:23:25.085            46.574            RioGallegos          1455.437
       383   04 Jun 2027 08:54:06.570   04 Jun 2027 08:54:19.472            12.902                Sumatra           403.188
       384   04 Jun 2027 08:54:58.439   04 Jun 2027 08:55:28.899            30.460                Sumatra           951.875
       385   04 Jun 2027 09:01:22.765   04 Jun 2027 09:03:39.819           137.054                  Delhi          4282.937
       386   04 Jun 2027 09:15:15.700   04 Jun 2027 09:15:39.255            23.555              Murmansk1           736.094
       387   04 Jun 2027 09:15:46.677   04 Jun 2027 09:16:23.556            36.879                 Moscow          1152.469
       388   04 Jun 2027 09:16:31.325   04 Jun 2027 09:16:33.101             1.776              Murmansk2            55.500
       389   04 Jun 2027 09:16:41.196   04 Jun 2027 09:17:14.986            33.790                Irkutsk          1055.937
       390   04 Jun 2027 09:17:18.502   04 Jun 2027 09:17:29.118            10.616                Norilsk           331.750
       391   04 Jun 2027 09:17:30.008   04 Jun 2027 09:17:56.272            26.264                Novosib           820.750
       392   04 Jun 2027 09:18:00.199   04 Jun 2027 09:19:11.782            71.583              Murmansk2          2236.969
       393   04 Jun 2027 10:39:23.752   04 Jun 2027 10:41:39.543           135.791                  Delhi          4243.469
       394   04 Jun 2027 10:50:59.165   04 Jun 2027 10:51:34.398            35.233              Murmansk1          1101.031
       395   04 Jun 2027 10:51:56.127   04 Jun 2027 10:52:06.860            10.733                Norilsk           335.406
       396   04 Jun 2027 10:52:25.544   04 Jun 2027 10:53:16.550            51.006                Norilsk          1593.938
       397   04 Jun 2027 10:53:22.609   04 Jun 2027 10:53:51.045            28.436              Murmansk1           888.625
       398   04 Jun 2027 10:54:13.628   04 Jun 2027 10:54:30.541            16.913                 Moscow           528.531
       399   04 Jun 2027 10:54:30.646   04 Jun 2027 10:54:42.894            12.248              Murmansk2           382.750
       400   04 Jun 2027 10:54:52.244   04 Jun 2027 10:55:27.362            35.118                Norilsk          1097.438
       401   04 Jun 2027 10:55:28.571   04 Jun 2027 10:56:04.435            35.864                 Moscow          1120.750
       402   04 Jun 2027 12:03:04.811   04 Jun 2027 12:04:38.098            93.287               CapeTown          2915.219
       403   04 Jun 2027 12:22:00.060   04 Jun 2027 12:22:55.972            55.912                 Moscow          1747.250
       404   04 Jun 2027 12:25:28.783   04 Jun 2027 12:28:34.369           185.586              Murmansk2          5799.563
       405   04 Jun 2027 12:29:42.551   04 Jun 2027 12:29:46.874             4.323              Murmansk2           135.094
       406   04 Jun 2027 12:30:16.498   04 Jun 2027 12:30:26.219             9.721              Murmansk1           303.781
       407   04 Jun 2027 12:30:59.815   04 Jun 2027 12:31:02.339             2.524              Murmansk1            78.875
       408   04 Jun 2027 12:34:32.834   04 Jun 2027 12:35:12.750            39.916              Murmansk1          1247.375
       409   04 Jun 2027 12:40:48.352   04 Jun 2027 12:44:30.378           222.026                Anadyr2          6938.313
       410   04 Jun 2027 12:45:43.980   04 Jun 2027 12:47:22.427            98.447                Anadyr1          3076.469
       411   04 Jun 2027 14:03:47.821   04 Jun 2027 14:03:59.005            11.184              Murmansk2           349.500
       412   04 Jun 2027 14:04:18.106   04 Jun 2027 14:05:32.597            74.491              Murmansk2          2327.844
       413   04 Jun 2027 14:15:48.178   04 Jun 2027 14:17:28.703           100.525                Anadyr1          3141.406
       414   04 Jun 2027 14:17:35.050   04 Jun 2027 14:19:07.608            92.558                Anadyr2          2892.437
       415   04 Jun 2027 14:24:55.027   04 Jun 2027 14:25:43.310            48.283                Anadyr2          1508.844
       416   04 Jun 2027 15:45:31.030   04 Jun 2027 15:47:08.392            97.362              Murmansk2          3042.563
       417   04 Jun 2027 15:51:37.989   04 Jun 2027 15:53:43.944           125.955                Anadyr2          3936.094
       418   04 Jun 2027 15:54:13.164   04 Jun 2027 15:56:30.459           137.295               Magadan2          4290.469
       419   04 Jun 2027 15:57:25.727   04 Jun 2027 15:58:17.992            52.265               Magadan1          1633.281
       420   04 Jun 2027 15:59:41.568   04 Jun 2027 16:00:51.593            70.025               Magadan2          2188.281
       421   04 Jun 2027 16:02:22.569   04 Jun 2027 16:02:37.043            14.474               Magadan2           452.312
       422   04 Jun 2027 17:27:32.596   04 Jun 2027 17:27:42.509             9.913                Anadyr1           309.781
       423   04 Jun 2027 17:27:48.087   04 Jun 2027 17:28:14.959            26.872                Anadyr2           839.750
       424   04 Jun 2027 17:28:52.120   04 Jun 2027 17:28:53.611             1.491                Anadyr1            46.594
       425   04 Jun 2027 17:29:38.863   04 Jun 2027 17:30:08.311            29.448                Anadyr1           920.250
       426   04 Jun 2027 17:30:31.979   04 Jun 2027 17:30:40.354             8.375                Norilsk           261.719
       427   04 Jun 2027 17:30:47.939   04 Jun 2027 17:30:49.843             1.904                Anadyr2            59.500
       428   04 Jun 2027 17:31:09.788   04 Jun 2027 17:31:12.788             3.000                Anadyr2            93.750
       429   04 Jun 2027 17:31:16.033   04 Jun 2027 17:31:45.652            29.619               Magadan2           925.594
       430   04 Jun 2027 17:31:45.652   04 Jun 2027 17:32:31.828            46.176               Magadan1          1443.000
       431   04 Jun 2027 17:33:06.301   04 Jun 2027 17:33:31.962            25.661                Norilsk           801.906
       432   04 Jun 2027 17:38:52.132   04 Jun 2027 17:41:11.235           139.103               Magadan1          4346.969
       433   04 Jun 2027 18:22:08.814   04 Jun 2027 18:24:58.197           169.383            RioGallegos          5293.219
       434   04 Jun 2027 18:25:54.043   04 Jun 2027 18:28:18.211           144.168            RioGallegos          4505.250
       435   04 Jun 2027 19:07:19.788   04 Jun 2027 19:10:53.594           213.806                Norilsk          6681.437
       436   04 Jun 2027 19:11:17.821   04 Jun 2027 19:12:27.678            69.857                Irkutsk          2183.031
       437   04 Jun 2027 19:12:40.831   04 Jun 2027 19:15:34.892           174.061                Novosib          5439.406
       438   04 Jun 2027 19:25:53.237   04 Jun 2027 19:27:21.958            88.721                Sumatra          2772.531
       439   04 Jun 2027 20:47:33.846   04 Jun 2027 20:48:50.235            76.389                Novosib          2387.156
       440   04 Jun 2027 20:51:52.958   04 Jun 2027 20:52:34.184            41.226                Novosib          1288.313
       441   04 Jun 2027 20:53:19.719   04 Jun 2027 20:54:48.012            88.293                  Delhi          2759.156
       442   04 Jun 2027 20:56:33.791   04 Jun 2027 20:58:07.031            93.240                  Delhi          2913.750
       443   04 Jun 2027 20:59:51.317   04 Jun 2027 20:59:52.046             0.729                  Delhi            22.781
       444   04 Jun 2027 22:19:45.289   04 Jun 2027 22:22:10.948           145.659              Murmansk2          4551.844
       445   04 Jun 2027 22:23:00.326   04 Jun 2027 22:25:23.295           142.969              Murmansk1          4467.781
       446   04 Jun 2027 22:25:23.295   04 Jun 2027 22:25:34.256            10.961              Murmansk2           342.531
       447   04 Jun 2027 22:26:13.489   04 Jun 2027 22:30:36.251           262.762                 Moscow          8211.312
       448   04 Jun 2027 23:55:27.767   04 Jun 2027 23:55:28.479             0.712              Murmansk2            22.250
       449   04 Jun 2027 23:56:02.071   04 Jun 2027 23:57:01.502            59.431              Murmansk1          1857.219
       450   04 Jun 2027 23:58:51.727   05 Jun 2027 00:00:19.634            87.907                 Moscow          2747.094
       451   05 Jun 2027 00:02:23.444   05 Jun 2027 00:02:56.712            33.268                 Moscow          1039.625
       452   05 Jun 2027 00:10:27.186   05 Jun 2027 00:11:07.667            40.481                 Moscow          1265.031
       453   05 Jun 2027 00:23:19.838   05 Jun 2027 00:25:25.682           125.844               CapeTown          3932.625
       454   05 Jun 2027 00:26:55.427   05 Jun 2027 00:28:06.614            71.187               CapeTown          2224.594
       455   05 Jun 2027 01:26:29.652   05 Jun 2027 01:27:08.293            38.641               Magadan1          1207.531
       456   05 Jun 2027 01:31:25.692   05 Jun 2027 01:32:43.676            77.984              Murmansk1          2437.000
       457   05 Jun 2027 01:33:42.646   05 Jun 2027 01:34:26.405            43.759              Murmansk1          1367.469
       458   05 Jun 2027 01:35:24.637   05 Jun 2027 01:35:58.640            34.003                 Moscow          1062.594
       459   05 Jun 2027 01:38:21.534   05 Jun 2027 01:38:51.450            29.916                 Moscow           934.875
       460   05 Jun 2027 01:43:40.555   05 Jun 2027 01:43:50.271             9.716                 Moscow           303.625
       461   05 Jun 2027 01:59:07.915   05 Jun 2027 01:59:53.985            46.070               CapeTown          1439.688
       462   05 Jun 2027 02:01:20.666   05 Jun 2027 02:02:35.462            74.796               CapeTown          2337.375
       463   05 Jun 2027 02:55:24.385   05 Jun 2027 02:58:05.143           160.758               Magadan2          5023.688
       464   05 Jun 2027 03:01:39.027   05 Jun 2027 03:01:50.082            11.055               Magadan1           345.469
       465   05 Jun 2027 03:01:51.172   05 Jun 2027 03:02:33.976            42.804               Magadan1          1337.625
       466   05 Jun 2027 03:02:47.321   05 Jun 2027 03:02:55.417             8.096                Anadyr1           253.000
       467   05 Jun 2027 03:02:58.319   05 Jun 2027 03:03:18.603            20.284               Magadan1           633.875
       468   05 Jun 2027 03:03:35.903   05 Jun 2027 03:04:51.783            75.880               Magadan2          2371.250
       469   05 Jun 2027 03:05:13.322   05 Jun 2027 03:06:17.831            64.509               Magadan1          2015.906
       470   05 Jun 2027 03:06:28.162   05 Jun 2027 03:07:01.962            33.800                Anadyr1          1056.250
       471   05 Jun 2027 04:40:48.069   05 Jun 2027 04:41:01.041            12.972               Magadan1           405.375
       472   05 Jun 2027 04:41:06.757   05 Jun 2027 04:41:36.691            29.934               Magadan1           935.438
       473   05 Jun 2027 04:41:36.691   05 Jun 2027 04:41:39.185             2.494               Magadan2            77.937
       474   05 Jun 2027 04:41:56.650   05 Jun 2027 04:42:03.093             6.443                Anadyr1           201.344
       475   05 Jun 2027 04:42:28.284   05 Jun 2027 04:43:02.913            34.629               Magadan1          1082.156
       476   05 Jun 2027 04:43:34.215   05 Jun 2027 04:43:57.615            23.400                Norilsk           731.250
       477   05 Jun 2027 05:19:42.185   05 Jun 2027 05:23:01.484           199.299            RioGallegos          6228.094
       478   05 Jun 2027 06:13:09.468   05 Jun 2027 06:14:05.808            56.340               Magadan1          1760.625
       479   05 Jun 2027 06:14:40.146   05 Jun 2027 06:15:35.314            55.168               Magadan1          1724.000
       480   05 Jun 2027 06:16:04.759   05 Jun 2027 06:17:34.207            89.448                Novosib          2795.250
       481   05 Jun 2027 06:17:42.035   05 Jun 2027 06:17:43.630             1.595              Murmansk2            49.844
       482   05 Jun 2027 06:17:44.856   05 Jun 2027 06:18:04.167            19.311                Norilsk           603.469
