uniorb/output/strategy_2/Drop/Drop_KinoSat_110802.txt

KinoSat_110802
-------------------------
    Access    *     Start Time (UTCG)     *     Stop Time (UTCG)  *   Duration (s)        *       Station  *  Data (Mbytes)
         1   01 Jun 2027 04:02:56.660   01 Jun 2027 04:03:52.976            56.316                Anadyr1          1759.875
         2   01 Jun 2027 04:04:24.971   01 Jun 2027 04:04:47.319            22.348                Anadyr1           698.375
         3   01 Jun 2027 04:04:47.740   01 Jun 2027 04:04:49.316             1.576               Magadan2            49.250
         4   01 Jun 2027 04:05:15.332   01 Jun 2027 04:06:45.248            89.916                Anadyr1          2809.875
         5   01 Jun 2027 04:06:45.248   01 Jun 2027 04:06:54.515             9.267                Anadyr2           289.594
         6   01 Jun 2027 04:07:12.318   01 Jun 2027 04:07:18.878             6.560               Magadan1           205.000
         7   01 Jun 2027 04:07:21.802   01 Jun 2027 04:09:53.453           151.651                Anadyr2          4739.094
         8   01 Jun 2027 04:09:57.065   01 Jun 2027 04:10:42.595            45.530               Magadan1          1422.812
         9   01 Jun 2027 04:49:41.547   01 Jun 2027 04:51:55.696           134.149            RioGallegos          4192.156
        10   01 Jun 2027 05:40:23.503   01 Jun 2027 05:43:20.757           177.254               Magadan1          5539.187
        11   01 Jun 2027 05:43:20.757   01 Jun 2027 05:44:15.401            54.644               Magadan2          1707.625
        12   01 Jun 2027 05:44:15.401   01 Jun 2027 05:44:16.270             0.869               Magadan1            27.156
        13   01 Jun 2027 05:44:21.292   01 Jun 2027 05:46:16.545           115.253               Magadan1          3601.656
        14   01 Jun 2027 06:59:56.637   01 Jun 2027 07:01:20.819            84.182                Sumatra          2630.687
        15   01 Jun 2027 07:16:06.375   01 Jun 2027 07:16:54.302            47.927                Novosib          1497.719
        16   01 Jun 2027 07:18:23.260   01 Jun 2027 07:18:38.645            15.385               Magadan2           480.781
        17   01 Jun 2027 07:19:01.476   01 Jun 2027 07:20:28.016            86.540               Magadan1          2704.375
        18   01 Jun 2027 07:21:03.425   01 Jun 2027 07:21:29.964            26.539              Murmansk1           829.344
        19   01 Jun 2027 07:21:44.618   01 Jun 2027 07:22:24.244            39.626                Irkutsk          1238.312
        20   01 Jun 2027 07:22:24.522   01 Jun 2027 07:23:14.526            50.004              Murmansk2          1562.625
        21   01 Jun 2027 07:23:32.897   01 Jun 2027 07:27:32.825           239.928              Murmansk2          7497.750
        22   01 Jun 2027 07:28:39.461   01 Jun 2027 07:29:09.492            30.031              Murmansk1           938.469
        23   01 Jun 2027 07:29:19.994   01 Jun 2027 07:29:27.351             7.357              Murmansk2           229.906
        24   01 Jun 2027 07:57:18.586   01 Jun 2027 07:57:48.984            30.398            RioGallegos           949.938
        25   01 Jun 2027 07:58:17.577   01 Jun 2027 07:58:35.837            18.260            RioGallegos           570.625
        26   01 Jun 2027 08:00:12.878   01 Jun 2027 08:00:43.148            30.270            RioGallegos           945.938
        27   01 Jun 2027 08:03:26.944   01 Jun 2027 08:04:06.272            39.328            RioGallegos          1229.000
        28   01 Jun 2027 08:31:55.555   01 Jun 2027 08:32:30.432            34.877                Sumatra          1089.906
        29   01 Jun 2027 08:35:39.477   01 Jun 2027 08:36:36.534            57.057                Sumatra          1783.031
        30   01 Jun 2027 08:40:28.881   01 Jun 2027 08:41:09.384            40.503                Sumatra          1265.719
        31   01 Jun 2027 08:41:53.963   01 Jun 2027 08:43:47.061           113.098                  Delhi          3534.312
        32   01 Jun 2027 08:47:22.030   01 Jun 2027 08:48:40.297            78.267                  Delhi          2445.844
        33   01 Jun 2027 08:54:23.479   01 Jun 2027 08:55:19.046            55.567                Irkutsk          1736.469
        34   01 Jun 2027 08:55:27.174   01 Jun 2027 08:55:46.572            19.398                Novosib           606.188
        35   01 Jun 2027 08:55:48.026   01 Jun 2027 08:55:54.242             6.216                Norilsk           194.250
        36   01 Jun 2027 08:55:57.553   01 Jun 2027 08:56:10.248            12.695                Irkutsk           396.719
        37   01 Jun 2027 08:56:25.361   01 Jun 2027 08:57:59.700            94.339                Irkutsk          2948.094
        38   01 Jun 2027 08:58:07.235   01 Jun 2027 08:58:37.952            30.717                 Moscow           959.906
        39   01 Jun 2027 08:58:41.302   01 Jun 2027 08:59:53.868            72.566                Novosib          2267.688
        40   01 Jun 2027 09:00:01.650   01 Jun 2027 09:00:08.532             6.882                 Moscow           215.063
        41   01 Jun 2027 09:02:56.144   01 Jun 2027 09:03:19.728            23.584                Norilsk           737.000
        42   01 Jun 2027 09:37:51.867   01 Jun 2027 09:39:30.893            99.026            RioGallegos          3094.562
        43   01 Jun 2027 09:43:14.275   01 Jun 2027 09:43:19.224             4.949            RioGallegos           154.656
        44   01 Jun 2027 10:16:17.709   01 Jun 2027 10:17:58.970           101.261                  Delhi          3164.406
        45   01 Jun 2027 10:24:50.708   01 Jun 2027 10:25:00.103             9.395                  Delhi           293.594
        46   01 Jun 2027 10:25:24.437   01 Jun 2027 10:25:59.961            35.524                  Delhi          1110.125
        47   01 Jun 2027 10:32:21.443   01 Jun 2027 10:33:08.506            47.063              Murmansk2          1470.719
        48   01 Jun 2027 10:33:11.057   01 Jun 2027 10:35:38.415           147.358                 Moscow          4604.937
        49   01 Jun 2027 10:36:15.230   01 Jun 2027 10:36:30.413            15.183              Murmansk2           474.469
        50   01 Jun 2027 10:36:46.718   01 Jun 2027 10:37:16.113            29.395                 Moscow           918.594
        51   01 Jun 2027 10:38:05.004   01 Jun 2027 10:38:48.481            43.477                Norilsk          1358.656
        52   01 Jun 2027 12:07:58.513   01 Jun 2027 12:08:26.483            27.970                 Moscow           874.063
        53   01 Jun 2027 12:09:18.998   01 Jun 2027 12:09:50.235            31.237                Norilsk           976.156
        54   01 Jun 2027 12:09:52.273   01 Jun 2027 12:10:07.070            14.797                 Moscow           462.406
        55   01 Jun 2027 12:10:50.917   01 Jun 2027 12:12:03.052            72.135                 Moscow          2254.219
        56   01 Jun 2027 12:12:49.512   01 Jun 2027 12:15:08.237           138.725              Murmansk1          4335.156
        57   01 Jun 2027 12:15:08.237   01 Jun 2027 12:15:49.779            41.542              Murmansk2          1298.188
        58   01 Jun 2027 12:16:36.736   01 Jun 2027 12:16:54.881            18.145              Murmansk1           567.031
        59   01 Jun 2027 13:20:13.271   01 Jun 2027 13:22:30.532           137.261               CapeTown          4289.406
        60   01 Jun 2027 13:22:47.564   01 Jun 2027 13:23:22.243            34.679               CapeTown          1083.719
        61   01 Jun 2027 13:47:26.932   01 Jun 2027 13:48:22.358            55.426              Murmansk2          1732.063
        62   01 Jun 2027 13:49:18.726   01 Jun 2027 13:50:13.883            55.157              Murmansk2          1723.656
        63   01 Jun 2027 13:50:27.845   01 Jun 2027 13:50:46.198            18.353              Murmansk1           573.531
        64   01 Jun 2027 13:50:58.313   01 Jun 2027 13:51:26.310            27.997              Murmansk1           874.906
        65   01 Jun 2027 13:52:03.460   01 Jun 2027 13:52:24.618            21.158              Murmansk2           661.188
        66   01 Jun 2027 13:57:29.194   01 Jun 2027 13:58:58.977            89.783                Anadyr2          2805.719
        67   01 Jun 2027 13:59:48.434   01 Jun 2027 14:00:18.472            30.038                Anadyr1           938.688
        68   01 Jun 2027 14:00:48.549   01 Jun 2027 14:02:15.400            86.851                Anadyr2          2714.094
        69   01 Jun 2027 15:24:57.014   01 Jun 2027 15:25:29.408            32.394              Murmansk1          1012.312
        70   01 Jun 2027 15:26:41.397   01 Jun 2027 15:27:04.407            23.010              Murmansk1           719.063
        71   01 Jun 2027 15:27:11.147   01 Jun 2027 15:28:22.896            71.749              Murmansk1          2242.156
        72   01 Jun 2027 15:34:51.962   01 Jun 2027 15:36:11.729            79.767               Magadan1          2492.719
        73   01 Jun 2027 15:37:34.493   01 Jun 2027 15:38:57.429            82.936               Magadan1          2591.750
        74   01 Jun 2027 15:39:04.108   01 Jun 2027 15:40:31.162            87.054               Magadan1          2720.438
        75   01 Jun 2027 17:11:47.372   01 Jun 2027 17:12:05.273            17.901               Magadan1           559.406
        76   01 Jun 2027 17:12:12.750   01 Jun 2027 17:12:52.719            39.969               Magadan2          1249.031
        77   01 Jun 2027 17:12:52.719   01 Jun 2027 17:12:57.642             4.923               Magadan1           153.844
        78   01 Jun 2027 17:13:25.803   01 Jun 2027 17:13:31.099             5.296                Anadyr1           165.500
        79   01 Jun 2027 17:13:31.943   01 Jun 2027 17:14:27.833            55.890               Magadan1          1746.562
        80   01 Jun 2027 17:14:47.992   01 Jun 2027 17:14:55.912             7.920                Anadyr2           247.500
        81   01 Jun 2027 17:15:20.686   01 Jun 2027 17:15:43.424            22.738                Anadyr1           710.563
        82   01 Jun 2027 17:16:05.224   01 Jun 2027 17:16:32.781            27.557               Magadan1           861.156
        83   01 Jun 2027 17:16:37.420   01 Jun 2027 17:17:14.782            37.362               Magadan1          1167.562
        84   01 Jun 2027 17:18:56.283   01 Jun 2027 17:19:12.420            16.137               Magadan2           504.281
        85   01 Jun 2027 17:19:12.420   01 Jun 2027 17:20:13.500            61.080               Magadan1          1908.750
        86   01 Jun 2027 18:03:42.889   01 Jun 2027 18:05:41.786           118.897            RioGallegos          3715.531
        87   01 Jun 2027 18:45:27.181   01 Jun 2027 18:47:14.345           107.164                Norilsk          3348.875
        88   01 Jun 2027 18:47:42.759   01 Jun 2027 18:48:34.467            51.708                Norilsk          1615.875
        89   01 Jun 2027 18:49:16.592   01 Jun 2027 18:50:17.209            60.617                Norilsk          1894.281
        90   01 Jun 2027 18:51:08.943   01 Jun 2027 18:51:31.878            22.935                Irkutsk           716.719
        91   01 Jun 2027 18:51:51.884   01 Jun 2027 18:53:00.853            68.969                Irkutsk          2155.281
        92   01 Jun 2027 18:54:38.591   01 Jun 2027 18:56:00.942            82.351                Irkutsk          2573.469
        93   01 Jun 2027 19:07:06.512   01 Jun 2027 19:10:25.436           198.924                Sumatra          6216.375
        94   01 Jun 2027 20:29:48.209   01 Jun 2027 20:30:38.250            50.041                Novosib          1563.781
        95   01 Jun 2027 20:32:41.272   01 Jun 2027 20:33:27.737            46.465                Novosib          1452.031
        96   01 Jun 2027 20:37:00.463   01 Jun 2027 20:38:03.084            62.621                  Delhi          1956.906
        97   01 Jun 2027 21:22:53.342   01 Jun 2027 21:23:14.885            21.543            RioGallegos           673.219
        98   01 Jun 2027 21:23:34.110   01 Jun 2027 21:23:54.349            20.239            RioGallegos           632.469
        99   01 Jun 2027 21:59:24.882   01 Jun 2027 21:59:31.869             6.987                Norilsk           218.344
       100   01 Jun 2027 21:59:39.808   01 Jun 2027 21:59:58.904            19.096                Anadyr1           596.750
       101   01 Jun 2027 22:00:03.538   01 Jun 2027 22:02:01.013           117.475                Novosib          3671.094
       102   01 Jun 2027 22:02:32.411   01 Jun 2027 22:03:43.040            70.629              Murmansk1          2207.156
       103   01 Jun 2027 22:08:23.144   01 Jun 2027 22:09:01.058            37.914                Novosib          1184.812
       104   01 Jun 2027 22:11:24.066   01 Jun 2027 22:11:47.008            22.942                Novosib           716.937
       105   01 Jun 2027 22:12:22.313   01 Jun 2027 22:13:14.628            52.315                  Delhi          1634.844
       106   01 Jun 2027 22:15:33.684   01 Jun 2027 22:16:58.236            84.552                  Delhi          2642.250
       107   01 Jun 2027 23:29:58.922   01 Jun 2027 23:30:00.434             1.512                Anadyr1            47.250
       108   01 Jun 2027 23:30:07.754   01 Jun 2027 23:31:08.630            60.876                Anadyr2          1902.375
       109   01 Jun 2027 23:31:21.001   01 Jun 2027 23:31:43.198            22.197               Magadan2           693.656
       110   01 Jun 2027 23:32:02.160   01 Jun 2027 23:32:53.746            51.586               Magadan2          1612.062
       111   01 Jun 2027 23:34:26.696   01 Jun 2027 23:36:14.024           107.328              Murmansk1          3354.000
       112   01 Jun 2027 23:37:13.854   01 Jun 2027 23:39:18.223           124.369              Murmansk2          3886.531
       113   01 Jun 2027 23:40:36.792   01 Jun 2027 23:40:55.751            18.959                 Moscow           592.469
       114   01 Jun 2027 23:43:09.292   01 Jun 2027 23:44:00.090            50.798                 Moscow          1587.438
       115   01 Jun 2027 23:45:09.672   01 Jun 2027 23:45:28.438            18.766                 Moscow           586.437
       116   01 Jun 2027 23:46:10.724   01 Jun 2027 23:46:40.950            30.226                 Moscow           944.563
       117   02 Jun 2027 00:05:01.515   02 Jun 2027 00:07:03.597           122.082               CapeTown          3815.063
       118   02 Jun 2027 00:08:02.267   02 Jun 2027 00:09:50.664           108.397               CapeTown          3387.406
       119   02 Jun 2027 01:10:20.340   02 Jun 2027 01:11:38.091            77.751              Murmansk1          2429.719
       120   02 Jun 2027 01:14:53.273   02 Jun 2027 01:15:11.384            18.111                Novosib           565.969
       121   02 Jun 2027 01:15:44.388   02 Jun 2027 01:16:02.937            18.549              Murmansk1           579.656
       122   02 Jun 2027 01:17:43.897   02 Jun 2027 01:17:53.822             9.925                 Moscow           310.156
       123   02 Jun 2027 01:18:00.199   02 Jun 2027 01:18:08.374             8.175              Murmansk1           255.469
       124   02 Jun 2027 01:18:22.238   02 Jun 2027 01:18:41.666            19.428              Murmansk1           607.125
       125   02 Jun 2027 01:21:07.707   02 Jun 2027 01:21:26.426            18.719              Murmansk2           584.969
       126   02 Jun 2027 01:22:04.505   02 Jun 2027 01:22:19.906            15.401                 Moscow           481.281
       127   02 Jun 2027 01:22:40.091   02 Jun 2027 01:22:58.242            18.151              Murmansk2           567.219
       128   02 Jun 2027 01:24:14.567   02 Jun 2027 01:24:48.842            34.275                 Moscow          1071.094
       129   02 Jun 2027 01:44:26.652   02 Jun 2027 01:44:41.946            15.294               CapeTown           477.938
       130   02 Jun 2027 01:45:30.933   02 Jun 2027 01:46:03.036            32.103               CapeTown          1003.219
       131   02 Jun 2027 01:47:02.181   02 Jun 2027 01:47:21.005            18.824               CapeTown           588.250
       132   02 Jun 2027 02:34:10.902   02 Jun 2027 02:35:51.035           100.133                Anadyr2          3129.156
       133   02 Jun 2027 02:36:04.148   02 Jun 2027 02:36:16.709            12.561               Magadan2           392.531
       134   02 Jun 2027 02:37:04.499   02 Jun 2027 02:37:26.443            21.944               Magadan2           685.750
       135   02 Jun 2027 02:38:22.314   02 Jun 2027 02:38:29.670             7.356                Anadyr1           229.875
       136   02 Jun 2027 02:39:04.981   02 Jun 2027 02:39:57.986            53.005               Magadan2          1656.406
       137   02 Jun 2027 02:42:32.258   02 Jun 2027 02:42:33.421             1.163               Magadan1            36.344
       138   02 Jun 2027 02:42:55.941   02 Jun 2027 02:43:17.362            21.421                Norilsk           669.406
       139   02 Jun 2027 02:44:55.930   02 Jun 2027 02:45:11.594            15.664                Norilsk           489.500
       140   02 Jun 2027 02:46:13.216   02 Jun 2027 02:46:15.599             2.383                Norilsk            74.469
       141   02 Jun 2027 02:46:17.699   02 Jun 2027 02:46:54.609            36.910              Murmansk1          1153.438
       142   02 Jun 2027 02:47:36.255   02 Jun 2027 02:47:48.639            12.384              Murmansk1           387.000
       143   02 Jun 2027 02:48:24.903   02 Jun 2027 02:48:27.707             2.804              Murmansk2            87.625
       144   02 Jun 2027 02:48:46.258   02 Jun 2027 02:48:51.780             5.522              Murmansk1           172.562
       145   02 Jun 2027 02:49:23.143   02 Jun 2027 02:49:36.339            13.196              Murmansk2           412.375
       146   02 Jun 2027 02:50:56.365   02 Jun 2027 02:51:01.317             4.952                 Moscow           154.750
       147   02 Jun 2027 02:51:05.386   02 Jun 2027 02:51:39.413            34.027              Murmansk1          1063.344
       148   02 Jun 2027 02:53:35.064   02 Jun 2027 02:53:41.164             6.100              Murmansk1           190.625
       149   02 Jun 2027 02:54:14.949   02 Jun 2027 02:54:57.181            42.232                 Moscow          1319.750
       150   02 Jun 2027 02:57:54.996   02 Jun 2027 02:58:38.577            43.581                 Moscow          1361.906
       151   02 Jun 2027 04:17:21.966   02 Jun 2027 04:17:23.812             1.846                Anadyr1            57.687
       152   02 Jun 2027 04:17:47.212   02 Jun 2027 04:18:05.064            17.852               Magadan1           557.875
       153   02 Jun 2027 04:18:32.273   02 Jun 2027 04:19:19.080            46.807                Anadyr2          1462.719
       154   02 Jun 2027 04:19:21.258   02 Jun 2027 04:20:58.660            97.402                Anadyr1          3043.812
       155   02 Jun 2027 04:21:19.122   02 Jun 2027 04:21:26.865             7.743                Norilsk           241.969
       156   02 Jun 2027 04:21:32.214   02 Jun 2027 04:21:33.374             1.160               Magadan2            36.250
       157   02 Jun 2027 04:21:36.781   02 Jun 2027 04:21:50.585            13.804                Anadyr1           431.375
       158   02 Jun 2027 04:22:28.560   02 Jun 2027 04:22:44.166            15.606               Magadan2           487.688
       159   02 Jun 2027 05:00:58.495   02 Jun 2027 05:03:26.301           147.806            RioGallegos          4618.937
       160   02 Jun 2027 05:52:12.436   02 Jun 2027 05:52:20.727             8.291                Anadyr1           259.094
       161   02 Jun 2027 05:52:25.669   02 Jun 2027 05:52:34.651             8.982               Magadan2           280.687
       162   02 Jun 2027 05:52:40.774   02 Jun 2027 05:54:47.085           126.311                Anadyr2          3947.219
       163   02 Jun 2027 05:54:47.085   02 Jun 2027 05:55:49.176            62.091                Anadyr1          1940.344
       164   02 Jun 2027 05:55:58.003   02 Jun 2027 05:56:53.644            55.641                Anadyr2          1738.781
       165   02 Jun 2027 05:57:01.671   02 Jun 2027 05:58:19.488            77.817               Magadan1          2431.781
       166   02 Jun 2027 07:10:39.271   02 Jun 2027 07:11:27.850            48.579                Sumatra          1518.094
       167   02 Jun 2027 07:28:56.997   02 Jun 2027 07:29:41.446            44.449                Novosib          1389.031
       168   02 Jun 2027 07:30:27.327   02 Jun 2027 07:31:09.429            42.102                Irkutsk          1315.688
       169   02 Jun 2027 07:31:18.984   02 Jun 2027 07:31:38.476            19.492                Irkutsk           609.125
       170   02 Jun 2027 07:31:55.145   02 Jun 2027 07:32:03.739             8.594               Magadan1           268.563
       171   02 Jun 2027 07:32:36.471   02 Jun 2027 07:33:53.442            76.971                Novosib          2405.344
       172   02 Jun 2027 07:33:58.955   02 Jun 2027 07:34:19.936            20.981                Norilsk           655.656
       173   02 Jun 2027 07:34:25.912   02 Jun 2027 07:34:35.162             9.250              Murmansk1           289.063
       174   02 Jun 2027 07:34:56.801   02 Jun 2027 07:35:11.301            14.500              Murmansk1           453.125
       175   02 Jun 2027 07:35:11.301   02 Jun 2027 07:36:38.337            87.036              Murmansk2          2719.875
       176   02 Jun 2027 07:36:38.337   02 Jun 2027 07:36:44.256             5.919              Murmansk1           184.969
       177   02 Jun 2027 07:37:09.622   02 Jun 2027 07:37:46.626            37.004              Murmansk2          1156.375
       178   02 Jun 2027 07:37:46.626   02 Jun 2027 07:37:53.590             6.964              Murmansk1           217.625
       179   02 Jun 2027 07:38:10.254   02 Jun 2027 07:38:46.867            36.613              Murmansk2          1144.156
       180   02 Jun 2027 07:38:46.867   02 Jun 2027 07:39:09.244            22.377              Murmansk1           699.281
       181   02 Jun 2027 07:39:12.506   02 Jun 2027 07:39:46.364            33.858              Murmansk1          1058.063
       182   02 Jun 2027 07:40:34.657   02 Jun 2027 07:40:39.747             5.090              Murmansk1           159.063
       183   02 Jun 2027 07:40:39.747   02 Jun 2027 07:40:40.687             0.940              Murmansk2            29.375
       184   02 Jun 2027 07:41:25.884   02 Jun 2027 07:41:28.430             2.546              Murmansk1            79.562
       185   02 Jun 2027 08:09:59.587   02 Jun 2027 08:10:04.382             4.795            RioGallegos           149.844
       186   02 Jun 2027 08:11:03.231   02 Jun 2027 08:11:22.062            18.831            RioGallegos           588.469
       187   02 Jun 2027 08:12:09.849   02 Jun 2027 08:12:57.778            47.929            RioGallegos          1497.781
       188   02 Jun 2027 08:19:17.724   02 Jun 2027 08:19:22.596             4.872            RioGallegos           152.250
       189   02 Jun 2027 08:44:00.896   02 Jun 2027 08:45:11.340            70.444                Sumatra          2201.375
       190   02 Jun 2027 08:46:03.510   02 Jun 2027 08:47:00.559            57.049                Sumatra          1782.781
       191   02 Jun 2027 08:49:02.373   02 Jun 2027 08:49:29.288            26.915                Sumatra           841.094
       192   02 Jun 2027 08:53:22.337   02 Jun 2027 08:54:18.376            56.039                  Delhi          1751.219
       193   02 Jun 2027 08:54:44.587   02 Jun 2027 08:56:06.233            81.646                  Delhi          2551.438
       194   02 Jun 2027 08:59:31.217   02 Jun 2027 09:00:08.986            37.769                  Delhi          1180.281
       195   02 Jun 2027 09:06:19.548   02 Jun 2027 09:07:41.619            82.071              Murmansk1          2564.719
       196   02 Jun 2027 09:07:49.248   02 Jun 2027 09:08:25.815            36.567                Novosib          1142.719
       197   02 Jun 2027 09:08:26.835   02 Jun 2027 09:08:43.727            16.892                Norilsk           527.875
       198   02 Jun 2027 09:08:45.434   02 Jun 2027 09:09:52.097            66.663                Irkutsk          2083.219
       199   02 Jun 2027 09:09:58.357   02 Jun 2027 09:11:14.416            76.059                Norilsk          2376.844
       200   02 Jun 2027 09:11:21.478   02 Jun 2027 09:11:41.609            20.131              Murmansk1           629.094
       201   02 Jun 2027 09:14:17.317   02 Jun 2027 09:14:31.273            13.956                Norilsk           436.125
       202   02 Jun 2027 09:15:47.630   02 Jun 2027 09:16:02.324            14.694              Murmansk2           459.187
       203   02 Jun 2027 09:51:57.764   02 Jun 2027 09:53:03.638            65.874            RioGallegos          2058.562
       204   02 Jun 2027 10:28:33.069   02 Jun 2027 10:31:03.840           150.771                  Delhi          4711.594
       205   02 Jun 2027 10:41:24.158   02 Jun 2027 10:42:23.030            58.872                 Moscow          1839.750
       206   02 Jun 2027 10:42:27.235   02 Jun 2027 10:43:14.845            47.610                Norilsk          1487.813
       207   02 Jun 2027 10:43:19.721   02 Jun 2027 10:43:42.429            22.708                Norilsk           709.625
       208   02 Jun 2027 10:43:45.733   02 Jun 2027 10:44:34.797            49.064                Norilsk          1533.250
       209   02 Jun 2027 10:44:44.749   02 Jun 2027 10:45:14.098            29.349              Murmansk2           917.156
       210   02 Jun 2027 10:45:25.169   02 Jun 2027 10:45:53.320            28.151                Norilsk           879.719
       211   02 Jun 2027 10:46:57.684   02 Jun 2027 10:47:13.908            16.224              Murmansk2           507.000
       212   02 Jun 2027 12:12:33.168   02 Jun 2027 12:15:22.698           169.530                 Moscow          5297.813
       213   02 Jun 2027 12:15:51.206   02 Jun 2027 12:17:03.722            72.516                 Moscow          2266.125
       214   02 Jun 2027 12:17:33.690   02 Jun 2027 12:19:02.176            88.486              Murmansk1          2765.188
       215   02 Jun 2027 12:21:19.585   02 Jun 2027 12:22:02.553            42.968              Murmansk2          1342.750
       216   02 Jun 2027 13:26:41.166   02 Jun 2027 13:29:38.987           177.821               CapeTown          5556.906
       217   02 Jun 2027 13:30:19.760   02 Jun 2027 13:31:40.447            80.687               CapeTown          2521.469
       218   02 Jun 2027 13:53:27.865   02 Jun 2027 13:53:52.448            24.583              Murmansk2           768.219
       219   02 Jun 2027 13:54:04.674   02 Jun 2027 13:55:18.283            73.609              Murmansk1          2300.281
       220   02 Jun 2027 13:55:25.785   02 Jun 2027 13:55:56.462            30.677              Murmansk1           958.656
       221   02 Jun 2027 13:58:13.522   02 Jun 2027 13:58:34.862            21.340              Murmansk1           666.875
       222   02 Jun 2027 14:06:56.832   02 Jun 2027 14:09:13.810           136.978                Anadyr1          4280.562
       223   02 Jun 2027 14:09:29.350   02 Jun 2027 14:10:57.604            88.254                Anadyr2          2757.937
       224   02 Jun 2027 15:33:19.016   02 Jun 2027 15:34:56.884            97.868              Murmansk2          3058.375
       225   02 Jun 2027 15:36:54.169   02 Jun 2027 15:37:06.932            12.763              Murmansk1           398.844
       226   02 Jun 2027 15:42:36.075   02 Jun 2027 15:44:48.087           132.012                Anadyr1          4125.375
       227   02 Jun 2027 15:45:22.378   02 Jun 2027 15:45:39.633            17.255                Anadyr1           539.219
       228   02 Jun 2027 15:45:40.902   02 Jun 2027 15:51:15.350           334.448               Magadan1         10451.500
       229   02 Jun 2027 17:19:17.781   02 Jun 2027 17:19:45.758            27.977                Anadyr2           874.281
       230   02 Jun 2027 17:20:50.242   02 Jun 2027 17:22:57.684           127.442               Magadan1          3982.563
       231   02 Jun 2027 17:28:43.251   02 Jun 2027 17:28:52.131             8.880               Magadan2           277.500
       232   02 Jun 2027 18:14:34.987   02 Jun 2027 18:17:23.752           168.765            RioGallegos          5273.906
       233   02 Jun 2027 18:20:13.903   02 Jun 2027 18:20:36.254            22.351            RioGallegos           698.469
       234   02 Jun 2027 18:55:05.506   02 Jun 2027 18:55:10.395             4.889                Anadyr2           152.781
       235   02 Jun 2027 18:55:45.000   02 Jun 2027 18:55:57.501            12.501                Anadyr2           390.656
       236   02 Jun 2027 18:56:30.717   02 Jun 2027 18:59:38.497           187.780                Norilsk          5868.125
       237   02 Jun 2027 19:01:22.114   02 Jun 2027 19:03:13.525           111.411                Irkutsk          3481.594
       238   02 Jun 2027 19:03:24.849   02 Jun 2027 19:06:15.734           170.885                Irkutsk          5340.156
       239   02 Jun 2027 19:16:11.709   02 Jun 2027 19:18:44.215           152.506                Sumatra          4765.812
       240   02 Jun 2027 19:20:10.885   02 Jun 2027 19:22:30.484           139.599                Sumatra          4362.469
       241   02 Jun 2027 20:36:58.369   02 Jun 2027 20:37:34.457            36.088                Novosib          1127.750
       242   02 Jun 2027 20:39:25.107   02 Jun 2027 20:39:39.969            14.862                Novosib           464.438
       243   02 Jun 2027 20:46:34.439   02 Jun 2027 20:49:22.999           168.560                  Delhi          5267.500
       244   02 Jun 2027 20:52:06.215   02 Jun 2027 20:52:43.485            37.270                  Delhi          1164.688
       245   02 Jun 2027 22:11:11.484   02 Jun 2027 22:14:55.843           224.359              Murmansk1          7011.219
       246   02 Jun 2027 22:14:58.275   02 Jun 2027 22:16:42.510           104.235              Murmansk2          3257.344
       247   02 Jun 2027 23:41:58.008   02 Jun 2027 23:41:58.827             0.819                Anadyr1            25.594
       248   02 Jun 2027 23:42:13.499   02 Jun 2027 23:43:01.036            47.537                Anadyr2          1485.531
       249   02 Jun 2027 23:43:36.523   02 Jun 2027 23:44:22.959            46.436               Magadan2          1451.125
       250   02 Jun 2027 23:44:34.948   02 Jun 2027 23:44:56.281            21.333               Magadan1           666.656
       251   02 Jun 2027 23:45:34.356   02 Jun 2027 23:46:29.690            55.334               Magadan2          1729.188
       252   02 Jun 2027 23:47:22.520   02 Jun 2027 23:50:36.327           193.807              Murmansk2          6056.469
       253   02 Jun 2027 23:50:57.507   02 Jun 2027 23:51:53.976            56.469                 Moscow          1764.656
       254   02 Jun 2027 23:52:40.964   02 Jun 2027 23:52:56.673            15.709                 Moscow           490.906
       255   02 Jun 2027 23:53:18.004   02 Jun 2027 23:54:02.113            44.109                 Moscow          1378.406
       256   03 Jun 2027 00:16:09.136   03 Jun 2027 00:16:52.081            42.945               CapeTown          1342.031
       257   03 Jun 2027 00:17:56.883   03 Jun 2027 00:18:37.616            40.733               CapeTown          1272.906
       258   03 Jun 2027 00:19:12.498   03 Jun 2027 00:20:01.632            49.134               CapeTown          1535.438
       259   03 Jun 2027 00:22:06.618   03 Jun 2027 00:23:47.640           101.022               CapeTown          3156.938
       260   03 Jun 2027 01:20:54.583   03 Jun 2027 01:21:05.583            11.000               Magadan1           343.750
       261   03 Jun 2027 01:22:22.038   03 Jun 2027 01:23:31.819            69.781              Murmansk2          2180.656
       262   03 Jun 2027 01:24:54.607   03 Jun 2027 01:25:50.865            56.258                Novosib          1758.062
       263   03 Jun 2027 01:26:36.395   03 Jun 2027 01:27:06.633            30.238                 Moscow           944.937
       264   03 Jun 2027 01:29:22.958   03 Jun 2027 01:29:40.660            17.702                 Moscow           553.187
       265   03 Jun 2027 01:32:56.058   03 Jun 2027 01:33:42.835            46.777                 Moscow          1461.781
       266   03 Jun 2027 01:50:38.148   03 Jun 2027 01:51:46.619            68.471               CapeTown          2139.719
       267   03 Jun 2027 02:46:14.858   03 Jun 2027 02:47:50.657            95.799                Anadyr1          2993.719
       268   03 Jun 2027 02:48:06.254   03 Jun 2027 02:49:44.825            98.571               Magadan1          3080.344
       269   03 Jun 2027 02:52:31.834   03 Jun 2027 02:53:22.016            50.182               Magadan1          1568.187
       270   03 Jun 2027 02:58:18.682   03 Jun 2027 02:58:28.682            10.000              Murmansk2           312.500
       271   03 Jun 2027 02:59:03.732   03 Jun 2027 02:59:50.322            46.590              Murmansk2          1455.937
       272   03 Jun 2027 04:31:19.577   03 Jun 2027 04:32:40.538            80.961                Anadyr2          2530.031
       273   03 Jun 2027 05:12:20.757   03 Jun 2027 05:15:00.599           159.842            RioGallegos          4995.062
       274   03 Jun 2027 06:04:27.611   03 Jun 2027 06:04:37.854            10.243               Magadan2           320.094
       275   03 Jun 2027 06:04:40.105   03 Jun 2027 06:05:00.413            20.308               Magadan2           634.625
       276   03 Jun 2027 06:05:00.413   03 Jun 2027 06:05:13.904            13.491               Magadan1           421.594
       277   03 Jun 2027 06:05:27.425   03 Jun 2027 06:06:06.988            39.563                Anadyr2          1236.344
       278   03 Jun 2027 06:06:06.988   03 Jun 2027 06:07:39.049            92.061                Anadyr1          2876.906
       279   03 Jun 2027 06:07:44.448   03 Jun 2027 06:08:55.362            70.914                Anadyr1          2216.063
       280   03 Jun 2027 06:09:03.411   03 Jun 2027 06:09:11.753             8.342               Magadan2           260.687
       281   03 Jun 2027 06:09:11.753   03 Jun 2027 06:09:54.276            42.523               Magadan1          1328.844
       282   03 Jun 2027 06:10:02.111   03 Jun 2027 06:10:16.447            14.336                Novosib           448.000
       283   03 Jun 2027 06:10:26.203   03 Jun 2027 06:10:54.536            28.333              Murmansk2           885.406
       284   03 Jun 2027 06:11:26.409   03 Jun 2027 06:11:50.474            24.065              Murmansk1           752.031
       285   03 Jun 2027 06:11:53.486   03 Jun 2027 06:12:01.477             7.991                Norilsk           249.719
       286   03 Jun 2027 06:12:27.658   03 Jun 2027 06:12:56.696            29.038              Murmansk1           907.438
       287   03 Jun 2027 06:14:58.323   03 Jun 2027 06:15:02.408             4.085              Murmansk1           127.656
       288   03 Jun 2027 06:45:20.154   03 Jun 2027 06:47:15.122           114.968            RioGallegos          3592.750
       289   03 Jun 2027 07:21:48.667   03 Jun 2027 07:24:35.816           167.149                Sumatra          5223.406
       290   03 Jun 2027 07:40:46.278   03 Jun 2027 07:41:00.473            14.195                Irkutsk           443.594
       291   03 Jun 2027 07:41:41.998   03 Jun 2027 07:42:30.247            48.249                Novosib          1507.781
       292   03 Jun 2027 07:42:51.556   03 Jun 2027 07:43:09.728            18.172                Irkutsk           567.875
       293   03 Jun 2027 07:43:38.497   03 Jun 2027 07:43:48.902            10.405              Murmansk2           325.156
       294   03 Jun 2027 07:43:53.957   03 Jun 2027 07:44:45.676            51.719              Murmansk1          1616.219
       295   03 Jun 2027 07:45:04.669   03 Jun 2027 07:45:09.698             5.029                Irkutsk           157.156
       296   03 Jun 2027 07:45:13.166   03 Jun 2027 07:45:46.774            33.608                Irkutsk          1050.250
       297   03 Jun 2027 07:46:02.189   03 Jun 2027 07:46:25.939            23.750              Murmansk2           742.188
       298   03 Jun 2027 07:47:08.649   03 Jun 2027 07:47:52.552            43.903              Murmansk1          1371.969
       299   03 Jun 2027 08:21:52.263   03 Jun 2027 08:22:35.284            43.021            RioGallegos          1344.406
       300   03 Jun 2027 08:56:12.190   03 Jun 2027 08:57:47.146            94.956                Sumatra          2967.375
       301   03 Jun 2027 09:04:58.025   03 Jun 2027 09:05:43.371            45.346                  Delhi          1417.063
       302   03 Jun 2027 09:06:16.369   03 Jun 2027 09:07:02.263            45.894                  Delhi          1434.188
       303   03 Jun 2027 09:17:19.879   03 Jun 2027 09:18:10.551            50.672                 Moscow          1583.500
       304   03 Jun 2027 09:18:27.715   03 Jun 2027 09:19:04.792            37.077              Murmansk2          1158.656
       305   03 Jun 2027 09:19:04.792   03 Jun 2027 09:19:13.357             8.565              Murmansk1           267.656
       306   03 Jun 2027 09:19:16.717   03 Jun 2027 09:19:34.304            17.587                Norilsk           549.594
       307   03 Jun 2027 09:19:36.937   03 Jun 2027 09:20:12.272            35.335              Murmansk2          1104.219
       308   03 Jun 2027 09:20:18.123   03 Jun 2027 09:20:21.600             3.477                Norilsk           108.656
       309   03 Jun 2027 09:20:31.358   03 Jun 2027 09:20:41.787            10.429                Novosib           325.906
       310   03 Jun 2027 09:20:49.285   03 Jun 2027 09:21:25.641            36.356                Novosib          1136.125
       311   03 Jun 2027 09:21:36.024   03 Jun 2027 09:21:52.475            16.451                Norilsk           514.094
       312   03 Jun 2027 09:22:20.503   03 Jun 2027 09:22:21.854             1.351                Novosib            42.219
       313   03 Jun 2027 09:22:22.598   03 Jun 2027 09:22:48.676            26.078              Murmansk1           814.937
       314   03 Jun 2027 09:22:48.676   03 Jun 2027 09:23:10.040            21.364              Murmansk2           667.625
       315   03 Jun 2027 10:40:55.294   03 Jun 2027 10:42:51.364           116.070                  Delhi          3627.188
       316   03 Jun 2027 10:44:41.128   03 Jun 2027 10:45:00.608            19.480                  Delhi           608.750
       317   03 Jun 2027 10:53:27.943   03 Jun 2027 10:53:41.385            13.442              Murmansk1           420.062
       318   03 Jun 2027 10:53:44.088   03 Jun 2027 10:54:18.829            34.741                Novosib          1085.656
       319   03 Jun 2027 10:54:30.691   03 Jun 2027 10:54:47.987            17.296              Murmansk1           540.500
       320   03 Jun 2027 10:54:56.752   03 Jun 2027 10:55:55.847            59.095                Novosib          1846.719
       321   03 Jun 2027 10:56:05.359   03 Jun 2027 10:57:06.811            61.452                 Moscow          1920.375
       322   03 Jun 2027 10:57:10.624   03 Jun 2027 10:57:18.480             7.856                 Moscow           245.500
       323   03 Jun 2027 10:57:27.274   03 Jun 2027 10:57:31.415             4.141                Novosib           129.406
       324   03 Jun 2027 10:57:36.877   03 Jun 2027 10:58:03.777            26.900              Murmansk1           840.625
       325   03 Jun 2027 10:58:03.777   03 Jun 2027 10:58:09.826             6.049              Murmansk2           189.031
       326   03 Jun 2027 10:58:44.463   03 Jun 2027 10:59:10.509            26.046              Murmansk1           813.938
       327   03 Jun 2027 12:24:38.001   03 Jun 2027 12:28:41.683           243.682                 Moscow          7615.063
       328   03 Jun 2027 12:28:59.349   03 Jun 2027 12:31:01.647           122.298              Murmansk1          3821.812
       329   03 Jun 2027 12:45:11.946   03 Jun 2027 12:47:31.267           139.321                Anadyr2          4353.781
       330   03 Jun 2027 13:38:27.685   03 Jun 2027 13:40:05.304            97.619               CapeTown          3050.594
       331   03 Jun 2027 13:41:52.700   03 Jun 2027 13:42:14.497            21.797               CapeTown           681.156
       332   03 Jun 2027 14:05:49.370   03 Jun 2027 14:07:43.935           114.565              Murmansk2          3580.156
       333   03 Jun 2027 14:08:50.889   03 Jun 2027 14:09:22.265            31.376              Murmansk1           980.500
       334   03 Jun 2027 14:12:42.159   03 Jun 2027 14:13:13.900            31.741              Murmansk2           991.906
       335   03 Jun 2027 14:18:53.800   03 Jun 2027 14:21:29.153           155.353                Anadyr2          4854.781
       336   03 Jun 2027 14:22:13.894   03 Jun 2027 14:23:20.853            66.959                Anadyr2          2092.469
       337   03 Jun 2027 15:46:05.771   03 Jun 2027 15:48:33.678           147.907              Murmansk1          4622.094
       338   03 Jun 2027 15:54:37.053   03 Jun 2027 15:54:43.362             6.309                Anadyr1           197.156
       339   03 Jun 2027 15:55:14.193   03 Jun 2027 15:56:44.097            89.904                Anadyr2          2809.500
       340   03 Jun 2027 15:57:30.486   03 Jun 2027 16:00:55.581           205.095               Magadan2          6409.219
       341   03 Jun 2027 16:01:19.485   03 Jun 2027 16:02:46.105            86.620               Magadan1          2706.875
       342   03 Jun 2027 17:30:32.458   03 Jun 2027 17:32:16.735           104.277                Anadyr1          3258.656
       343   03 Jun 2027 17:32:50.137   03 Jun 2027 17:34:54.386           124.249               Magadan2          3882.781
       344   03 Jun 2027 18:25:58.421   03 Jun 2027 18:29:10.309           191.888            RioGallegos          5996.500
       345   03 Jun 2027 18:32:08.449   03 Jun 2027 18:32:21.811            13.362            RioGallegos           417.563
       346   03 Jun 2027 18:33:00.137   03 Jun 2027 18:33:17.998            17.861            RioGallegos           558.156
       347   03 Jun 2027 19:08:28.433   03 Jun 2027 19:12:34.037           245.604                Norilsk          7675.125
       348   03 Jun 2027 19:13:05.604   03 Jun 2027 19:15:18.906           133.302                Irkutsk          4165.687
       349   03 Jun 2027 19:16:21.446   03 Jun 2027 19:16:44.378            22.932                Irkutsk           716.625
       350   03 Jun 2027 19:27:29.159   03 Jun 2027 19:29:53.049           143.890                Sumatra          4496.562
       351   03 Jun 2027 19:31:03.091   03 Jun 2027 19:31:54.200            51.109                Sumatra          1597.156
       352   03 Jun 2027 19:33:11.542   03 Jun 2027 19:34:10.454            58.912                Sumatra          1841.000
       353   03 Jun 2027 20:48:39.804   03 Jun 2027 20:50:15.928            96.124                Novosib          3003.875
       354   03 Jun 2027 20:51:11.108   03 Jun 2027 20:51:49.307            38.199                Novosib          1193.719
       355   03 Jun 2027 20:57:35.537   03 Jun 2027 21:01:54.788           259.251                  Delhi          8101.594
       356   03 Jun 2027 22:23:00.542   03 Jun 2027 22:26:52.527           231.985              Murmansk2          7249.531
       357   03 Jun 2027 22:27:21.718   03 Jun 2027 22:29:02.587           100.869              Murmansk1          3152.156
       358   03 Jun 2027 23:54:27.765   03 Jun 2027 23:55:20.158            52.393               Magadan2          1637.281
       359   03 Jun 2027 23:56:11.863   03 Jun 2027 23:56:24.568            12.705               Magadan1           397.031
       360   03 Jun 2027 23:56:58.691   03 Jun 2027 23:57:36.500            37.809               Magadan2          1181.531
       361   03 Jun 2027 23:58:27.266   04 Jun 2027 00:01:12.148           164.882              Murmansk1          5152.563
       362   04 Jun 2027 00:01:45.896   04 Jun 2027 00:02:37.608            51.712              Murmansk1          1616.000
       363   04 Jun 2027 00:02:53.413   04 Jun 2027 00:04:45.617           112.204                 Moscow          3506.375
       364   04 Jun 2027 00:27:28.079   04 Jun 2027 00:30:17.667           169.588               CapeTown          5299.625
       365   04 Jun 2027 00:34:02.817   04 Jun 2027 00:34:36.243            33.426               CapeTown          1044.562
       366   04 Jun 2027 01:29:51.615   04 Jun 2027 01:30:01.288             9.673               Magadan1           302.281
       367   04 Jun 2027 01:32:02.369   04 Jun 2027 01:32:16.078            13.709               Magadan1           428.406
       368   04 Jun 2027 01:33:40.325   04 Jun 2027 01:33:58.529            18.204               Magadan1           568.875
       369   04 Jun 2027 01:34:23.742   04 Jun 2027 01:35:24.470            60.728              Murmansk2          1897.750
       370   04 Jun 2027 01:37:03.687   04 Jun 2027 01:37:34.180            30.493              Murmansk1           952.906
       371   04 Jun 2027 01:37:36.079   04 Jun 2027 01:38:13.881            37.802                 Moscow          1181.313
       372   04 Jun 2027 01:38:26.265   04 Jun 2027 01:39:01.701            35.436                 Moscow          1107.375
       373   04 Jun 2027 01:47:11.627   04 Jun 2027 01:47:25.540            13.913                 Moscow           434.781
       374   04 Jun 2027 02:01:33.959   04 Jun 2027 02:02:39.809            65.850               CapeTown          2057.812
       375   04 Jun 2027 02:11:16.895   04 Jun 2027 02:12:52.264            95.369               CapeTown          2980.281
       376   04 Jun 2027 02:58:20.852   04 Jun 2027 02:58:50.690            29.838                Anadyr2           932.438
       377   04 Jun 2027 02:58:55.409   04 Jun 2027 03:00:08.152            72.743               Magadan1          2273.219
       378   04 Jun 2027 03:04:32.788   04 Jun 2027 03:05:02.681            29.893               Magadan2           934.156
       379   04 Jun 2027 03:05:04.087   04 Jun 2027 03:07:02.140           118.053                Anadyr2          3689.156
       380   04 Jun 2027 03:07:02.140   04 Jun 2027 03:09:17.339           135.199                Anadyr1          4224.969
       381   04 Jun 2027 04:43:23.381   04 Jun 2027 04:43:56.471            33.090               Magadan1          1034.062
       382   04 Jun 2027 04:44:51.868   04 Jun 2027 04:45:06.360            14.492                Anadyr1           452.875
       383   04 Jun 2027 04:46:25.425   04 Jun 2027 04:46:46.348            20.923               Magadan2           653.844
       384   04 Jun 2027 06:17:01.327   04 Jun 2027 06:17:34.382            33.055                Irkutsk          1032.969
       385   04 Jun 2027 06:17:41.484   04 Jun 2027 06:17:46.087             4.603                Norilsk           143.844
       386   04 Jun 2027 06:17:50.834   04 Jun 2027 06:17:51.301             0.467                Norilsk            14.594
       387   04 Jun 2027 06:17:52.457   04 Jun 2027 06:18:12.014            19.557                Irkutsk           611.156
       388   04 Jun 2027 06:18:27.033   04 Jun 2027 06:19:01.712            34.679               Magadan1          1083.719
       389   04 Jun 2027 06:19:06.126   04 Jun 2027 06:21:06.973           120.847                Novosib          3776.469
       390   04 Jun 2027 06:21:24.723   04 Jun 2027 06:21:33.049             8.326               Magadan1           260.188
       391   04 Jun 2027 06:21:40.008   04 Jun 2027 06:22:09.265            29.257              Murmansk1           914.281
       392   04 Jun 2027 06:22:13.699   04 Jun 2027 06:22:51.473            37.774              Murmansk1          1180.437
       393   04 Jun 2027 06:23:23.470   04 Jun 2027 06:23:40.086            16.616                Norilsk           519.250
       394   04 Jun 2027 06:27:24.845   04 Jun 2027 06:27:38.933            14.088              Murmansk2           440.250
       395   04 Jun 2027 06:57:14.131   04 Jun 2027 06:58:24.815            70.684            RioGallegos          2208.875
       396   04 Jun 2027 07:33:12.554   04 Jun 2027 07:36:05.307           172.753                Sumatra          5398.531
       397   04 Jun 2027 07:52:20.755   04 Jun 2027 07:52:41.707            20.952                Norilsk           654.750
       398   04 Jun 2027 07:52:42.603   04 Jun 2027 07:52:42.797             0.194                Novosib             6.062
       399   04 Jun 2027 07:53:06.734   04 Jun 2027 07:53:26.142            19.408                Irkutsk           606.500
       400   04 Jun 2027 07:53:41.842   04 Jun 2027 07:54:08.354            26.512                Novosib           828.500
       401   04 Jun 2027 07:54:23.604   04 Jun 2027 07:55:11.389            47.785                Irkutsk          1493.281
       402   04 Jun 2027 07:55:19.527   04 Jun 2027 07:55:24.834             5.307                Norilsk           165.844
       403   04 Jun 2027 07:55:52.562   04 Jun 2027 07:56:58.476            65.914                Irkutsk          2059.813
       404   04 Jun 2027 07:57:21.880   04 Jun 2027 07:57:28.248             6.368                Irkutsk           199.000
       405   04 Jun 2027 07:57:55.369   04 Jun 2027 07:58:01.508             6.139                Novosib           191.844
       406   04 Jun 2027 07:58:02.760   04 Jun 2027 07:58:15.892            13.132              Murmansk2           410.375
       407   04 Jun 2027 07:58:25.279   04 Jun 2027 07:58:28.449             3.170                Irkutsk            99.063
       408   04 Jun 2027 07:58:29.034   04 Jun 2027 07:58:29.219             0.185              Murmansk2             5.781
       409   04 Jun 2027 07:58:31.309   04 Jun 2027 07:58:58.322            27.013              Murmansk2           844.156
       410   04 Jun 2027 08:01:08.652   04 Jun 2027 08:01:22.150            13.498                Norilsk           421.812
       411   04 Jun 2027 08:02:27.688   04 Jun 2027 08:03:12.399            44.711              Murmansk2          1397.219
       412   04 Jun 2027 08:34:15.883   04 Jun 2027 08:34:40.039            24.156            RioGallegos           754.875
       413   04 Jun 2027 08:35:46.586   04 Jun 2027 08:35:58.931            12.345            RioGallegos           385.781
       414   04 Jun 2027 09:08:30.203   04 Jun 2027 09:09:37.154            66.951                Sumatra          2092.219
       415   04 Jun 2027 09:16:40.047   04 Jun 2027 09:18:10.847            90.800                  Delhi          2837.500
       416   04 Jun 2027 09:29:54.623   04 Jun 2027 09:30:27.576            32.953              Murmansk2          1029.781
       417   04 Jun 2027 09:30:27.576   04 Jun 2027 09:31:07.396            39.820              Murmansk1          1244.375
       418   04 Jun 2027 09:31:13.321   04 Jun 2027 09:31:14.727             1.406                Novosib            43.938
       419   04 Jun 2027 09:31:14.827   04 Jun 2027 09:32:25.444            70.617                 Moscow          2206.781
       420   04 Jun 2027 09:32:30.979   04 Jun 2027 09:33:08.350            37.371              Murmansk2          1167.844
       421   04 Jun 2027 09:33:11.188   04 Jun 2027 09:33:12.157             0.969                Irkutsk            30.281
       422   04 Jun 2027 09:33:29.606   04 Jun 2027 09:33:57.070            27.464                Novosib           858.250
       423   04 Jun 2027 09:35:20.585   04 Jun 2027 09:35:28.841             8.256              Murmansk2           258.000
       424   04 Jun 2027 09:38:05.124   04 Jun 2027 09:38:34.509            29.385              Murmansk2           918.281
       425   04 Jun 2027 10:53:25.763   04 Jun 2027 10:56:16.961           171.198                  Delhi          5349.938
       426   04 Jun 2027 11:06:05.001   04 Jun 2027 11:07:11.942            66.941                 Moscow          2091.906
       427   04 Jun 2027 11:07:21.251   04 Jun 2027 11:07:37.110            15.859                Novosib           495.594
       428   04 Jun 2027 11:07:40.599   04 Jun 2027 11:08:10.271            29.672                Novosib           927.250
       429   04 Jun 2027 11:08:47.996   04 Jun 2027 11:09:02.492            14.496              Murmansk1           453.000
       430   04 Jun 2027 11:09:04.824   04 Jun 2027 11:09:57.278            52.454              Murmansk2          1639.187
       431   04 Jun 2027 12:36:45.917   04 Jun 2027 12:39:37.074           171.157                 Moscow          5348.656
       432   04 Jun 2027 12:40:17.244   04 Jun 2027 12:44:02.680           225.436              Murmansk1          7044.875
       433   04 Jun 2027 12:56:21.507   04 Jun 2027 12:59:37.233           195.726                Anadyr1          6116.438
       434   04 Jun 2027 12:59:47.458   04 Jun 2027 13:00:48.395            60.937                Anadyr2          1904.281
       435   04 Jun 2027 13:53:00.260   04 Jun 2027 13:53:26.915            26.655               CapeTown           832.969
       436   04 Jun 2027 14:18:13.185   04 Jun 2027 14:19:19.894            66.709              Murmansk2          2084.656
       437   04 Jun 2027 14:20:52.545   04 Jun 2027 14:21:26.368            33.823              Murmansk1          1056.969
       438   04 Jun 2027 14:22:53.375   04 Jun 2027 14:23:00.829             7.454              Murmansk1           232.938
       439   04 Jun 2027 14:30:51.715   04 Jun 2027 14:32:49.646           117.931                Anadyr1          3685.344
       440   04 Jun 2027 14:33:28.540   04 Jun 2027 14:34:56.594            88.054                Anadyr2          2751.688
       441   04 Jun 2027 15:31:21.063   04 Jun 2027 15:31:44.817            23.754               CapeTown           742.313
       442   04 Jun 2027 15:58:59.107   04 Jun 2027 15:59:34.763            35.656              Murmansk2          1114.250
       443   04 Jun 2027 16:00:29.661   04 Jun 2027 16:01:59.623            89.962              Murmansk2          2811.313
       444   04 Jun 2027 16:06:38.197   04 Jun 2027 16:08:12.255            94.058                Anadyr1          2939.312
       445   04 Jun 2027 16:08:42.607   04 Jun 2027 16:09:20.461            37.854                Anadyr2          1182.937
       446   04 Jun 2027 16:09:22.666   04 Jun 2027 16:12:11.289           168.623               Magadan2          5269.469
       447   04 Jun 2027 16:12:12.097   04 Jun 2027 16:13:16.522            64.425               Magadan1          2013.281
       448   04 Jun 2027 16:18:04.679   04 Jun 2027 16:19:54.343           109.664               Magadan1          3427.000
       449   04 Jun 2027 17:42:33.486   04 Jun 2027 17:43:30.068            56.582                Anadyr2          1768.188
       450   04 Jun 2027 17:44:50.523   04 Jun 2027 17:45:35.237            44.714               Magadan1          1397.313
       451   04 Jun 2027 17:46:48.807   04 Jun 2027 17:47:55.284            66.477               Magadan2          2077.406
       452   04 Jun 2027 17:57:12.660   04 Jun 2027 17:57:30.590            17.930               Magadan2           560.313
       453   04 Jun 2027 18:37:33.795   04 Jun 2027 18:41:00.194           206.399            RioGallegos          6449.969
       454   04 Jun 2027 18:41:48.742   04 Jun 2027 18:42:53.422            64.680            RioGallegos          2021.250
       455   04 Jun 2027 19:20:49.864   04 Jun 2027 19:21:40.992            51.128               Magadan2          1597.750
       456   04 Jun 2027 19:21:40.992   04 Jun 2027 19:22:12.471            31.479               Magadan1           983.719
       457   04 Jun 2027 19:23:19.571   04 Jun 2027 19:23:54.131            34.560                Norilsk          1080.000
       458   04 Jun 2027 19:24:53.257   04 Jun 2027 19:28:30.893           217.636                Irkutsk          6801.125
       459   04 Jun 2027 19:34:56.028   04 Jun 2027 19:35:38.350            42.322                Irkutsk          1322.562
       460   04 Jun 2027 19:38:58.425   04 Jun 2027 19:39:44.615            46.190                Sumatra          1443.437
       461   04 Jun 2027 19:40:02.726   04 Jun 2027 19:40:23.713            20.987                Sumatra           655.844
       462   04 Jun 2027 19:42:19.922   04 Jun 2027 19:44:30.061           130.139                Sumatra          4066.844
       463   04 Jun 2027 19:45:21.894   04 Jun 2027 19:45:46.109            24.215                Sumatra           756.719
       464   04 Jun 2027 21:00:11.048   04 Jun 2027 21:01:37.051            86.003                Irkutsk          2687.594
       465   04 Jun 2027 21:01:38.780   04 Jun 2027 21:03:15.869            97.089                Novosib          3034.031
       466   04 Jun 2027 21:08:56.981   04 Jun 2027 21:10:54.341           117.360                  Delhi          3667.500
       467   04 Jun 2027 21:10:58.183   04 Jun 2027 21:12:03.241            65.058                  Delhi          2033.062
       468   04 Jun 2027 21:15:58.964   04 Jun 2027 21:16:09.210            10.246                  Delhi           320.188
       469   04 Jun 2027 22:34:53.314   04 Jun 2027 22:38:50.409           237.095              Murmansk1          7409.219
       470   04 Jun 2027 22:39:42.873   04 Jun 2027 22:42:11.797           148.924              Murmansk2          4653.875
       471   05 Jun 2027 00:05:57.655   05 Jun 2027 00:06:56.476            58.821               Magadan2          1838.156
       472   05 Jun 2027 00:08:30.482   05 Jun 2027 00:09:00.954            30.472               Magadan2           952.250
       473   05 Jun 2027 00:10:28.109   05 Jun 2027 00:12:09.872           101.763              Murmansk1          3180.094
       474   05 Jun 2027 00:12:19.984   05 Jun 2027 00:12:54.515            34.531                Novosib          1079.094
       475   05 Jun 2027 00:13:21.478   05 Jun 2027 00:13:47.520            26.042              Murmansk1           813.813
       476   05 Jun 2027 00:13:58.990   05 Jun 2027 00:14:03.297             4.307                 Moscow           134.594
       477   05 Jun 2027 00:14:37.533   05 Jun 2027 00:16:25.547           108.014                 Moscow          3375.437
       478   05 Jun 2027 00:20:30.361   05 Jun 2027 00:20:53.018            22.657                 Moscow           708.031
       479   05 Jun 2027 00:21:38.305   05 Jun 2027 00:22:10.385            32.080                 Moscow          1002.500
       480   05 Jun 2027 00:38:55.437   05 Jun 2027 00:41:15.245           139.808               CapeTown          4369.000
       481   05 Jun 2027 00:44:45.544   05 Jun 2027 00:45:06.144            20.600               CapeTown           643.750
       482   05 Jun 2027 01:37:55.820   05 Jun 2027 01:38:10.379            14.559               Magadan1           454.969
