uniorb/output/strategy_2/Drop/Drop_KinoSat_111204.txt

KinoSat_111204
-------------------------
    Access    *     Start Time (UTCG)     *     Stop Time (UTCG)  *   Duration (s)        *       Station  *  Data (Mbytes)
         1   01 Jun 2027 03:45:25.545   01 Jun 2027 03:47:58.765           153.220              Murmansk2          4788.125
         2   01 Jun 2027 05:05:51.139   01 Jun 2027 05:07:43.445           112.306               Magadan1          3509.563
         3   01 Jun 2027 05:08:06.033   01 Jun 2027 05:09:28.711            82.678                Anadyr2          2583.688
         4   01 Jun 2027 05:09:28.711   01 Jun 2027 05:10:00.197            31.486                Anadyr1           983.937
         5   01 Jun 2027 05:10:00.899   01 Jun 2027 05:11:34.294            93.395               Magadan2          2918.594
         6   01 Jun 2027 05:11:48.864   01 Jun 2027 05:11:55.904             7.040                Anadyr1           220.000
         7   01 Jun 2027 06:43:53.970   01 Jun 2027 06:44:43.313            49.343                Irkutsk          1541.969
         8   01 Jun 2027 06:44:57.049   01 Jun 2027 06:45:02.419             5.370                Irkutsk           167.813
         9   01 Jun 2027 06:45:33.189   01 Jun 2027 06:46:27.301            54.112               Magadan2          1691.000
        10   01 Jun 2027 06:46:27.301   01 Jun 2027 06:47:33.039            65.738               Magadan1          2054.313
        11   01 Jun 2027 08:19:05.629   01 Jun 2027 08:19:54.138            48.509                Irkutsk          1515.906
        12   01 Jun 2027 08:20:03.534   01 Jun 2027 08:22:47.912           164.378               Magadan1          5136.813
        13   01 Jun 2027 08:23:07.982   01 Jun 2027 08:24:12.412            64.430                Novosib          2013.438
        14   01 Jun 2027 09:55:27.985   01 Jun 2027 09:56:49.520            81.535                Norilsk          2547.969
        15   01 Jun 2027 09:56:57.180   01 Jun 2027 09:59:14.475           137.295                Irkutsk          4290.469
        16   01 Jun 2027 09:59:48.548   01 Jun 2027 10:00:25.863            37.315                Norilsk          1166.094
        17   01 Jun 2027 10:35:24.473   01 Jun 2027 10:36:10.329            45.856            RioGallegos          1433.000
        18   01 Jun 2027 10:45:02.375   01 Jun 2027 10:45:25.401            23.026            RioGallegos           719.562
        19   01 Jun 2027 11:09:36.835   01 Jun 2027 11:10:49.190            72.355                Sumatra          2261.094
        20   01 Jun 2027 11:13:10.592   01 Jun 2027 11:14:51.614           101.022                Sumatra          3156.938
        21   01 Jun 2027 11:30:51.051   01 Jun 2027 11:31:22.737            31.686                Irkutsk           990.187
        22   01 Jun 2027 11:31:36.717   01 Jun 2027 11:31:55.397            18.680                Novosib           583.750
        23   01 Jun 2027 11:32:17.024   01 Jun 2027 11:34:01.472           104.448                Irkutsk          3264.000
        24   01 Jun 2027 11:34:28.054   01 Jun 2027 11:34:49.133            21.079              Murmansk1           658.719
        25   01 Jun 2027 11:34:49.133   01 Jun 2027 11:34:54.609             5.476              Murmansk2           171.125
        26   01 Jun 2027 11:35:00.840   01 Jun 2027 11:36:40.669            99.829                Novosib          3119.656
        27   01 Jun 2027 12:54:43.885   01 Jun 2027 12:55:09.732            25.847                  Delhi           807.719
        28   01 Jun 2027 12:59:13.708   01 Jun 2027 12:59:36.786            23.078                  Delhi           721.187
        29   01 Jun 2027 13:01:54.805   01 Jun 2027 13:03:44.248           109.443                 Moscow          3420.094
        30   01 Jun 2027 13:04:57.983   01 Jun 2027 13:07:39.244           161.261              Murmansk2          5039.406
        31   01 Jun 2027 14:37:40.624   01 Jun 2027 14:39:25.283           104.659                 Moscow          3270.594
        32   01 Jun 2027 14:41:10.741   01 Jun 2027 14:44:01.323           170.582              Murmansk1          5330.688
        33   01 Jun 2027 14:44:01.323   01 Jun 2027 14:45:07.827            66.504              Murmansk2          2078.250
        34   01 Jun 2027 14:46:17.255   01 Jun 2027 14:46:20.361             3.106              Murmansk1            97.062
        35   01 Jun 2027 14:46:36.120   01 Jun 2027 14:48:03.074            86.954              Murmansk1          2717.313
        36   01 Jun 2027 14:56:44.889   01 Jun 2027 14:57:52.478            67.589                Anadyr2          2112.156
        37   01 Jun 2027 14:58:21.304   01 Jun 2027 15:00:01.184            99.880                Anadyr1          3121.250
        38   01 Jun 2027 15:50:59.332   01 Jun 2027 15:51:35.961            36.629               CapeTown          1144.656
        39   01 Jun 2027 15:53:35.253   01 Jun 2027 15:53:56.591            21.338               CapeTown           666.812
        40   01 Jun 2027 16:17:27.545   01 Jun 2027 16:17:46.680            19.135                 Moscow           597.969
        41   01 Jun 2027 16:19:19.704   01 Jun 2027 16:19:44.556            24.852              Murmansk2           776.625
        42   01 Jun 2027 16:20:06.973   01 Jun 2027 16:20:29.856            22.883              Murmansk2           715.094
        43   01 Jun 2027 16:21:43.975   01 Jun 2027 16:22:24.747            40.772              Murmansk2          1274.125
        44   01 Jun 2027 16:24:16.849   01 Jun 2027 16:24:22.275             5.426              Murmansk1           169.562
        45   01 Jun 2027 16:31:36.215   01 Jun 2027 16:33:38.368           122.153                Anadyr1          3817.281
        46   01 Jun 2027 16:33:47.091   01 Jun 2027 16:33:54.439             7.348                Anadyr2           229.625
        47   01 Jun 2027 16:36:35.934   01 Jun 2027 16:36:44.113             8.179                Anadyr1           255.594
        48   01 Jun 2027 17:27:41.277   01 Jun 2027 17:28:56.285            75.008               CapeTown          2344.000
        49   01 Jun 2027 17:30:25.776   01 Jun 2027 17:31:02.972            37.196               CapeTown          1162.375
        50   01 Jun 2027 18:00:33.039   01 Jun 2027 18:04:20.020           226.981              Murmansk2          7093.156
        51   01 Jun 2027 18:07:25.273   01 Jun 2027 18:09:33.781           128.508                Anadyr1          4015.875
        52   01 Jun 2027 18:10:03.338   01 Jun 2027 18:12:49.750           166.412               Magadan1          5200.375
        53   01 Jun 2027 19:43:20.632   01 Jun 2027 19:45:24.026           123.394                Anadyr1          3856.062
        54   01 Jun 2027 19:45:37.226   01 Jun 2027 19:49:28.836           231.610               Magadan2          7237.813
        55   01 Jun 2027 19:49:28.836   01 Jun 2027 19:50:09.036            40.200               Magadan1          1256.250
        56   01 Jun 2027 19:52:44.866   01 Jun 2027 19:53:17.585            32.719               Magadan2          1022.469
        57   01 Jun 2027 20:38:04.403   01 Jun 2027 20:40:52.585           168.182            RioGallegos          5255.687
        58   01 Jun 2027 20:41:23.373   01 Jun 2027 20:41:49.309            25.936            RioGallegos           810.500
        59   01 Jun 2027 20:42:27.364   01 Jun 2027 20:42:46.986            19.622            RioGallegos           613.187
        60   01 Jun 2027 21:19:01.172   01 Jun 2027 21:19:40.420            39.248                Anadyr1          1226.500
        61   01 Jun 2027 21:21:12.023   01 Jun 2027 21:22:02.962            50.939                Norilsk          1591.844
        62   01 Jun 2027 21:22:13.862   01 Jun 2027 21:23:32.823            78.961               Magadan1          2467.531
        63   01 Jun 2027 21:23:32.823   01 Jun 2027 21:23:56.158            23.335               Magadan2           729.219
        64   01 Jun 2027 21:25:31.178   01 Jun 2027 21:27:11.244           100.066                Irkutsk          3127.063
        65   01 Jun 2027 21:29:03.754   01 Jun 2027 21:29:03.920             0.166                Irkutsk             5.188
        66   01 Jun 2027 21:29:13.349   01 Jun 2027 21:30:04.705            51.356                Novosib          1604.875
        67   01 Jun 2027 21:34:33.097   01 Jun 2027 21:34:59.721            26.624                Irkutsk           832.000
        68   01 Jun 2027 21:35:26.227   01 Jun 2027 21:35:36.324            10.097                Irkutsk           315.531
        69   01 Jun 2027 21:36:23.667   01 Jun 2027 21:36:46.883            23.216                Irkutsk           725.500
        70   01 Jun 2027 21:39:26.132   01 Jun 2027 21:41:30.132           124.000                Sumatra          3875.000
        71   01 Jun 2027 21:43:29.616   01 Jun 2027 21:44:19.658            50.042                Sumatra          1563.812
        72   01 Jun 2027 21:51:00.701   01 Jun 2027 21:51:19.705            19.004                Sumatra           593.875
        73   01 Jun 2027 22:54:08.536   01 Jun 2027 22:54:26.819            18.283                Anadyr1           571.344
        74   01 Jun 2027 22:54:54.519   01 Jun 2027 22:55:07.165            12.646                Anadyr1           395.187
        75   01 Jun 2027 22:57:06.985   01 Jun 2027 22:57:33.976            26.991                Norilsk           843.469
        76   01 Jun 2027 22:57:45.059   01 Jun 2027 22:59:07.496            82.437               Magadan1          2576.156
        77   01 Jun 2027 22:59:07.496   01 Jun 2027 22:59:37.410            29.914               Magadan2           934.812
        78   01 Jun 2027 23:00:03.256   01 Jun 2027 23:00:36.962            33.706               Magadan2          1053.312
        79   01 Jun 2027 23:00:44.944   01 Jun 2027 23:01:05.583            20.639               Magadan1           644.969
        80   01 Jun 2027 23:01:23.380   01 Jun 2027 23:02:18.250            54.870                Novosib          1714.688
        81   01 Jun 2027 23:03:03.915   01 Jun 2027 23:03:56.399            52.484                Novosib          1640.125
        82   01 Jun 2027 23:06:21.839   01 Jun 2027 23:07:31.201            69.362                Novosib          2167.562
        83   01 Jun 2027 23:09:19.958   01 Jun 2027 23:10:20.554            60.596                  Delhi          1893.625
        84   01 Jun 2027 23:11:06.395   01 Jun 2027 23:12:25.716            79.321                  Delhi          2478.781
        85   01 Jun 2027 23:14:17.894   01 Jun 2027 23:14:55.056            37.162                  Delhi          1161.313
        86   01 Jun 2027 23:57:30.772   01 Jun 2027 23:57:33.051             2.279            RioGallegos            71.219
        87   01 Jun 2027 23:57:47.114   01 Jun 2027 23:57:55.421             8.307            RioGallegos           259.594
        88   02 Jun 2027 00:00:06.526   02 Jun 2027 00:00:13.176             6.650            RioGallegos           207.812
        89   02 Jun 2027 00:27:35.666   02 Jun 2027 00:29:21.483           105.817                Anadyr2          3306.781
        90   02 Jun 2027 00:30:21.150   02 Jun 2027 00:30:35.594            14.444                Anadyr2           451.375
        91   02 Jun 2027 00:32:46.369   02 Jun 2027 00:33:05.999            19.630                Anadyr1           613.438
        92   02 Jun 2027 00:33:06.905   02 Jun 2027 00:33:39.013            32.108                Norilsk          1003.375
        93   02 Jun 2027 00:33:55.807   02 Jun 2027 00:33:59.193             3.386                Anadyr2           105.812
        94   02 Jun 2027 00:34:09.222   02 Jun 2027 00:36:25.189           135.967               Magadan2          4248.969
        95   02 Jun 2027 00:36:38.673   02 Jun 2027 00:38:38.836           120.163              Murmansk1          3755.094
        96   02 Jun 2027 00:39:01.767   02 Jun 2027 00:39:27.944            26.177              Murmansk1           818.031
        97   02 Jun 2027 00:41:10.126   02 Jun 2027 00:41:45.010            34.884                 Moscow          1090.125
        98   02 Jun 2027 00:43:13.477   02 Jun 2027 00:43:31.810            18.333                 Moscow           572.906
        99   02 Jun 2027 00:48:28.879   02 Jun 2027 00:48:58.412            29.533                Novosib           922.906
       100   02 Jun 2027 00:50:08.291   02 Jun 2027 00:52:19.902           131.611                  Delhi          4112.844
       101   02 Jun 2027 02:00:56.119   02 Jun 2027 02:02:24.308            88.189                Anadyr1          2755.906
       102   02 Jun 2027 02:03:19.821   02 Jun 2027 02:03:37.325            17.504                Anadyr2           547.000
       103   02 Jun 2027 02:03:56.531   02 Jun 2027 02:04:07.592            11.061                Anadyr2           345.656
       104   02 Jun 2027 02:05:52.082   02 Jun 2027 02:06:23.495            31.413                Anadyr2           981.656
       105   02 Jun 2027 02:06:39.824   02 Jun 2027 02:07:14.856            35.032               Magadan2          1094.750
       106   02 Jun 2027 02:07:29.699   02 Jun 2027 02:07:58.676            28.977               Magadan2           905.531
       107   02 Jun 2027 02:09:09.780   02 Jun 2027 02:09:13.122             3.342                Norilsk           104.437
       108   02 Jun 2027 02:10:07.238   02 Jun 2027 02:10:25.693            18.455               Magadan2           576.719
       109   02 Jun 2027 02:11:04.573   02 Jun 2027 02:11:32.202            27.629                Norilsk           863.406
       110   02 Jun 2027 02:12:43.010   02 Jun 2027 02:13:20.997            37.987                Norilsk          1187.094
       111   02 Jun 2027 02:13:43.157   02 Jun 2027 02:13:57.975            14.818              Murmansk2           463.063
       112   02 Jun 2027 02:14:03.809   02 Jun 2027 02:14:59.323            55.514                Novosib          1734.812
       113   02 Jun 2027 02:16:42.277   02 Jun 2027 02:17:16.391            34.114                Novosib          1066.062
       114   02 Jun 2027 02:20:12.414   02 Jun 2027 02:20:29.697            17.283                Novosib           540.094
       115   02 Jun 2027 02:21:03.412   02 Jun 2027 02:21:23.179            19.767                 Moscow           617.719
       116   02 Jun 2027 02:23:33.027   02 Jun 2027 02:23:37.891             4.864                 Moscow           152.000
       117   02 Jun 2027 02:23:41.414   02 Jun 2027 02:24:41.467            60.053                 Moscow          1876.656
       118   02 Jun 2027 02:45:20.257   02 Jun 2027 02:45:44.795            24.538               CapeTown           766.813
       119   02 Jun 2027 02:47:07.055   02 Jun 2027 02:48:37.884            90.829               CapeTown          2838.406
       120   02 Jun 2027 03:57:08.519   02 Jun 2027 03:57:40.125            31.606              Murmansk2           987.687
       121   02 Jun 2027 03:57:41.224   02 Jun 2027 03:59:08.962            87.738              Murmansk1          2741.813
       122   02 Jun 2027 03:59:08.962   02 Jun 2027 04:00:09.167            60.205              Murmansk2          1881.406
       123   02 Jun 2027 05:18:09.867   02 Jun 2027 05:20:10.389           120.522                Anadyr1          3766.313
       124   02 Jun 2027 05:20:10.389   02 Jun 2027 05:20:50.325            39.936                Anadyr2          1248.000
       125   02 Jun 2027 05:21:07.181   02 Jun 2027 05:21:21.043            13.862                Anadyr2           433.188
       126   02 Jun 2027 05:21:45.737   02 Jun 2027 05:21:47.275             1.538               Magadan1            48.063
       127   02 Jun 2027 05:21:49.032   02 Jun 2027 05:22:21.757            32.725               Magadan1          1022.656
       128   02 Jun 2027 05:22:21.757   02 Jun 2027 05:22:35.338            13.581               Magadan2           424.406
       129   02 Jun 2027 05:23:30.558   02 Jun 2027 05:23:56.749            26.191                Anadyr2           818.469
       130   02 Jun 2027 06:56:00.411   02 Jun 2027 06:56:29.984            29.573               Magadan1           924.156
       131   02 Jun 2027 06:56:39.265   02 Jun 2027 06:57:06.473            27.208                Irkutsk           850.250
       132   02 Jun 2027 06:57:24.698   02 Jun 2027 06:58:07.774            43.076                Irkutsk          1346.125
       133   02 Jun 2027 06:58:09.345   02 Jun 2027 06:58:52.879            43.534                Anadyr1          1360.437
       134   02 Jun 2027 06:58:52.879   02 Jun 2027 06:59:29.446            36.567                Anadyr2          1142.719
       135   02 Jun 2027 08:30:03.573   02 Jun 2027 08:31:02.496            58.923               Magadan1          1841.344
       136   02 Jun 2027 08:31:10.633   02 Jun 2027 08:32:13.986            63.353                Novosib          1979.781
       137   02 Jun 2027 08:32:23.103   02 Jun 2027 08:32:56.859            33.756                Novosib          1054.875
       138   02 Jun 2027 08:33:14.720   02 Jun 2027 08:33:43.483            28.763                Irkutsk           898.844
       139   02 Jun 2027 08:33:44.398   02 Jun 2027 08:34:48.619            64.221               Magadan2          2006.906
       140   02 Jun 2027 08:35:09.200   02 Jun 2027 08:35:32.840            23.640              Murmansk2           738.750
       141   02 Jun 2027 08:35:53.662   02 Jun 2027 08:36:57.641            63.979                Norilsk          1999.344
       142   02 Jun 2027 08:42:58.219   02 Jun 2027 08:43:03.098             4.879              Murmansk1           152.469
       143   02 Jun 2027 08:43:03.273   02 Jun 2027 08:43:13.659            10.386              Murmansk2           324.563
       144   02 Jun 2027 09:09:57.600   02 Jun 2027 09:10:59.817            62.217            RioGallegos          1944.281
       145   02 Jun 2027 09:45:17.244   02 Jun 2027 09:46:04.783            47.539                Sumatra          1485.594
       146   02 Jun 2027 09:47:40.194   02 Jun 2027 09:47:50.018             9.824                Sumatra           307.000
       147   02 Jun 2027 09:51:19.387   02 Jun 2027 09:51:42.940            23.553                Sumatra           736.031
       148   02 Jun 2027 09:57:59.410   02 Jun 2027 09:58:21.516            22.106                  Delhi           690.812
       149   02 Jun 2027 09:58:47.248   02 Jun 2027 09:59:09.533            22.285                  Delhi           696.406
       150   02 Jun 2027 10:05:39.975   02 Jun 2027 10:06:13.043            33.068                Norilsk          1033.375
       151   02 Jun 2027 10:06:20.328   02 Jun 2027 10:06:32.041            11.713                Norilsk           366.031
       152   02 Jun 2027 10:06:32.530   02 Jun 2027 10:06:44.271            11.741                Novosib           366.906
       153   02 Jun 2027 10:07:00.288   02 Jun 2027 10:07:14.397            14.109                Irkutsk           440.906
       154   02 Jun 2027 10:07:26.406   02 Jun 2027 10:07:41.972            15.566                Novosib           486.438
       155   02 Jun 2027 10:07:44.845   02 Jun 2027 10:08:56.385            71.540                Irkutsk          2235.625
       156   02 Jun 2027 10:09:05.976   02 Jun 2027 10:09:21.621            15.645                Norilsk           488.906
       157   02 Jun 2027 10:09:31.797   02 Jun 2027 10:09:44.260            12.463                Irkutsk           389.469
       158   02 Jun 2027 10:09:48.874   02 Jun 2027 10:10:01.260            12.386                Novosib           387.062
       159   02 Jun 2027 10:10:03.875   02 Jun 2027 10:10:22.143            18.268                Irkutsk           570.875
       160   02 Jun 2027 10:10:30.770   02 Jun 2027 10:10:52.433            21.663                Norilsk           676.969
       161   02 Jun 2027 10:10:59.813   02 Jun 2027 10:11:58.459            58.646                Novosib          1832.687
       162   02 Jun 2027 10:47:58.451   02 Jun 2027 10:48:24.584            26.133            RioGallegos           816.656
       163   02 Jun 2027 10:49:17.090   02 Jun 2027 10:50:02.435            45.345            RioGallegos          1417.031
       164   02 Jun 2027 11:22:11.880   02 Jun 2027 11:22:33.615            21.735                Sumatra           679.219
       165   02 Jun 2027 11:25:55.834   02 Jun 2027 11:27:11.369            75.535                Sumatra          2360.469
       166   02 Jun 2027 11:43:10.561   02 Jun 2027 11:43:49.293            38.732              Murmansk2          1210.375
       167   02 Jun 2027 11:44:17.826   02 Jun 2027 11:44:29.304            11.478              Murmansk1           358.687
       168   02 Jun 2027 11:44:33.053   02 Jun 2027 11:44:36.260             3.207                 Moscow           100.219
       169   02 Jun 2027 11:44:39.776   02 Jun 2027 11:44:46.467             6.691                Norilsk           209.094
       170   02 Jun 2027 11:44:46.968   02 Jun 2027 11:44:53.695             6.727                Norilsk           210.219
       171   02 Jun 2027 11:44:56.225   02 Jun 2027 11:45:29.915            33.690                Norilsk          1052.813
       172   02 Jun 2027 11:45:41.159   02 Jun 2027 11:46:30.851            49.692                Norilsk          1552.875
       173   02 Jun 2027 11:46:35.172   02 Jun 2027 11:46:44.250             9.078                Norilsk           283.687
       174   02 Jun 2027 11:46:45.703   02 Jun 2027 11:47:15.693            29.990              Murmansk1           937.187
       175   02 Jun 2027 11:47:59.121   02 Jun 2027 11:48:19.150            20.029                 Moscow           625.906
       176   02 Jun 2027 13:07:37.544   02 Jun 2027 13:09:59.982           142.438                  Delhi          4451.187
       177   02 Jun 2027 13:14:39.975   02 Jun 2027 13:15:54.646            74.671                 Moscow          2333.469
       178   02 Jun 2027 13:16:09.676   02 Jun 2027 13:17:23.823            74.147                Novosib          2317.094
       179   02 Jun 2027 13:18:19.766   02 Jun 2027 13:20:06.678           106.912              Murmansk2          3341.000
       180   02 Jun 2027 13:20:12.204   02 Jun 2027 13:20:39.541            27.337                Norilsk           854.281
       181   02 Jun 2027 13:22:15.936   02 Jun 2027 13:22:44.895            28.959                Norilsk           904.969
       182   02 Jun 2027 14:30:09.025   02 Jun 2027 14:32:04.588           115.563               CapeTown          3611.344
       183   02 Jun 2027 14:33:41.038   02 Jun 2027 14:35:08.234            87.196               CapeTown          2724.875
       184   02 Jun 2027 14:50:32.569   02 Jun 2027 14:50:59.944            27.375                 Moscow           855.469
       185   02 Jun 2027 14:53:21.824   02 Jun 2027 14:55:32.840           131.016              Murmansk1          4094.250
       186   02 Jun 2027 15:04:05.376   02 Jun 2027 15:04:19.751            14.375              Murmansk2           449.219
       187   02 Jun 2027 15:08:28.128   02 Jun 2027 15:09:51.028            82.900                Anadyr2          2590.625
       188   02 Jun 2027 15:10:50.156   02 Jun 2027 15:11:52.553            62.397                Anadyr1          1949.906
       189   02 Jun 2027 15:12:02.341   02 Jun 2027 15:12:41.901            39.560                Anadyr2          1236.250
       190   02 Jun 2027 16:06:47.326   02 Jun 2027 16:07:04.273            16.947               CapeTown           529.594
       191   02 Jun 2027 16:09:52.570   02 Jun 2027 16:10:01.189             8.619               CapeTown           269.344
       192   02 Jun 2027 16:12:30.121   02 Jun 2027 16:13:10.088            39.967               CapeTown          1248.969
       193   02 Jun 2027 16:30:36.720   02 Jun 2027 16:31:30.762            54.042                 Moscow          1688.813
       194   02 Jun 2027 16:31:48.136   02 Jun 2027 16:32:31.968            43.832              Murmansk2          1369.750
       195   02 Jun 2027 16:34:13.108   02 Jun 2027 16:34:26.581            13.473              Murmansk2           421.031
       196   02 Jun 2027 16:35:50.954   02 Jun 2027 16:36:18.905            27.951              Murmansk1           873.469
       197   02 Jun 2027 16:40:04.236   02 Jun 2027 16:40:40.983            36.747              Murmansk1          1148.344
       198   02 Jun 2027 16:43:35.571   02 Jun 2027 16:44:45.235            69.664                Anadyr2          2177.000
       199   02 Jun 2027 16:44:45.235   02 Jun 2027 16:45:34.296            49.061                Anadyr1          1533.156
       200   02 Jun 2027 16:48:57.101   02 Jun 2027 16:50:53.820           116.719               Magadan2          3647.469
       201   02 Jun 2027 16:50:55.228   02 Jun 2027 16:51:09.929            14.701               Magadan1           459.406
       202   02 Jun 2027 18:13:57.515   02 Jun 2027 18:15:57.159           119.644              Murmansk2          3738.875
       203   02 Jun 2027 18:19:26.759   02 Jun 2027 18:21:29.782           123.023                Anadyr2          3844.469
       204   02 Jun 2027 18:21:58.904   02 Jun 2027 18:22:53.760            54.856               Magadan2          1714.250
       205   02 Jun 2027 18:22:53.760   02 Jun 2027 18:24:35.396           101.636               Magadan1          3176.125
       206   02 Jun 2027 19:55:21.452   02 Jun 2027 19:59:09.026           227.574                Anadyr1          7111.688
       207   02 Jun 2027 19:59:11.673   02 Jun 2027 20:01:32.416           140.743               Magadan1          4398.219
       208   02 Jun 2027 20:01:32.416   02 Jun 2027 20:02:02.304            29.888               Magadan2           934.000
       209   02 Jun 2027 20:07:25.387   02 Jun 2027 20:07:53.159            27.772               Magadan1           867.875
       210   02 Jun 2027 20:49:50.580   02 Jun 2027 20:52:49.774           179.194            RioGallegos          5599.813
       211   02 Jun 2027 20:58:34.674   02 Jun 2027 20:59:16.534            41.860            RioGallegos          1308.125
       212   02 Jun 2027 21:30:58.242   02 Jun 2027 21:32:49.578           111.336                Anadyr2          3479.250
       213   02 Jun 2027 21:33:01.889   02 Jun 2027 21:33:14.660            12.771                Anadyr2           399.094
       214   02 Jun 2027 21:33:22.076   02 Jun 2027 21:35:21.530           119.454                Norilsk          3732.937
       215   02 Jun 2027 21:37:24.002   02 Jun 2027 21:37:50.237            26.235                Irkutsk           819.844
       216   02 Jun 2027 21:39:00.603   02 Jun 2027 21:39:12.755            12.152                Irkutsk           379.750
       217   02 Jun 2027 21:39:27.632   02 Jun 2027 21:40:30.817            63.185                Novosib          1974.531
       218   02 Jun 2027 21:41:23.062   02 Jun 2027 21:41:43.718            20.656                Novosib           645.500
       219   02 Jun 2027 21:42:11.813   02 Jun 2027 21:43:21.265            69.452                Novosib          2170.375
       220   02 Jun 2027 21:54:05.696   02 Jun 2027 21:54:43.453            37.757                Sumatra          1179.906
       221   02 Jun 2027 22:01:24.699   02 Jun 2027 22:03:04.931           100.232                Sumatra          3132.250
       222   02 Jun 2027 23:08:07.374   02 Jun 2027 23:08:17.508            10.134                Anadyr1           316.688
       223   02 Jun 2027 23:08:28.220   02 Jun 2027 23:08:30.809             2.589                Anadyr1            80.906
       224   02 Jun 2027 23:09:09.048   02 Jun 2027 23:09:32.996            23.948                Norilsk           748.375
       225   02 Jun 2027 23:09:47.293   02 Jun 2027 23:10:40.970            53.677               Magadan1          1677.406
       226   02 Jun 2027 23:11:16.296   02 Jun 2027 23:11:26.023             9.727               Magadan1           303.969
       227   02 Jun 2027 23:11:37.761   02 Jun 2027 23:12:14.223            36.462               Magadan1          1139.437
       228   02 Jun 2027 23:13:01.019   02 Jun 2027 23:13:27.861            26.842                Irkutsk           838.813
       229   02 Jun 2027 23:13:31.094   02 Jun 2027 23:13:51.714            20.620                Novosib           644.375
       230   02 Jun 2027 23:14:24.674   02 Jun 2027 23:15:08.191            43.517                Novosib          1359.906
       231   02 Jun 2027 23:16:03.629   02 Jun 2027 23:16:08.627             4.998                Novosib           156.188
       232   02 Jun 2027 23:18:35.779   02 Jun 2027 23:19:18.705            42.926                Novosib          1341.437
       233   02 Jun 2027 23:20:59.032   02 Jun 2027 23:21:35.448            36.416                  Delhi          1138.000
       234   02 Jun 2027 23:22:31.718   02 Jun 2027 23:22:58.489            26.771                  Delhi           836.594
       235   02 Jun 2027 23:25:23.909   02 Jun 2027 23:25:39.543            15.634                  Delhi           488.562
       236   02 Jun 2027 23:31:15.422   02 Jun 2027 23:32:27.943            72.521                  Delhi          2266.281
       237   03 Jun 2027 00:39:16.826   03 Jun 2027 00:39:33.365            16.539                Anadyr2           516.844
       238   03 Jun 2027 00:40:31.940   03 Jun 2027 00:41:19.620            47.680                Anadyr1          1490.000
       239   03 Jun 2027 00:41:48.654   03 Jun 2027 00:42:03.194            14.540                Anadyr2           454.375
       240   03 Jun 2027 00:44:46.772   03 Jun 2027 00:45:02.019            15.247                Anadyr2           476.469
       241   03 Jun 2027 00:45:06.419   03 Jun 2027 00:45:20.929            14.510                Anadyr1           453.437
       242   03 Jun 2027 00:45:26.058   03 Jun 2027 00:47:09.886           103.828                Norilsk          3244.625
       243   03 Jun 2027 00:47:22.104   03 Jun 2027 00:48:19.797            57.693               Magadan2          1802.906
       244   03 Jun 2027 00:48:26.608   03 Jun 2027 00:50:40.234           133.626              Murmansk1          4175.813
       245   03 Jun 2027 00:52:25.409   03 Jun 2027 00:53:06.232            40.823                 Moscow          1275.719
       246   03 Jun 2027 00:55:18.625   03 Jun 2027 00:55:19.070             0.445                 Moscow            13.906
       247   03 Jun 2027 00:56:45.925   03 Jun 2027 00:56:51.105             5.180                 Moscow           161.875
       248   03 Jun 2027 01:01:37.084   03 Jun 2027 01:02:07.173            30.089                  Delhi           940.281
       249   03 Jun 2027 01:05:30.874   03 Jun 2027 01:06:18.860            47.986                  Delhi          1499.563
       250   03 Jun 2027 02:12:40.988   03 Jun 2027 02:15:20.553           159.565                Anadyr1          4986.406
       251   03 Jun 2027 02:17:48.453   03 Jun 2027 02:19:01.978            73.525               Magadan1          2297.656
       252   03 Jun 2027 02:20:56.288   03 Jun 2027 02:20:59.834             3.546                Norilsk           110.813
       253   03 Jun 2027 02:21:02.485   03 Jun 2027 02:21:26.959            24.474                Norilsk           764.812
       254   03 Jun 2027 02:23:16.130   03 Jun 2027 02:24:00.117            43.987              Murmansk1          1374.594
       255   03 Jun 2027 02:24:06.183   03 Jun 2027 02:24:07.503             1.320              Murmansk2            41.250
       256   03 Jun 2027 02:25:18.331   03 Jun 2027 02:27:14.031           115.700                Novosib          3615.625
       257   03 Jun 2027 02:31:55.673   03 Jun 2027 02:32:07.794            12.121                Novosib           378.781
       258   03 Jun 2027 02:37:05.239   03 Jun 2027 02:37:10.724             5.485                 Moscow           171.406
       259   03 Jun 2027 02:37:33.932   03 Jun 2027 02:38:16.808            42.876                 Moscow          1339.875
       260   03 Jun 2027 02:54:16.255   03 Jun 2027 02:55:11.451            55.196               CapeTown          1724.875
       261   03 Jun 2027 03:02:36.751   03 Jun 2027 03:02:49.555            12.804               CapeTown           400.125
       262   03 Jun 2027 03:54:18.455   03 Jun 2027 03:54:18.597             0.142                Anadyr2             4.437
       263   03 Jun 2027 03:54:40.312   03 Jun 2027 03:54:59.295            18.983                Anadyr2           593.219
       264   03 Jun 2027 04:08:18.816   03 Jun 2027 04:08:50.304            31.488              Murmansk2           984.000
       265   03 Jun 2027 04:09:54.923   03 Jun 2027 04:10:51.616            56.693              Murmansk1          1771.656
       266   03 Jun 2027 04:11:20.609   03 Jun 2027 04:11:37.414            16.805              Murmansk1           525.156
       267   03 Jun 2027 05:29:48.056   03 Jun 2027 05:30:09.735            21.679                Anadyr1           677.469
       268   03 Jun 2027 05:30:31.088   03 Jun 2027 05:31:49.151            78.063               Magadan2          2439.469
       269   03 Jun 2027 05:31:49.151   03 Jun 2027 05:31:56.422             7.271               Magadan1           227.219
       270   03 Jun 2027 05:32:08.956   03 Jun 2027 05:33:08.974            60.018                Norilsk          1875.563
       271   03 Jun 2027 05:33:14.994   03 Jun 2027 05:35:57.305           162.311                Anadyr2          5072.219
       272   03 Jun 2027 06:16:47.896   03 Jun 2027 06:17:03.928            16.032            RioGallegos           501.000
       273   03 Jun 2027 06:17:30.192   03 Jun 2027 06:18:16.706            46.514            RioGallegos          1453.563
       274   03 Jun 2027 06:19:28.282   03 Jun 2027 06:20:26.440            58.158            RioGallegos          1817.438
       275   03 Jun 2027 06:20:39.886   03 Jun 2027 06:20:53.762            13.876            RioGallegos           433.625
       276   03 Jun 2027 07:04:03.998   03 Jun 2027 07:04:08.189             4.191               Magadan2           130.969
       277   03 Jun 2027 07:04:14.946   03 Jun 2027 07:04:38.477            23.531                Anadyr2           735.344
       278   03 Jun 2027 07:04:59.866   03 Jun 2027 07:05:09.984            10.118                Irkutsk           316.187
       279   03 Jun 2027 07:05:12.531   03 Jun 2027 07:05:18.487             5.956                Anadyr1           186.125
       280   03 Jun 2027 07:05:18.487   03 Jun 2027 07:06:27.683            69.196                Anadyr2          2162.375
       281   03 Jun 2027 07:06:39.878   03 Jun 2027 07:07:00.067            20.189               Magadan2           630.906
       282   03 Jun 2027 07:07:04.253   03 Jun 2027 07:07:30.433            26.180                Anadyr2           818.125
       283   03 Jun 2027 07:07:48.850   03 Jun 2027 07:08:03.692            14.842               Magadan1           463.812
       284   03 Jun 2027 07:08:10.295   03 Jun 2027 07:08:41.651            31.356               Magadan1           979.875
       285   03 Jun 2027 07:09:15.220   03 Jun 2027 07:10:09.446            54.226                Anadyr1          1694.563
       286   03 Jun 2027 07:12:48.959   03 Jun 2027 07:12:51.082             2.123              Murmansk2            66.344
       287   03 Jun 2027 07:13:17.002   03 Jun 2027 07:13:25.866             8.864              Murmansk1           277.000
       288   03 Jun 2027 07:17:40.513   03 Jun 2027 07:17:45.747             5.234              Murmansk2           163.563
       289   03 Jun 2027 07:47:21.132   03 Jun 2027 07:47:36.579            15.447            RioGallegos           482.719
       290   03 Jun 2027 07:49:00.897   03 Jun 2027 07:49:20.323            19.426            RioGallegos           607.062
       291   03 Jun 2027 07:50:26.023   03 Jun 2027 07:50:26.591             0.568            RioGallegos            17.750
       292   03 Jun 2027 07:50:42.632   03 Jun 2027 07:51:21.787            39.155            RioGallegos          1223.594
       293   03 Jun 2027 08:40:48.148   03 Jun 2027 08:42:03.935            75.787               Magadan2          2368.344
       294   03 Jun 2027 08:42:18.466   03 Jun 2027 08:42:51.852            33.386                Novosib          1043.313
       295   03 Jun 2027 08:43:01.606   03 Jun 2027 08:44:04.235            62.629               Magadan1          1957.156
       296   03 Jun 2027 08:44:21.883   03 Jun 2027 08:44:39.997            18.114                Novosib           566.062
       297   03 Jun 2027 08:44:41.787   03 Jun 2027 08:45:43.222            61.435               Magadan1          1919.844
       298   03 Jun 2027 08:45:46.309   03 Jun 2027 08:45:48.296             1.987                Norilsk            62.094
       299   03 Jun 2027 08:45:51.491   03 Jun 2027 08:46:10.140            18.649              Murmansk1           582.781
       300   03 Jun 2027 08:46:10.140   03 Jun 2027 08:46:26.460            16.320              Murmansk2           510.000
       301   03 Jun 2027 08:46:29.452   03 Jun 2027 08:46:53.661            24.209                Novosib           756.531
       302   03 Jun 2027 08:46:55.428   03 Jun 2027 08:47:08.774            13.346                Norilsk           417.062
       303   03 Jun 2027 08:47:13.993   03 Jun 2027 08:47:26.428            12.435              Murmansk1           388.594
       304   03 Jun 2027 08:47:26.428   03 Jun 2027 08:48:22.930            56.502              Murmansk2          1765.688
       305   03 Jun 2027 09:22:00.807   03 Jun 2027 09:22:11.412            10.605            RioGallegos           331.406
       306   03 Jun 2027 09:23:09.823   03 Jun 2027 09:23:23.504            13.681            RioGallegos           427.531
       307   03 Jun 2027 09:25:16.424   03 Jun 2027 09:25:52.674            36.250            RioGallegos          1132.813
       308   03 Jun 2027 09:57:04.440   03 Jun 2027 09:57:06.212             1.772                Sumatra            55.375
       309   03 Jun 2027 09:57:54.552   03 Jun 2027 09:59:54.968           120.416                Sumatra          3763.000
       310   03 Jun 2027 10:18:27.897   03 Jun 2027 10:18:41.101            13.204                Norilsk           412.625
       311   03 Jun 2027 10:18:45.337   03 Jun 2027 10:19:10.602            25.265                Norilsk           789.531
       312   03 Jun 2027 10:19:24.354   03 Jun 2027 10:19:30.670             6.316                Irkutsk           197.375
       313   03 Jun 2027 10:19:34.263   03 Jun 2027 10:19:51.056            16.793                Norilsk           524.781
       314   03 Jun 2027 10:19:56.125   03 Jun 2027 10:19:57.698             1.573              Murmansk1            49.156
       315   03 Jun 2027 10:19:58.530   03 Jun 2027 10:20:13.228            14.698              Murmansk1           459.312
       316   03 Jun 2027 10:20:17.465   03 Jun 2027 10:20:58.469            41.004                Novosib          1281.375
       317   03 Jun 2027 10:21:05.910   03 Jun 2027 10:21:16.063            10.153              Murmansk1           317.281
       318   03 Jun 2027 10:21:18.975   03 Jun 2027 10:22:28.495            69.520                Norilsk          2172.500
       319   03 Jun 2027 10:22:32.721   03 Jun 2027 10:23:21.286            48.565                Norilsk          1517.656
       320   03 Jun 2027 11:00:39.881   03 Jun 2027 11:00:59.900            20.019            RioGallegos           625.594
       321   03 Jun 2027 11:01:35.592   03 Jun 2027 11:02:06.255            30.663            RioGallegos           958.219
       322   03 Jun 2027 11:35:02.933   03 Jun 2027 11:35:34.239            31.306                Sumatra           978.312
       323   03 Jun 2027 11:37:07.721   03 Jun 2027 11:37:47.192            39.471                Sumatra          1233.469
       324   03 Jun 2027 11:44:18.354   03 Jun 2027 11:44:44.642            26.288                  Delhi           821.500
       325   03 Jun 2027 11:54:59.687   03 Jun 2027 11:55:01.054             1.367                Norilsk            42.719
       326   03 Jun 2027 11:55:09.239   03 Jun 2027 11:55:48.669            39.430              Murmansk1          1232.188
       327   03 Jun 2027 11:55:48.669   03 Jun 2027 11:56:19.260            30.591              Murmansk2           955.969
       328   03 Jun 2027 11:56:25.171   03 Jun 2027 11:57:03.859            38.688                Irkutsk          1209.000
       329   03 Jun 2027 11:57:08.363   03 Jun 2027 11:57:28.237            19.874                Norilsk           621.063
       330   03 Jun 2027 11:57:40.473   03 Jun 2027 11:58:30.002            49.529              Murmansk1          1547.781
       331   03 Jun 2027 11:58:30.002   03 Jun 2027 11:58:42.884            12.882              Murmansk2           402.562
       332   03 Jun 2027 12:00:05.677   03 Jun 2027 12:00:30.150            24.473                 Moscow           764.781
       333   03 Jun 2027 12:00:46.654   03 Jun 2027 12:01:17.123            30.469                 Moscow           952.156
       334   03 Jun 2027 12:02:25.738   03 Jun 2027 12:02:32.108             6.370                Norilsk           199.062
       335   03 Jun 2027 12:02:34.936   03 Jun 2027 12:02:51.947            17.011              Murmansk1           531.594
       336   03 Jun 2027 12:03:18.866   03 Jun 2027 12:03:26.614             7.748                Norilsk           242.125
       337   03 Jun 2027 12:03:37.249   03 Jun 2027 12:03:49.651            12.402              Murmansk2           387.562
       338   03 Jun 2027 12:03:59.921   03 Jun 2027 12:04:06.977             7.056              Murmansk2           220.500
       339   03 Jun 2027 12:04:40.678   03 Jun 2027 12:05:52.735            72.057              Murmansk1          2251.781
       340   03 Jun 2027 13:20:58.568   03 Jun 2027 13:24:23.311           204.743                  Delhi          6398.219
       341   03 Jun 2027 13:28:27.194   03 Jun 2027 13:28:52.687            25.493                 Moscow           796.656
       342   03 Jun 2027 13:28:55.959   03 Jun 2027 13:29:56.254            60.295              Murmansk2          1884.219
       343   03 Jun 2027 13:30:27.375   03 Jun 2027 13:30:34.183             6.808              Murmansk2           212.750
       344   03 Jun 2027 13:30:39.128   03 Jun 2027 13:31:26.560            47.432              Murmansk2          1482.250
       345   03 Jun 2027 13:32:40.879   03 Jun 2027 13:32:53.295            12.416                Norilsk           388.000
       346   03 Jun 2027 13:34:12.033   03 Jun 2027 13:34:47.072            35.039                Norilsk          1094.969
       347   03 Jun 2027 13:36:46.263   03 Jun 2027 13:37:02.520            16.257                Norilsk           508.031
       348   03 Jun 2027 13:38:03.862   03 Jun 2027 13:38:32.333            28.471                Norilsk           889.719
       349   03 Jun 2027 14:41:09.443   03 Jun 2027 14:43:41.478           152.035               CapeTown          4751.094
       350   03 Jun 2027 14:48:18.612   03 Jun 2027 14:49:02.644            44.032               CapeTown          1376.000
       351   03 Jun 2027 15:05:34.798   03 Jun 2027 15:06:31.408            56.610              Murmansk1          1769.063
       352   03 Jun 2027 15:07:44.618   03 Jun 2027 15:08:15.411            30.793              Murmansk2           962.281
       353   03 Jun 2027 15:10:16.695   03 Jun 2027 15:10:35.907            19.212              Murmansk2           600.375
       354   03 Jun 2027 15:12:22.072   03 Jun 2027 15:12:47.589            25.517              Murmansk2           797.406
       355   03 Jun 2027 15:14:49.330   03 Jun 2027 15:15:38.112            48.782              Murmansk1          1524.438
       356   03 Jun 2027 15:20:16.621   03 Jun 2027 15:21:50.219            93.598                Anadyr1          2924.937
       357   03 Jun 2027 15:22:35.125   03 Jun 2027 15:23:35.489            60.364                Anadyr2          1886.375
       358   03 Jun 2027 16:23:39.930   03 Jun 2027 16:23:51.988            12.058               CapeTown           376.813
       359   03 Jun 2027 16:24:32.031   03 Jun 2027 16:24:39.601             7.570               CapeTown           236.562
       360   03 Jun 2027 16:24:47.252   03 Jun 2027 16:25:26.879            39.627               CapeTown          1238.344
       361   03 Jun 2027 16:44:19.308   03 Jun 2027 16:46:14.402           115.094              Murmansk2          3596.688
       362   03 Jun 2027 16:49:57.776   03 Jun 2027 16:50:01.161             3.385              Murmansk2           105.781
       363   03 Jun 2027 16:52:05.907   03 Jun 2027 16:52:12.076             6.169              Murmansk1           192.781
       364   03 Jun 2027 16:52:44.573   03 Jun 2027 16:53:40.038            55.465              Murmansk2          1733.281
       365   03 Jun 2027 16:55:35.440   03 Jun 2027 16:56:53.728            78.288                Anadyr2          2446.500
       366   03 Jun 2027 16:59:50.482   03 Jun 2027 17:01:45.038           114.556               Magadan1          3579.875
       367   03 Jun 2027 17:02:16.361   03 Jun 2027 17:02:19.454             3.093               Magadan1            96.656
       368   03 Jun 2027 17:02:31.559   03 Jun 2027 17:02:37.787             6.228               Magadan2           194.625
       369   03 Jun 2027 18:31:28.285   03 Jun 2027 18:35:18.849           230.564                Anadyr2          7205.125
       370   03 Jun 2027 18:35:57.608   03 Jun 2027 18:37:38.808           101.200               Magadan2          3162.500
       371   03 Jun 2027 18:38:25.559   03 Jun 2027 18:38:57.270            31.711               Magadan1           990.969
       372   03 Jun 2027 18:40:50.374   03 Jun 2027 18:41:08.575            18.201               Magadan2           568.781
       373   03 Jun 2027 18:43:05.932   03 Jun 2027 18:43:26.332            20.400               Magadan2           637.500
       374   03 Jun 2027 18:44:12.287   03 Jun 2027 18:44:44.042            31.755               Magadan1           992.344
       375   03 Jun 2027 20:07:22.013   03 Jun 2027 20:09:27.025           125.012                Anadyr2          3906.625
       376   03 Jun 2027 20:09:39.325   03 Jun 2027 20:11:08.669            89.344                Anadyr1          2792.000
       377   03 Jun 2027 20:11:23.435   03 Jun 2027 20:12:58.623            95.188               Magadan1          2974.625
       378   03 Jun 2027 20:12:58.623   03 Jun 2027 20:13:35.749            37.126               Magadan2          1160.187
       379   03 Jun 2027 20:13:57.006   03 Jun 2027 20:14:12.583            15.577               Magadan2           486.781
       380   03 Jun 2027 20:16:24.249   03 Jun 2027 20:16:36.090            11.841               Magadan1           370.031
       381   03 Jun 2027 20:17:14.719   03 Jun 2027 20:18:24.622            69.903                Irkutsk          2184.469
       382   03 Jun 2027 20:19:17.288   03 Jun 2027 20:19:47.165            29.877                Irkutsk           933.656
       383   03 Jun 2027 21:01:40.234   03 Jun 2027 21:04:36.661           176.427            RioGallegos          5513.344
       384   03 Jun 2027 21:44:28.647   03 Jun 2027 21:45:13.734            45.087                Anadyr2          1408.969
       385   03 Jun 2027 21:45:44.185   03 Jun 2027 21:47:41.857           117.672               Magadan1          3677.250
       386   03 Jun 2027 21:49:18.782   03 Jun 2027 21:49:31.536            12.754                Irkutsk           398.563
       387   03 Jun 2027 21:50:07.315   03 Jun 2027 21:50:24.789            17.474                Norilsk           546.062
       388   03 Jun 2027 21:50:31.913   03 Jun 2027 21:51:15.065            43.152                Irkutsk          1348.500
       389   03 Jun 2027 21:51:26.975   03 Jun 2027 21:52:25.534            58.559                Novosib          1829.969
       390   03 Jun 2027 21:54:24.191   03 Jun 2027 21:55:10.721            46.530                Novosib          1454.063
       391   03 Jun 2027 22:03:00.335   03 Jun 2027 22:03:47.086            46.751                Sumatra          1460.969
       392   03 Jun 2027 22:11:18.504   03 Jun 2027 22:12:31.205            72.701                Sumatra          2271.906
       393   03 Jun 2027 23:17:30.304   03 Jun 2027 23:18:57.082            86.778                Anadyr2          2711.813
       394   03 Jun 2027 23:19:49.092   03 Jun 2027 23:20:22.997            33.905                Anadyr2          1059.531
       395   03 Jun 2027 23:21:11.136   03 Jun 2027 23:21:35.199            24.063                Norilsk           751.969
       396   03 Jun 2027 23:21:49.170   03 Jun 2027 23:23:00.214            71.044               Magadan2          2220.125
       397   03 Jun 2027 23:23:15.597   03 Jun 2027 23:23:18.954             3.357               Magadan1           104.906
       398   03 Jun 2027 23:23:28.364   03 Jun 2027 23:23:30.422             2.058               Magadan1            64.313
       399   03 Jun 2027 23:24:47.009   03 Jun 2027 23:25:37.161            50.152               Magadan2          1567.250
       400   03 Jun 2027 23:26:18.982   03 Jun 2027 23:27:04.455            45.473                Irkutsk          1421.031
       401   03 Jun 2027 23:27:48.662   03 Jun 2027 23:28:23.597            34.935                Novosib          1091.719
       402   03 Jun 2027 23:32:44.084   03 Jun 2027 23:33:40.496            56.412                  Delhi          1762.875
       403   03 Jun 2027 23:34:46.135   03 Jun 2027 23:34:58.264            12.129                  Delhi           379.031
       404   03 Jun 2027 23:35:56.835   03 Jun 2027 23:36:12.992            16.157                  Delhi           504.906
       405   03 Jun 2027 23:39:54.350   03 Jun 2027 23:40:01.834             7.484                  Delhi           233.875
       406   03 Jun 2027 23:41:03.801   03 Jun 2027 23:42:10.055            66.254                  Delhi          2070.438
       407   04 Jun 2027 00:50:57.846   04 Jun 2027 00:51:18.433            20.587                Anadyr1           643.344
       408   04 Jun 2027 00:51:26.938   04 Jun 2027 00:51:57.513            30.575                Anadyr2           955.469
       409   04 Jun 2027 00:52:28.231   04 Jun 2027 00:52:50.877            22.646                Anadyr2           707.687
       410   04 Jun 2027 00:53:27.087   04 Jun 2027 00:53:41.542            14.455                Anadyr1           451.719
       411   04 Jun 2027 00:53:44.721   04 Jun 2027 00:54:19.959            35.238                Anadyr1          1101.188
       412   04 Jun 2027 00:56:49.088   04 Jun 2027 00:56:52.531             3.443                Anadyr1           107.594
       413   04 Jun 2027 00:56:52.531   04 Jun 2027 00:56:57.053             4.522                Anadyr2           141.313
       414   04 Jun 2027 00:57:06.045   04 Jun 2027 00:57:56.855            50.810               Magadan1          1587.812
       415   04 Jun 2027 00:57:56.855   04 Jun 2027 00:58:02.944             6.089               Magadan2           190.281
       416   04 Jun 2027 00:58:31.751   04 Jun 2027 00:59:10.325            38.574                Norilsk          1205.437
       417   04 Jun 2027 00:59:28.908   04 Jun 2027 01:01:30.639           121.731              Murmansk2          3804.094
       418   04 Jun 2027 01:01:36.793   04 Jun 2027 01:02:27.893            51.100              Murmansk1          1596.875
       419   04 Jun 2027 01:05:10.839   04 Jun 2027 01:06:43.616            92.777                 Moscow          2899.281
       420   04 Jun 2027 02:24:26.973   04 Jun 2027 02:26:24.070           117.097                Anadyr1          3659.281
       421   04 Jun 2027 02:26:24.070   04 Jun 2027 02:26:36.311            12.241                Anadyr2           382.531
       422   04 Jun 2027 02:26:54.390   04 Jun 2027 02:27:22.276            27.886                Anadyr1           871.437
       423   04 Jun 2027 02:28:42.038   04 Jun 2027 02:29:07.849            25.811                Anadyr1           806.594
       424   04 Jun 2027 02:29:16.255   04 Jun 2027 02:30:13.094            56.839               Magadan2          1776.219
       425   04 Jun 2027 02:30:32.876   04 Jun 2027 02:30:41.912             9.036               Magadan2           282.375
       426   04 Jun 2027 02:32:55.209   04 Jun 2027 02:33:28.930            33.721                Norilsk          1053.781
       427   04 Jun 2027 02:35:17.735   04 Jun 2027 02:36:39.685            81.950              Murmansk1          2560.937
       428   04 Jun 2027 02:38:33.393   04 Jun 2027 02:38:38.918             5.525              Murmansk1           172.656
       429   04 Jun 2027 02:39:09.058   04 Jun 2027 02:39:33.705            24.647                Novosib           770.219
       430   04 Jun 2027 02:41:06.023   04 Jun 2027 02:41:30.591            24.568                 Moscow           767.750
       431   04 Jun 2027 02:42:32.410   04 Jun 2027 02:43:04.893            32.483                Novosib          1015.094
       432   04 Jun 2027 02:47:12.633   04 Jun 2027 02:47:21.689             9.056                 Moscow           283.000
       433   04 Jun 2027 03:02:44.421   04 Jun 2027 03:03:44.006            59.585               CapeTown          1862.031
       434   04 Jun 2027 03:11:01.605   04 Jun 2027 03:11:12.295            10.690               CapeTown           334.062
       435   04 Jun 2027 03:13:32.234   04 Jun 2027 03:13:46.161            13.927               CapeTown           435.219
       436   04 Jun 2027 04:07:14.862   04 Jun 2027 04:07:41.778            26.916               Magadan1           841.125
       437   04 Jun 2027 04:07:41.778   04 Jun 2027 04:08:17.404            35.626               Magadan2          1113.312
       438   04 Jun 2027 04:10:05.114   04 Jun 2027 04:10:32.379            27.265               Magadan2           852.031
       439   04 Jun 2027 04:20:51.833   04 Jun 2027 04:22:53.576           121.743              Murmansk2          3804.469
       440   04 Jun 2027 04:22:53.576   04 Jun 2027 04:23:50.171            56.595              Murmansk1          1768.594
       441   04 Jun 2027 05:42:26.256   04 Jun 2027 05:43:19.702            53.446               Magadan1          1670.188
       442   04 Jun 2027 05:43:41.387   04 Jun 2027 05:47:57.512           256.125                Anadyr1          8003.906
       443   04 Jun 2027 05:49:23.968   04 Jun 2027 05:49:29.912             5.944                Norilsk           185.750
       444   04 Jun 2027 05:49:52.236   04 Jun 2027 05:50:04.331            12.095                Norilsk           377.969
       445   04 Jun 2027 05:51:18.040   04 Jun 2027 05:52:01.289            43.249                Norilsk          1351.531
       446   04 Jun 2027 06:32:14.090   04 Jun 2027 06:32:35.658            21.568            RioGallegos           674.000
       447   04 Jun 2027 07:15:18.416   04 Jun 2027 07:15:57.088            38.672                Anadyr1          1208.500
       448   04 Jun 2027 07:16:05.532   04 Jun 2027 07:16:11.562             6.030               Magadan2           188.438
       449   04 Jun 2027 07:16:12.249   04 Jun 2027 07:16:42.163            29.914               Magadan2           934.813
       450   04 Jun 2027 07:17:10.224   04 Jun 2027 07:17:23.460            13.236                Irkutsk           413.625
       451   04 Jun 2027 07:17:33.371   04 Jun 2027 07:18:01.275            27.904                Norilsk           872.000
       452   04 Jun 2027 07:18:10.342   04 Jun 2027 07:18:36.103            25.761               Magadan1           805.031
       453   04 Jun 2027 07:18:37.928   04 Jun 2027 07:19:49.404            71.476               Magadan1          2233.625
       454   04 Jun 2027 07:20:04.559   04 Jun 2027 07:20:23.409            18.850                Anadyr2           589.063
       455   04 Jun 2027 07:20:32.220   04 Jun 2027 07:21:26.723            54.503                Anadyr1          1703.219
       456   04 Jun 2027 07:21:48.668   04 Jun 2027 07:21:56.487             7.819               Magadan1           244.344
       457   04 Jun 2027 07:22:09.043   04 Jun 2027 07:22:20.655            11.612                Anadyr1           362.875
       458   04 Jun 2027 07:22:23.686   04 Jun 2027 07:22:57.032            33.346               Magadan1          1042.063
       459   04 Jun 2027 07:24:41.577   04 Jun 2027 07:24:51.596            10.019              Murmansk1           313.094
       460   04 Jun 2027 07:26:22.342   04 Jun 2027 07:26:30.340             7.998              Murmansk2           249.938
       461   04 Jun 2027 07:26:52.843   04 Jun 2027 07:27:04.562            11.719              Murmansk1           366.219
       462   04 Jun 2027 07:59:01.751   04 Jun 2027 07:59:59.056            57.305            RioGallegos          1790.781
       463   04 Jun 2027 08:52:17.615   04 Jun 2027 08:52:50.337            32.722               Magadan1          1022.562
       464   04 Jun 2027 08:52:52.989   04 Jun 2027 08:52:59.294             6.305                Irkutsk           197.031
       465   04 Jun 2027 08:53:35.446   04 Jun 2027 08:54:12.564            37.118                Norilsk          1159.937
       466   04 Jun 2027 08:54:17.281   04 Jun 2027 08:54:36.337            19.056                Norilsk           595.500
       467   04 Jun 2027 08:54:43.202   04 Jun 2027 08:54:45.288             2.086                Novosib            65.188
       468   04 Jun 2027 08:54:53.793   04 Jun 2027 08:55:08.804            15.011               Magadan2           469.094
       469   04 Jun 2027 08:55:24.433   04 Jun 2027 08:55:39.570            15.137               Magadan1           473.031
       470   04 Jun 2027 08:55:42.856   04 Jun 2027 08:56:20.169            37.313                Irkutsk          1166.031
       471   04 Jun 2027 08:56:39.963   04 Jun 2027 08:57:08.582            28.619                Irkutsk           894.344
       472   04 Jun 2027 08:57:16.567   04 Jun 2027 08:57:57.329            40.762              Murmansk1          1273.812
       473   04 Jun 2027 08:58:15.826   04 Jun 2027 08:59:04.402            48.576              Murmansk2          1518.000
       474   04 Jun 2027 08:59:04.402   04 Jun 2027 08:59:04.467             0.065              Murmansk1             2.031
       475   04 Jun 2027 08:59:09.382   04 Jun 2027 08:59:16.225             6.843                Norilsk           213.844
       476   04 Jun 2027 08:59:20.743   04 Jun 2027 09:00:01.285            40.542              Murmansk2          1266.937
       477   04 Jun 2027 09:00:16.162   04 Jun 2027 09:00:35.612            19.450              Murmansk1           607.813
       478   04 Jun 2027 09:34:07.476   04 Jun 2027 09:35:03.374            55.898            RioGallegos          1746.813
       479   04 Jun 2027 10:08:57.680   04 Jun 2027 10:10:24.635            86.955                Sumatra          2717.344
       480   04 Jun 2027 10:23:38.712   04 Jun 2027 10:23:42.689             3.977                  Delhi           124.281
       481   04 Jun 2027 10:25:08.376   04 Jun 2027 10:26:23.960            75.584                  Delhi          2362.000
       482   04 Jun 2027 10:29:10.333   04 Jun 2027 10:29:49.363            39.030                Irkutsk          1219.688
