uniorb/output/strategy_2/Drop/Drop_KinoSat_111202.txt

KinoSat_111202
-------------------------
    Access    *     Start Time (UTCG)     *     Stop Time (UTCG)  *   Duration (s)        *       Station  *  Data (Mbytes)
         1   01 Jun 2027 03:51:46.865   01 Jun 2027 03:51:54.597             7.732                Anadyr1           241.625
         2   01 Jun 2027 03:53:21.228   01 Jun 2027 03:53:30.972             9.744                Anadyr1           304.500
         3   01 Jun 2027 04:03:58.506   01 Jun 2027 04:07:19.795           201.289              Murmansk2          6290.281
         4   01 Jun 2027 04:08:37.026   01 Jun 2027 04:10:09.469            92.443                 Moscow          2888.844
         5   01 Jun 2027 04:33:06.514   01 Jun 2027 04:33:41.744            35.230               CapeTown          1100.938
         6   01 Jun 2027 05:25:03.559   01 Jun 2027 05:25:33.401            29.842               Magadan2           932.563
         7   01 Jun 2027 05:25:39.051   01 Jun 2027 05:25:48.477             9.426               Magadan2           294.562
         8   01 Jun 2027 05:26:04.842   01 Jun 2027 05:30:23.870           259.028                Anadyr2          8094.625
         9   01 Jun 2027 05:30:23.870   01 Jun 2027 05:31:05.799            41.929                Anadyr1          1310.281
        10   01 Jun 2027 07:02:05.393   01 Jun 2027 07:03:09.745            64.352                Irkutsk          2011.000
        11   01 Jun 2027 07:04:07.266   01 Jun 2027 07:04:16.140             8.874                Irkutsk           277.313
        12   01 Jun 2027 07:04:20.409   01 Jun 2027 07:05:27.386            66.977                Irkutsk          2093.031
        13   01 Jun 2027 08:38:13.958   01 Jun 2027 08:41:50.861           216.903               Magadan2          6778.219
        14   01 Jun 2027 08:42:27.127   01 Jun 2027 08:45:56.269           209.142              Murmansk1          6535.688
        15   01 Jun 2027 08:45:56.269   01 Jun 2027 08:47:06.629            70.360              Murmansk2          2198.750
        16   01 Jun 2027 09:17:07.945   01 Jun 2027 09:19:28.180           140.235            RioGallegos          4382.344
        17   01 Jun 2027 09:21:06.263   01 Jun 2027 09:21:14.439             8.176            RioGallegos           255.500
        18   01 Jun 2027 09:25:08.985   01 Jun 2027 09:25:32.850            23.865            RioGallegos           745.781
        19   01 Jun 2027 09:52:17.757   01 Jun 2027 09:53:08.385            50.628                Sumatra          1582.125
        20   01 Jun 2027 09:54:55.900   01 Jun 2027 09:55:18.026            22.126                Sumatra           691.437
        21   01 Jun 2027 09:59:01.886   01 Jun 2027 10:00:08.132            66.246                Sumatra          2070.188
        22   01 Jun 2027 10:13:57.967   01 Jun 2027 10:14:14.561            16.594                Novosib           518.563
        23   01 Jun 2027 10:14:28.889   01 Jun 2027 10:18:21.160           232.271                Irkutsk          7258.469
        24   01 Jun 2027 10:55:30.820   01 Jun 2027 10:55:43.665            12.845            RioGallegos           401.406
        25   01 Jun 2027 10:57:12.884   01 Jun 2027 10:58:11.664            58.780            RioGallegos          1836.875
        26   01 Jun 2027 10:59:30.521   01 Jun 2027 11:00:23.216            52.695            RioGallegos          1646.719
        27   01 Jun 2027 11:29:48.421   01 Jun 2027 11:30:08.135            19.714                Sumatra           616.062
        28   01 Jun 2027 11:32:20.435   01 Jun 2027 11:33:00.207            39.772                Sumatra          1242.875
        29   01 Jun 2027 11:35:06.906   01 Jun 2027 11:35:51.385            44.479                Sumatra          1389.969
        30   01 Jun 2027 11:50:57.713   01 Jun 2027 11:51:30.938            33.225                Irkutsk          1038.281
        31   01 Jun 2027 11:52:08.116   01 Jun 2027 11:52:57.968            49.852                Norilsk          1557.875
        32   01 Jun 2027 11:53:01.009   01 Jun 2027 11:53:13.874            12.865                 Moscow           402.031
        33   01 Jun 2027 11:53:36.975   01 Jun 2027 11:55:46.371           129.396                Novosib          4043.625
        34   01 Jun 2027 11:57:29.808   01 Jun 2027 11:57:43.359            13.551              Murmansk1           423.469
        35   01 Jun 2027 13:15:29.342   01 Jun 2027 13:16:19.178            49.836                  Delhi          1557.375
        36   01 Jun 2027 13:16:50.530   01 Jun 2027 13:19:31.144           160.614                  Delhi          5019.188
        37   01 Jun 2027 13:22:46.226   01 Jun 2027 13:23:11.432            25.206                 Moscow           787.688
        38   01 Jun 2027 13:24:04.774   01 Jun 2027 13:26:33.650           148.876              Murmansk1          4652.375
        39   01 Jun 2027 13:26:37.373   01 Jun 2027 13:27:14.647            37.274              Murmansk2          1164.813
        40   01 Jun 2027 13:27:49.115   01 Jun 2027 13:28:52.176            63.061                Norilsk          1970.656
        41   01 Jun 2027 13:29:54.812   01 Jun 2027 13:30:19.024            24.212                Norilsk           756.625
        42   01 Jun 2027 13:31:32.835   01 Jun 2027 13:32:53.449            80.614                Norilsk          2519.188
        43   01 Jun 2027 13:35:55.017   01 Jun 2027 13:36:24.106            29.089              Murmansk1           909.031
        44   01 Jun 2027 13:36:47.118   01 Jun 2027 13:37:00.975            13.857              Murmansk2           433.031
        45   01 Jun 2027 14:36:38.905   01 Jun 2027 14:40:22.593           223.688               CapeTown          6990.250
        46   01 Jun 2027 14:42:10.946   01 Jun 2027 14:43:30.443            79.497               CapeTown          2484.281
        47   01 Jun 2027 14:58:10.055   01 Jun 2027 14:58:37.860            27.805                 Moscow           868.906
        48   01 Jun 2027 15:00:38.137   01 Jun 2027 15:01:32.948            54.811              Murmansk1          1712.844
        49   01 Jun 2027 15:01:32.948   01 Jun 2027 15:03:19.268           106.320              Murmansk2          3322.500
        50   01 Jun 2027 15:05:44.286   01 Jun 2027 15:06:33.835            49.549              Murmansk2          1548.406
        51   01 Jun 2027 15:08:16.988   01 Jun 2027 15:09:14.416            57.428                 Moscow          1794.625
        52   01 Jun 2027 15:10:23.644   01 Jun 2027 15:10:31.958             8.314              Murmansk1           259.812
        53   01 Jun 2027 15:10:31.958   01 Jun 2027 15:11:08.122            36.164              Murmansk2          1130.125
        54   01 Jun 2027 15:11:48.489   01 Jun 2027 15:12:24.634            36.145              Murmansk2          1129.531
        55   01 Jun 2027 15:15:29.681   01 Jun 2027 15:16:38.787            69.106                Anadyr1          2159.562
        56   01 Jun 2027 15:17:58.244   01 Jun 2027 15:18:52.672            54.428                Anadyr2          1700.875
        57   01 Jun 2027 15:18:53.572   01 Jun 2027 15:18:58.202             4.630                Anadyr2           144.688
        58   01 Jun 2027 15:19:12.046   01 Jun 2027 15:20:25.448            73.402                Anadyr1          2293.813
        59   01 Jun 2027 15:21:00.354   01 Jun 2027 15:21:43.811            43.457                Anadyr1          1358.031
        60   01 Jun 2027 15:22:40.717   01 Jun 2027 15:23:12.246            31.529                Anadyr1           985.281
        61   01 Jun 2027 16:22:33.720   01 Jun 2027 16:22:52.918            19.198               CapeTown           599.937
        62   01 Jun 2027 16:38:41.436   01 Jun 2027 16:39:47.215            65.779                 Moscow          2055.594
        63   01 Jun 2027 16:40:18.765   01 Jun 2027 16:41:55.930            97.165                 Moscow          3036.406
        64   01 Jun 2027 16:45:06.461   01 Jun 2027 16:45:28.468            22.007              Murmansk2           687.719
        65   01 Jun 2027 16:46:34.941   01 Jun 2027 16:47:13.924            38.983              Murmansk1          1218.219
        66   01 Jun 2027 16:47:51.345   01 Jun 2027 16:48:49.449            58.104              Murmansk2          1815.750
        67   01 Jun 2027 16:53:32.587   01 Jun 2027 16:53:44.755            12.168                Anadyr2           380.250
        68   01 Jun 2027 16:54:07.171   01 Jun 2027 16:54:32.274            25.103                Anadyr2           784.469
        69   01 Jun 2027 16:55:18.729   01 Jun 2027 16:56:45.444            86.715               Magadan1          2709.844
        70   01 Jun 2027 16:57:24.340   01 Jun 2027 16:57:50.344            26.004               Magadan1           812.625
        71   01 Jun 2027 16:58:25.802   01 Jun 2027 16:58:34.678             8.876                Anadyr1           277.375
        72   01 Jun 2027 16:59:17.448   01 Jun 2027 16:59:29.306            11.858               Magadan1           370.562
        73   01 Jun 2027 16:59:35.071   01 Jun 2027 17:00:00.780            25.709                Anadyr2           803.406
        74   01 Jun 2027 17:00:11.015   01 Jun 2027 17:00:18.791             7.776                Anadyr2           243.000
        75   01 Jun 2027 17:00:35.299   01 Jun 2027 17:01:05.222            29.923                Anadyr1           935.094
        76   01 Jun 2027 17:01:39.911   01 Jun 2027 17:01:58.034            18.123                Anadyr1           566.344
        77   01 Jun 2027 17:02:25.027   01 Jun 2027 17:02:48.314            23.287                Anadyr2           727.719
        78   01 Jun 2027 18:26:36.519   01 Jun 2027 18:31:23.830           287.311                Anadyr2          8978.469
        79   01 Jun 2027 18:31:37.556   01 Jun 2027 18:32:30.413            52.857               Magadan1          1651.781
        80   01 Jun 2027 18:33:33.675   01 Jun 2027 18:34:05.279            31.604               Magadan2           987.625
        81   01 Jun 2027 18:34:20.719   01 Jun 2027 18:35:02.466            41.747               Magadan2          1304.594
        82   01 Jun 2027 18:35:28.816   01 Jun 2027 18:35:43.884            15.068                Anadyr2           470.875
        83   01 Jun 2027 18:36:05.590   01 Jun 2027 18:37:47.906           102.316               Magadan2          3197.375
        84   01 Jun 2027 18:39:27.525   01 Jun 2027 18:39:31.683             4.158                Anadyr1           129.938
        85   01 Jun 2027 18:39:31.708   01 Jun 2027 18:40:36.752            65.044               Magadan1          2032.625
        86   01 Jun 2027 20:02:30.685   01 Jun 2027 20:04:52.233           141.548                Anadyr1          4423.375
        87   01 Jun 2027 20:04:59.807   01 Jun 2027 20:06:06.433            66.626               Magadan1          2082.063
        88   01 Jun 2027 20:06:18.857   01 Jun 2027 20:06:34.094            15.237               Magadan2           476.156
        89   01 Jun 2027 20:06:36.052   01 Jun 2027 20:08:31.123           115.071                Norilsk          3595.969
        90   01 Jun 2027 20:09:34.156   01 Jun 2027 20:09:54.109            19.953                Norilsk           623.531
        91   01 Jun 2027 20:11:11.702   01 Jun 2027 20:11:36.403            24.701               Magadan1           771.906
        92   01 Jun 2027 20:11:47.521   01 Jun 2027 20:12:22.687            35.166               Magadan1          1098.938
        93   01 Jun 2027 20:13:13.085   01 Jun 2027 20:13:39.292            26.207                Anadyr2           818.969
        94   01 Jun 2027 20:13:54.146   01 Jun 2027 20:14:10.672            16.526                Anadyr2           516.437
        95   01 Jun 2027 20:14:34.643   01 Jun 2027 20:15:06.695            32.052               Magadan1          1001.625
        96   01 Jun 2027 20:15:30.027   01 Jun 2027 20:16:07.910            37.883               Magadan1          1183.844
        97   01 Jun 2027 20:16:39.657   01 Jun 2027 20:17:12.977            33.320               Magadan1          1041.250
        98   01 Jun 2027 20:58:46.687   01 Jun 2027 20:59:51.385            64.698            RioGallegos          2021.813
        99   01 Jun 2027 21:02:33.688   01 Jun 2027 21:03:03.614            29.926            RioGallegos           935.188
       100   01 Jun 2027 21:04:06.346   01 Jun 2027 21:05:40.364            94.018            RioGallegos          2938.062
       101   01 Jun 2027 21:06:20.250   01 Jun 2027 21:06:46.401            26.151            RioGallegos           817.219
       102   01 Jun 2027 21:07:35.224   01 Jun 2027 21:07:52.940            17.716            RioGallegos           553.625
       103   01 Jun 2027 21:42:09.149   01 Jun 2027 21:42:15.757             6.608               Magadan2           206.500
       104   01 Jun 2027 21:42:15.757   01 Jun 2027 21:42:27.271            11.514               Magadan1           359.812
       105   01 Jun 2027 21:42:28.926   01 Jun 2027 21:42:30.667             1.741                Norilsk            54.406
       106   01 Jun 2027 21:42:33.762   01 Jun 2027 21:42:35.793             2.031                Anadyr2            63.469
       107   01 Jun 2027 21:42:40.839   01 Jun 2027 21:42:53.926            13.087               Magadan1           408.969
       108   01 Jun 2027 21:43:38.698   01 Jun 2027 21:44:11.506            32.808                Norilsk          1025.250
       109   01 Jun 2027 21:44:33.519   01 Jun 2027 21:44:45.799            12.280               Magadan2           383.750
       110   01 Jun 2027 21:45:34.253   01 Jun 2027 21:45:39.238             4.985               Magadan1           155.781
       111   01 Jun 2027 21:45:41.687   01 Jun 2027 21:45:43.227             1.540               Magadan1            48.125
       112   01 Jun 2027 21:45:50.006   01 Jun 2027 21:46:10.999            20.993                Norilsk           656.031
       113   01 Jun 2027 21:46:27.319   01 Jun 2027 21:46:32.442             5.123                Anadyr1           160.094
       114   01 Jun 2027 21:46:35.110   01 Jun 2027 21:46:56.600            21.490                Novosib           671.562
       115   01 Jun 2027 21:47:15.998   01 Jun 2027 21:48:08.649            52.651                Irkutsk          1645.344
       116   01 Jun 2027 21:48:09.369   01 Jun 2027 21:48:14.733             5.364                Novosib           167.625
       117   01 Jun 2027 21:49:56.638   01 Jun 2027 21:50:09.455            12.817                Norilsk           400.531
       118   01 Jun 2027 21:50:20.350   01 Jun 2027 21:50:33.611            13.261                Norilsk           414.406
       119   01 Jun 2027 21:50:46.017   01 Jun 2027 21:51:08.710            22.693               Magadan2           709.156
       120   01 Jun 2027 21:51:46.323   01 Jun 2027 21:52:00.856            14.533               Magadan2           454.156
       121   01 Jun 2027 21:52:12.814   01 Jun 2027 21:52:39.917            27.103                Irkutsk           846.969
       122   01 Jun 2027 21:53:16.576   01 Jun 2027 21:53:37.316            20.740                Irkutsk           648.125
       123   01 Jun 2027 21:54:00.492   01 Jun 2027 21:54:59.898            59.406                Irkutsk          1856.438
       124   01 Jun 2027 22:05:13.687   01 Jun 2027 22:06:29.063            75.376                Sumatra          2355.500
       125   01 Jun 2027 22:07:41.437   01 Jun 2027 22:08:23.484            42.047                Sumatra          1313.969
       126   01 Jun 2027 22:09:16.821   01 Jun 2027 22:10:46.064            89.243                Sumatra          2788.844
       127   01 Jun 2027 23:15:30.434   01 Jun 2027 23:15:35.105             4.671                Anadyr1           145.969
       128   01 Jun 2027 23:15:55.250   01 Jun 2027 23:16:09.965            14.715                Anadyr1           459.844
       129   01 Jun 2027 23:16:19.144   01 Jun 2027 23:16:48.936            29.792                Norilsk           931.000
       130   01 Jun 2027 23:17:36.454   01 Jun 2027 23:18:22.148            45.694               Magadan1          1427.938
       131   01 Jun 2027 23:18:47.384   01 Jun 2027 23:18:59.885            12.501               Magadan2           390.656
       132   01 Jun 2027 23:19:58.731   01 Jun 2027 23:20:46.674            47.943               Magadan1          1498.219
       133   01 Jun 2027 23:21:48.856   01 Jun 2027 23:22:12.621            23.765               Magadan1           742.656
       134   01 Jun 2027 23:22:48.086   01 Jun 2027 23:23:17.143            29.057               Magadan2           908.031
       135   01 Jun 2027 23:24:08.453   01 Jun 2027 23:24:36.800            28.347                Norilsk           885.844
       136   01 Jun 2027 23:25:40.586   01 Jun 2027 23:25:54.666            14.080                Novosib           440.000
       137   01 Jun 2027 23:26:07.856   01 Jun 2027 23:26:13.061             5.205                Novosib           162.656
       138   01 Jun 2027 23:26:49.298   01 Jun 2027 23:27:22.052            32.754                Irkutsk          1023.563
       139   01 Jun 2027 23:28:07.294   01 Jun 2027 23:29:14.431            67.137                Irkutsk          2098.031
       140   01 Jun 2027 23:31:06.755   01 Jun 2027 23:31:47.849            41.094                Irkutsk          1284.187
       141   01 Jun 2027 23:34:41.347   01 Jun 2027 23:35:17.973            36.626                  Delhi          1144.562
       142   01 Jun 2027 23:36:49.422   01 Jun 2027 23:37:22.890            33.468                  Delhi          1045.875
       143   01 Jun 2027 23:39:21.801   01 Jun 2027 23:39:49.764            27.963                  Delhi           873.844
       144   02 Jun 2027 00:17:21.272   02 Jun 2027 00:17:41.953            20.681            RioGallegos           646.281
       145   02 Jun 2027 00:18:25.494   02 Jun 2027 00:18:39.024            13.530            RioGallegos           422.812
       146   02 Jun 2027 00:46:14.453   02 Jun 2027 00:46:33.414            18.961                Anadyr2           592.531
       147   02 Jun 2027 00:47:03.214   02 Jun 2027 00:47:38.589            35.375                Anadyr2          1105.469
       148   02 Jun 2027 00:48:47.132   02 Jun 2027 00:49:14.627            27.495                Anadyr2           859.219
       149   02 Jun 2027 00:50:52.806   02 Jun 2027 00:51:52.421            59.615                Anadyr1          1862.969
       150   02 Jun 2027 00:52:18.121   02 Jun 2027 00:52:35.947            17.826                Norilsk           557.063
       151   02 Jun 2027 00:52:36.322   02 Jun 2027 00:53:11.005            34.683               Magadan1          1083.844
       152   02 Jun 2027 00:53:19.533   02 Jun 2027 00:53:55.613            36.080               Magadan1          1127.500
       153   02 Jun 2027 00:54:31.780   02 Jun 2027 00:54:50.713            18.933               Magadan2           591.656
       154   02 Jun 2027 00:55:28.237   02 Jun 2027 00:56:49.098            80.861              Murmansk2          2526.906
       155   02 Jun 2027 01:00:44.499   02 Jun 2027 01:00:53.403             8.904              Murmansk2           278.250
       156   02 Jun 2027 01:01:52.238   02 Jun 2027 01:02:14.640            22.402                 Moscow           700.063
       157   02 Jun 2027 01:02:53.121   02 Jun 2027 01:03:09.588            16.467                 Moscow           514.594
       158   02 Jun 2027 01:03:31.287   02 Jun 2027 01:03:44.959            13.672              Murmansk1           427.250
       159   02 Jun 2027 01:05:31.290   02 Jun 2027 01:05:38.006             6.716                Irkutsk           209.875
       160   02 Jun 2027 01:05:43.536   02 Jun 2027 01:06:02.122            18.586                Novosib           580.813
       161   02 Jun 2027 01:07:08.313   02 Jun 2027 01:07:43.776            35.463                Novosib          1108.219
       162   02 Jun 2027 01:10:05.438   02 Jun 2027 01:11:22.065            76.627                  Delhi          2394.594
       163   02 Jun 2027 02:19:41.405   02 Jun 2027 02:21:45.105           123.700                Anadyr2          3865.625
       164   02 Jun 2027 02:21:46.519   02 Jun 2027 02:22:19.658            33.139                Anadyr2          1035.594
       165   02 Jun 2027 02:23:56.212   02 Jun 2027 02:24:29.662            33.450                Anadyr1          1045.313
       166   02 Jun 2027 02:24:56.865   02 Jun 2027 02:25:23.682            26.817               Magadan1           838.031
       167   02 Jun 2027 02:26:47.952   02 Jun 2027 02:27:00.219            12.267               Magadan2           383.344
       168   02 Jun 2027 02:27:37.716   02 Jun 2027 02:28:26.377            48.661               Magadan1          1520.656
       169   02 Jun 2027 02:30:25.923   02 Jun 2027 02:31:05.569            39.646              Murmansk2          1238.937
       170   02 Jun 2027 02:32:50.549   02 Jun 2027 02:33:04.357            13.808                Novosib           431.500
       171   02 Jun 2027 02:33:45.334   02 Jun 2027 02:33:53.409             8.075              Murmansk1           252.344
       172   02 Jun 2027 02:34:17.244   02 Jun 2027 02:34:30.976            13.732              Murmansk1           429.125
       173   02 Jun 2027 02:35:40.509   02 Jun 2027 02:36:10.835            30.326                Novosib           947.687
       174   02 Jun 2027 02:37:29.165   02 Jun 2027 02:38:55.966            86.801                 Moscow          2712.531
       175   02 Jun 2027 02:43:41.212   02 Jun 2027 02:44:06.612            25.400                 Moscow           793.750
       176   02 Jun 2027 02:46:01.787   02 Jun 2027 02:46:18.603            16.816                 Moscow           525.500
       177   02 Jun 2027 03:06:04.197   02 Jun 2027 03:06:17.371            13.174               CapeTown           411.688
       178   02 Jun 2027 03:06:51.130   02 Jun 2027 03:07:23.205            32.075               CapeTown          1002.344
       179   02 Jun 2027 03:09:05.075   02 Jun 2027 03:10:14.249            69.174               CapeTown          2161.687
       180   02 Jun 2027 04:02:12.691   02 Jun 2027 04:05:59.441           226.750                Anadyr2          7085.937
       181   02 Jun 2027 04:05:59.441   02 Jun 2027 04:06:38.208            38.767                Anadyr1          1211.469
       182   02 Jun 2027 04:17:10.767   02 Jun 2027 04:17:16.561             5.794              Murmansk1           181.063
       183   02 Jun 2027 04:18:01.515   02 Jun 2027 04:18:17.307            15.792              Murmansk1           493.500
       184   02 Jun 2027 05:37:39.659   02 Jun 2027 05:37:56.794            17.135               Magadan1           535.469
       185   02 Jun 2027 05:37:56.794   02 Jun 2027 05:38:59.562            62.768               Magadan2          1961.500
       186   02 Jun 2027 05:39:06.433   02 Jun 2027 05:40:28.057            81.624               Magadan1          2550.750
       187   02 Jun 2027 05:40:39.795   02 Jun 2027 05:43:06.336           146.541                Anadyr1          4579.406
       188   02 Jun 2027 05:45:05.590   02 Jun 2027 05:45:29.566            23.976                Norilsk           749.250
       189   02 Jun 2027 07:13:56.001   02 Jun 2027 07:18:41.546           285.545               Magadan2          8923.281
       190   02 Jun 2027 08:49:12.515   02 Jun 2027 08:51:54.959           162.444               Magadan1          5076.375
       191   02 Jun 2027 08:52:02.580   02 Jun 2027 08:52:50.834            48.254               Magadan1          1507.938
       192   02 Jun 2027 08:52:59.313   02 Jun 2027 08:53:42.428            43.115                Novosib          1347.344
       193   02 Jun 2027 08:53:44.779   02 Jun 2027 08:54:23.174            38.395                Irkutsk          1199.844
       194   02 Jun 2027 08:54:25.267   02 Jun 2027 08:54:26.803             1.536                Norilsk            48.000
       195   02 Jun 2027 08:54:31.953   02 Jun 2027 08:55:55.636            83.683              Murmansk2          2615.094
       196   02 Jun 2027 08:56:09.571   02 Jun 2027 08:56:22.973            13.402                Norilsk           418.812
       197   02 Jun 2027 09:02:18.748   02 Jun 2027 09:02:23.341             4.593              Murmansk1           143.531
       198   02 Jun 2027 09:29:13.186   02 Jun 2027 09:29:57.685            44.499            RioGallegos          1390.594
       199   02 Jun 2027 09:33:16.485   02 Jun 2027 09:33:28.840            12.355            RioGallegos           386.094
       200   02 Jun 2027 09:34:47.759   02 Jun 2027 09:34:56.871             9.112            RioGallegos           284.750
       201   02 Jun 2027 09:37:26.985   02 Jun 2027 09:37:47.644            20.659            RioGallegos           645.594
       202   02 Jun 2027 10:04:08.596   02 Jun 2027 10:06:08.086           119.490                Sumatra          3734.063
       203   02 Jun 2027 10:24:22.104   02 Jun 2027 10:24:56.086            33.982                Irkutsk          1061.938
       204   02 Jun 2027 10:25:21.353   02 Jun 2027 10:25:48.287            26.934                Novosib           841.688
       205   02 Jun 2027 10:26:38.046   02 Jun 2027 10:26:39.273             1.227                Irkutsk            38.344
       206   02 Jun 2027 10:26:41.925   02 Jun 2027 10:27:34.301            52.376                Novosib          1636.750
       207   02 Jun 2027 10:27:42.078   02 Jun 2027 10:28:46.059            63.981                Irkutsk          1999.406
       208   02 Jun 2027 10:29:00.245   02 Jun 2027 10:29:21.182            20.937              Murmansk1           654.281
       209   02 Jun 2027 10:29:37.337   02 Jun 2027 10:30:18.198            40.861                Irkutsk          1276.906
       210   02 Jun 2027 10:30:19.188   02 Jun 2027 10:30:38.475            19.287                 Moscow           602.719
       211   02 Jun 2027 10:31:48.672   02 Jun 2027 10:32:00.402            11.730                 Moscow           366.563
       212   02 Jun 2027 11:08:17.736   02 Jun 2027 11:08:45.571            27.835            RioGallegos           869.844
       213   02 Jun 2027 11:10:06.669   02 Jun 2027 11:10:32.046            25.377            RioGallegos           793.031
       214   02 Jun 2027 11:42:55.515   02 Jun 2027 11:44:12.290            76.775                Sumatra          2399.219
       215   02 Jun 2027 11:51:27.494   02 Jun 2027 11:52:28.515            61.021                  Delhi          1906.906
       216   02 Jun 2027 12:10:46.099   02 Jun 2027 12:10:51.310             5.211              Murmansk2           162.844
       217   02 Jun 2027 12:11:24.970   02 Jun 2027 12:11:27.240             2.270                Norilsk            70.938
       218   02 Jun 2027 12:11:47.466   02 Jun 2027 12:12:30.124            42.658              Murmansk2          1333.062
       219   02 Jun 2027 13:29:34.286   02 Jun 2027 13:32:11.883           157.597                  Delhi          4924.906
       220   02 Jun 2027 13:35:27.333   02 Jun 2027 13:36:22.843            55.510                 Moscow          1734.687
       221   02 Jun 2027 13:37:08.138   02 Jun 2027 13:38:31.859            83.721              Murmansk1          2616.281
       222   02 Jun 2027 13:38:43.531   02 Jun 2027 13:39:09.819            26.288                Novosib           821.500
       223   02 Jun 2027 13:39:50.266   02 Jun 2027 13:40:03.129            12.863                Norilsk           401.969
       224   02 Jun 2027 13:40:27.903   02 Jun 2027 13:40:31.481             3.578                Novosib           111.812
       225   02 Jun 2027 13:42:23.341   02 Jun 2027 13:43:32.820            69.479                Norilsk          2171.219
       226   02 Jun 2027 13:45:21.739   02 Jun 2027 13:45:41.966            20.227                Norilsk           632.094
       227   02 Jun 2027 14:47:54.014   02 Jun 2027 14:48:18.893            24.879               CapeTown           777.469
       228   02 Jun 2027 14:49:17.916   02 Jun 2027 14:50:39.761            81.845               CapeTown          2557.656
       229   02 Jun 2027 14:51:31.922   02 Jun 2027 14:51:46.709            14.787               CapeTown           462.094
       230   02 Jun 2027 14:52:30.059   02 Jun 2027 14:52:53.965            23.906               CapeTown           747.063
       231   02 Jun 2027 14:54:03.383   02 Jun 2027 14:55:08.867            65.484               CapeTown          2046.375
       232   02 Jun 2027 15:12:52.252   02 Jun 2027 15:13:04.961            12.709              Murmansk2           397.156
       233   02 Jun 2027 15:13:04.961   02 Jun 2027 15:13:33.783            28.822              Murmansk1           900.687
       234   02 Jun 2027 15:16:41.426   02 Jun 2027 15:17:22.900            41.474              Murmansk1          1296.062
       235   02 Jun 2027 15:19:31.712   02 Jun 2027 15:21:12.993           101.281              Murmansk2          3165.031
       236   02 Jun 2027 15:27:20.289   02 Jun 2027 15:27:35.557            15.268                Anadyr2           477.125
       237   02 Jun 2027 15:28:26.172   02 Jun 2027 15:28:58.987            32.815                Anadyr1          1025.469
       238   02 Jun 2027 15:30:19.559   02 Jun 2027 15:30:41.663            22.104                Anadyr1           690.750
       239   02 Jun 2027 15:31:53.063   02 Jun 2027 15:32:08.788            15.725                Anadyr1           491.406
       240   02 Jun 2027 15:34:25.796   02 Jun 2027 15:34:39.095            13.299                Anadyr1           415.594
       241   02 Jun 2027 15:35:43.711   02 Jun 2027 15:35:48.115             4.404                Anadyr2           137.625
       242   02 Jun 2027 15:35:56.630   02 Jun 2027 15:35:56.699             0.069                Anadyr2             2.156
       243   02 Jun 2027 16:30:07.085   02 Jun 2027 16:30:36.176            29.091               CapeTown           909.094
       244   02 Jun 2027 16:31:43.313   02 Jun 2027 16:32:08.340            25.027               CapeTown           782.094
       245   02 Jun 2027 16:51:48.011   02 Jun 2027 16:53:38.214           110.203              Murmansk1          3443.844
       246   02 Jun 2027 16:54:54.561   02 Jun 2027 16:55:30.666            36.105              Murmansk1          1128.281
       247   02 Jun 2027 16:58:24.005   02 Jun 2027 16:59:15.488            51.483              Murmansk1          1608.844
       248   02 Jun 2027 17:02:44.421   02 Jun 2027 17:03:47.462            63.041                Anadyr2          1970.031
       249   02 Jun 2027 17:06:27.005   02 Jun 2027 17:06:33.136             6.131                Anadyr1           191.594
       250   02 Jun 2027 17:06:38.624   02 Jun 2027 17:08:30.135           111.511               Magadan2          3484.719
       251   02 Jun 2027 17:08:59.158   02 Jun 2027 17:09:10.593            11.435               Magadan2           357.344
       252   02 Jun 2027 17:09:25.691   02 Jun 2027 17:09:30.021             4.330               Magadan1           135.313
       253   02 Jun 2027 18:38:38.056   02 Jun 2027 18:40:44.709           126.653                Anadyr2          3957.906
       254   02 Jun 2027 18:40:58.281   02 Jun 2027 18:42:28.578            90.297                Anadyr1          2821.781
       255   02 Jun 2027 18:42:32.063   02 Jun 2027 18:44:27.464           115.401               Magadan1          3606.281
       256   02 Jun 2027 18:44:27.464   02 Jun 2027 18:44:54.035            26.571               Magadan2           830.344
       257   02 Jun 2027 18:45:35.985   02 Jun 2027 18:46:22.013            46.028               Magadan2          1438.375
       258   02 Jun 2027 20:14:31.065   02 Jun 2027 20:16:36.565           125.500                Anadyr2          3921.875
       259   02 Jun 2027 20:16:40.454   02 Jun 2027 20:18:17.072            96.618                Anadyr1          3019.312
       260   02 Jun 2027 20:18:33.337   02 Jun 2027 20:20:27.071           113.734               Magadan2          3554.188
       261   02 Jun 2027 20:20:27.071   02 Jun 2027 20:20:56.068            28.997               Magadan1           906.156
       262   02 Jun 2027 20:21:18.599   02 Jun 2027 20:21:45.098            26.499               Magadan1           828.094
       263   02 Jun 2027 20:22:54.287   02 Jun 2027 20:24:06.176            71.889                Irkutsk          2246.531
       264   02 Jun 2027 20:24:53.473   02 Jun 2027 20:25:20.691            27.218                Irkutsk           850.563
       265   02 Jun 2027 20:26:12.083   02 Jun 2027 20:26:36.567            24.484                Irkutsk           765.125
       266   02 Jun 2027 21:08:44.246   02 Jun 2027 21:09:47.688            63.442            RioGallegos          1982.563
       267   02 Jun 2027 21:14:37.876   02 Jun 2027 21:14:49.810            11.934            RioGallegos           372.938
       268   02 Jun 2027 21:17:11.095   02 Jun 2027 21:17:32.232            21.137            RioGallegos           660.531
       269   02 Jun 2027 21:18:13.412   02 Jun 2027 21:18:32.571            19.159            RioGallegos           598.719
       270   02 Jun 2027 21:50:00.748   02 Jun 2027 21:50:52.555            51.807                Anadyr2          1618.969
       271   02 Jun 2027 21:52:14.089   02 Jun 2027 21:52:21.670             7.581                Anadyr1           236.906
       272   02 Jun 2027 21:52:22.437   02 Jun 2027 21:54:29.284           126.847                Norilsk          3963.969
       273   02 Jun 2027 21:54:32.956   02 Jun 2027 21:55:10.600            37.644               Magadan1          1176.375
       274   02 Jun 2027 21:56:25.326   02 Jun 2027 21:57:21.689            56.363                Irkutsk          1761.344
       275   02 Jun 2027 21:57:40.825   02 Jun 2027 21:58:10.546            29.721                Novosib           928.781
       276   02 Jun 2027 21:58:43.738   02 Jun 2027 22:00:21.746            98.008                Novosib          3062.750
       277   02 Jun 2027 22:10:44.928   02 Jun 2027 22:11:26.829            41.901                Sumatra          1309.406
       278   02 Jun 2027 22:20:00.253   02 Jun 2027 22:20:12.644            12.391                Sumatra           387.219
       279   02 Jun 2027 23:24:30.911   02 Jun 2027 23:26:32.396           121.485                Anadyr2          3796.406
       280   02 Jun 2027 23:26:47.328   02 Jun 2027 23:27:36.636            49.308                Anadyr1          1540.875
       281   02 Jun 2027 23:28:21.229   02 Jun 2027 23:29:09.069            47.840                Norilsk          1495.000
       282   02 Jun 2027 23:29:10.179   02 Jun 2027 23:29:50.171            39.992               Magadan2          1249.750
       283   02 Jun 2027 23:29:50.171   02 Jun 2027 23:30:24.466            34.295               Magadan1          1071.719
       284   02 Jun 2027 23:32:15.007   02 Jun 2027 23:32:54.843            39.836                Novosib          1244.875
       285   02 Jun 2027 23:33:08.714   02 Jun 2027 23:33:37.679            28.965                Novosib           905.156
       286   02 Jun 2027 23:35:16.568   02 Jun 2027 23:35:35.866            19.298                Novosib           603.062
       287   02 Jun 2027 23:39:46.386   02 Jun 2027 23:42:01.643           135.257                  Delhi          4226.781
       288   02 Jun 2027 23:51:51.782   02 Jun 2027 23:52:06.169            14.387                  Delhi           449.594
       289   03 Jun 2027 00:25:16.679   03 Jun 2027 00:26:02.963            46.284            RioGallegos          1446.375
       290   03 Jun 2027 00:57:55.476   03 Jun 2027 00:59:12.238            76.762                Anadyr1          2398.813
       291   03 Jun 2027 01:00:23.549   03 Jun 2027 01:00:42.224            18.675                Anadyr1           583.594
       292   03 Jun 2027 01:00:52.097   03 Jun 2027 01:00:56.383             4.286                Anadyr1           133.938
       293   03 Jun 2027 01:03:38.499   03 Jun 2027 01:04:10.961            32.462                Anadyr1          1014.438
       294   03 Jun 2027 01:04:19.355   03 Jun 2027 01:04:38.257            18.902                Norilsk           590.687
       295   03 Jun 2027 01:04:55.459   03 Jun 2027 01:06:51.374           115.915               Magadan2          3622.344
       296   03 Jun 2027 01:07:15.615   03 Jun 2027 01:08:40.755            85.140              Murmansk1          2660.625
       297   03 Jun 2027 01:09:48.524   03 Jun 2027 01:10:16.524            28.000              Murmansk1           875.000
       298   03 Jun 2027 01:10:49.930   03 Jun 2027 01:11:00.454            10.524                Novosib           328.875
       299   03 Jun 2027 01:13:52.458   03 Jun 2027 01:14:10.072            17.614                 Moscow           550.437
       300   03 Jun 2027 01:14:47.619   03 Jun 2027 01:14:56.161             8.542                 Moscow           266.937
       301   03 Jun 2027 01:17:26.896   03 Jun 2027 01:17:29.650             2.754                  Delhi            86.063
       302   03 Jun 2027 01:17:41.977   03 Jun 2027 01:19:36.621           114.644                  Delhi          3582.625
       303   03 Jun 2027 02:31:28.100   03 Jun 2027 02:32:34.097            65.997                Anadyr2          2062.406
       304   03 Jun 2027 02:32:34.124   03 Jun 2027 02:33:32.708            58.584                Anadyr1          1830.750
       305   03 Jun 2027 02:34:04.527   03 Jun 2027 02:34:30.303            25.776                Anadyr1           805.500
       306   03 Jun 2027 02:36:06.172   03 Jun 2027 02:36:58.516            52.344               Magadan2          1635.750
       307   03 Jun 2027 02:38:58.321   03 Jun 2027 02:39:17.638            19.317               Magadan1           603.656
       308   03 Jun 2027 02:39:55.356   03 Jun 2027 02:40:55.401            60.045               Magadan2          1876.406
       309   03 Jun 2027 02:42:27.602   03 Jun 2027 02:43:17.727            50.125              Murmansk1          1566.406
       310   03 Jun 2027 02:44:39.618   03 Jun 2027 02:44:51.245            11.627                Novosib           363.344
       311   03 Jun 2027 02:45:09.560   03 Jun 2027 02:46:19.732            70.172                Novosib          2192.875
       312   03 Jun 2027 02:57:22.634   03 Jun 2027 02:57:31.061             8.427                 Moscow           263.344
       313   03 Jun 2027 03:10:50.403   03 Jun 2027 03:11:18.297            27.894               CapeTown           871.687
       314   03 Jun 2027 04:13:29.631   03 Jun 2027 04:14:47.049            77.418                Anadyr2          2419.313
       315   03 Jun 2027 04:14:55.342   03 Jun 2027 04:15:34.233            38.891               Magadan1          1215.344
       316   03 Jun 2027 04:15:45.968   03 Jun 2027 04:15:53.883             7.915                Anadyr1           247.344
       317   03 Jun 2027 05:49:17.359   03 Jun 2027 05:49:43.990            26.631                Anadyr2           832.219
       318   03 Jun 2027 05:49:43.990   03 Jun 2027 05:50:40.328            56.338                Anadyr1          1760.562
       319   03 Jun 2027 05:50:56.473   03 Jun 2027 05:54:51.657           235.184               Magadan1          7349.500
       320   03 Jun 2027 07:22:27.800   03 Jun 2027 07:23:21.972            54.172               Magadan1          1692.875
       321   03 Jun 2027 07:23:48.321   03 Jun 2027 07:23:56.855             8.534               Magadan1           266.687
       322   03 Jun 2027 07:23:57.909   03 Jun 2027 07:24:31.913            34.004                Anadyr2          1062.625
       323   03 Jun 2027 07:24:48.447   03 Jun 2027 07:25:20.401            31.954               Magadan1           998.562
       324   03 Jun 2027 07:25:20.401   03 Jun 2027 07:25:46.587            26.186               Magadan2           818.313
       325   03 Jun 2027 07:26:10.321   03 Jun 2027 07:26:53.583            43.262                Anadyr2          1351.938
       326   03 Jun 2027 07:26:58.304   03 Jun 2027 07:27:17.264            18.960               Magadan2           592.500
       327   03 Jun 2027 07:27:35.530   03 Jun 2027 07:27:41.640             6.110                Anadyr2           190.938
       328   03 Jun 2027 07:27:45.968   03 Jun 2027 07:28:43.114            57.146                Anadyr1          1785.812
       329   03 Jun 2027 07:28:49.019   03 Jun 2027 07:28:54.337             5.318                Novosib           166.188
       330   03 Jun 2027 07:28:56.924   03 Jun 2027 07:29:16.056            19.132                Norilsk           597.875
       331   03 Jun 2027 07:29:17.219   03 Jun 2027 07:30:07.633            50.414                Anadyr2          1575.437
       332   03 Jun 2027 07:30:38.192   03 Jun 2027 07:30:43.829             5.637              Murmansk1           176.156
       333   03 Jun 2027 07:31:44.111   03 Jun 2027 07:32:01.061            16.950              Murmansk1           529.687
       334   03 Jun 2027 07:33:57.529   03 Jun 2027 07:34:06.483             8.954              Murmansk1           279.812
       335   03 Jun 2027 08:06:00.691   03 Jun 2027 08:07:17.790            77.099            RioGallegos          2409.344
       336   03 Jun 2027 08:45:25.070   03 Jun 2027 08:45:50.082            25.012                Sumatra           781.625
       337   03 Jun 2027 08:59:27.396   03 Jun 2027 09:00:01.301            33.905               Magadan2          1059.531
       338   03 Jun 2027 09:00:05.278   03 Jun 2027 09:00:27.721            22.443                Norilsk           701.344
       339   03 Jun 2027 09:00:49.463   03 Jun 2027 09:01:02.020            12.557                Irkutsk           392.406
       340   03 Jun 2027 09:01:04.710   03 Jun 2027 09:01:29.877            25.167                Novosib           786.469
       341   03 Jun 2027 09:01:43.335   03 Jun 2027 09:03:26.960           103.625                Novosib          3238.281
       342   03 Jun 2027 09:03:40.706   03 Jun 2027 09:03:46.982             6.276                Novosib           196.125
       343   03 Jun 2027 09:03:54.651   03 Jun 2027 09:04:45.352            50.701                Novosib          1584.406
       344   03 Jun 2027 09:04:48.232   03 Jun 2027 09:05:06.300            18.068               Magadan2           564.625
       345   03 Jun 2027 09:05:06.300   03 Jun 2027 09:05:16.251             9.951               Magadan1           310.969
       346   03 Jun 2027 09:05:18.691   03 Jun 2027 09:06:08.270            49.579              Murmansk2          1549.344
       347   03 Jun 2027 09:06:12.081   03 Jun 2027 09:06:20.448             8.367                Irkutsk           261.469
       348   03 Jun 2027 09:06:22.384   03 Jun 2027 09:06:32.671            10.287                Irkutsk           321.469
       349   03 Jun 2027 09:07:07.306   03 Jun 2027 09:07:47.364            40.058                Norilsk          1251.813
       350   03 Jun 2027 09:41:21.991   03 Jun 2027 09:42:40.786            78.795            RioGallegos          2462.344
       351   03 Jun 2027 10:16:05.225   03 Jun 2027 10:16:54.475            49.250                Sumatra          1539.063
       352   03 Jun 2027 10:22:49.407   03 Jun 2027 10:24:54.132           124.725                Sumatra          3897.656
       353   03 Jun 2027 10:36:08.551   03 Jun 2027 10:36:10.931             2.380                  Delhi            74.375
       354   03 Jun 2027 10:36:25.440   03 Jun 2027 10:37:10.725            45.285                Novosib          1415.156
       355   03 Jun 2027 10:37:31.328   03 Jun 2027 10:38:38.087            66.759                Irkutsk          2086.219
       356   03 Jun 2027 10:38:44.226   03 Jun 2027 10:38:47.004             2.778                Norilsk            86.812
       357   03 Jun 2027 10:38:47.282   03 Jun 2027 10:39:04.035            16.753              Murmansk2           523.531
       358   03 Jun 2027 10:39:10.560   03 Jun 2027 10:39:46.514            35.954                Novosib          1123.562
       359   03 Jun 2027 10:39:54.461   03 Jun 2027 10:40:05.234            10.773                Norilsk           336.656
       360   03 Jun 2027 10:40:06.666   03 Jun 2027 10:40:37.562            30.896                Irkutsk           965.500
       361   03 Jun 2027 10:40:42.961   03 Jun 2027 10:41:15.724            32.763                Norilsk          1023.844
       362   03 Jun 2027 10:41:19.147   03 Jun 2027 10:41:56.976            37.829                Irkutsk          1182.156
       363   03 Jun 2027 10:42:02.121   03 Jun 2027 10:42:26.762            24.641                Norilsk           770.031
       364   03 Jun 2027 10:42:37.144   03 Jun 2027 10:42:46.497             9.353              Murmansk1           292.281
       365   03 Jun 2027 10:44:05.552   03 Jun 2027 10:44:43.292            37.740              Murmansk1          1179.375
       366   03 Jun 2027 11:21:17.306   03 Jun 2027 11:21:28.211            10.905            RioGallegos           340.781
       367   03 Jun 2027 11:21:59.694   03 Jun 2027 11:22:37.473            37.779            RioGallegos          1180.594
       368   03 Jun 2027 12:00:31.991   03 Jun 2027 12:01:07.847            35.856                  Delhi          1120.500
       369   03 Jun 2027 12:02:29.226   03 Jun 2027 12:03:25.290            56.064                  Delhi          1752.000
       370   03 Jun 2027 12:08:07.382   03 Jun 2027 12:08:35.522            28.140                Novosib           879.375
       371   03 Jun 2027 12:09:15.246   03 Jun 2027 12:10:07.581            52.335                Novosib          1635.469
       372   03 Jun 2027 12:12:10.795   03 Jun 2027 12:13:11.137            60.342                Norilsk          1885.688
       373   03 Jun 2027 12:17:41.075   03 Jun 2027 12:17:48.301             7.226              Murmansk1           225.812
       374   03 Jun 2027 12:18:10.088   03 Jun 2027 12:18:28.951            18.863              Murmansk2           589.469
       375   03 Jun 2027 12:19:58.327   03 Jun 2027 12:20:27.634            29.307                Norilsk           915.844
       376   03 Jun 2027 13:44:41.760   03 Jun 2027 13:48:34.728           232.968                 Moscow          7280.250
       377   03 Jun 2027 13:48:55.402   03 Jun 2027 13:50:16.297            80.895              Murmansk2          2527.969
       378   03 Jun 2027 13:50:27.084   03 Jun 2027 13:50:42.586            15.502              Murmansk1           484.437
       379   03 Jun 2027 13:51:20.653   03 Jun 2027 13:51:59.508            38.855              Murmansk2          1214.219
       380   03 Jun 2027 13:53:09.705   03 Jun 2027 13:53:58.897            49.192                Norilsk          1537.250
       381   03 Jun 2027 13:55:32.101   03 Jun 2027 13:55:52.487            20.386                Norilsk           637.063
       382   03 Jun 2027 14:59:23.205   03 Jun 2027 15:02:25.944           182.739               CapeTown          5710.594
       383   03 Jun 2027 15:05:39.952   03 Jun 2027 15:06:09.010            29.058               CapeTown           908.062
       384   03 Jun 2027 15:21:57.515   03 Jun 2027 15:22:13.426            15.911                 Moscow           497.219
       385   03 Jun 2027 15:25:08.360   03 Jun 2027 15:25:34.258            25.898              Murmansk1           809.312
       386   03 Jun 2027 15:25:34.258   03 Jun 2027 15:25:44.467            10.209              Murmansk2           319.031
       387   03 Jun 2027 15:26:42.780   03 Jun 2027 15:27:26.929            44.149              Murmansk1          1379.656
       388   03 Jun 2027 15:33:20.338   03 Jun 2027 15:33:35.060            14.722              Murmansk1           460.062
       389   03 Jun 2027 15:36:55.684   03 Jun 2027 15:37:02.547             6.863              Murmansk1           214.469
       390   03 Jun 2027 15:39:13.517   03 Jun 2027 15:40:58.959           105.442                Anadyr1          3295.062
       391   03 Jun 2027 15:41:50.385   03 Jun 2027 15:42:08.943            18.558                Anadyr1           579.938
       392   03 Jun 2027 15:42:49.564   03 Jun 2027 15:43:11.741            22.177                Anadyr2           693.031
       393   03 Jun 2027 15:43:30.658   03 Jun 2027 15:43:40.329             9.671                Anadyr2           302.219
       394   03 Jun 2027 15:43:51.351   03 Jun 2027 15:43:54.406             3.055                Anadyr2            95.469
       395   03 Jun 2027 15:47:39.375   03 Jun 2027 15:47:47.741             8.366                Anadyr2           261.438
       396   03 Jun 2027 15:48:07.034   03 Jun 2027 15:48:18.808            11.774                Anadyr1           367.938
       397   03 Jun 2027 15:48:18.808   03 Jun 2027 15:48:34.284            15.476                Anadyr2           483.625
       398   03 Jun 2027 16:40:27.664   03 Jun 2027 16:42:24.639           116.975               CapeTown          3655.469
       399   03 Jun 2027 17:04:24.075   03 Jun 2027 17:05:24.579            60.504              Murmansk2          1890.750
       400   03 Jun 2027 17:07:32.510   03 Jun 2027 17:07:58.489            25.979              Murmansk1           811.844
       401   03 Jun 2027 17:09:06.172   03 Jun 2027 17:09:32.815            26.643              Murmansk2           832.594
       402   03 Jun 2027 17:14:44.915   03 Jun 2027 17:15:52.067            67.152                Anadyr1          2098.500
       403   03 Jun 2027 17:18:14.399   03 Jun 2027 17:19:54.942           100.543               Magadan1          3141.969
       404   03 Jun 2027 17:21:12.830   03 Jun 2027 17:21:29.349            16.519               Magadan2           516.219
       405   03 Jun 2027 17:23:50.815   03 Jun 2027 17:25:22.672            91.857               Magadan2          2870.531
       406   03 Jun 2027 18:50:39.575   03 Jun 2027 18:52:44.983           125.408                Anadyr2          3919.000
       407   03 Jun 2027 18:52:51.393   03 Jun 2027 18:53:39.038            47.645                Anadyr1          1488.906
       408   03 Jun 2027 18:53:55.086   03 Jun 2027 18:54:49.412            54.326                Anadyr1          1697.687
       409   03 Jun 2027 18:55:36.660   03 Jun 2027 18:55:42.509             5.849               Magadan1           182.781
       410   03 Jun 2027 18:56:15.238   03 Jun 2027 18:56:25.834            10.596               Magadan2           331.125
       411   03 Jun 2027 18:57:15.448   03 Jun 2027 18:57:38.051            22.603               Magadan1           706.344
       412   03 Jun 2027 18:58:10.614   03 Jun 2027 18:59:09.198            58.584               Magadan1          1830.750
       413   03 Jun 2027 20:26:31.107   03 Jun 2027 20:30:16.055           224.948                Anadyr2          7029.625
       414   03 Jun 2027 20:30:27.525   03 Jun 2027 20:30:55.188            27.663                Norilsk           864.469
       415   03 Jun 2027 20:31:02.633   03 Jun 2027 20:32:03.017            60.384               Magadan1          1887.000
       416   03 Jun 2027 20:32:37.845   03 Jun 2027 20:33:11.291            33.446               Magadan1          1045.187
       417   03 Jun 2027 20:34:11.032   03 Jun 2027 20:34:39.971            28.939                Irkutsk           904.344
       418   03 Jun 2027 20:34:42.076   03 Jun 2027 20:35:34.069            51.993                Norilsk          1624.781
       419   03 Jun 2027 20:36:27.478   03 Jun 2027 20:37:03.847            36.369                Irkutsk          1136.531
       420   03 Jun 2027 20:38:35.690   03 Jun 2027 20:40:09.352            93.662                Irkutsk          2926.937
       421   03 Jun 2027 20:50:14.609   03 Jun 2027 20:51:29.948            75.339                Sumatra          2354.344
       422   03 Jun 2027 20:55:16.995   03 Jun 2027 20:55:41.321            24.326                Sumatra           760.187
       423   03 Jun 2027 22:02:12.531   03 Jun 2027 22:02:29.787            17.256                Anadyr2           539.250
       424   03 Jun 2027 22:03:09.453   03 Jun 2027 22:04:19.810            70.357                Anadyr2          2198.656
       425   03 Jun 2027 22:04:23.711   03 Jun 2027 22:04:45.170            21.459                Norilsk           670.594
       426   03 Jun 2027 22:04:57.683   03 Jun 2027 22:05:24.317            26.634               Magadan1           832.312
       427   03 Jun 2027 22:05:51.637   03 Jun 2027 22:06:02.367            10.730               Magadan1           335.312
       428   03 Jun 2027 22:06:28.512   03 Jun 2027 22:06:35.695             7.183               Magadan2           224.469
       429   03 Jun 2027 22:08:22.533   03 Jun 2027 22:09:43.039            80.506                Irkutsk          2515.813
       430   03 Jun 2027 22:10:28.238   03 Jun 2027 22:12:08.360           100.122                Novosib          3128.813
       431   03 Jun 2027 22:22:05.640   03 Jun 2027 22:22:27.977            22.337                Sumatra           698.031
       432   03 Jun 2027 23:00:41.332   03 Jun 2027 23:00:44.830             3.498            RioGallegos           109.313
       433   03 Jun 2027 23:05:57.463   03 Jun 2027 23:06:43.406            45.943            RioGallegos          1435.719
       434   03 Jun 2027 23:36:16.026   03 Jun 2027 23:38:07.824           111.798                Anadyr2          3493.688
       435   03 Jun 2027 23:40:59.980   03 Jun 2027 23:42:32.331            92.351               Magadan1          2885.969
       436   03 Jun 2027 23:42:40.731   03 Jun 2027 23:42:50.520             9.789               Magadan1           305.906
       437   03 Jun 2027 23:43:52.409   03 Jun 2027 23:46:57.653           185.244              Murmansk2          5788.875
       438   03 Jun 2027 23:51:38.656   03 Jun 2027 23:54:21.328           162.672                  Delhi          5083.500
       439   04 Jun 2027 01:09:36.669   04 Jun 2027 01:10:01.219            24.550                Anadyr2           767.187
       440   04 Jun 2027 01:10:30.990   04 Jun 2027 01:11:23.498            52.508                Anadyr2          1640.875
       441   04 Jun 2027 01:11:35.063   04 Jun 2027 01:11:59.882            24.819                Anadyr1           775.594
       442   04 Jun 2027 01:15:25.853   04 Jun 2027 01:15:26.342             0.489                Anadyr1            15.281
       443   04 Jun 2027 01:15:46.860   04 Jun 2027 01:18:08.258           141.398               Magadan1          4418.688
       444   04 Jun 2027 01:18:36.379   04 Jun 2027 01:19:24.102            47.723              Murmansk1          1491.344
       445   04 Jun 2027 01:20:13.615   04 Jun 2027 01:21:42.190            88.575                Novosib          2767.969
       446   04 Jun 2027 01:23:44.854   04 Jun 2027 01:23:59.206            14.352                 Moscow           448.500
       447   04 Jun 2027 01:26:11.453   04 Jun 2027 01:26:19.232             7.779                Irkutsk           243.094
       448   04 Jun 2027 01:28:32.742   04 Jun 2027 01:28:54.718            21.976                  Delhi           686.750
       449   04 Jun 2027 01:31:50.823   04 Jun 2027 01:32:03.989            13.166                 Moscow           411.437
       450   04 Jun 2027 01:34:40.869   04 Jun 2027 01:34:45.679             4.810                  Delhi           150.313
       451   04 Jun 2027 01:35:21.144   04 Jun 2027 01:35:33.094            11.950                  Delhi           373.437
       452   04 Jun 2027 01:49:50.088   04 Jun 2027 01:50:57.073            66.985               CapeTown          2093.281
       453   04 Jun 2027 01:56:17.298   04 Jun 2027 01:56:24.604             7.306               CapeTown           228.312
       454   04 Jun 2027 02:43:16.063   04 Jun 2027 02:43:30.573            14.510                Anadyr2           453.438
       455   04 Jun 2027 02:43:42.902   04 Jun 2027 02:45:31.511           108.609                Anadyr1          3394.031
       456   04 Jun 2027 02:47:34.590   04 Jun 2027 02:48:38.395            63.805               Magadan1          1993.906
       457   04 Jun 2027 02:48:52.857   04 Jun 2027 02:49:00.570             7.713               Magadan1           241.031
       458   04 Jun 2027 02:50:04.771   04 Jun 2027 02:50:32.115            27.344               Magadan1           854.500
       459   04 Jun 2027 02:52:12.673   04 Jun 2027 02:52:40.308            27.635                Norilsk           863.594
       460   04 Jun 2027 02:54:29.378   04 Jun 2027 02:54:59.503            30.125              Murmansk2           941.406
       461   04 Jun 2027 02:55:58.539   04 Jun 2027 02:56:31.221            32.682              Murmansk2          1021.312
       462   04 Jun 2027 02:56:48.801   04 Jun 2027 02:57:38.109            49.308                Novosib          1540.875
       463   04 Jun 2027 02:59:14.525   04 Jun 2027 02:59:29.497            14.972                Novosib           467.875
       464   04 Jun 2027 03:00:53.601   04 Jun 2027 03:01:30.914            37.313              Murmansk1          1166.031
       465   04 Jun 2027 03:01:33.350   04 Jun 2027 03:02:07.685            34.335                 Moscow          1072.969
       466   04 Jun 2027 03:02:51.771   04 Jun 2027 03:03:49.120            57.349                Novosib          1792.156
       467   04 Jun 2027 03:04:01.691   04 Jun 2027 03:04:05.268             3.577              Murmansk1           111.781
       468   04 Jun 2027 03:04:24.876   04 Jun 2027 03:04:32.967             8.091                Novosib           252.844
       469   04 Jun 2027 03:04:52.024   04 Jun 2027 03:07:19.044           147.020                 Moscow          4594.375
       470   04 Jun 2027 03:21:39.669   04 Jun 2027 03:24:46.966           187.297               CapeTown          5853.031
       471   04 Jun 2027 04:18:19.804   04 Jun 2027 04:19:49.102            89.298                Anadyr1          2790.563
       472   04 Jun 2027 04:19:49.102   04 Jun 2027 04:20:07.302            18.200                Anadyr2           568.750
       473   04 Jun 2027 04:20:08.058   04 Jun 2027 04:20:20.736            12.678               Magadan1           396.188
       474   04 Jun 2027 04:25:06.770   04 Jun 2027 04:26:13.753            66.983               Magadan1          2093.219
       475   04 Jun 2027 04:26:21.592   04 Jun 2027 04:27:28.631            67.039                Anadyr2          2094.969
       476   04 Jun 2027 04:27:35.686   04 Jun 2027 04:28:32.713            57.027               Magadan2          1782.094
       477   04 Jun 2027 06:00:38.487   04 Jun 2027 06:04:15.924           217.437                Anadyr1          6794.906
       478   04 Jun 2027 07:33:34.855   04 Jun 2027 07:34:06.840            31.985               Magadan1           999.531
       479   04 Jun 2027 07:34:12.417   04 Jun 2027 07:35:15.958            63.541               Magadan2          1985.656
       480   04 Jun 2027 07:35:28.976   04 Jun 2027 07:36:09.113            40.137               Magadan1          1254.281
       481   04 Jun 2027 07:36:16.065   04 Jun 2027 07:36:25.788             9.723                Norilsk           303.844
       482   04 Jun 2027 07:36:40.934   04 Jun 2027 07:37:22.686            41.752               Magadan1          1304.750
