uniorb/output/strategy_2/Drop/Drop_KinoSat_111005.txt

KinoSat_111005
-------------------------
    Access    *     Start Time (UTCG)     *     Stop Time (UTCG)  *   Duration (s)        *       Station  *  Data (Mbytes)
         1   01 Jun 2027 03:27:38.878   01 Jun 2027 03:29:11.646            92.768               Magadan1          2899.000
         2   01 Jun 2027 03:30:23.975   01 Jun 2027 03:30:37.733            13.758               Magadan2           429.937
         3   01 Jun 2027 03:32:38.405   01 Jun 2027 03:33:07.107            28.702               Magadan1           896.937
         4   01 Jun 2027 05:05:24.301   01 Jun 2027 05:06:09.064            44.763                Anadyr2          1398.844
         5   01 Jun 2027 05:06:09.592   01 Jun 2027 05:06:29.265            19.673                Anadyr2           614.781
         6   01 Jun 2027 05:06:49.194   01 Jun 2027 05:07:43.445            54.251               Magadan2          1695.344
         7   01 Jun 2027 05:08:09.029   01 Jun 2027 05:09:28.711            79.682                Anadyr1          2490.063
         8   01 Jun 2027 06:38:29.649   01 Jun 2027 06:38:39.761            10.112                Anadyr2           316.000
         9   01 Jun 2027 06:38:50.141   01 Jun 2027 06:39:47.840            57.699               Magadan2          1803.094
        10   01 Jun 2027 06:39:57.139   01 Jun 2027 06:42:02.040           124.901               Magadan1          3903.156
        11   01 Jun 2027 06:42:02.040   01 Jun 2027 06:43:22.453            80.413               Magadan2          2512.906
        12   01 Jun 2027 06:43:27.601   01 Jun 2027 06:45:00.546            92.945                Anadyr1          2904.531
        13   01 Jun 2027 06:45:02.475   01 Jun 2027 06:45:16.003            13.528                Novosib           422.750
        14   01 Jun 2027 08:16:51.127   01 Jun 2027 08:19:51.125           179.998               Magadan2          5624.938
        15   01 Jun 2027 08:19:54.138   01 Jun 2027 08:20:29.942            35.804                Irkutsk          1118.875
        16   01 Jun 2027 08:20:58.491   01 Jun 2027 08:21:29.123            30.632                Irkutsk           957.250
        17   01 Jun 2027 08:22:10.137   01 Jun 2027 08:22:46.120            35.983                Novosib          1124.469
        18   01 Jun 2027 08:22:50.702   01 Jun 2027 08:23:05.457            14.755                Norilsk           461.094
        19   01 Jun 2027 08:24:33.005   01 Jun 2027 08:24:56.867            23.862              Murmansk1           745.687
        20   01 Jun 2027 08:26:08.464   01 Jun 2027 08:26:14.319             5.855              Murmansk1           182.969
        21   01 Jun 2027 08:26:30.292   01 Jun 2027 08:27:22.248            51.956              Murmansk1          1623.625
        22   01 Jun 2027 08:56:24.272   01 Jun 2027 08:57:39.883            75.611            RioGallegos          2362.844
        23   01 Jun 2027 08:59:09.139   01 Jun 2027 08:59:17.500             8.361            RioGallegos           261.281
        24   01 Jun 2027 09:00:15.980   01 Jun 2027 09:00:38.330            22.350            RioGallegos           698.438
        25   01 Jun 2027 09:31:00.491   01 Jun 2027 09:31:18.572            18.081                Sumatra           565.031
        26   01 Jun 2027 09:31:57.951   01 Jun 2027 09:33:36.856            98.905                Sumatra          3090.781
        27   01 Jun 2027 09:45:02.364   01 Jun 2027 09:46:05.117            62.753                  Delhi          1961.031
        28   01 Jun 2027 09:50:56.502   01 Jun 2027 09:51:21.082            24.580                  Delhi           768.125
        29   01 Jun 2027 09:53:24.538   01 Jun 2027 09:54:45.637            81.099                Irkutsk          2534.344
        30   01 Jun 2027 09:55:02.208   01 Jun 2027 09:55:31.496            29.288                Novosib           915.250
        31   01 Jun 2027 09:55:34.669   01 Jun 2027 09:56:49.520            74.851                Novosib          2339.094
        32   01 Jun 2027 09:57:06.209   01 Jun 2027 09:59:18.981           132.772                Norilsk          4149.125
        33   01 Jun 2027 09:59:37.868   01 Jun 2027 09:59:57.985            20.117              Murmansk1           628.656
        34   01 Jun 2027 10:00:40.523   01 Jun 2027 10:01:30.343            49.820              Murmansk2          1556.875
        35   01 Jun 2027 10:37:02.835   01 Jun 2027 10:39:05.020           122.185            RioGallegos          3818.281
        36   01 Jun 2027 10:39:52.365   01 Jun 2027 10:40:32.522            40.157            RioGallegos          1254.906
        37   01 Jun 2027 11:15:23.407   01 Jun 2027 11:16:17.539            54.132                  Delhi          1691.625
        38   01 Jun 2027 11:18:16.285   01 Jun 2027 11:19:14.288            58.003                  Delhi          1812.594
        39   01 Jun 2027 11:20:08.808   01 Jun 2027 11:20:18.304             9.496                  Delhi           296.750
        40   01 Jun 2027 11:30:09.102   01 Jun 2027 11:31:49.339           100.237              Murmansk2          3132.406
        41   01 Jun 2027 11:31:49.339   01 Jun 2027 11:33:07.796            78.457              Murmansk1          2451.781
        42   01 Jun 2027 12:59:36.064   01 Jun 2027 13:01:15.864            99.800                 Moscow          3118.750
        43   01 Jun 2027 13:03:03.995   01 Jun 2027 13:04:57.983           113.988              Murmansk2          3562.125
        44   01 Jun 2027 13:05:20.079   01 Jun 2027 13:06:53.562            93.483              Murmansk1          2921.344
        45   01 Jun 2027 13:11:06.808   01 Jun 2027 13:11:53.121            46.313                Norilsk          1447.281
        46   01 Jun 2027 14:14:02.631   01 Jun 2027 14:17:20.593           197.962               CapeTown          6186.313
        47   01 Jun 2027 14:18:49.845   01 Jun 2027 14:20:36.746           106.901               CapeTown          3340.656
        48   01 Jun 2027 14:40:14.618   01 Jun 2027 14:42:22.099           127.481              Murmansk2          3983.781
        49   01 Jun 2027 14:54:05.063   01 Jun 2027 14:57:47.106           222.043                Anadyr1          6938.844
        50   01 Jun 2027 16:19:44.556   01 Jun 2027 16:20:06.973            22.417              Murmansk2           700.531
        51   01 Jun 2027 16:20:29.856   01 Jun 2027 16:21:43.975            74.119              Murmansk2          2316.219
        52   01 Jun 2027 16:29:39.975   01 Jun 2027 16:32:18.762           158.787                Anadyr2          4962.094
        53   01 Jun 2027 16:32:57.954   01 Jun 2027 16:34:40.280           102.326               Magadan2          3197.688
        54   01 Jun 2027 16:35:42.887   01 Jun 2027 16:37:00.805            77.918               Magadan1          2434.937
        55   01 Jun 2027 16:37:20.714   01 Jun 2027 16:38:11.017            50.303               Magadan1          1571.969
        56   01 Jun 2027 16:38:53.087   01 Jun 2027 16:39:17.184            24.097               Magadan1           753.031
        57   01 Jun 2027 18:05:34.905   01 Jun 2027 18:08:09.280           154.375                Anadyr2          4824.219
        58   01 Jun 2027 18:08:38.373   01 Jun 2027 18:10:03.338            84.965               Magadan1          2655.156
        59   01 Jun 2027 18:10:33.681   01 Jun 2027 18:11:06.574            32.893               Magadan2          1027.906
        60   01 Jun 2027 18:11:25.839   01 Jun 2027 18:11:34.917             9.078               Magadan2           283.687
        61   01 Jun 2027 18:13:40.160   01 Jun 2027 18:14:07.898            27.738               Magadan1           866.812
        62   01 Jun 2027 18:14:12.466   01 Jun 2027 18:14:20.592             8.126               Magadan1           253.938
        63   01 Jun 2027 18:14:41.574   01 Jun 2027 18:15:04.437            22.863               Magadan1           714.469
        64   01 Jun 2027 19:02:38.265   01 Jun 2027 19:04:39.060           120.795            RioGallegos          3774.844
        65   01 Jun 2027 19:41:25.062   01 Jun 2027 19:41:39.209            14.147                Anadyr2           442.094
        66   01 Jun 2027 19:41:52.387   01 Jun 2027 19:42:37.454            45.067                Anadyr1          1408.344
        67   01 Jun 2027 19:43:38.211   01 Jun 2027 19:47:27.680           229.469                Norilsk          7170.906
        68   01 Jun 2027 19:48:46.954   01 Jun 2027 19:51:56.159           189.205                Irkutsk          5912.656
        69   01 Jun 2027 19:52:10.996   01 Jun 2027 19:52:30.604            19.608                Irkutsk           612.750
        70   01 Jun 2027 19:52:57.963   01 Jun 2027 19:53:21.772            23.809                Irkutsk           744.031
        71   01 Jun 2027 19:53:46.763   01 Jun 2027 19:54:13.513            26.750                Irkutsk           835.937
        72   01 Jun 2027 20:04:11.822   01 Jun 2027 20:06:05.131           113.309                Sumatra          3540.906
        73   01 Jun 2027 20:07:17.105   01 Jun 2027 20:09:17.303           120.198                Sumatra          3756.187
        74   01 Jun 2027 21:23:15.919   01 Jun 2027 21:24:52.997            97.078                Irkutsk          3033.688
        75   01 Jun 2027 21:24:59.287   01 Jun 2027 21:27:30.904           151.617                Novosib          4738.031
        76   01 Jun 2027 21:35:34.370   01 Jun 2027 21:36:05.080            30.710                  Delhi           959.687
        77   01 Jun 2027 22:50:59.603   01 Jun 2027 22:52:21.019            81.416                Anadyr1          2544.250
        78   01 Jun 2027 22:53:07.367   01 Jun 2027 22:53:08.029             0.662                Anadyr1            20.687
        79   01 Jun 2027 22:55:19.129   01 Jun 2027 22:55:41.655            22.526                Norilsk           703.937
        80   01 Jun 2027 22:55:53.722   01 Jun 2027 22:57:06.985            73.263                Norilsk          2289.469
        81   01 Jun 2027 22:57:16.741   01 Jun 2027 22:57:41.618            24.877               Magadan1           777.406
        82   01 Jun 2027 22:58:31.011   01 Jun 2027 23:02:53.986           262.975              Murmansk2          8217.969
        83   01 Jun 2027 23:06:30.122   01 Jun 2027 23:07:08.130            38.008                  Delhi          1187.750
        84   01 Jun 2027 23:10:20.554   01 Jun 2027 23:11:06.395            45.841                  Delhi          1432.531
        85   01 Jun 2027 23:13:32.984   01 Jun 2027 23:14:17.894            44.910                  Delhi          1403.437
        86   01 Jun 2027 23:14:55.056   01 Jun 2027 23:16:53.995           118.939                  Delhi          3716.844
        87   02 Jun 2027 00:26:30.663   02 Jun 2027 00:26:51.666            21.003                Anadyr2           656.344
        88   02 Jun 2027 00:27:25.279   02 Jun 2027 00:27:26.870             1.591                Anadyr2            49.719
        89   02 Jun 2027 00:30:02.334   02 Jun 2027 00:30:21.150            18.816                Anadyr2           588.000
        90   02 Jun 2027 00:30:21.150   02 Jun 2027 00:30:39.692            18.542                Anadyr1           579.437
        91   02 Jun 2027 00:31:08.327   02 Jun 2027 00:32:01.344            53.017               Magadan1          1656.781
        92   02 Jun 2027 00:32:08.890   02 Jun 2027 00:33:05.646            56.756               Magadan2          1773.625
        93   02 Jun 2027 00:33:31.125   02 Jun 2027 00:36:38.673           187.548              Murmansk1          5860.875
        94   02 Jun 2027 00:37:25.960   02 Jun 2027 00:37:56.354            30.394                 Moscow           949.813
        95   02 Jun 2027 00:38:28.677   02 Jun 2027 00:39:02.624            33.947                 Moscow          1060.844
        96   02 Jun 2027 00:42:48.829   02 Jun 2027 00:43:13.477            24.648                 Moscow           770.250
        97   02 Jun 2027 00:45:38.415   02 Jun 2027 00:46:52.401            73.986                 Moscow          2312.063
        98   02 Jun 2027 01:04:01.776   02 Jun 2027 01:04:57.260            55.484               CapeTown          1733.875
        99   02 Jun 2027 01:09:02.535   02 Jun 2027 01:10:37.868            95.333               CapeTown          2979.156
       100   02 Jun 2027 02:00:38.138   02 Jun 2027 02:00:56.119            17.981                Anadyr1           561.906
       101   02 Jun 2027 02:02:08.167   02 Jun 2027 02:03:20.201            72.034               Magadan1          2251.062
       102   02 Jun 2027 02:03:58.429   02 Jun 2027 02:04:06.060             7.631               Magadan2           238.469
       103   02 Jun 2027 02:04:41.477   02 Jun 2027 02:04:45.406             3.929               Magadan1           122.781
       104   02 Jun 2027 02:05:46.511   02 Jun 2027 02:05:55.311             8.800               Magadan2           275.000
       105   02 Jun 2027 02:06:39.824   02 Jun 2027 02:07:14.856            35.032               Magadan1          1094.750
       106   02 Jun 2027 02:08:41.484   02 Jun 2027 02:08:46.613             5.129                Norilsk           160.281
       107   02 Jun 2027 02:09:25.117   02 Jun 2027 02:09:39.851            14.734              Murmansk1           460.437
       108   02 Jun 2027 02:09:58.170   02 Jun 2027 02:11:08.290            70.120              Murmansk1          2191.250
       109   02 Jun 2027 02:11:08.290   02 Jun 2027 02:12:06.495            58.205              Murmansk2          1818.906
       110   02 Jun 2027 02:14:59.323   02 Jun 2027 02:16:11.450            72.127                Novosib          2253.969
       111   02 Jun 2027 02:22:13.993   02 Jun 2027 02:23:33.027            79.034                 Moscow          2469.812
       112   02 Jun 2027 02:45:44.795   02 Jun 2027 02:45:57.794            12.999               CapeTown           406.219
       113   02 Jun 2027 02:46:07.114   02 Jun 2027 02:46:23.547            16.433               CapeTown           513.531
       114   02 Jun 2027 03:40:49.518   02 Jun 2027 03:40:51.662             2.144               Magadan1            67.000
       115   02 Jun 2027 03:40:59.013   02 Jun 2027 03:42:02.084            63.071                Anadyr2          1970.969
       116   02 Jun 2027 03:42:02.084   02 Jun 2027 03:42:16.975            14.891                Anadyr1           465.344
       117   02 Jun 2027 03:42:21.047   02 Jun 2027 03:43:39.571            78.524               Magadan2          2453.875
       118   02 Jun 2027 03:44:06.969   02 Jun 2027 03:44:37.758            30.789                Anadyr1           962.156
       119   02 Jun 2027 03:44:37.758   02 Jun 2027 03:46:11.512            93.754                Anadyr2          2929.813
       120   02 Jun 2027 05:17:47.365   02 Jun 2027 05:18:09.867            22.502                Anadyr2           703.187
       121   02 Jun 2027 05:18:29.369   02 Jun 2027 05:21:47.275           197.906               Magadan2          6184.563
       122   02 Jun 2027 05:21:47.275   02 Jun 2027 05:21:49.032             1.757               Magadan1            54.906
       123   02 Jun 2027 06:00:00.379   02 Jun 2027 06:02:06.889           126.510            RioGallegos          3953.438
       124   02 Jun 2027 06:02:57.582   02 Jun 2027 06:03:14.038            16.456            RioGallegos           514.250
       125   02 Jun 2027 06:50:38.724   02 Jun 2027 06:51:40.019            61.295                Irkutsk          1915.469
       126   02 Jun 2027 06:53:08.361   02 Jun 2027 06:53:29.615            21.254                Anadyr2           664.187
       127   02 Jun 2027 06:53:29.615   02 Jun 2027 06:56:39.895           190.280                Anadyr1          5946.250
       128   02 Jun 2027 06:56:51.394   02 Jun 2027 06:57:30.329            38.935               Magadan1          1216.719
       129   02 Jun 2027 08:09:39.172   02 Jun 2027 08:11:45.065           125.893                Sumatra          3934.156
       130   02 Jun 2027 08:28:12.481   02 Jun 2027 08:28:38.308            25.827               Magadan1           807.094
       131   02 Jun 2027 08:28:43.508   02 Jun 2027 08:28:53.238             9.730                Norilsk           304.063
       132   02 Jun 2027 08:29:08.508   02 Jun 2027 08:29:33.082            24.574                Irkutsk           767.937
       133   02 Jun 2027 08:29:41.737   02 Jun 2027 08:30:23.772            42.035                Irkutsk          1313.594
       134   02 Jun 2027 08:30:27.471   02 Jun 2027 08:31:51.798            84.327                Irkutsk          2635.219
       135   02 Jun 2027 08:31:57.994   02 Jun 2027 08:33:23.352            85.358              Murmansk2          2667.437
       136   02 Jun 2027 08:33:41.652   02 Jun 2027 08:33:49.284             7.632              Murmansk1           238.500
       137   02 Jun 2027 08:34:22.784   02 Jun 2027 08:34:27.962             5.178                Norilsk           161.813
       138   02 Jun 2027 08:34:29.813   02 Jun 2027 08:34:51.342            21.529                Novosib           672.781
       139   02 Jun 2027 08:36:28.569   02 Jun 2027 08:36:43.971            15.402              Murmansk1           481.312
       140   02 Jun 2027 09:08:39.370   02 Jun 2027 09:09:25.927            46.557            RioGallegos          1454.906
       141   02 Jun 2027 09:09:38.737   02 Jun 2027 09:09:57.600            18.863            RioGallegos           589.469
       142   02 Jun 2027 09:17:02.570   02 Jun 2027 09:17:04.662             2.092            RioGallegos            65.375
       143   02 Jun 2027 09:18:16.392   02 Jun 2027 09:18:28.916            12.524            RioGallegos           391.375
       144   02 Jun 2027 09:43:06.361   02 Jun 2027 09:43:42.118            35.757                Sumatra          1117.406
       145   02 Jun 2027 09:47:01.560   02 Jun 2027 09:47:40.194            38.634                Sumatra          1207.313
       146   02 Jun 2027 09:52:59.093   02 Jun 2027 09:53:50.784            51.691                  Delhi          1615.344
       147   02 Jun 2027 10:03:43.810   02 Jun 2027 10:04:37.860            54.050                Irkutsk          1689.062
       148   02 Jun 2027 10:04:50.598   02 Jun 2027 10:04:59.531             8.933                Norilsk           279.156
       149   02 Jun 2027 10:05:00.148   02 Jun 2027 10:05:21.156            21.008                Novosib           656.500
       150   02 Jun 2027 10:05:26.620   02 Jun 2027 10:05:39.975            13.355                Norilsk           417.344
       151   02 Jun 2027 10:05:43.670   02 Jun 2027 10:06:56.103            72.433              Murmansk1          2263.531
       152   02 Jun 2027 10:07:01.997   02 Jun 2027 10:07:56.050            54.053              Murmansk2          1689.156
       153   02 Jun 2027 10:07:59.943   02 Jun 2027 10:08:35.233            35.290                Novosib          1102.813
       154   02 Jun 2027 10:08:41.060   02 Jun 2027 10:09:57.381            76.321                 Moscow          2385.031
       155   02 Jun 2027 10:51:24.061   02 Jun 2027 10:52:27.734            63.673            RioGallegos          1989.781
       156   02 Jun 2027 11:27:39.334   02 Jun 2027 11:29:08.153            88.819                  Delhi          2775.594
       157   02 Jun 2027 11:40:25.225   02 Jun 2027 11:40:59.492            34.267                Novosib          1070.844
       158   02 Jun 2027 11:41:40.054   02 Jun 2027 11:42:07.491            27.437                 Moscow           857.406
       159   02 Jun 2027 11:42:23.103   02 Jun 2027 11:43:10.561            47.458              Murmansk2          1483.062
       160   02 Jun 2027 11:43:13.339   02 Jun 2027 11:43:49.894            36.555                 Moscow          1142.344
       161   02 Jun 2027 11:44:17.826   02 Jun 2027 11:44:29.304            11.478              Murmansk2           358.687
       162   02 Jun 2027 11:44:29.304   02 Jun 2027 11:45:03.762            34.458              Murmansk1          1076.812
       163   02 Jun 2027 13:11:38.207   02 Jun 2027 13:14:39.975           181.768                 Moscow          5680.250
       164   02 Jun 2027 13:15:08.584   02 Jun 2027 13:18:19.766           191.182              Murmansk2          5974.438
       165   02 Jun 2027 13:18:19.766   02 Jun 2027 13:19:12.343            52.577              Murmansk1          1643.031
       166   02 Jun 2027 13:20:39.541   02 Jun 2027 13:20:50.995            11.454                Norilsk           357.938
       167   02 Jun 2027 13:21:37.931   02 Jun 2027 13:22:15.936            38.005                Norilsk          1187.656
       168   02 Jun 2027 14:25:44.511   02 Jun 2027 14:27:58.356           133.845               CapeTown          4182.656
       169   02 Jun 2027 14:29:10.102   02 Jun 2027 14:30:09.025            58.923               CapeTown          1841.344
       170   02 Jun 2027 14:50:23.421   02 Jun 2027 14:50:32.569             9.148                 Moscow           285.875
       171   02 Jun 2027 14:52:34.133   02 Jun 2027 14:54:23.349           109.216              Murmansk2          3413.000
       172   02 Jun 2027 14:56:13.628   02 Jun 2027 14:56:35.228            21.600              Murmansk1           675.000
       173   02 Jun 2027 14:56:45.867   02 Jun 2027 14:57:44.470            58.603              Murmansk1          1831.344
       174   02 Jun 2027 15:06:01.009   02 Jun 2027 15:08:24.954           143.945                Anadyr1          4498.281
       175   02 Jun 2027 15:15:37.075   02 Jun 2027 15:16:01.359            24.284                Anadyr2           758.875
       176   02 Jun 2027 16:08:35.833   02 Jun 2027 16:08:53.133            17.300               CapeTown           540.625
       177   02 Jun 2027 16:11:56.771   02 Jun 2027 16:12:02.795             6.024               CapeTown           188.250
       178   02 Jun 2027 16:32:26.836   02 Jun 2027 16:35:00.825           153.989              Murmansk1          4812.156
       179   02 Jun 2027 16:35:50.954   02 Jun 2027 16:36:18.905            27.951              Murmansk2           873.469
       180   02 Jun 2027 16:41:40.838   02 Jun 2027 16:42:21.146            40.308                Anadyr2          1259.625
       181   02 Jun 2027 16:42:41.065   02 Jun 2027 16:44:20.030            98.965                Anadyr1          3092.656
       182   02 Jun 2027 16:44:44.329   02 Jun 2027 16:47:28.065           163.736               Magadan1          5116.750
       183   02 Jun 2027 18:17:36.237   02 Jun 2027 18:20:53.424           197.187                Anadyr1          6162.094
       184   02 Jun 2027 18:21:11.017   02 Jun 2027 18:21:45.008            33.991                Anadyr1          1062.219
       185   02 Jun 2027 18:21:46.981   02 Jun 2027 18:21:58.904            11.923               Magadan2           372.594
       186   02 Jun 2027 18:22:53.760   02 Jun 2027 18:25:33.532           159.772               Magadan2          4992.875
       187   02 Jun 2027 19:13:35.484   02 Jun 2027 19:16:19.980           164.496            RioGallegos          5140.500
       188   02 Jun 2027 19:53:24.318   02 Jun 2027 19:53:40.908            16.590                Anadyr2           518.438
       189   02 Jun 2027 19:55:04.931   02 Jun 2027 19:55:21.452            16.521                Anadyr1           516.281
       190   02 Jun 2027 19:55:34.752   02 Jun 2027 19:59:27.095           232.343                Norilsk          7260.719
       191   02 Jun 2027 20:01:07.997   02 Jun 2027 20:01:59.522            51.525                Irkutsk          1610.156
       192   02 Jun 2027 20:03:11.183   02 Jun 2027 20:04:03.003            51.820                Irkutsk          1619.375
       193   02 Jun 2027 20:05:03.506   02 Jun 2027 20:05:52.963            49.457                Irkutsk          1545.531
       194   02 Jun 2027 20:06:15.049   02 Jun 2027 20:06:50.434            35.385                Irkutsk          1105.781
       195   02 Jun 2027 20:15:12.420   02 Jun 2027 20:17:41.297           148.877                Sumatra          4652.406
       196   02 Jun 2027 20:21:12.000   02 Jun 2027 20:22:02.261            50.261                Sumatra          1570.656
       197   02 Jun 2027 20:22:59.242   02 Jun 2027 20:23:06.187             6.945                Sumatra           217.031
       198   02 Jun 2027 21:35:14.987   02 Jun 2027 21:36:46.783            91.796                Irkutsk          2868.625
       199   02 Jun 2027 21:36:59.275   02 Jun 2027 21:38:16.747            77.472                Novosib          2421.000
       200   02 Jun 2027 21:45:32.812   02 Jun 2027 21:47:35.585           122.773                  Delhi          3836.656
       201   02 Jun 2027 23:02:42.965   02 Jun 2027 23:02:50.033             7.068                Anadyr2           220.875
       202   02 Jun 2027 23:03:36.505   02 Jun 2027 23:03:44.898             8.393                Anadyr2           262.281
       203   02 Jun 2027 23:06:10.741   02 Jun 2027 23:06:55.846            45.105                Anadyr2          1409.531
       204   02 Jun 2027 23:06:55.846   02 Jun 2027 23:07:53.564            57.718                Anadyr1          1803.688
       205   02 Jun 2027 23:08:20.714   02 Jun 2027 23:08:37.328            16.614               Magadan1           519.187
       206   02 Jun 2027 23:08:55.831   02 Jun 2027 23:09:09.048            13.217                Norilsk           413.031
       207   02 Jun 2027 23:09:31.830   02 Jun 2027 23:09:47.293            15.463               Magadan1           483.219
       208   02 Jun 2027 23:10:14.366   02 Jun 2027 23:12:15.841           121.475              Murmansk2          3796.094
       209   02 Jun 2027 23:13:05.439   02 Jun 2027 23:13:57.850            52.411              Murmansk1          1637.844
       210   02 Jun 2027 23:15:42.361   02 Jun 2027 23:15:52.370            10.009              Murmansk1           312.781
       211   02 Jun 2027 23:19:46.166   02 Jun 2027 23:20:59.032            72.866                  Delhi          2277.062
       212   02 Jun 2027 23:27:18.023   02 Jun 2027 23:27:26.599             8.576                  Delhi           268.000
       213   03 Jun 2027 00:05:55.458   03 Jun 2027 00:06:04.530             9.072            RioGallegos           283.500
       214   03 Jun 2027 00:07:05.899   03 Jun 2027 00:07:13.816             7.917            RioGallegos           247.406
       215   03 Jun 2027 00:36:00.491   03 Jun 2027 00:36:59.418            58.927                Anadyr1          1841.469
       216   03 Jun 2027 00:37:40.428   03 Jun 2027 00:38:32.001            51.573                Anadyr2          1611.656
       217   03 Jun 2027 00:39:10.690   03 Jun 2027 00:39:16.826             6.136                Anadyr2           191.750
       218   03 Jun 2027 00:41:02.816   03 Jun 2027 00:41:48.654            45.838                Anadyr2          1432.438
       219   03 Jun 2027 00:41:59.506   03 Jun 2027 00:43:11.186            71.680               Magadan1          2240.000
       220   03 Jun 2027 00:44:15.909   03 Jun 2027 00:44:34.482            18.573               Magadan2           580.406
       221   03 Jun 2027 00:45:31.313   03 Jun 2027 00:48:10.719           159.406              Murmansk2          4981.437
       222   03 Jun 2027 00:48:42.178   03 Jun 2027 00:49:29.343            47.165              Murmansk2          1473.906
       223   03 Jun 2027 00:50:05.139   03 Jun 2027 00:50:10.891             5.752                 Moscow           179.750
       224   03 Jun 2027 00:50:35.279   03 Jun 2027 00:50:35.613             0.334                 Moscow            10.437
       225   03 Jun 2027 00:50:35.924   03 Jun 2027 00:51:23.714            47.790                 Moscow          1493.437
       226   03 Jun 2027 00:59:54.545   03 Jun 2027 01:00:04.165             9.620                 Moscow           300.625
       227   03 Jun 2027 01:02:40.852   03 Jun 2027 01:03:17.952            37.100                  Delhi          1159.375
       228   03 Jun 2027 01:15:10.390   03 Jun 2027 01:15:59.714            49.324               CapeTown          1541.375
       229   03 Jun 2027 01:18:29.258   03 Jun 2027 01:19:19.321            50.063               CapeTown          1564.469
       230   03 Jun 2027 02:09:53.464   03 Jun 2027 02:10:08.597            15.133                Anadyr1           472.906
       231   03 Jun 2027 02:10:53.756   03 Jun 2027 02:11:10.021            16.265                Anadyr2           508.281
       232   03 Jun 2027 02:11:38.020   03 Jun 2027 02:12:01.470            23.450                Anadyr2           732.812
       233   03 Jun 2027 02:13:14.425   03 Jun 2027 02:13:19.053             4.628                Anadyr2           144.625
       234   03 Jun 2027 02:13:38.059   03 Jun 2027 02:14:55.700            77.641               Magadan2          2426.281
       235   03 Jun 2027 02:17:23.039   03 Jun 2027 02:17:47.224            24.185               Magadan1           755.781
       236   03 Jun 2027 02:20:59.834   03 Jun 2027 02:21:02.485             2.651                Norilsk            82.844
       237   03 Jun 2027 02:21:26.885   03 Jun 2027 02:23:16.130           109.245              Murmansk1          3413.906
       238   03 Jun 2027 02:24:01.043   03 Jun 2027 02:24:08.877             7.834                Novosib           244.812
       239   03 Jun 2027 02:24:33.287   03 Jun 2027 02:25:18.331            45.044                Novosib          1407.625
       240   03 Jun 2027 02:30:07.044   03 Jun 2027 02:30:21.438            14.394                Novosib           449.813
       241   03 Jun 2027 02:32:41.496   03 Jun 2027 02:32:51.827            10.331              Murmansk2           322.844
       242   03 Jun 2027 02:35:16.958   03 Jun 2027 02:35:26.587             9.629                 Moscow           300.906
       243   03 Jun 2027 02:36:51.033   03 Jun 2027 02:37:05.239            14.206                 Moscow           443.937
       244   03 Jun 2027 02:48:33.268   03 Jun 2027 02:48:54.059            20.791               CapeTown           649.719
       245   03 Jun 2027 02:51:45.942   03 Jun 2027 02:52:04.199            18.257               CapeTown           570.531
       246   03 Jun 2027 02:55:11.451   03 Jun 2027 02:55:29.288            17.837               CapeTown           557.406
       247   03 Jun 2027 02:58:22.146   03 Jun 2027 02:58:45.130            22.984               CapeTown           718.250
       248   03 Jun 2027 03:52:35.745   03 Jun 2027 03:52:44.068             8.323                Anadyr1           260.094
       249   03 Jun 2027 03:52:59.863   03 Jun 2027 03:53:11.636            11.773               Magadan1           367.906
       250   03 Jun 2027 03:53:35.864   03 Jun 2027 03:57:07.827           211.963               Magadan1          6623.844
       251   03 Jun 2027 03:57:07.827   03 Jun 2027 03:57:44.397            36.570               Magadan2          1142.813
       252   03 Jun 2027 03:57:44.397   03 Jun 2027 03:57:48.716             4.319               Magadan1           134.969
       253   03 Jun 2027 04:04:29.111   03 Jun 2027 04:04:39.157            10.046                Norilsk           313.938
       254   03 Jun 2027 05:29:14.699   03 Jun 2027 05:29:45.079            30.380                Irkutsk           949.375
       255   03 Jun 2027 05:30:32.593   03 Jun 2027 05:31:53.987            81.394                Anadyr1          2543.562
       256   03 Jun 2027 05:32:11.594   03 Jun 2027 05:32:54.573            42.979                Anadyr2          1343.094
       257   03 Jun 2027 05:33:14.994   03 Jun 2027 05:33:21.365             6.371                Anadyr1           199.094
       258   03 Jun 2027 07:02:18.771   03 Jun 2027 07:03:10.593            51.822               Magadan1          1619.438
       259   03 Jun 2027 07:03:20.500   03 Jun 2027 07:03:32.278            11.778               Magadan2           368.063
       260   03 Jun 2027 07:03:35.401   03 Jun 2027 07:04:03.998            28.597               Magadan1           893.656
       261   03 Jun 2027 07:04:08.189   03 Jun 2027 07:04:34.375            26.186               Magadan2           818.313
       262   03 Jun 2027 07:04:38.477   03 Jun 2027 07:05:12.531            34.054                Anadyr2          1064.187
       263   03 Jun 2027 07:05:18.487   03 Jun 2027 07:07:04.253           105.766                Anadyr1          3305.187
       264   03 Jun 2027 07:07:30.433   03 Jun 2027 07:07:51.733            21.300                Anadyr1           665.625
       265   03 Jun 2027 07:08:02.117   03 Jun 2027 07:08:03.691             1.574                Anadyr1            49.188
       266   03 Jun 2027 07:08:03.692   03 Jun 2027 07:08:10.295             6.603               Magadan1           206.344
       267   03 Jun 2027 07:08:16.539   03 Jun 2027 07:08:34.684            18.145              Murmansk2           567.031
       268   03 Jun 2027 07:08:41.651   03 Jun 2027 07:09:20.315            38.664               Magadan1          1208.250
       269   03 Jun 2027 07:09:29.719   03 Jun 2027 07:09:45.627            15.908              Murmansk2           497.125
       270   03 Jun 2027 07:09:45.627   03 Jun 2027 07:10:36.683            51.056              Murmansk1          1595.500
       271   03 Jun 2027 07:44:24.389   03 Jun 2027 07:44:54.466            30.077            RioGallegos           939.906
       272   03 Jun 2027 07:45:56.732   03 Jun 2027 07:47:21.132            84.400            RioGallegos          2637.500
       273   03 Jun 2027 08:20:50.007   03 Jun 2027 08:21:58.061            68.054                Sumatra          2126.687
       274   03 Jun 2027 08:40:14.088   03 Jun 2027 08:41:24.739            70.651                Novosib          2207.844
       275   03 Jun 2027 08:41:36.305   03 Jun 2027 08:41:36.577             0.272                Irkutsk             8.500
       276   03 Jun 2027 08:41:37.909   03 Jun 2027 08:42:18.466            40.557                Novosib          1267.406
       277   03 Jun 2027 08:42:26.197   03 Jun 2027 08:42:45.147            18.950                Norilsk           592.188
       278   03 Jun 2027 08:42:48.110   03 Jun 2027 08:43:22.327            34.217                Norilsk          1069.281
       279   03 Jun 2027 08:43:27.199   03 Jun 2027 08:43:34.779             7.580              Murmansk2           236.875
       280   03 Jun 2027 08:43:36.078   03 Jun 2027 08:43:47.336            11.258                Norilsk           351.813
       281   03 Jun 2027 08:43:48.119   03 Jun 2027 08:44:30.352            42.233                Irkutsk          1319.781
       282   03 Jun 2027 08:44:53.544   03 Jun 2027 08:44:58.918             5.374                Norilsk           167.937
       283   03 Jun 2027 08:45:09.791   03 Jun 2027 08:45:32.788            22.997                Irkutsk           718.656
       284   03 Jun 2027 08:45:38.556   03 Jun 2027 08:45:51.491            12.935              Murmansk1           404.219
       285   03 Jun 2027 08:46:05.878   03 Jun 2027 08:46:29.452            23.574                Novosib           736.688
       286   03 Jun 2027 09:20:58.723   03 Jun 2027 09:21:02.266             3.543            RioGallegos           110.719
       287   03 Jun 2027 09:21:28.957   03 Jun 2027 09:22:00.807            31.850            RioGallegos           995.313
       288   03 Jun 2027 09:25:52.674   03 Jun 2027 09:26:10.902            18.228            RioGallegos           569.625
       289   03 Jun 2027 09:55:18.236   03 Jun 2027 09:57:04.440           106.204                Sumatra          3318.875
       290   03 Jun 2027 10:05:49.987   03 Jun 2027 10:06:08.160            18.173                  Delhi           567.906
       291   03 Jun 2027 10:16:17.660   03 Jun 2027 10:16:41.836            24.176                Irkutsk           755.500
       292   03 Jun 2027 10:17:08.833   03 Jun 2027 10:17:15.524             6.691              Murmansk1           209.094
       293   03 Jun 2027 10:17:20.116   03 Jun 2027 10:18:19.180            59.064                Novosib          1845.750
       294   03 Jun 2027 10:18:27.888   03 Jun 2027 10:18:32.796             4.908                Irkutsk           153.375
       295   03 Jun 2027 10:18:41.101   03 Jun 2027 10:18:45.337             4.236                Norilsk           132.375
       296   03 Jun 2027 10:18:46.539   03 Jun 2027 10:19:00.695            14.156                 Moscow           442.375
       297   03 Jun 2027 10:19:18.080   03 Jun 2027 10:19:47.104            29.024                Novosib           907.000
       298   03 Jun 2027 10:19:51.056   03 Jun 2027 10:20:43.449            52.393                Norilsk          1637.281
       299   03 Jun 2027 11:40:02.225   03 Jun 2027 11:43:55.840           233.615                  Delhi          7300.469
       300   03 Jun 2027 11:52:47.243   03 Jun 2027 11:53:49.264            62.021              Murmansk1          1938.156
       301   03 Jun 2027 11:53:55.600   03 Jun 2027 11:54:58.118            62.518                 Moscow          1953.687
       302   03 Jun 2027 11:55:01.054   03 Jun 2027 11:55:26.670            25.616                Norilsk           800.500
       303   03 Jun 2027 11:55:47.534   03 Jun 2027 11:57:20.152            92.618                 Moscow          2894.312
       304   03 Jun 2027 12:02:05.791   03 Jun 2027 12:02:20.205            14.414                Norilsk           450.437
       305   03 Jun 2027 12:02:51.947   03 Jun 2027 12:03:01.545             9.598              Murmansk2           299.938
       306   03 Jun 2027 12:03:16.745   03 Jun 2027 12:03:37.249            20.504              Murmansk1           640.750
       307   03 Jun 2027 12:03:49.651   03 Jun 2027 12:03:59.921            10.270              Murmansk2           320.937
       308   03 Jun 2027 13:23:43.323   03 Jun 2027 13:28:27.194           283.871                 Moscow          8870.969
       309   03 Jun 2027 13:28:30.105   03 Jun 2027 13:28:55.959            25.854              Murmansk2           807.938
       310   03 Jun 2027 13:28:57.351   03 Jun 2027 13:29:56.254            58.903              Murmansk1          1840.719
       311   03 Jun 2027 13:30:27.375   03 Jun 2027 13:30:34.183             6.808              Murmansk1           212.750
       312   03 Jun 2027 13:31:26.560   03 Jun 2027 13:31:35.800             9.240              Murmansk2           288.750
       313   03 Jun 2027 13:32:52.645   03 Jun 2027 13:33:16.627            23.982              Murmansk1           749.438
       314   03 Jun 2027 13:33:48.115   03 Jun 2027 13:34:12.033            23.918                Norilsk           747.437
       315   03 Jun 2027 13:34:47.072   03 Jun 2027 13:35:12.232            25.160                Norilsk           786.250
       316   03 Jun 2027 13:36:24.094   03 Jun 2027 13:36:46.263            22.169                Norilsk           692.781
       317   03 Jun 2027 13:38:33.010   03 Jun 2027 13:38:45.622            12.612              Murmansk2           394.125
       318   03 Jun 2027 13:44:08.280   03 Jun 2027 13:46:44.120           155.840                Anadyr1          4870.000
       319   03 Jun 2027 14:45:17.066   03 Jun 2027 14:45:24.942             7.876               CapeTown           246.125
       320   03 Jun 2027 14:46:58.499   03 Jun 2027 14:48:18.612            80.113               CapeTown          2503.531
       321   03 Jun 2027 15:04:55.864   03 Jun 2027 15:05:20.968            25.104              Murmansk1           784.500
       322   03 Jun 2027 15:06:45.383   03 Jun 2027 15:07:44.618            59.235              Murmansk1          1851.094
       323   03 Jun 2027 15:12:22.072   03 Jun 2027 15:14:03.073           101.001              Murmansk1          3156.281
       324   03 Jun 2027 15:17:58.145   03 Jun 2027 15:18:27.516            29.371                Anadyr1           917.844
       325   03 Jun 2027 15:18:48.252   03 Jun 2027 15:19:04.436            16.184                Anadyr2           505.750
       326   03 Jun 2027 15:19:26.385   03 Jun 2027 15:20:16.621            50.236                Anadyr1          1569.875
       327   03 Jun 2027 15:23:35.489   03 Jun 2027 15:23:47.402            11.913                Anadyr1           372.281
       328   03 Jun 2027 15:23:52.938   03 Jun 2027 15:24:12.083            19.145                Anadyr2           598.281
       329   03 Jun 2027 16:23:51.988   03 Jun 2027 16:24:32.031            40.043               CapeTown          1251.344
       330   03 Jun 2027 16:45:14.015   03 Jun 2027 16:47:48.054           154.039              Murmansk1          4813.719
       331   03 Jun 2027 16:53:41.899   03 Jun 2027 16:54:14.815            32.916                Anadyr1          1028.625
       332   03 Jun 2027 16:54:37.323   03 Jun 2027 16:55:35.440            58.117                Anadyr2          1816.156
       333   03 Jun 2027 16:56:34.247   03 Jun 2027 16:58:39.171           124.924               Magadan1          3903.875
       334   03 Jun 2027 16:59:11.257   03 Jun 2027 17:00:13.736            62.479               Magadan2          1952.469
       335   03 Jun 2027 18:29:37.461   03 Jun 2027 18:32:56.462           199.001                Anadyr1          6218.781
       336   03 Jun 2027 18:33:08.267   03 Jun 2027 18:34:56.571           108.304               Magadan2          3384.500
       337   03 Jun 2027 18:39:12.536   03 Jun 2027 18:39:46.646            34.110               Magadan1          1065.937
       338   03 Jun 2027 18:42:34.356   03 Jun 2027 18:43:05.932            31.576               Magadan2           986.750
       339   03 Jun 2027 19:25:00.410   03 Jun 2027 19:28:05.832           185.422            RioGallegos          5794.438
       340   03 Jun 2027 19:30:20.858   03 Jun 2027 19:30:52.901            32.043            RioGallegos          1001.344
       341   03 Jun 2027 19:31:43.448   03 Jun 2027 19:32:02.122            18.674            RioGallegos           583.563
       342   03 Jun 2027 20:05:23.073   03 Jun 2027 20:05:51.498            28.425                Anadyr2           888.281
       343   03 Jun 2027 20:07:52.520   03 Jun 2027 20:08:48.281            55.761               Magadan2          1742.531
       344   03 Jun 2027 20:08:48.281   03 Jun 2027 20:09:43.275            54.994               Magadan1          1718.562
       345   03 Jun 2027 20:10:06.616   03 Jun 2027 20:11:27.144            80.528                Norilsk          2516.500
       346   03 Jun 2027 20:12:37.549   03 Jun 2027 20:13:12.203            34.654                Irkutsk          1082.938
       347   03 Jun 2027 20:13:26.121   03 Jun 2027 20:13:59.194            33.073                Irkutsk          1033.531
       348   03 Jun 2027 20:14:58.692   03 Jun 2027 20:15:51.968            53.276                Irkutsk          1664.875
       349   03 Jun 2027 20:16:23.411   03 Jun 2027 20:17:14.719            51.308                Irkutsk          1603.375
       350   03 Jun 2027 20:26:31.012   03 Jun 2027 20:28:05.358            94.346                Sumatra          2948.312
       351   03 Jun 2027 20:32:02.186   03 Jun 2027 20:33:12.305            70.119                Sumatra          2191.219
       352   03 Jun 2027 21:43:59.008   03 Jun 2027 21:44:37.068            38.060               Magadan2          1189.375
       353   03 Jun 2027 21:47:15.055   03 Jun 2027 21:48:37.523            82.468                Irkutsk          2577.125
       354   03 Jun 2027 21:48:41.130   03 Jun 2027 21:49:05.914            24.784                Novosib           774.500
       355   03 Jun 2027 21:51:03.880   03 Jun 2027 21:51:26.975            23.095                Novosib           721.719
       356   03 Jun 2027 21:53:18.826   03 Jun 2027 21:53:44.530            25.704                Novosib           803.250
       357   03 Jun 2027 21:56:36.342   03 Jun 2027 21:59:14.274           157.932                  Delhi          4935.375
       358   03 Jun 2027 22:01:49.593   03 Jun 2027 22:02:43.988            54.395                  Delhi          1699.844
       359   03 Jun 2027 23:18:57.082   03 Jun 2027 23:19:25.206            28.124                Anadyr1           878.875
       360   03 Jun 2027 23:19:26.010   03 Jun 2027 23:19:49.770            23.760                Norilsk           742.500
       361   03 Jun 2027 23:19:51.267   03 Jun 2027 23:19:55.755             4.488               Magadan2           140.250
       362   03 Jun 2027 23:20:13.924   03 Jun 2027 23:20:53.877            39.953                Norilsk          1248.531
       363   03 Jun 2027 23:21:02.817   03 Jun 2027 23:21:12.573             9.756               Magadan2           304.875
       364   03 Jun 2027 23:22:03.996   03 Jun 2027 23:24:16.226           132.230              Murmansk1          4132.188
       365   03 Jun 2027 23:24:23.498   03 Jun 2027 23:25:46.146            82.648              Murmansk2          2582.750
       366   03 Jun 2027 23:27:43.263   03 Jun 2027 23:28:32.992            49.729              Murmansk1          1554.031
       367   03 Jun 2027 23:36:12.992   03 Jun 2027 23:36:36.021            23.029                  Delhi           719.656
       368   04 Jun 2027 00:16:31.163   04 Jun 2027 00:16:41.034             9.871            RioGallegos           308.469
       369   04 Jun 2027 00:17:40.605   04 Jun 2027 00:17:50.354             9.749            RioGallegos           304.656
       370   04 Jun 2027 00:47:42.950   04 Jun 2027 00:48:31.727            48.777                Anadyr1          1524.281
       371   04 Jun 2027 00:48:57.549   04 Jun 2027 00:49:44.368            46.819                Anadyr2          1463.094
       372   04 Jun 2027 00:50:24.897   04 Jun 2027 00:50:29.280             4.383                Anadyr1           136.969
       373   04 Jun 2027 00:50:33.335   04 Jun 2027 00:50:55.499            22.164                Anadyr1           692.625
       374   04 Jun 2027 00:53:31.138   04 Jun 2027 00:54:31.638            60.500               Magadan1          1890.625
       375   04 Jun 2027 00:54:31.638   04 Jun 2027 00:55:13.692            42.054               Magadan2          1314.187
       376   04 Jun 2027 00:55:35.206   04 Jun 2027 00:56:14.599            39.393               Magadan2          1231.031
       377   04 Jun 2027 00:57:31.921   04 Jun 2027 01:00:12.397           160.476              Murmansk1          5014.875
       378   04 Jun 2027 01:02:35.399   04 Jun 2027 01:02:39.857             4.458                 Moscow           139.313
       379   04 Jun 2027 01:02:43.410   04 Jun 2027 01:03:24.777            41.367                 Moscow          1292.719
       380   04 Jun 2027 01:12:24.927   04 Jun 2027 01:12:30.469             5.542                 Moscow           173.187
       381   04 Jun 2027 01:26:30.054   04 Jun 2027 01:27:21.206            51.152               CapeTown          1598.500
       382   04 Jun 2027 01:28:12.628   04 Jun 2027 01:28:46.547            33.919               CapeTown          1059.969
       383   04 Jun 2027 01:35:38.390   04 Jun 2027 01:35:55.447            17.057               CapeTown           533.031
       384   04 Jun 2027 02:21:45.211   04 Jun 2027 02:23:11.400            86.189                Anadyr2          2693.406
       385   04 Jun 2027 02:25:09.090   04 Jun 2027 02:26:23.493            74.403               Magadan1          2325.094
       386   04 Jun 2027 02:27:25.771   04 Jun 2027 02:28:11.058            45.287               Magadan1          1415.219
       387   04 Jun 2027 02:33:28.653   04 Jun 2027 02:33:38.354             9.701              Murmansk2           303.156
       388   04 Jun 2027 02:33:46.716   04 Jun 2027 02:35:06.728            80.012              Murmansk1          2500.375
       389   04 Jun 2027 02:35:53.424   04 Jun 2027 02:35:55.246             1.822              Murmansk2            56.938
       390   04 Jun 2027 02:36:15.639   04 Jun 2027 02:36:44.166            28.527                Novosib           891.469
       391   04 Jun 2027 02:37:05.500   04 Jun 2027 02:37:15.113             9.613                 Moscow           300.406
       392   04 Jun 2027 02:37:49.469   04 Jun 2027 02:39:18.609            89.140                 Moscow          2785.625
       393   04 Jun 2027 03:05:29.480   04 Jun 2027 03:06:15.578            46.098               CapeTown          1440.563
       394   04 Jun 2027 03:11:30.524   04 Jun 2027 03:12:10.445            39.921               CapeTown          1247.531
       395   04 Jun 2027 04:04:32.037   04 Jun 2027 04:04:36.417             4.380                Anadyr1           136.875
       396   04 Jun 2027 04:05:04.883   04 Jun 2027 04:08:17.343           192.460                Anadyr2          6014.375
       397   04 Jun 2027 04:08:17.404   04 Jun 2027 04:08:24.199             6.795               Magadan1           212.344
       398   04 Jun 2027 04:08:37.412   04 Jun 2027 04:10:13.876            96.464                Anadyr2          3014.500
       399   04 Jun 2027 05:40:20.613   04 Jun 2027 05:40:46.974            26.361                Irkutsk           823.781
       400   04 Jun 2027 05:42:59.484   04 Jun 2027 05:45:54.870           175.386                Anadyr2          5480.812
       401   04 Jun 2027 07:15:25.921   04 Jun 2027 07:15:40.542            14.621               Magadan2           456.906
       402   04 Jun 2027 07:15:54.743   04 Jun 2027 07:16:40.239            45.496                Irkutsk          1421.750
       403   04 Jun 2027 07:16:42.163   04 Jun 2027 07:17:41.339            59.176               Magadan2          1849.250
       404   04 Jun 2027 07:17:54.710   04 Jun 2027 07:18:10.342            15.632               Magadan1           488.500
       405   04 Jun 2027 07:18:11.187   04 Jun 2027 07:18:21.465            10.278                Norilsk           321.188
       406   04 Jun 2027 07:18:25.246   04 Jun 2027 07:18:35.811            10.565                Norilsk           330.156
       407   04 Jun 2027 07:18:36.103   04 Jun 2027 07:18:37.928             1.825               Magadan2            57.031
       408   04 Jun 2027 07:18:54.442   04 Jun 2027 07:19:30.321            35.879                Irkutsk          1121.219
       409   04 Jun 2027 07:19:47.848   04 Jun 2027 07:19:57.485             9.637                Irkutsk           301.156
       410   04 Jun 2027 07:19:59.210   04 Jun 2027 07:20:30.440            31.230                Novosib           975.938
       411   04 Jun 2027 07:20:40.343   04 Jun 2027 07:20:56.293            15.950               Magadan1           498.438
       412   04 Jun 2027 07:21:01.188   04 Jun 2027 07:21:11.949            10.761                Irkutsk           336.281
       413   04 Jun 2027 07:21:17.309   04 Jun 2027 07:21:17.367             0.058              Murmansk1             1.812
       414   04 Jun 2027 07:21:17.367   04 Jun 2027 07:21:31.839            14.472              Murmansk2           452.250
       415   04 Jun 2027 07:21:31.839   04 Jun 2027 07:22:28.733            56.894              Murmansk1          1777.937
       416   04 Jun 2027 07:26:52.843   04 Jun 2027 07:27:04.562            11.719              Murmansk2           366.219
       417   04 Jun 2027 07:56:18.646   04 Jun 2027 07:57:04.813            46.167            RioGallegos          1442.719
       418   04 Jun 2027 08:03:31.436   04 Jun 2027 08:03:34.556             3.120            RioGallegos            97.500
       419   04 Jun 2027 08:32:14.853   04 Jun 2027 08:33:15.364            60.511                Sumatra          1890.969
       420   04 Jun 2027 08:37:33.417   04 Jun 2027 08:38:08.780            35.363                Sumatra          1105.094
       421   04 Jun 2027 08:51:41.510   04 Jun 2027 08:52:10.357            28.847                Norilsk           901.469
       422   04 Jun 2027 08:52:27.562   04 Jun 2027 08:52:54.732            27.170                Novosib           849.063
       423   04 Jun 2027 08:52:59.294   04 Jun 2027 08:53:04.876             5.582                Irkutsk           174.437
       424   04 Jun 2027 08:53:25.338   04 Jun 2027 08:53:25.812             0.474                Norilsk            14.813
       425   04 Jun 2027 08:53:28.002   04 Jun 2027 08:53:45.000            16.998                Novosib           531.187
       426   04 Jun 2027 08:54:14.472   04 Jun 2027 08:55:26.657            72.185                Irkutsk          2255.781
       427   04 Jun 2027 08:55:41.930   04 Jun 2027 08:56:01.159            19.229              Murmansk1           600.906
       428   04 Jun 2027 08:56:04.203   04 Jun 2027 08:56:29.733            25.530              Murmansk1           797.813
       429   04 Jun 2027 08:56:33.388   04 Jun 2027 08:56:41.603             8.215                Novosib           256.719
       430   04 Jun 2027 08:56:55.170   04 Jun 2027 08:56:57.754             2.584                Norilsk            80.750
       431   04 Jun 2027 08:57:03.618   04 Jun 2027 08:57:35.520            31.902                Novosib           996.938
       432   04 Jun 2027 08:57:36.025   04 Jun 2027 08:57:41.791             5.766              Murmansk2           180.187
       433   04 Jun 2027 08:57:57.329   04 Jun 2027 08:58:15.826            18.497              Murmansk2           578.031
       434   04 Jun 2027 09:33:22.793   04 Jun 2027 09:34:07.476            44.683            RioGallegos          1396.344
       435   04 Jun 2027 09:35:03.374   04 Jun 2027 09:35:18.080            14.706            RioGallegos           459.562
       436   04 Jun 2027 10:07:36.943   04 Jun 2027 10:08:57.680            80.737                Sumatra          2523.031
       437   04 Jun 2027 10:18:20.916   04 Jun 2027 10:18:42.175            21.259                  Delhi           664.344
       438   04 Jun 2027 10:28:52.251   04 Jun 2027 10:29:08.557            16.306              Murmansk2           509.562
       439   04 Jun 2027 10:29:08.557   04 Jun 2027 10:29:29.786            21.229              Murmansk1           663.406
       440   04 Jun 2027 10:29:49.363   04 Jun 2027 10:30:08.781            19.418                Irkutsk           606.812
       441   04 Jun 2027 10:30:23.661   04 Jun 2027 10:31:30.117            66.456                Irkutsk          2076.750
       442   04 Jun 2027 10:31:43.846   04 Jun 2027 10:31:55.332            11.486                Novosib           358.937
       443   04 Jun 2027 10:31:55.642   04 Jun 2027 10:32:10.528            14.886              Murmansk1           465.187
       444   04 Jun 2027 10:32:19.978   04 Jun 2027 10:32:47.773            27.795                 Moscow           868.594
       445   04 Jun 2027 10:32:54.638   04 Jun 2027 10:33:13.710            19.072                 Moscow           596.000
       446   04 Jun 2027 10:33:16.656   04 Jun 2027 10:33:55.086            38.430              Murmansk1          1200.937
       447   04 Jun 2027 11:52:33.532   04 Jun 2027 11:55:36.983           183.451                  Delhi          5732.844
       448   04 Jun 2027 12:10:31.260   04 Jun 2027 12:10:52.333            21.073              Murmansk2           658.531
       449   04 Jun 2027 12:12:07.092   04 Jun 2027 12:12:10.829             3.737              Murmansk2           116.781
       450   04 Jun 2027 12:12:15.093   04 Jun 2027 12:12:50.083            34.990              Murmansk1          1093.438
       451   04 Jun 2027 12:14:39.725   04 Jun 2027 12:15:34.579            54.854              Murmansk1          1714.188
       452   04 Jun 2027 13:35:51.535   04 Jun 2027 13:37:34.065           102.530                 Moscow          3204.063
       453   04 Jun 2027 13:39:22.769   04 Jun 2027 13:42:23.807           181.038              Murmansk1          5657.438
       454   04 Jun 2027 13:42:39.382   04 Jun 2027 13:42:56.663            17.281              Murmansk2           540.031
       455   04 Jun 2027 13:44:18.638   04 Jun 2027 13:44:51.436            32.798              Murmansk1          1024.937
       456   04 Jun 2027 13:46:14.783   04 Jun 2027 13:46:49.128            34.345                Norilsk          1073.281
       457   04 Jun 2027 13:48:48.676   04 Jun 2027 13:49:14.776            26.100                Norilsk           815.625
       458   04 Jun 2027 13:55:22.816   04 Jun 2027 13:56:41.219            78.403                Anadyr1          2450.094
       459   04 Jun 2027 13:57:32.808   04 Jun 2027 13:58:32.185            59.377                Anadyr2          1855.531
       460   04 Jun 2027 13:59:57.138   04 Jun 2027 14:00:14.703            17.565                Anadyr1           548.906
       461   04 Jun 2027 14:55:23.269   04 Jun 2027 14:55:24.669             1.400               CapeTown            43.750
       462   04 Jun 2027 14:57:12.233   04 Jun 2027 14:57:24.300            12.067               CapeTown           377.094
       463   04 Jun 2027 14:58:01.010   04 Jun 2027 14:58:52.320            51.310               CapeTown          1603.437
       464   04 Jun 2027 15:17:19.921   04 Jun 2027 15:17:49.713            29.792              Murmansk2           931.000
       465   04 Jun 2027 15:18:11.413   04 Jun 2027 15:18:25.057            13.644              Murmansk1           426.375
       466   04 Jun 2027 15:18:33.283   04 Jun 2027 15:18:44.877            11.594              Murmansk1           362.313
       467   04 Jun 2027 15:20:17.114   04 Jun 2027 15:20:31.933            14.819              Murmansk2           463.094
       468   04 Jun 2027 15:23:12.919   04 Jun 2027 15:23:17.191             4.272              Murmansk2           133.500
       469   04 Jun 2027 15:24:07.365   04 Jun 2027 15:24:23.831            16.466              Murmansk1           514.562
       470   04 Jun 2027 15:24:23.831   04 Jun 2027 15:24:35.356            11.525              Murmansk2           360.156
       471   04 Jun 2027 15:26:25.787   04 Jun 2027 15:27:15.332            49.545              Murmansk2          1548.281
       472   04 Jun 2027 15:29:56.209   04 Jun 2027 15:31:04.574            68.365                Anadyr1          2136.406
       473   04 Jun 2027 15:31:04.574   04 Jun 2027 15:31:07.651             3.077                Anadyr2            96.156
       474   04 Jun 2027 15:31:19.420   04 Jun 2027 15:31:33.549            14.129                Anadyr1           441.531
       475   04 Jun 2027 15:31:33.549   04 Jun 2027 15:32:26.957            53.408                Anadyr2          1669.000
       476   04 Jun 2027 15:36:52.803   04 Jun 2027 15:38:13.141            80.338                Anadyr2          2510.562
       477   04 Jun 2027 16:58:07.929   04 Jun 2027 17:00:22.819           134.890              Murmansk1          4215.312
       478   04 Jun 2027 17:05:43.123   04 Jun 2027 17:07:22.874            99.751                Anadyr2          3117.219
       479   04 Jun 2027 17:08:26.697   04 Jun 2027 17:10:39.428           132.731               Magadan2          4147.844
       480   04 Jun 2027 18:41:38.541   04 Jun 2027 18:43:29.817           111.276                Anadyr1          3477.375
       481   04 Jun 2027 18:43:55.400   04 Jun 2027 18:47:53.999           238.599               Magadan2          7456.219
       482   04 Jun 2027 18:48:46.196   04 Jun 2027 18:49:13.734            27.538               Magadan1           860.563
