uniorb/output/strategy_2/Drop/Drop_KinoSat_110710.txt

KinoSat_110710
-------------------------
    Access    *     Start Time (UTCG)     *     Stop Time (UTCG)  *   Duration (s)        *       Station  *  Data (Mbytes)
         1   01 Jun 2027 04:30:43.239   01 Jun 2027 04:31:16.190            32.951               Magadan1          1029.719
         2   01 Jun 2027 04:31:21.470   01 Jun 2027 04:31:42.230            20.760                Anadyr2           648.750
         3   01 Jun 2027 04:32:06.345   01 Jun 2027 04:32:09.041             2.696               Magadan1            84.250
         4   01 Jun 2027 04:32:50.922   01 Jun 2027 04:33:07.653            16.731               Magadan2           522.844
         5   01 Jun 2027 04:34:23.372   01 Jun 2027 04:34:25.771             2.399                Norilsk            74.969
         6   01 Jun 2027 05:10:19.587   01 Jun 2027 05:13:30.619           191.032            RioGallegos          5969.750
         7   01 Jun 2027 06:00:02.960   01 Jun 2027 06:00:35.263            32.303                Irkutsk          1009.469
         8   01 Jun 2027 06:05:29.791   01 Jun 2027 06:05:52.721            22.930               Magadan2           716.562
         9   01 Jun 2027 06:06:20.400   01 Jun 2027 06:07:13.754            53.354               Magadan2          1667.312
        10   01 Jun 2027 06:07:18.820   01 Jun 2027 06:08:21.647            62.827               Magadan1          1963.344
        11   01 Jun 2027 06:08:50.458   01 Jun 2027 06:09:20.041            29.583               Magadan1           924.469
        12   01 Jun 2027 06:09:43.925   01 Jun 2027 06:12:51.052           187.127              Murmansk1          5847.719
        13   01 Jun 2027 06:44:27.298   01 Jun 2027 06:48:59.467           272.169            RioGallegos          8505.281
        14   01 Jun 2027 07:19:51.505   01 Jun 2027 07:23:39.603           228.098                Sumatra          7128.063
        15   01 Jun 2027 07:32:54.879   01 Jun 2027 07:33:49.752            54.873                  Delhi          1714.781
        16   01 Jun 2027 07:41:35.720   01 Jun 2027 07:42:03.992            28.272                Norilsk           883.500
        17   01 Jun 2027 07:42:22.382   01 Jun 2027 07:43:00.520            38.138              Murmansk1          1191.813
        18   01 Jun 2027 07:43:13.232   01 Jun 2027 07:44:31.976            78.744                Novosib          2460.750
        19   01 Jun 2027 07:44:55.604   01 Jun 2027 07:49:48.866           293.262              Murmansk1          9164.438
        20   01 Jun 2027 07:49:48.866   01 Jun 2027 07:50:09.253            20.387              Murmansk2           637.094
        21   01 Jun 2027 07:50:28.840   01 Jun 2027 07:50:44.629            15.789                Norilsk           493.406
        22   01 Jun 2027 07:50:45.215   01 Jun 2027 07:51:05.146            19.931              Murmansk1           622.844
        23   01 Jun 2027 07:51:11.554   01 Jun 2027 07:51:12.571             1.017              Murmansk1            31.781
        24   01 Jun 2027 07:51:22.385   01 Jun 2027 07:51:48.371            25.986              Murmansk1           812.062
        25   01 Jun 2027 07:52:35.665   01 Jun 2027 07:52:36.138             0.473              Murmansk2            14.781
        26   01 Jun 2027 08:22:19.885   01 Jun 2027 08:26:15.815           235.930            RioGallegos          7372.812
        27   01 Jun 2027 08:56:31.779   01 Jun 2027 08:59:24.932           173.153                Sumatra          5411.031
        28   01 Jun 2027 09:03:39.516   01 Jun 2027 09:07:58.816           259.300                  Delhi          8103.125
        29   01 Jun 2027 09:19:23.494   01 Jun 2027 09:20:13.393            49.899                Irkutsk          1559.344
        30   01 Jun 2027 09:20:16.885   01 Jun 2027 09:22:14.249           117.364              Murmansk1          3667.625
        31   01 Jun 2027 09:22:14.249   01 Jun 2027 09:22:52.109            37.860              Murmansk2          1183.125
        32   01 Jun 2027 09:22:57.091   01 Jun 2027 09:23:56.173            59.082                 Moscow          1846.313
        33   01 Jun 2027 10:42:53.989   01 Jun 2027 10:43:56.725            62.736                  Delhi          1960.500
        34   01 Jun 2027 10:54:28.323   01 Jun 2027 10:54:45.441            17.118              Murmansk2           534.938
        35   01 Jun 2027 10:55:03.896   01 Jun 2027 10:57:32.453           148.557                Novosib          4642.406
        36   01 Jun 2027 10:57:36.188   01 Jun 2027 10:58:25.621            49.433              Murmansk1          1544.781
        37   01 Jun 2027 10:58:25.621   01 Jun 2027 11:00:10.903           105.282              Murmansk2          3290.063
        38   01 Jun 2027 12:05:02.002   01 Jun 2027 12:06:51.419           109.417               CapeTown          3419.281
        39   01 Jun 2027 12:24:20.966   01 Jun 2027 12:25:13.773            52.807                 Moscow          1650.219
        40   01 Jun 2027 12:27:49.076   01 Jun 2027 12:28:39.995            50.919              Murmansk1          1591.219
        41   01 Jun 2027 12:29:09.485   01 Jun 2027 12:30:29.216            79.731              Murmansk2          2491.594
        42   01 Jun 2027 12:32:31.631   01 Jun 2027 12:33:14.196            42.565              Murmansk1          1330.156
        43   01 Jun 2027 12:43:03.332   01 Jun 2027 12:49:53.226           409.894                Anadyr1         12809.188
        44   01 Jun 2027 14:06:11.503   01 Jun 2027 14:07:50.325            98.822              Murmansk2          3088.188
        45   01 Jun 2027 14:18:06.140   01 Jun 2027 14:19:45.576            99.436                Anadyr1          3107.375
        46   01 Jun 2027 14:19:52.279   01 Jun 2027 14:23:25.039           212.760                Anadyr2          6648.750
        47   01 Jun 2027 15:53:56.359   01 Jun 2027 15:56:04.537           128.178                Anadyr1          4005.562
        48   01 Jun 2027 15:56:30.413   01 Jun 2027 15:58:44.682           134.269               Magadan2          4195.906
        49   01 Jun 2027 15:59:02.759   01 Jun 2027 16:00:35.873            93.114               Magadan1          2909.812
        50   01 Jun 2027 17:29:50.829   01 Jun 2027 17:32:58.772           187.943                Anadyr1          5873.219
        51   01 Jun 2027 17:33:08.099   01 Jun 2027 17:33:08.956             0.857                Norilsk            26.781
        52   01 Jun 2027 17:34:01.740   01 Jun 2027 17:34:44.410            42.670               Magadan1          1333.437
        53   01 Jun 2027 17:34:44.410   01 Jun 2027 17:35:50.037            65.627               Magadan2          2050.844
        54   01 Jun 2027 18:24:24.320   01 Jun 2027 18:30:31.198           366.878            RioGallegos         11464.937
        55   01 Jun 2027 19:06:30.206   01 Jun 2027 19:07:02.856            32.650                Anadyr1          1020.313
        56   01 Jun 2027 19:07:42.992   01 Jun 2027 19:09:39.260           116.268                Norilsk          3633.375
        57   01 Jun 2027 19:09:57.413   01 Jun 2027 19:11:12.644            75.231                Norilsk          2350.969
        58   01 Jun 2027 19:11:56.023   01 Jun 2027 19:13:41.002           104.979                Irkutsk          3280.594
        59   01 Jun 2027 19:14:14.482   01 Jun 2027 19:16:51.418           156.936                Novosib          4904.250
        60   01 Jun 2027 19:17:56.262   01 Jun 2027 19:18:12.227            15.965                Novosib           498.906
        61   01 Jun 2027 19:27:10.808   01 Jun 2027 19:28:14.626            63.818                Sumatra          1994.313
        62   01 Jun 2027 19:29:40.690   01 Jun 2027 19:30:31.579            50.889                Sumatra          1590.281
        63   01 Jun 2027 20:49:53.652   01 Jun 2027 20:51:08.948            75.296                Novosib          2353.000
        64   01 Jun 2027 20:54:09.608   01 Jun 2027 20:54:45.219            35.611                Novosib          1112.844
        65   01 Jun 2027 20:55:33.947   01 Jun 2027 20:56:53.651            79.704                  Delhi          2490.750
        66   01 Jun 2027 20:58:55.049   01 Jun 2027 20:59:11.634            16.585                  Delhi           518.281
        67   01 Jun 2027 21:00:38.641   01 Jun 2027 21:02:02.147            83.506                  Delhi          2609.563
        68   01 Jun 2027 22:22:02.747   01 Jun 2027 22:26:11.472           248.725              Murmansk2          7772.656
        69   01 Jun 2027 22:27:06.002   01 Jun 2027 22:33:08.673           362.671                 Moscow         11333.469
        70   02 Jun 2027 00:01:09.264   02 Jun 2027 00:01:53.809            44.545                 Moscow          1392.031
        71   02 Jun 2027 00:02:46.015   02 Jun 2027 00:03:24.797            38.782                 Moscow          1211.938
        72   02 Jun 2027 00:25:34.075   02 Jun 2027 00:27:46.313           132.238               CapeTown          4132.438
        73   02 Jun 2027 00:29:12.824   02 Jun 2027 00:30:11.120            58.296               CapeTown          1821.750
        74   02 Jun 2027 01:28:15.963   02 Jun 2027 01:28:48.316            32.353               Magadan1          1011.031
        75   02 Jun 2027 01:29:36.158   02 Jun 2027 01:29:36.729             0.571               Magadan2            17.844
        76   02 Jun 2027 01:33:44.103   02 Jun 2027 01:35:59.950           135.847              Murmansk1          4245.219
        77   02 Jun 2027 01:36:57.872   02 Jun 2027 01:37:02.458             4.586                 Moscow           143.313
        78   02 Jun 2027 01:40:05.523   02 Jun 2027 01:40:33.592            28.069                 Moscow           877.156
        79   02 Jun 2027 02:01:30.551   02 Jun 2027 02:02:11.150            40.599               CapeTown          1268.719
        80   02 Jun 2027 02:05:08.201   02 Jun 2027 02:06:21.231            73.030               CapeTown          2282.187
        81   02 Jun 2027 02:57:40.637   02 Jun 2027 03:00:19.390           158.753               Magadan2          4961.031
        82   02 Jun 2027 03:03:21.191   02 Jun 2027 03:03:33.309            12.118               Magadan1           378.688
        83   02 Jun 2027 03:03:51.792   02 Jun 2027 03:04:05.196            13.404               Magadan1           418.875
        84   02 Jun 2027 03:04:05.196   02 Jun 2027 03:04:09.183             3.987               Magadan2           124.594
        85   02 Jun 2027 03:04:26.770   02 Jun 2027 03:04:30.421             3.651                Anadyr2           114.094
        86   02 Jun 2027 03:04:30.421   02 Jun 2027 03:05:53.667            83.246                Anadyr1          2601.438
        87   02 Jun 2027 03:05:54.467   02 Jun 2027 03:06:01.260             6.793               Magadan1           212.281
        88   02 Jun 2027 03:06:36.128   02 Jun 2027 03:08:29.072           112.944                Anadyr2          3529.500
        89   02 Jun 2027 03:08:35.208   02 Jun 2027 03:10:08.825            93.617               Magadan1          2925.531
        90   02 Jun 2027 03:10:10.366   02 Jun 2027 03:10:19.278             8.912                Anadyr2           278.500
        91   02 Jun 2027 04:41:05.398   02 Jun 2027 04:42:36.120            90.722                Irkutsk          2835.062
        92   02 Jun 2027 04:43:33.416   02 Jun 2027 04:43:53.297            19.881                Anadyr2           621.281
        93   02 Jun 2027 04:44:38.418   02 Jun 2027 04:44:52.409            13.991                Irkutsk           437.219
        94   02 Jun 2027 04:45:10.541   02 Jun 2027 04:45:20.278             9.737               Magadan1           304.281
        95   02 Jun 2027 05:21:55.980   02 Jun 2027 05:24:27.751           151.771            RioGallegos          4742.844
        96   02 Jun 2027 06:16:08.550   02 Jun 2027 06:17:10.165            61.615                Novosib          1925.469
        97   02 Jun 2027 06:18:17.246   02 Jun 2027 06:18:25.664             8.418                Norilsk           263.063
        98   02 Jun 2027 06:18:49.922   02 Jun 2027 06:19:49.837            59.915                Novosib          1872.344
        99   02 Jun 2027 06:19:58.281   02 Jun 2027 06:19:59.813             1.532              Murmansk2            47.875
       100   02 Jun 2027 06:19:59.813   02 Jun 2027 06:20:36.279            36.466              Murmansk1          1139.562
       101   02 Jun 2027 06:20:36.279   02 Jun 2027 06:21:36.893            60.614              Murmansk2          1894.187
       102   02 Jun 2027 06:21:39.097   02 Jun 2027 06:22:06.457            27.360                Novosib           855.000
       103   02 Jun 2027 06:22:08.695   02 Jun 2027 06:23:00.353            51.658              Murmansk2          1614.312
       104   02 Jun 2027 06:23:00.353   02 Jun 2027 06:24:11.762            71.409              Murmansk1          2231.531
       105   02 Jun 2027 06:24:11.762   02 Jun 2027 06:24:27.035            15.273              Murmansk2           477.281
       106   02 Jun 2027 06:26:08.811   02 Jun 2027 06:26:48.948            40.137                Norilsk          1254.281
       107   02 Jun 2027 06:56:29.574   02 Jun 2027 07:01:12.961           283.387            RioGallegos          8855.844
       108   02 Jun 2027 07:31:36.987   02 Jun 2027 07:35:43.179           246.192                Sumatra          7693.500
       109   02 Jun 2027 07:43:25.999   02 Jun 2027 07:45:15.629           109.630                  Delhi          3425.937
       110   02 Jun 2027 07:53:37.363   02 Jun 2027 07:54:54.183            76.820                Irkutsk          2400.625
       111   02 Jun 2027 07:55:02.284   02 Jun 2027 07:55:37.664            35.380              Murmansk2          1105.625
       112   02 Jun 2027 07:55:48.874   02 Jun 2027 07:58:26.833           157.959                Norilsk          4936.219
       113   02 Jun 2027 07:59:35.587   02 Jun 2027 08:00:02.978            27.391              Murmansk1           855.969
       114   02 Jun 2027 09:15:35.669   02 Jun 2027 09:18:17.235           161.566                  Delhi          5048.937
       115   02 Jun 2027 09:30:19.774   02 Jun 2027 09:31:04.366            44.592                Novosib          1393.500
       116   02 Jun 2027 09:31:25.705   02 Jun 2027 09:32:03.402            37.697                 Moscow          1178.031
       117   02 Jun 2027 09:32:10.051   02 Jun 2027 09:33:17.730            67.679              Murmansk1          2114.969
       118   02 Jun 2027 09:34:31.490   02 Jun 2027 09:34:48.941            17.451                 Moscow           545.344
       119   02 Jun 2027 10:55:04.551   02 Jun 2027 10:57:40.265           155.714                  Delhi          4866.063
       120   02 Jun 2027 11:03:25.706   02 Jun 2027 11:03:48.276            22.570              Murmansk2           705.312
       121   02 Jun 2027 11:04:04.224   02 Jun 2027 11:04:16.813            12.589                 Moscow           393.406
       122   02 Jun 2027 11:04:38.712   02 Jun 2027 11:05:08.775            30.063              Murmansk2           939.469
       123   02 Jun 2027 11:05:14.425   02 Jun 2027 11:05:16.861             2.436              Murmansk1            76.125
       124   02 Jun 2027 11:05:29.896   02 Jun 2027 11:05:54.537            24.641              Murmansk2           770.031
       125   02 Jun 2027 11:05:56.801   02 Jun 2027 11:06:22.521            25.720                 Moscow           803.750
       126   02 Jun 2027 11:06:36.404   02 Jun 2027 11:06:52.083            15.679                Novosib           489.969
       127   02 Jun 2027 11:07:00.301   02 Jun 2027 11:07:07.494             7.193              Murmansk1           224.781
       128   02 Jun 2027 11:07:07.494   02 Jun 2027 11:07:25.933            18.439              Murmansk2           576.219
       129   02 Jun 2027 11:07:26.043   02 Jun 2027 11:08:07.111            41.068                Norilsk          1283.375
       130   02 Jun 2027 11:08:21.736   02 Jun 2027 11:08:44.640            22.904                Norilsk           715.750
       131   02 Jun 2027 11:08:56.457   02 Jun 2027 11:09:59.521            63.064              Murmansk2          1970.750
       132   02 Jun 2027 11:10:05.551   02 Jun 2027 11:10:27.141            21.590              Murmansk2           674.687
       133   02 Jun 2027 11:11:54.330   02 Jun 2027 11:12:00.076             5.746                 Moscow           179.562
       134   02 Jun 2027 11:12:11.663   02 Jun 2027 11:12:13.087             1.424              Murmansk1            44.500
       135   02 Jun 2027 12:15:52.460   02 Jun 2027 12:18:30.847           158.387               CapeTown          4949.594
       136   02 Jun 2027 12:22:12.178   02 Jun 2027 12:23:21.131            68.953               CapeTown          2154.781
       137   02 Jun 2027 12:37:05.734   02 Jun 2027 12:37:14.438             8.704                 Moscow           272.000
       138   02 Jun 2027 12:40:01.455   02 Jun 2027 12:42:26.521           145.066              Murmansk1          4533.312
       139   02 Jun 2027 12:44:45.290   02 Jun 2027 12:45:04.338            19.048              Murmansk2           595.250
       140   02 Jun 2027 12:54:50.369   02 Jun 2027 12:58:42.669           232.300                Anadyr2          7259.375
       141   02 Jun 2027 12:58:49.523   02 Jun 2027 13:00:53.690           124.167                Anadyr1          3880.219
       142   02 Jun 2027 14:21:40.106   02 Jun 2027 14:21:59.399            19.293              Murmansk2           602.906
       143   02 Jun 2027 14:22:41.575   02 Jun 2027 14:23:07.533            25.958              Murmansk2           811.187
       144   02 Jun 2027 14:30:05.698   02 Jun 2027 14:34:20.377           254.679                Anadyr1          7958.719
       145   02 Jun 2027 14:34:34.199   02 Jun 2027 14:39:02.275           268.076               Magadan2          8377.375
       146   02 Jun 2027 16:08:26.737   02 Jun 2027 16:12:34.954           248.217               Magadan1          7756.781
       147   02 Jun 2027 16:15:28.869   02 Jun 2027 16:16:33.659            64.790               Magadan1          2024.688
       148   02 Jun 2027 17:41:51.284   02 Jun 2027 17:41:51.892             0.608                Anadyr2            19.000
       149   02 Jun 2027 17:42:34.043   02 Jun 2027 17:43:42.485            68.442                Anadyr2          2138.813
       150   02 Jun 2027 17:44:09.441   02 Jun 2027 17:45:32.837            83.396               Magadan2          2606.125
       151   02 Jun 2027 17:45:44.992   02 Jun 2027 17:46:58.453            73.461                Norilsk          2295.656
       152   02 Jun 2027 17:47:29.957   02 Jun 2027 17:48:16.467            46.510                Norilsk          1453.437
       153   02 Jun 2027 17:48:22.134   02 Jun 2027 17:49:21.603            59.469                Norilsk          1858.406
       154   02 Jun 2027 17:51:39.068   02 Jun 2027 17:53:12.965            93.897                Irkutsk          2934.281
       155   02 Jun 2027 18:37:20.052   02 Jun 2027 18:38:00.098            40.046            RioGallegos          1251.438
       156   02 Jun 2027 18:39:19.004   02 Jun 2027 18:39:39.341            20.337            RioGallegos           635.531
       157   02 Jun 2027 18:46:26.170   02 Jun 2027 18:47:17.932            51.762            RioGallegos          1617.562
       158   02 Jun 2027 19:19:43.375   02 Jun 2027 19:21:14.274            90.899                Norilsk          2840.594
       159   02 Jun 2027 19:23:50.149   02 Jun 2027 19:24:11.311            21.162                Irkutsk           661.312
       160   02 Jun 2027 19:24:34.012   02 Jun 2027 19:25:10.463            36.451                Norilsk          1139.094
       161   02 Jun 2027 19:25:27.663   02 Jun 2027 19:31:52.169           384.506                Novosib         12015.812
       162   02 Jun 2027 19:40:27.514   02 Jun 2027 19:41:17.143            49.629                Sumatra          1550.906
       163   02 Jun 2027 19:49:36.345   02 Jun 2027 19:50:07.922            31.577                Sumatra           986.781
       164   02 Jun 2027 21:01:24.006   02 Jun 2027 21:01:36.571            12.565                Novosib           392.656
       165   02 Jun 2027 21:03:12.145   02 Jun 2027 21:05:13.840           121.695                Novosib          3802.969
       166   02 Jun 2027 21:07:17.464   02 Jun 2027 21:11:08.382           230.918                  Delhi          7216.187
       167   02 Jun 2027 22:34:00.190   02 Jun 2027 22:40:10.277           370.087              Murmansk1         11565.219
       168   02 Jun 2027 22:40:35.002   02 Jun 2027 22:45:42.004           307.002                 Moscow          9593.813
       169   03 Jun 2027 00:17:19.130   03 Jun 2027 00:18:40.730            81.600                 Moscow          2550.000
       170   03 Jun 2027 00:37:17.440   03 Jun 2027 00:39:03.617           106.177               CapeTown          3318.031
       171   03 Jun 2027 00:39:38.979   03 Jun 2027 00:39:57.213            18.234               CapeTown           569.813
       172   03 Jun 2027 00:41:04.538   03 Jun 2027 00:41:12.226             7.688               CapeTown           240.250
       173   03 Jun 2027 00:48:31.467   03 Jun 2027 00:49:03.108            31.641               CapeTown           988.781
       174   03 Jun 2027 01:37:07.074   03 Jun 2027 01:37:43.678            36.604               Magadan2          1143.875
       175   03 Jun 2027 01:40:03.595   03 Jun 2027 01:40:18.004            14.409               Magadan1           450.281
       176   03 Jun 2027 01:40:48.494   03 Jun 2027 01:41:37.862            49.368               Magadan1          1542.750
       177   03 Jun 2027 01:45:45.582   03 Jun 2027 01:47:03.508            77.926              Murmansk1          2435.187
       178   03 Jun 2027 01:49:00.964   03 Jun 2027 01:51:52.713           171.749                 Moscow          5367.156
       179   03 Jun 2027 02:18:03.389   03 Jun 2027 02:18:34.582            31.193               CapeTown           974.781
       180   03 Jun 2027 03:15:10.629   03 Jun 2027 03:18:38.719           208.090                Anadyr1          6502.812
       181   03 Jun 2027 03:18:38.719   03 Jun 2027 03:18:43.813             5.094                Anadyr2           159.188
       182   03 Jun 2027 03:18:44.025   03 Jun 2027 03:21:53.466           189.441                Anadyr2          5920.031
       183   03 Jun 2027 03:21:53.466   03 Jun 2027 03:22:15.640            22.174                Anadyr1           692.938
       184   03 Jun 2027 04:53:22.088   03 Jun 2027 04:54:09.994            47.906                Irkutsk          1497.062
       185   03 Jun 2027 04:54:14.051   03 Jun 2027 04:57:45.200           211.149                Anadyr2          6598.406
       186   03 Jun 2027 04:57:49.963   03 Jun 2027 04:57:57.005             7.042                Norilsk           220.063
       187   03 Jun 2027 05:33:35.769   03 Jun 2027 05:34:13.914            38.145            RioGallegos          1192.031
       188   03 Jun 2027 05:34:58.727   03 Jun 2027 05:35:24.978            26.251            RioGallegos           820.344
       189   03 Jun 2027 05:35:36.549   03 Jun 2027 05:36:12.270            35.721            RioGallegos          1116.281
       190   03 Jun 2027 05:40:46.863   03 Jun 2027 05:41:14.236            27.373            RioGallegos           855.406
       191   03 Jun 2027 05:42:07.953   03 Jun 2027 05:42:56.519            48.566            RioGallegos          1517.688
       192   03 Jun 2027 06:27:27.933   03 Jun 2027 06:27:41.248            13.315               Magadan2           416.094
       193   03 Jun 2027 06:27:43.500   03 Jun 2027 06:28:36.269            52.769                Irkutsk          1649.031
       194   03 Jun 2027 06:28:43.949   03 Jun 2027 06:29:21.217            37.268               Magadan2          1164.625
       195   03 Jun 2027 06:29:26.891   03 Jun 2027 06:31:17.459           110.568               Magadan2          3455.250
       196   03 Jun 2027 06:31:29.164   03 Jun 2027 06:32:43.694            74.530               Magadan1          2329.063
       197   03 Jun 2027 06:33:07.186   03 Jun 2027 06:33:08.188             1.002                Novosib            31.312
       198   03 Jun 2027 06:33:30.280   03 Jun 2027 06:33:41.061            10.781                Novosib           336.906
       199   03 Jun 2027 06:34:03.643   03 Jun 2027 06:34:08.319             4.676              Murmansk2           146.125
       200   03 Jun 2027 06:34:33.402   03 Jun 2027 06:35:02.546            29.144              Murmansk2           910.750
       201   03 Jun 2027 06:36:52.579   03 Jun 2027 06:37:14.574            21.995              Murmansk1           687.344
       202   03 Jun 2027 06:38:19.845   03 Jun 2027 06:38:21.910             2.065              Murmansk1            64.531
       203   03 Jun 2027 07:08:35.258   03 Jun 2027 07:10:06.126            90.868            RioGallegos          2839.625
       204   03 Jun 2027 07:43:28.621   03 Jun 2027 07:45:40.463           131.842                Sumatra          4120.063
       205   03 Jun 2027 07:46:31.631   03 Jun 2027 07:46:50.350            18.719                Sumatra           584.969
       206   03 Jun 2027 07:54:26.085   03 Jun 2027 07:56:49.218           143.133                  Delhi          4472.906
       207   03 Jun 2027 07:59:52.964   03 Jun 2027 08:00:25.843            32.879                  Delhi          1027.469
       208   03 Jun 2027 08:01:20.126   03 Jun 2027 08:02:14.240            54.114                  Delhi          1691.063
       209   03 Jun 2027 08:04:36.981   03 Jun 2027 08:05:37.371            60.390                Irkutsk          1887.188
       210   03 Jun 2027 08:05:48.769   03 Jun 2027 08:06:31.395            42.626                Norilsk          1332.062
       211   03 Jun 2027 08:07:03.311   03 Jun 2027 08:07:07.540             4.229                Irkutsk           132.156
       212   03 Jun 2027 08:07:10.532   03 Jun 2027 08:07:35.397            24.865                Irkutsk           777.031
       213   03 Jun 2027 08:07:44.834   03 Jun 2027 08:08:02.680            17.846              Murmansk2           557.687
       214   03 Jun 2027 08:08:08.239   03 Jun 2027 08:08:21.266            13.027                Novosib           407.094
       215   03 Jun 2027 08:08:32.650   03 Jun 2027 08:08:46.183            13.533              Murmansk2           422.906
       216   03 Jun 2027 08:08:54.667   03 Jun 2027 08:08:57.536             2.869                Norilsk            89.656
       217   03 Jun 2027 08:09:16.578   03 Jun 2027 08:09:31.378            14.800                Norilsk           462.500
       218   03 Jun 2027 08:09:31.529   03 Jun 2027 08:10:19.720            48.191              Murmansk2          1505.969
       219   03 Jun 2027 08:13:11.892   03 Jun 2027 08:14:00.619            48.727              Murmansk2          1522.719
       220   03 Jun 2027 09:22:30.345   03 Jun 2027 09:23:38.102            67.757                Sumatra          2117.406
       221   03 Jun 2027 09:24:40.795   03 Jun 2027 09:25:14.345            33.550                Sumatra          1048.437
       222   03 Jun 2027 09:28:34.069   03 Jun 2027 09:29:49.970            75.901                  Delhi          2371.906
       223   03 Jun 2027 09:41:34.289   03 Jun 2027 09:41:59.075            24.786              Murmansk1           774.563
       224   03 Jun 2027 09:41:59.075   03 Jun 2027 09:41:59.715             0.640              Murmansk2            20.000
       225   03 Jun 2027 09:42:16.752   03 Jun 2027 09:42:19.113             2.361                 Moscow            73.781
       226   03 Jun 2027 09:42:21.794   03 Jun 2027 09:42:36.838            15.044              Murmansk2           470.125
       227   03 Jun 2027 09:42:50.553   03 Jun 2027 09:43:12.473            21.920                Norilsk           685.000
       228   03 Jun 2027 09:43:45.473   03 Jun 2027 09:44:04.326            18.853              Murmansk2           589.156
       229   03 Jun 2027 09:44:04.326   03 Jun 2027 09:44:32.377            28.051              Murmansk1           876.594
       230   03 Jun 2027 09:44:33.983   03 Jun 2027 09:44:40.817             6.834                 Moscow           213.563
       231   03 Jun 2027 09:44:45.204   03 Jun 2027 09:44:56.579            11.375                Novosib           355.469
       232   03 Jun 2027 09:45:01.862   03 Jun 2027 09:45:21.800            19.938                Novosib           623.062
       233   03 Jun 2027 09:45:52.275   03 Jun 2027 09:46:00.023             7.748              Murmansk2           242.125
       234   03 Jun 2027 09:46:39.124   03 Jun 2027 09:47:11.507            32.383              Murmansk2          1011.969
       235   03 Jun 2027 11:09:56.184   03 Jun 2027 11:10:33.288            37.104                  Delhi          1159.500
       236   03 Jun 2027 11:15:18.524   03 Jun 2027 11:15:50.377            31.853                 Moscow           995.406
       237   03 Jun 2027 11:16:10.758   03 Jun 2027 11:16:27.713            16.955              Murmansk1           529.844
       238   03 Jun 2027 11:16:27.713   03 Jun 2027 11:17:02.940            35.227              Murmansk2          1100.844
       239   03 Jun 2027 11:17:07.853   03 Jun 2027 11:17:12.274             4.421              Murmansk1           138.156
       240   03 Jun 2027 11:17:30.711   03 Jun 2027 11:17:56.197            25.486              Murmansk2           796.438
       241   03 Jun 2027 11:17:56.197   03 Jun 2027 11:18:15.167            18.970              Murmansk1           592.812
       242   03 Jun 2027 11:18:34.176   03 Jun 2027 11:19:09.065            34.889                 Moscow          1090.281
       243   03 Jun 2027 11:19:13.317   03 Jun 2027 11:19:50.815            37.498              Murmansk1          1171.812
       244   03 Jun 2027 11:19:51.972   03 Jun 2027 11:20:14.135            22.163              Murmansk1           692.594
       245   03 Jun 2027 11:20:14.135   03 Jun 2027 11:20:36.535            22.400              Murmansk2           700.000
       246   03 Jun 2027 11:20:40.006   03 Jun 2027 11:21:37.061            57.055                 Moscow          1782.969
       247   03 Jun 2027 11:21:56.718   03 Jun 2027 11:22:28.280            31.562                 Moscow           986.313
       248   03 Jun 2027 12:27:10.142   03 Jun 2027 12:30:15.890           185.748               CapeTown          5804.625
       249   03 Jun 2027 12:34:14.451   03 Jun 2027 12:34:46.726            32.275               CapeTown          1008.594
       250   03 Jun 2027 12:52:15.753   03 Jun 2027 12:54:42.871           147.118              Murmansk1          4597.437
       251   03 Jun 2027 12:55:48.732   03 Jun 2027 12:56:02.796            14.064              Murmansk1           439.500
       252   03 Jun 2027 12:56:08.035   03 Jun 2027 12:56:39.545            31.510              Murmansk1           984.687
       253   03 Jun 2027 13:06:41.137   03 Jun 2027 13:12:33.162           352.025                Anadyr1         11000.781
       254   03 Jun 2027 14:33:43.218   03 Jun 2027 14:34:36.115            52.897              Murmansk2          1653.031
       255   03 Jun 2027 14:42:05.689   03 Jun 2027 14:43:37.271            91.582                Anadyr1          2861.937
       256   03 Jun 2027 14:43:39.567   03 Jun 2027 14:44:15.542            35.975                Anadyr2          1124.219
       257   03 Jun 2027 14:45:26.682   03 Jun 2027 14:45:53.975            27.293                Anadyr1           852.906
       258   03 Jun 2027 14:45:56.846   03 Jun 2027 14:52:15.711           378.865               Magadan2         11839.531
       259   03 Jun 2027 16:20:24.135   03 Jun 2027 16:22:16.824           112.689               Magadan2          3521.531
       260   03 Jun 2027 16:22:40.875   03 Jun 2027 16:23:49.699            68.824               Magadan1          2150.750
       261   03 Jun 2027 16:25:22.939   03 Jun 2027 16:27:03.866           100.927               Magadan1          3153.969
       262   03 Jun 2027 17:53:51.444   03 Jun 2027 17:55:10.451            79.007                Anadyr1          2468.969
       263   03 Jun 2027 17:56:11.065   03 Jun 2027 17:59:27.007           195.942               Magadan1          6123.187
       264   03 Jun 2027 18:00:13.737   03 Jun 2027 18:02:13.774           120.037                Norilsk          3751.156
       265   03 Jun 2027 18:03:10.443   03 Jun 2027 18:04:54.796           104.353                Irkutsk          3261.031
       266   03 Jun 2027 18:06:07.632   03 Jun 2027 18:07:33.293            85.661                Irkutsk          2676.906
       267   03 Jun 2027 19:31:44.165   03 Jun 2027 19:33:11.497            87.332                Norilsk          2729.125
       268   03 Jun 2027 19:36:59.356   03 Jun 2027 19:44:28.244           448.888                Novosib         14027.750
       269   03 Jun 2027 21:11:35.860   03 Jun 2027 21:12:00.040            24.180                Novosib           755.625
       270   03 Jun 2027 21:13:51.173   03 Jun 2027 21:14:28.846            37.673                Novosib          1177.281
       271   03 Jun 2027 21:19:05.982   03 Jun 2027 21:21:42.741           156.759                  Delhi          4898.719
       272   03 Jun 2027 21:27:52.874   03 Jun 2027 21:28:34.353            41.479                  Delhi          1296.219
       273   03 Jun 2027 21:30:09.789   03 Jun 2027 21:31:28.921            79.132                  Delhi          2472.875
       274   03 Jun 2027 22:45:58.651   03 Jun 2027 22:47:46.738           108.087              Murmansk1          3377.719
       275   03 Jun 2027 22:47:48.549   03 Jun 2027 22:52:23.098           274.549              Murmansk2          8579.656
       276   03 Jun 2027 22:52:38.414   03 Jun 2027 22:55:58.811           200.397                 Moscow          6262.406
       277   03 Jun 2027 23:18:23.569   03 Jun 2027 23:19:24.056            60.487               CapeTown          1890.219
       278   03 Jun 2027 23:20:19.109   03 Jun 2027 23:21:34.239            75.130               CapeTown          2347.813
       279   04 Jun 2027 00:25:05.663   04 Jun 2027 00:26:15.039            69.376                 Moscow          2168.000
       280   04 Jun 2027 00:28:49.859   04 Jun 2027 00:29:10.492            20.633                 Moscow           644.781
       281   04 Jun 2027 00:33:42.549   04 Jun 2027 00:33:47.622             5.073                 Moscow           158.531
       282   04 Jun 2027 00:34:48.999   04 Jun 2027 00:36:19.232            90.233                 Moscow          2819.781
       283   04 Jun 2027 00:49:06.043   04 Jun 2027 00:50:54.870           108.827               CapeTown          3400.844
       284   04 Jun 2027 01:47:28.128   04 Jun 2027 01:47:45.627            17.499               Magadan2           546.844
       285   04 Jun 2027 01:47:48.820   04 Jun 2027 01:48:03.700            14.880               Magadan2           465.000
       286   04 Jun 2027 01:49:03.393   04 Jun 2027 01:49:20.471            17.078               Magadan2           533.688
       287   04 Jun 2027 01:49:45.491   04 Jun 2027 01:50:03.683            18.192               Magadan2           568.500
       288   04 Jun 2027 01:52:02.836   04 Jun 2027 01:52:16.256            13.420               Magadan2           419.375
       289   04 Jun 2027 01:55:04.270   04 Jun 2027 01:55:04.553             0.283                Norilsk             8.844
       290   04 Jun 2027 01:55:21.016   04 Jun 2027 01:55:30.073             9.057               Magadan2           283.031
       291   04 Jun 2027 01:56:24.903   04 Jun 2027 01:56:30.047             5.144               Magadan2           160.750
       292   04 Jun 2027 01:57:46.949   04 Jun 2027 01:58:04.855            17.906              Murmansk2           559.563
       293   04 Jun 2027 01:58:15.001   04 Jun 2027 01:59:05.442            50.441              Murmansk1          1576.281
       294   04 Jun 2027 02:00:35.056   04 Jun 2027 02:00:45.844            10.788              Murmansk2           337.125
       295   04 Jun 2027 02:01:04.524   04 Jun 2027 02:02:13.183            68.659                 Moscow          2145.594
       296   04 Jun 2027 02:03:24.475   04 Jun 2027 02:03:41.477            17.002                 Moscow           531.312
       297   04 Jun 2027 02:09:29.820   04 Jun 2027 02:09:59.525            29.705                 Moscow           928.281
       298   04 Jun 2027 02:12:38.818   04 Jun 2027 02:13:05.131            26.313                 Moscow           822.281
       299   04 Jun 2027 02:26:35.472   04 Jun 2027 02:27:02.025            26.553               CapeTown           829.781
       300   04 Jun 2027 02:29:22.960   04 Jun 2027 02:30:51.676            88.716               CapeTown          2772.375
       301   04 Jun 2027 03:27:00.580   04 Jun 2027 03:27:04.085             3.505                Anadyr1           109.531
       302   04 Jun 2027 03:27:26.499   04 Jun 2027 03:29:13.140           106.641               Magadan1          3332.531
       303   04 Jun 2027 03:29:19.298   04 Jun 2027 03:29:56.186            36.888               Magadan2          1152.750
       304   04 Jun 2027 03:29:56.186   04 Jun 2027 03:30:09.184            12.998               Magadan1           406.187
       305   04 Jun 2027 03:30:19.180   04 Jun 2027 03:34:26.515           247.335                Anadyr2          7729.219
       306   04 Jun 2027 05:03:51.672   04 Jun 2027 05:04:39.981            48.309                Anadyr2          1509.656
       307   04 Jun 2027 05:05:25.314   04 Jun 2027 05:07:00.784            95.470               Magadan1          2983.437
       308   04 Jun 2027 05:07:00.784   04 Jun 2027 05:07:24.757            23.973               Magadan2           749.156
       309   04 Jun 2027 05:07:40.815   04 Jun 2027 05:07:56.039            15.224                Irkutsk           475.750
       310   04 Jun 2027 05:07:56.536   04 Jun 2027 05:09:33.527            96.991                Anadyr1          3030.969
       311   04 Jun 2027 05:09:50.900   04 Jun 2027 05:10:00.318             9.418               Magadan1           294.312
       312   04 Jun 2027 05:10:14.768   04 Jun 2027 05:10:16.257             1.489                Norilsk            46.531
       313   04 Jun 2027 05:10:27.634   04 Jun 2027 05:11:04.725            37.091              Murmansk2          1159.094
       314   04 Jun 2027 05:11:55.831   04 Jun 2027 05:12:09.626            13.795              Murmansk2           431.094
       315   04 Jun 2027 05:12:11.285   04 Jun 2027 05:12:31.088            19.803                Norilsk           618.844
       316   04 Jun 2027 05:14:31.739   04 Jun 2027 05:15:00.807            29.068                Norilsk           908.375
       317   04 Jun 2027 05:45:18.843   04 Jun 2027 05:47:42.679           143.836            RioGallegos          4494.875
       318   04 Jun 2027 05:48:23.780   04 Jun 2027 05:49:00.099            36.319            RioGallegos          1134.969
       319   04 Jun 2027 05:51:27.088   04 Jun 2027 05:52:00.255            33.167            RioGallegos          1036.469
       320   04 Jun 2027 05:52:55.431   04 Jun 2027 05:53:35.913            40.482            RioGallegos          1265.062
       321   04 Jun 2027 05:53:56.096   04 Jun 2027 05:54:38.232            42.136            RioGallegos          1316.750
       322   04 Jun 2027 05:55:32.977   04 Jun 2027 05:56:34.692            61.715            RioGallegos          1928.594
       323   04 Jun 2027 06:24:19.414   04 Jun 2027 06:25:06.901            47.487                Sumatra          1483.969
       324   04 Jun 2027 06:26:14.693   04 Jun 2027 06:27:37.541            82.848                Sumatra          2589.000
       325   04 Jun 2027 06:39:08.545   04 Jun 2027 06:39:38.154            29.609                Irkutsk           925.281
       326   04 Jun 2027 06:39:47.924   04 Jun 2027 06:40:40.155            52.231                Novosib          1632.219
       327   04 Jun 2027 06:40:53.039   04 Jun 2027 06:41:31.128            38.089                Novosib          1190.281
       328   04 Jun 2027 06:41:34.919   04 Jun 2027 06:42:02.959            28.040                Irkutsk           876.250
       329   04 Jun 2027 06:42:31.032   04 Jun 2027 06:42:42.917            11.885                Novosib           371.406
       330   04 Jun 2027 06:42:45.358   04 Jun 2027 06:43:21.938            36.580                Irkutsk          1143.125
       331   04 Jun 2027 06:43:31.860   04 Jun 2027 06:43:33.636             1.776               Magadan1            55.500
       332   04 Jun 2027 06:43:33.636   04 Jun 2027 06:44:02.908            29.272               Magadan2           914.750
       333   04 Jun 2027 06:44:14.987   04 Jun 2027 06:44:31.341            16.354               Magadan2           511.063
       334   04 Jun 2027 06:44:42.414   04 Jun 2027 06:45:08.900            26.486              Murmansk2           827.688
       335   04 Jun 2027 06:45:18.103   04 Jun 2027 06:45:54.053            35.950                Irkutsk          1123.438
       336   04 Jun 2027 06:45:55.931   04 Jun 2027 06:46:05.926             9.995                Novosib           312.344
       337   04 Jun 2027 06:46:41.375   04 Jun 2027 06:47:01.321            19.946              Murmansk2           623.312
       338   04 Jun 2027 06:47:04.676   04 Jun 2027 06:47:05.114             0.438              Murmansk2            13.688
       339   04 Jun 2027 07:20:44.513   04 Jun 2027 07:21:57.155            72.642            RioGallegos          2270.062
       340   04 Jun 2027 07:55:25.960   04 Jun 2027 07:56:55.078            89.118                Sumatra          2784.938
       341   04 Jun 2027 08:05:40.844   04 Jun 2027 08:07:38.705           117.861                  Delhi          3683.156
       342   04 Jun 2027 08:10:19.262   04 Jun 2027 08:12:24.167           124.905                  Delhi          3903.281
       343   04 Jun 2027 08:15:51.972   04 Jun 2027 08:15:52.974             1.002                Irkutsk            31.312
       344   04 Jun 2027 08:16:15.482   04 Jun 2027 08:16:19.603             4.121                Novosib           128.781
       345   04 Jun 2027 08:16:31.062   04 Jun 2027 08:16:49.318            18.256                Norilsk           570.500
       346   04 Jun 2027 08:17:13.869   04 Jun 2027 08:17:42.178            28.309                Norilsk           884.656
       347   04 Jun 2027 08:17:51.044   04 Jun 2027 08:18:13.224            22.180              Murmansk2           693.125
       348   04 Jun 2027 08:18:13.224   04 Jun 2027 08:19:28.038            74.814              Murmansk1          2337.938
       349   04 Jun 2027 08:19:48.592   04 Jun 2027 08:20:06.068            17.476                Novosib           546.125
       350   04 Jun 2027 08:20:11.325   04 Jun 2027 08:21:33.189            81.864                Irkutsk          2558.250
       351   04 Jun 2027 08:21:53.026   04 Jun 2027 08:22:10.212            17.186                Novosib           537.063
       352   04 Jun 2027 08:22:16.771   04 Jun 2027 08:22:38.693            21.922              Murmansk2           685.063
       353   04 Jun 2027 08:23:41.667   04 Jun 2027 08:23:43.659             1.992                 Moscow            62.250
       354   04 Jun 2027 08:25:05.840   04 Jun 2027 08:25:05.917             0.077              Murmansk2             2.406
       355   04 Jun 2027 08:25:54.506   04 Jun 2027 08:26:32.201            37.695              Murmansk1          1177.969
       356   04 Jun 2027 09:00:49.959   04 Jun 2027 09:01:38.880            48.921            RioGallegos          1528.781
       357   04 Jun 2027 09:39:44.022   04 Jun 2027 09:41:29.403           105.381                  Delhi          3293.156
       358   04 Jun 2027 09:42:45.229   04 Jun 2027 09:43:37.185            51.956                  Delhi          1623.625
       359   04 Jun 2027 09:53:35.973   04 Jun 2027 09:54:00.162            24.189              Murmansk2           755.906
       360   04 Jun 2027 09:54:00.162   04 Jun 2027 09:54:18.868            18.706              Murmansk1           584.563
       361   04 Jun 2027 09:54:23.762   04 Jun 2027 09:54:31.143             7.381                Norilsk           230.656
       362   04 Jun 2027 09:54:48.790   04 Jun 2027 09:55:08.524            19.734                Norilsk           616.688
       363   04 Jun 2027 09:55:25.516   04 Jun 2027 09:55:34.752             9.236                 Moscow           288.625
       364   04 Jun 2027 09:55:59.784   04 Jun 2027 09:56:29.782            29.998              Murmansk1           937.438
       365   04 Jun 2027 09:56:29.782   04 Jun 2027 09:56:56.585            26.803              Murmansk2           837.594
       366   04 Jun 2027 09:57:06.029   04 Jun 2027 09:57:13.824             7.795                Norilsk           243.594
       367   04 Jun 2027 09:57:22.891   04 Jun 2027 09:57:42.232            19.341              Murmansk2           604.406
       368   04 Jun 2027 10:00:15.000   04 Jun 2027 10:00:20.412             5.412              Murmansk1           169.125
       369   04 Jun 2027 10:01:03.507   04 Jun 2027 10:01:33.077            29.570              Murmansk2           924.063
       370   04 Jun 2027 11:27:20.424   04 Jun 2027 11:28:27.652            67.228                 Moscow          2100.875
       371   04 Jun 2027 11:28:32.125   04 Jun 2027 11:29:24.631            52.506                 Moscow          1640.812
       372   04 Jun 2027 11:29:31.182   04 Jun 2027 11:29:57.823            26.641              Murmansk1           832.531
       373   04 Jun 2027 11:29:57.823   04 Jun 2027 11:30:13.240            15.417              Murmansk2           481.781
       374   04 Jun 2027 11:30:26.850   04 Jun 2027 11:31:22.504            55.654                 Moscow          1739.187
       375   04 Jun 2027 11:31:35.988   04 Jun 2027 11:32:43.034            67.046                 Moscow          2095.187
       376   04 Jun 2027 11:33:24.284   04 Jun 2027 11:33:57.436            33.152              Murmansk2          1036.000
       377   04 Jun 2027 11:34:08.378   04 Jun 2027 11:34:22.023            13.645              Murmansk2           426.406
       378   04 Jun 2027 11:36:51.970   04 Jun 2027 11:36:55.543             3.573                 Moscow           111.656
       379   04 Jun 2027 12:38:40.702   04 Jun 2027 12:41:20.058           159.356               CapeTown          4979.875
       380   04 Jun 2027 12:41:51.760   04 Jun 2027 12:44:03.366           131.606               CapeTown          4112.688
       381   04 Jun 2027 13:04:32.049   04 Jun 2027 13:06:39.927           127.878              Murmansk2          3996.187
       382   04 Jun 2027 13:18:34.418   04 Jun 2027 13:21:19.240           164.822                Anadyr2          5150.688
       383   04 Jun 2027 13:21:35.131   04 Jun 2027 13:22:36.860            61.729                Anadyr1          1929.031
       384   04 Jun 2027 13:26:54.229   04 Jun 2027 13:27:59.627            65.398                Anadyr1          2043.688
       385   04 Jun 2027 14:43:51.652   04 Jun 2027 14:44:28.161            36.509              Murmansk1          1140.906
       386   04 Jun 2027 14:45:12.531   04 Jun 2027 14:45:44.933            32.402              Murmansk2          1012.562
       387   04 Jun 2027 14:47:41.299   04 Jun 2027 14:48:03.248            21.949              Murmansk2           685.906
       388   04 Jun 2027 14:54:06.044   04 Jun 2027 14:54:31.157            25.113                Anadyr1           784.781
       389   04 Jun 2027 14:55:30.856   04 Jun 2027 14:56:32.012            61.156                Anadyr2          1911.125
       390   04 Jun 2027 14:56:54.410   04 Jun 2027 14:57:26.642            32.232                Anadyr2          1007.250
       391   04 Jun 2027 14:57:33.617   04 Jun 2027 15:01:09.448           215.831               Magadan2          6744.719
       392   04 Jun 2027 15:01:28.712   04 Jun 2027 15:04:37.291           188.579               Magadan1          5893.094
       393   04 Jun 2027 16:32:22.419   04 Jun 2027 16:34:22.783           120.364               Magadan1          3761.375
       394   04 Jun 2027 16:34:42.600   04 Jun 2027 16:34:59.601            17.001               Magadan1           531.281
       395   04 Jun 2027 16:35:52.430   04 Jun 2027 16:36:34.852            42.422               Magadan1          1325.688
       396   04 Jun 2027 18:05:51.249   04 Jun 2027 18:08:48.442           177.193                Anadyr2          5537.281
       397   04 Jun 2027 18:08:58.900   04 Jun 2027 18:14:24.594           325.694                Norilsk         10177.938
       398   04 Jun 2027 18:15:14.568   04 Jun 2027 18:17:57.132           162.564                Irkutsk          5080.125
       399   04 Jun 2027 18:19:58.911   04 Jun 2027 18:20:44.000            45.089                Irkutsk          1409.031
       400   04 Jun 2027 18:29:20.042   04 Jun 2027 18:31:58.817           158.775                Sumatra          4961.719
       401   04 Jun 2027 18:32:11.587   04 Jun 2027 18:34:17.667           126.080                Sumatra          3940.000
       402   04 Jun 2027 19:49:21.635   04 Jun 2027 19:52:19.174           177.539                Novosib          5548.094
       403   04 Jun 2027 19:53:47.837   04 Jun 2027 19:54:29.377            41.540                Novosib          1298.125
       404   04 Jun 2027 20:10:30.046   04 Jun 2027 20:10:49.531            19.485                Sumatra           608.906
       405   04 Jun 2027 21:23:12.015   04 Jun 2027 21:26:43.857           211.842              Murmansk2          6620.062
       406   04 Jun 2027 21:30:58.660   04 Jun 2027 21:32:49.419           110.759                  Delhi          3461.219
       407   04 Jun 2027 21:36:15.363   04 Jun 2027 21:36:47.184            31.821                  Delhi           994.406
       408   04 Jun 2027 21:40:29.991   04 Jun 2027 21:41:21.877            51.886                  Delhi          1621.437
       409   04 Jun 2027 22:57:57.880   04 Jun 2027 22:59:38.231           100.351              Murmansk1          3135.969
       410   04 Jun 2027 22:59:46.841   04 Jun 2027 23:03:47.611           240.770              Murmansk2          7524.062
       411   04 Jun 2027 23:04:42.310   04 Jun 2027 23:05:45.117            62.807                 Moscow          1962.719
       412   04 Jun 2027 23:07:08.142   04 Jun 2027 23:08:06.600            58.458                 Moscow          1826.812
       413   04 Jun 2027 23:28:59.345   04 Jun 2027 23:30:49.060           109.715               CapeTown          3428.594
       414   04 Jun 2027 23:33:52.671   04 Jun 2027 23:35:53.647           120.976               CapeTown          3780.500
       415   05 Jun 2027 00:34:22.921   05 Jun 2027 00:35:10.090            47.169              Murmansk1          1474.031
       416   05 Jun 2027 00:37:05.196   05 Jun 2027 00:37:19.085            13.889                 Moscow           434.031
       417   05 Jun 2027 00:40:54.392   05 Jun 2027 00:41:20.181            25.789                 Moscow           805.906
       418   05 Jun 2027 00:45:08.328   05 Jun 2027 00:45:22.028            13.700                 Moscow           428.125
       419   05 Jun 2027 00:45:49.190   05 Jun 2027 00:46:02.844            13.654                 Moscow           426.688
       420   05 Jun 2027 00:47:17.256   05 Jun 2027 00:48:14.178            56.922                 Moscow          1778.813
       421   05 Jun 2027 01:00:59.670   05 Jun 2027 01:01:55.243            55.573               CapeTown          1736.656
       422   05 Jun 2027 01:09:23.020   05 Jun 2027 01:10:28.304            65.284               CapeTown          2040.125
       423   05 Jun 2027 01:59:07.771   05 Jun 2027 02:00:34.365            86.594               Magadan2          2706.063
       424   05 Jun 2027 02:06:29.902   05 Jun 2027 02:06:39.315             9.413                Norilsk           294.156
       425   05 Jun 2027 02:06:53.699   05 Jun 2027 02:06:57.172             3.473                Norilsk           108.531
       426   05 Jun 2027 02:09:48.165   05 Jun 2027 02:11:07.162            78.997              Murmansk1          2468.656
       427   05 Jun 2027 02:12:29.681   05 Jun 2027 02:12:47.438            17.757              Murmansk1           554.906
       428   05 Jun 2027 02:13:07.853   05 Jun 2027 02:13:19.859            12.006              Murmansk2           375.187
       429   05 Jun 2027 02:13:35.303   05 Jun 2027 02:14:19.534            44.231                 Moscow          1382.219
       430   05 Jun 2027 02:14:36.243   05 Jun 2027 02:14:44.523             8.280                 Moscow           258.750
       431   05 Jun 2027 02:15:27.594   05 Jun 2027 02:16:02.645            35.051                 Moscow          1095.344
       432   05 Jun 2027 02:22:21.606   05 Jun 2027 02:22:46.665            25.059                 Moscow           783.094
       433   05 Jun 2027 02:39:25.159   05 Jun 2027 02:40:10.115            44.956               CapeTown          1404.875
       434   05 Jun 2027 02:47:02.490   05 Jun 2027 02:47:39.262            36.772               CapeTown          1149.125
       435   05 Jun 2027 03:38:11.649   05 Jun 2027 03:38:36.445            24.796               Magadan2           774.875
       436   05 Jun 2027 03:38:44.445   05 Jun 2027 03:39:41.119            56.674                Anadyr1          1771.062
       437   05 Jun 2027 03:39:41.119   05 Jun 2027 03:40:23.211            42.092                Anadyr2          1315.375
       438   05 Jun 2027 03:40:23.420   05 Jun 2027 03:40:34.733            11.313                Anadyr2           353.531
       439   05 Jun 2027 03:40:56.190   05 Jun 2027 03:41:42.156            45.966               Magadan1          1436.437
       440   05 Jun 2027 03:41:51.868   05 Jun 2027 03:41:56.650             4.782                Anadyr1           149.437
       441   05 Jun 2027 03:41:56.650   05 Jun 2027 03:42:30.263            33.613                Anadyr2          1050.406
       442   05 Jun 2027 03:42:30.263   05 Jun 2027 03:44:43.395           133.132                Anadyr1          4160.375
       443   05 Jun 2027 03:44:54.138   05 Jun 2027 03:46:04.142            70.004               Magadan2          2187.625
       444   05 Jun 2027 03:46:13.751   05 Jun 2027 03:46:16.475             2.724                Anadyr1            85.125
       445   05 Jun 2027 04:24:46.835   05 Jun 2027 04:24:57.970            11.135            RioGallegos           347.969
       446   05 Jun 2027 05:15:35.166   05 Jun 2027 05:17:55.704           140.538               Magadan2          4391.813
       447   05 Jun 2027 05:17:55.704   05 Jun 2027 05:18:28.983            33.279               Magadan1          1039.969
       448   05 Jun 2027 05:18:36.048   05 Jun 2027 05:21:16.629           160.581                Anadyr1          5018.156
       449   05 Jun 2027 05:21:18.699   05 Jun 2027 05:21:57.852            39.153               Magadan2          1223.531
       450   05 Jun 2027 06:34:38.361   05 Jun 2027 06:36:38.023           119.662                Sumatra          3739.437
       451   05 Jun 2027 06:51:27.356   05 Jun 2027 06:51:47.220            19.864               Magadan2           620.750
       452   05 Jun 2027 06:51:47.220   05 Jun 2027 06:52:14.255            27.035               Magadan1           844.844
       453   05 Jun 2027 06:52:38.351   05 Jun 2027 06:53:39.734            61.383                Irkutsk          1918.219
       454   05 Jun 2027 06:53:42.849   05 Jun 2027 06:54:10.426            27.577               Magadan2           861.781
       455   05 Jun 2027 06:54:17.758   05 Jun 2027 06:54:41.193            23.435                Irkutsk           732.344
       456   05 Jun 2027 06:54:46.885   05 Jun 2027 06:55:11.518            24.633                Irkutsk           769.781
       457   05 Jun 2027 06:55:13.025   05 Jun 2027 06:55:24.665            11.640               Magadan1           363.750
       458   05 Jun 2027 06:55:26.270   05 Jun 2027 06:56:29.039            62.769              Murmansk2          1961.531
       459   05 Jun 2027 06:56:43.181   05 Jun 2027 06:57:10.206            27.025              Murmansk1           844.531
       460   05 Jun 2027 06:57:18.243   05 Jun 2027 06:57:56.578            38.335                Irkutsk          1197.969
       461   05 Jun 2027 06:58:17.548   05 Jun 2027 06:58:49.012            31.464              Murmansk2           983.250
       462   05 Jun 2027 06:59:06.713   05 Jun 2027 07:00:00.102            53.389              Murmansk2          1668.406
       463   05 Jun 2027 07:35:42.208   05 Jun 2027 07:35:49.073             6.865            RioGallegos           214.531
       464   05 Jun 2027 08:07:28.875   05 Jun 2027 08:07:32.817             3.942                Sumatra           123.187
       465   05 Jun 2027 08:09:11.295   05 Jun 2027 08:09:38.899            27.604                Sumatra           862.625
       466   05 Jun 2027 08:10:33.890   05 Jun 2027 08:11:08.369            34.479                Sumatra          1077.469
       467   05 Jun 2027 08:14:03.636   05 Jun 2027 08:15:30.444            86.808                Sumatra          2712.750
       468   05 Jun 2027 08:17:05.687   05 Jun 2027 08:18:02.398            56.711                  Delhi          1772.219
       469   05 Jun 2027 08:18:06.408   05 Jun 2027 08:19:58.250           111.842                  Delhi          3495.062
       470   05 Jun 2027 08:27:35.897   05 Jun 2027 08:27:57.342            21.445                  Delhi           670.156
       471   05 Jun 2027 08:28:26.619   05 Jun 2027 08:28:54.281            27.662                Novosib           864.438
       472   05 Jun 2027 08:28:54.661   05 Jun 2027 08:29:30.567            35.906                Irkutsk          1122.063
       473   05 Jun 2027 08:29:40.321   05 Jun 2027 08:30:12.298            31.977              Murmansk2           999.281
       474   05 Jun 2027 08:30:12.298   05 Jun 2027 08:30:29.362            17.064              Murmansk1           533.250
       475   05 Jun 2027 08:30:33.783   05 Jun 2027 08:30:43.413             9.630                Norilsk           300.937
       476   05 Jun 2027 08:30:45.692   05 Jun 2027 08:31:13.078            27.386                Irkutsk           855.812
       477   05 Jun 2027 08:31:24.214   05 Jun 2027 08:31:32.136             7.922              Murmansk1           247.562
       478   05 Jun 2027 08:31:38.767   05 Jun 2027 08:32:26.668            47.901                 Moscow          1496.906
       479   05 Jun 2027 08:32:50.892   05 Jun 2027 08:33:45.819            54.927                 Moscow          1716.469
       480   05 Jun 2027 08:34:41.860   05 Jun 2027 08:34:51.556             9.696                 Moscow           303.000
       481   05 Jun 2027 08:40:41.259   05 Jun 2027 08:40:44.159             2.900              Murmansk1            90.625
       482   05 Jun 2027 09:14:20.627   05 Jun 2027 09:15:53.994            93.367            RioGallegos          2917.719
