uniorb/output/strategy_2/Drop/Drop_KinoSat_111510.txt

KinoSat_111510
-------------------------
    Access    *     Start Time (UTCG)     *     Stop Time (UTCG)  *   Duration (s)        *       Station  *  Data (Mbytes)
         1   01 Jun 2027 04:10:57.540   01 Jun 2027 04:11:08.430            10.890              Murmansk1           340.313
         2   01 Jun 2027 04:11:13.908   01 Jun 2027 04:11:42.457            28.549              Murmansk2           892.156
         3   01 Jun 2027 04:11:49.777   01 Jun 2027 04:12:01.657            11.880              Murmansk2           371.250
         4   01 Jun 2027 04:12:17.293   01 Jun 2027 04:12:40.670            23.377              Murmansk2           730.531
         5   01 Jun 2027 04:12:40.670   01 Jun 2027 04:13:34.203            53.533              Murmansk1          1672.906
         6   01 Jun 2027 04:13:34.203   01 Jun 2027 04:13:53.393            19.190              Murmansk2           599.687
         7   01 Jun 2027 04:13:53.393   01 Jun 2027 04:14:42.673            49.280              Murmansk1          1540.000
         8   01 Jun 2027 04:32:47.941   01 Jun 2027 04:33:06.514            18.573               CapeTown           580.406
         9   01 Jun 2027 04:33:54.734   01 Jun 2027 04:34:48.216            53.482               CapeTown          1671.312
        10   01 Jun 2027 04:37:14.070   01 Jun 2027 04:37:23.519             9.449               CapeTown           295.281
        11   01 Jun 2027 04:38:12.335   01 Jun 2027 04:38:58.850            46.515               CapeTown          1453.594
        12   01 Jun 2027 05:32:54.284   01 Jun 2027 05:33:27.234            32.950                Anadyr1          1029.687
        13   01 Jun 2027 05:33:54.432   01 Jun 2027 05:37:49.003           234.571                Anadyr1          7330.344
        14   01 Jun 2027 05:38:08.425   01 Jun 2027 05:38:33.062            24.637               Magadan2           769.906
        15   01 Jun 2027 05:44:43.805   01 Jun 2027 05:45:09.373            25.568                Norilsk           799.000
        16   01 Jun 2027 07:09:20.270   01 Jun 2027 07:10:26.195            65.925               Magadan1          2060.156
        17   01 Jun 2027 07:10:47.050   01 Jun 2027 07:10:51.679             4.629               Magadan2           144.656
        18   01 Jun 2027 07:11:10.920   01 Jun 2027 07:14:52.390           221.470                Anadyr2          6920.937
        19   01 Jun 2027 07:17:58.497   01 Jun 2027 07:18:36.567            38.070                Norilsk          1189.687
        20   01 Jun 2027 08:43:31.105   01 Jun 2027 08:49:57.313           386.208                Anadyr2         12069.000
        21   01 Jun 2027 08:50:18.054   01 Jun 2027 08:50:29.361            11.307                Novosib           353.344
        22   01 Jun 2027 08:53:43.711   01 Jun 2027 08:53:58.342            14.631                Norilsk           457.219
        23   01 Jun 2027 10:20:30.158   01 Jun 2027 10:21:03.701            33.543                Irkutsk          1048.219
        24   01 Jun 2027 10:21:54.994   01 Jun 2027 10:24:31.562           156.568               Magadan1          4892.750
        25   01 Jun 2027 10:24:31.562   01 Jun 2027 10:24:51.158            19.596               Magadan2           612.375
        26   01 Jun 2027 10:25:12.480   01 Jun 2027 10:25:17.499             5.019                Irkutsk           156.844
        27   01 Jun 2027 10:25:24.640   01 Jun 2027 10:26:01.202            36.562                Irkutsk          1142.562
        28   01 Jun 2027 10:26:12.190   01 Jun 2027 10:26:23.306            11.116                Novosib           347.375
        29   01 Jun 2027 10:26:55.775   01 Jun 2027 10:27:25.959            30.184              Murmansk2           943.250
        30   01 Jun 2027 10:27:35.668   01 Jun 2027 10:28:03.485            27.817                Norilsk           869.281
        31   01 Jun 2027 10:31:12.882   01 Jun 2027 10:31:18.547             5.665                Norilsk           177.031
        32   01 Jun 2027 10:31:46.272   01 Jun 2027 10:31:51.106             4.834              Murmansk1           151.062
        33   01 Jun 2027 11:01:13.101   01 Jun 2027 11:01:39.794            26.693            RioGallegos           834.156
        34   01 Jun 2027 11:02:26.923   01 Jun 2027 11:03:02.734            35.811            RioGallegos          1119.094
        35   01 Jun 2027 11:03:54.837   01 Jun 2027 11:04:50.587            55.750            RioGallegos          1742.187
        36   01 Jun 2027 11:07:42.216   01 Jun 2027 11:08:05.027            22.811            RioGallegos           712.844
        37   01 Jun 2027 11:10:04.338   01 Jun 2027 11:10:24.051            19.713            RioGallegos           616.031
        38   01 Jun 2027 11:12:34.801   01 Jun 2027 11:13:35.721            60.920            RioGallegos          1903.750
        39   01 Jun 2027 11:35:51.385   01 Jun 2027 11:38:12.052           140.667                Sumatra          4395.844
        40   01 Jun 2027 11:55:50.735   01 Jun 2027 11:56:07.628            16.893                  Delhi           527.906
        41   01 Jun 2027 11:57:52.107   01 Jun 2027 11:59:21.830            89.723                Novosib          2803.844
        42   01 Jun 2027 11:59:27.427   01 Jun 2027 12:00:50.330            82.903                 Moscow          2590.719
        43   01 Jun 2027 12:01:11.091   01 Jun 2027 12:01:57.363            46.272                Irkutsk          1446.000
        44   01 Jun 2027 12:02:47.092   01 Jun 2027 12:03:49.752            62.660                Novosib          1958.125
        45   01 Jun 2027 12:03:50.104   01 Jun 2027 12:04:14.908            24.804                 Moscow           775.125
        46   01 Jun 2027 12:07:09.366   01 Jun 2027 12:07:15.977             6.611                Norilsk           206.594
        47   01 Jun 2027 12:08:03.765   01 Jun 2027 12:09:22.444            78.679              Murmansk2          2458.719
        48   01 Jun 2027 12:41:36.668   01 Jun 2027 12:44:06.781           150.113            RioGallegos          4691.031
        49   01 Jun 2027 12:46:36.243   01 Jun 2027 12:47:24.324            48.081            RioGallegos          1502.531
        50   01 Jun 2027 13:26:25.934   01 Jun 2027 13:32:37.816           371.882                  Delhi         11621.313
        51   01 Jun 2027 13:33:15.419   01 Jun 2027 13:34:10.470            55.051                Novosib          1720.344
        52   01 Jun 2027 13:36:22.399   01 Jun 2027 13:39:21.476           179.077                Novosib          5596.156
        53   01 Jun 2027 13:39:26.788   01 Jun 2027 13:41:10.665           103.877                 Moscow          3246.156
        54   01 Jun 2027 13:41:26.347   01 Jun 2027 13:41:59.005            32.658                Norilsk          1020.562
        55   01 Jun 2027 13:42:14.564   01 Jun 2027 13:43:15.988            61.424                Norilsk          1919.500
        56   01 Jun 2027 13:43:27.572   01 Jun 2027 13:44:56.824            89.252              Murmansk1          2789.125
        57   01 Jun 2027 15:11:27.727   01 Jun 2027 15:11:56.519            28.792                 Moscow           899.750
        58   01 Jun 2027 15:12:04.966   01 Jun 2027 15:15:20.981           196.015                Norilsk          6125.469
        59   01 Jun 2027 15:15:21.179   01 Jun 2027 15:18:54.398           213.219                Norilsk          6663.094
        60   01 Jun 2027 15:18:59.991   01 Jun 2027 15:20:50.991           111.000              Murmansk2          3468.750
        61   01 Jun 2027 16:26:22.192   01 Jun 2027 16:26:56.338            34.146               CapeTown          1067.063
        62   01 Jun 2027 16:28:06.673   01 Jun 2027 16:29:36.032            89.359               CapeTown          2792.469
        63   01 Jun 2027 16:49:33.803   01 Jun 2027 16:52:46.385           192.582                 Moscow          6018.188
        64   01 Jun 2027 16:54:15.231   01 Jun 2027 16:54:36.805            21.574              Murmansk2           674.188
        65   01 Jun 2027 16:54:41.028   01 Jun 2027 16:54:51.643            10.615              Murmansk1           331.719
        66   01 Jun 2027 16:55:04.433   01 Jun 2027 16:56:49.527           105.094              Murmansk1          3284.188
        67   01 Jun 2027 17:05:21.168   01 Jun 2027 17:05:45.852            24.684                Anadyr2           771.375
        68   01 Jun 2027 17:05:45.852   01 Jun 2027 17:06:09.207            23.355                Anadyr1           729.844
        69   01 Jun 2027 17:06:46.339   01 Jun 2027 17:08:36.929           110.590                Anadyr2          3455.938
        70   01 Jun 2027 18:04:29.904   01 Jun 2027 18:06:21.057           111.153               CapeTown          3473.531
        71   01 Jun 2027 18:26:28.277   01 Jun 2027 18:27:11.295            43.018              Murmansk1          1344.312
        72   01 Jun 2027 18:28:41.432   01 Jun 2027 18:32:30.507           229.075              Murmansk1          7158.594
        73   01 Jun 2027 18:42:04.200   01 Jun 2027 18:42:21.954            17.754               Magadan2           554.812
        74   01 Jun 2027 18:42:54.126   01 Jun 2027 18:43:41.928            47.802               Magadan2          1493.813
        75   01 Jun 2027 18:43:56.448   01 Jun 2027 18:44:33.259            36.811               Magadan2          1150.344
        76   01 Jun 2027 18:44:40.731   01 Jun 2027 18:45:47.822            67.091                Anadyr1          2096.594
        77   01 Jun 2027 18:46:14.492   01 Jun 2027 18:47:07.463            52.971                Anadyr2          1655.344
        78   01 Jun 2027 20:10:26.251   01 Jun 2027 20:12:49.200           142.949                Anadyr1          4467.156
        79   01 Jun 2027 20:12:50.898   01 Jun 2027 20:13:13.085            22.187                Anadyr2           693.344
        80   01 Jun 2027 20:13:39.292   01 Jun 2027 20:13:54.146            14.854                Anadyr1           464.187
        81   01 Jun 2027 20:13:54.823   01 Jun 2027 20:14:14.655            19.832               Magadan2           619.750
        82   01 Jun 2027 20:14:45.136   01 Jun 2027 20:15:35.941            50.805                Anadyr1          1587.656
        83   01 Jun 2027 20:16:16.959   01 Jun 2027 20:16:38.871            21.912                Anadyr1           684.750
        84   01 Jun 2027 20:17:04.028   01 Jun 2027 20:17:55.108            51.080                Anadyr2          1596.250
        85   01 Jun 2027 20:18:07.628   01 Jun 2027 20:18:34.016            26.388               Magadan1           824.625
        86   01 Jun 2027 20:19:07.266   01 Jun 2027 20:19:36.013            28.747                Anadyr1           898.344
        87   01 Jun 2027 20:19:46.618   01 Jun 2027 20:20:11.889            25.271               Magadan2           789.719
        88   01 Jun 2027 20:20:35.840   01 Jun 2027 20:20:43.552             7.712                Anadyr2           241.000
        89   01 Jun 2027 20:20:56.724   01 Jun 2027 20:21:40.109            43.385               Magadan2          1355.781
        90   01 Jun 2027 20:22:13.505   01 Jun 2027 20:22:47.243            33.738               Magadan2          1054.312
        91   01 Jun 2027 20:23:25.219   01 Jun 2027 20:24:08.912            43.693               Magadan2          1365.406
        92   01 Jun 2027 20:24:34.468   01 Jun 2027 20:25:02.984            28.516               Magadan2           891.125
        93   01 Jun 2027 21:09:14.180   01 Jun 2027 21:10:42.806            88.626            RioGallegos          2769.563
        94   01 Jun 2027 21:47:36.123   01 Jun 2027 21:48:04.906            28.783                Anadyr1           899.469
        95   01 Jun 2027 21:48:28.072   01 Jun 2027 21:48:49.926            21.854                Norilsk           682.938
        96   01 Jun 2027 21:48:54.957   01 Jun 2027 21:49:20.991            26.034                Norilsk           813.562
        97   01 Jun 2027 21:49:56.350   01 Jun 2027 21:50:14.589            18.239                Anadyr1           569.969
        98   01 Jun 2027 21:50:46.017   01 Jun 2027 21:51:08.710            22.693               Magadan1           709.156
        99   01 Jun 2027 21:51:55.766   01 Jun 2027 21:52:25.596            29.830                Anadyr2           932.188
       100   01 Jun 2027 21:52:36.687   01 Jun 2027 21:53:17.455            40.768                Anadyr2          1274.000
       101   01 Jun 2027 21:53:51.915   01 Jun 2027 21:54:10.151            18.236                Norilsk           569.875
       102   01 Jun 2027 21:54:36.705   01 Jun 2027 21:54:46.280             9.575                Anadyr2           299.219
       103   01 Jun 2027 21:55:08.873   01 Jun 2027 21:55:29.982            21.109                Norilsk           659.656
       104   01 Jun 2027 21:56:03.068   01 Jun 2027 21:57:06.645            63.577                Anadyr1          1986.781
       105   01 Jun 2027 21:58:19.899   01 Jun 2027 21:58:27.426             7.527               Magadan2           235.219
       106   01 Jun 2027 21:58:28.250   01 Jun 2027 21:59:02.777            34.527               Magadan2          1078.969
       107   01 Jun 2027 22:00:05.365   01 Jun 2027 22:00:19.164            13.799               Magadan1           431.219
       108   01 Jun 2027 22:00:38.014   01 Jun 2027 22:00:49.159            11.145               Magadan1           348.281
       109   01 Jun 2027 22:00:49.159   01 Jun 2027 22:01:13.506            24.347               Magadan2           760.844
       110   01 Jun 2027 22:11:51.513   01 Jun 2027 22:13:46.634           115.121                Sumatra          3597.531
       111   01 Jun 2027 22:49:52.258   01 Jun 2027 22:50:39.802            47.544            RioGallegos          1485.750
       112   01 Jun 2027 23:21:39.476   01 Jun 2027 23:23:41.091           121.615                Anadyr2          3800.469
       113   01 Jun 2027 23:25:29.946   01 Jun 2027 23:25:36.582             6.636                Norilsk           207.375
       114   01 Jun 2027 23:25:37.573   01 Jun 2027 23:25:43.695             6.122               Magadan1           191.312
       115   01 Jun 2027 23:25:49.697   01 Jun 2027 23:26:51.162            61.465               Magadan2          1920.781
       116   01 Jun 2027 23:28:12.746   01 Jun 2027 23:28:22.967            10.221               Magadan1           319.406
       117   01 Jun 2027 23:29:07.285   01 Jun 2027 23:29:49.763            42.478                Novosib          1327.437
       118   01 Jun 2027 23:31:00.463   01 Jun 2027 23:31:43.198            42.735               Magadan1          1335.469
       119   01 Jun 2027 23:33:31.743   01 Jun 2027 23:34:05.640            33.897               Magadan1          1059.281
       120   01 Jun 2027 23:35:20.623   01 Jun 2027 23:35:44.233            23.610                Novosib           737.813
       121   01 Jun 2027 23:36:02.007   01 Jun 2027 23:36:49.580            47.573                Novosib          1486.656
       122   01 Jun 2027 23:38:59.292   01 Jun 2027 23:40:03.129            63.837                Irkutsk          1994.906
       123   01 Jun 2027 23:51:33.426   01 Jun 2027 23:53:49.998           136.572                Sumatra          4267.875
       124   02 Jun 2027 00:55:55.468   02 Jun 2027 00:56:10.935            15.467                Anadyr1           483.344
       125   02 Jun 2027 00:56:44.780   02 Jun 2027 00:57:10.852            26.072                Anadyr1           814.750
       126   02 Jun 2027 00:57:34.286   02 Jun 2027 00:57:58.479            24.193                Anadyr1           756.031
       127   02 Jun 2027 00:59:25.846   02 Jun 2027 00:59:48.391            22.545                Anadyr2           704.531
       128   02 Jun 2027 01:00:09.946   02 Jun 2027 01:01:27.861            77.915                Norilsk          2434.844
       129   02 Jun 2027 01:02:33.278   02 Jun 2027 01:03:05.413            32.135               Magadan2          1004.219
       130   02 Jun 2027 01:03:22.061   02 Jun 2027 01:03:31.287             9.226              Murmansk1           288.312
       131   02 Jun 2027 01:03:44.959   02 Jun 2027 01:04:04.131            19.172              Murmansk2           599.125
       132   02 Jun 2027 01:05:38.006   02 Jun 2027 01:06:04.319            26.313                Irkutsk           822.281
       133   02 Jun 2027 01:07:23.358   02 Jun 2027 01:07:37.588            14.230              Murmansk1           444.688
       134   02 Jun 2027 01:08:26.491   02 Jun 2027 01:08:36.863            10.372                Novosib           324.125
       135   02 Jun 2027 01:08:53.890   02 Jun 2027 01:09:40.377            46.487                Novosib          1452.719
       136   02 Jun 2027 01:11:52.318   02 Jun 2027 01:12:06.684            14.366                Novosib           448.938
       137   02 Jun 2027 01:12:20.333   02 Jun 2027 01:12:45.942            25.609                Irkutsk           800.281
       138   02 Jun 2027 01:13:44.617   02 Jun 2027 01:14:38.934            54.317                Novosib          1697.406
       139   02 Jun 2027 01:19:34.768   02 Jun 2027 01:19:57.053            22.285                  Delhi           696.406
       140   02 Jun 2027 01:20:54.421   02 Jun 2027 01:21:31.721            37.300                  Delhi          1165.625
       141   02 Jun 2027 01:53:52.872   02 Jun 2027 01:54:27.393            34.521            RioGallegos          1078.781
       142   02 Jun 2027 01:55:11.839   02 Jun 2027 01:55:37.770            25.931            RioGallegos           810.344
       143   02 Jun 2027 01:56:04.788   02 Jun 2027 01:57:29.906            85.118            RioGallegos          2659.937
       144   02 Jun 2027 02:31:19.707   02 Jun 2027 02:31:41.803            22.096                Anadyr2           690.500
       145   02 Jun 2027 02:31:55.531   02 Jun 2027 02:32:06.290            10.759                Anadyr1           336.219
       146   02 Jun 2027 02:32:39.888   02 Jun 2027 02:33:26.078            46.190                Anadyr2          1443.438
       147   02 Jun 2027 02:36:03.046   02 Jun 2027 02:36:16.709            13.663               Magadan1           426.969
       148   02 Jun 2027 02:36:44.041   02 Jun 2027 02:37:10.893            26.852                Norilsk           839.125
       149   02 Jun 2027 02:38:21.392   02 Jun 2027 02:38:27.961             6.569              Murmansk1           205.281
       150   02 Jun 2027 02:38:45.642   02 Jun 2027 02:38:49.609             3.967              Murmansk1           123.969
       151   02 Jun 2027 02:38:57.335   02 Jun 2027 02:39:49.842            52.507              Murmansk2          1640.844
       152   02 Jun 2027 02:41:59.273   02 Jun 2027 02:42:12.325            13.052                Novosib           407.875
       153   02 Jun 2027 02:42:38.749   02 Jun 2027 02:43:08.603            29.854                Irkutsk           932.938
       154   02 Jun 2027 02:45:48.901   02 Jun 2027 02:45:59.051            10.150                Novosib           317.188
       155   02 Jun 2027 02:46:08.102   02 Jun 2027 02:46:17.699             9.597              Murmansk1           299.906
       156   02 Jun 2027 02:46:34.803   02 Jun 2027 02:46:42.754             7.951                Irkutsk           248.469
       157   02 Jun 2027 02:47:24.701   02 Jun 2027 02:47:36.255            11.554              Murmansk1           361.062
       158   02 Jun 2027 02:48:17.454   02 Jun 2027 02:48:39.843            22.389                Novosib           699.656
       159   02 Jun 2027 02:49:39.332   02 Jun 2027 02:49:51.089            11.757                Novosib           367.406
       160   02 Jun 2027 02:51:04.755   02 Jun 2027 02:51:50.970            46.215                Novosib          1444.219
       161   02 Jun 2027 02:54:21.856   02 Jun 2027 02:54:34.776            12.920                  Delhi           403.750
       162   02 Jun 2027 02:55:07.237   02 Jun 2027 02:57:14.674           127.437                  Delhi          3982.406
       163   02 Jun 2027 04:22:44.116   02 Jun 2027 04:23:33.614            49.498              Murmansk1          1546.812
       164   02 Jun 2027 04:23:38.236   02 Jun 2027 04:24:30.787            52.551              Murmansk1          1642.219
       165   02 Jun 2027 04:25:08.416   02 Jun 2027 04:26:53.751           105.335              Murmansk2          3291.719
       166   02 Jun 2027 04:27:05.208   02 Jun 2027 04:28:23.937            78.729                 Moscow          2460.281
       167   02 Jun 2027 05:45:11.698   02 Jun 2027 05:45:49.333            37.635                Anadyr2          1176.094
       168   02 Jun 2027 05:46:06.246   02 Jun 2027 05:47:17.939            71.693                Anadyr1          2240.406
       169   02 Jun 2027 05:47:21.116   02 Jun 2027 05:48:47.709            86.593               Magadan2          2706.031
       170   02 Jun 2027 05:48:53.480   02 Jun 2027 05:50:29.037            95.557               Magadan1          2986.156
       171   02 Jun 2027 05:50:29.037   02 Jun 2027 05:50:35.003             5.966               Magadan2           186.438
       172   02 Jun 2027 07:23:11.457   02 Jun 2027 07:26:51.768           220.311                Anadyr1          6884.719
       173   02 Jun 2027 08:55:50.865   02 Jun 2027 08:57:34.582           103.717               Magadan1          3241.156
       174   02 Jun 2027 08:58:12.655   02 Jun 2027 08:58:35.512            22.857                Novosib           714.281
       175   02 Jun 2027 08:58:40.867   02 Jun 2027 08:58:43.601             2.734                Irkutsk            85.438
       176   02 Jun 2027 08:58:46.422   02 Jun 2027 09:02:23.199           216.777               Magadan1          6774.281
       177   02 Jun 2027 10:14:41.315   02 Jun 2027 10:16:28.275           106.960                Sumatra          3342.500
       178   02 Jun 2027 10:31:31.175   02 Jun 2027 10:31:45.016            13.841                Novosib           432.531
       179   02 Jun 2027 10:31:57.909   02 Jun 2027 10:32:26.420            28.511                Novosib           890.969
       180   02 Jun 2027 10:32:30.860   02 Jun 2027 10:32:33.883             3.023                Novosib            94.469
       181   02 Jun 2027 10:32:48.370   02 Jun 2027 10:35:47.625           179.255               Magadan1          5601.719
       182   02 Jun 2027 10:36:02.049   02 Jun 2027 10:36:11.609             9.560               Magadan2           298.750
       183   02 Jun 2027 10:36:12.824   02 Jun 2027 10:36:18.707             5.883                Irkutsk           183.844
       184   02 Jun 2027 10:36:19.327   02 Jun 2027 10:36:22.040             2.713                Norilsk            84.781
       185   02 Jun 2027 10:36:24.093   02 Jun 2027 10:36:38.771            14.678              Murmansk1           458.688
       186   02 Jun 2027 10:36:38.891   02 Jun 2027 10:36:42.869             3.978                Novosib           124.313
       187   02 Jun 2027 10:36:50.139   02 Jun 2027 10:36:56.012             5.873              Murmansk1           183.531
       188   02 Jun 2027 10:37:06.990   02 Jun 2027 10:37:42.644            35.654              Murmansk1          1114.187
       189   02 Jun 2027 10:37:46.159   02 Jun 2027 10:38:01.820            15.661                Irkutsk           489.406
       190   02 Jun 2027 10:38:20.210   02 Jun 2027 10:39:11.727            51.517                Novosib          1609.906
       191   02 Jun 2027 11:13:27.633   02 Jun 2027 11:14:30.991            63.358            RioGallegos          1979.937
       192   02 Jun 2027 11:47:56.479   02 Jun 2027 11:48:58.983            62.504                Sumatra          1953.250
       193   02 Jun 2027 11:57:21.652   02 Jun 2027 11:57:32.047            10.395                  Delhi           324.844
       194   02 Jun 2027 12:01:00.452   02 Jun 2027 12:02:19.576            79.124                  Delhi          2472.625
       195   02 Jun 2027 12:11:16.462   02 Jun 2027 12:11:47.466            31.004              Murmansk1           968.875
       196   02 Jun 2027 12:13:04.600   02 Jun 2027 12:13:11.102             6.502              Murmansk1           203.187
       197   02 Jun 2027 12:13:11.102   02 Jun 2027 12:13:19.900             8.798              Murmansk2           274.938
       198   02 Jun 2027 12:14:14.878   02 Jun 2027 12:15:15.290            60.412              Murmansk1          1887.875
       199   02 Jun 2027 12:20:55.550   02 Jun 2027 12:21:01.324             5.774              Murmansk2           180.437
       200   02 Jun 2027 12:55:25.905   02 Jun 2027 12:56:31.171            65.266            RioGallegos          2039.563
       201   02 Jun 2027 12:58:06.221   02 Jun 2027 12:58:08.187             1.966            RioGallegos            61.437
       202   02 Jun 2027 13:32:27.485   02 Jun 2027 13:32:35.975             8.490                  Delhi           265.312
       203   02 Jun 2027 13:35:01.619   02 Jun 2027 13:37:11.902           130.283                  Delhi          4071.344
       204   02 Jun 2027 13:40:31.481   02 Jun 2027 13:41:07.847            36.366                Novosib          1136.437
       205   02 Jun 2027 13:42:14.811   02 Jun 2027 13:44:11.580           116.769                Novosib          3649.031
       206   02 Jun 2027 13:46:56.542   02 Jun 2027 13:47:12.957            16.415                Norilsk           512.969
       207   02 Jun 2027 13:50:02.555   02 Jun 2027 13:50:31.204            28.649                Novosib           895.281
       208   02 Jun 2027 13:51:32.817   02 Jun 2027 13:51:33.022             0.205                Norilsk             6.406
       209   02 Jun 2027 13:53:00.776   02 Jun 2027 13:53:06.722             5.946                Norilsk           185.813
       210   02 Jun 2027 13:53:32.350   02 Jun 2027 13:53:41.162             8.812                Norilsk           275.375
       211   02 Jun 2027 15:16:29.122   02 Jun 2027 15:20:25.803           236.681                 Moscow          7396.281
       212   02 Jun 2027 15:21:12.993   02 Jun 2027 15:21:24.780            11.787              Murmansk1           368.344
       213   02 Jun 2027 15:21:33.806   02 Jun 2027 15:22:39.340            65.534              Murmansk2          2047.938
       214   02 Jun 2027 15:24:51.973   02 Jun 2027 15:28:11.621           199.648                Norilsk          6239.000
       215   02 Jun 2027 15:28:28.933   02 Jun 2027 15:28:39.988            11.055                Norilsk           345.469
       216   02 Jun 2027 15:29:28.570   02 Jun 2027 15:29:34.830             6.260                Norilsk           195.625
       217   02 Jun 2027 16:38:06.067   02 Jun 2027 16:40:01.403           115.336               CapeTown          3604.250
       218   02 Jun 2027 16:59:15.488   02 Jun 2027 17:00:47.834            92.346              Murmansk2          2885.813
       219   02 Jun 2027 17:07:06.618   02 Jun 2027 17:07:12.690             6.072              Murmansk2           189.750
       220   02 Jun 2027 17:10:51.956   02 Jun 2027 17:12:06.154            74.198                Anadyr2          2318.688
       221   02 Jun 2027 17:15:03.509   02 Jun 2027 17:15:26.075            22.566                Anadyr1           705.187
       222   02 Jun 2027 17:17:46.083   02 Jun 2027 17:18:31.288            45.205                Anadyr1          1412.656
       223   02 Jun 2027 18:08:43.848   02 Jun 2027 18:10:21.534            97.686               CapeTown          3052.688
       224   02 Jun 2027 18:37:08.577   02 Jun 2027 18:38:53.522           104.945              Murmansk1          3279.531
       225   02 Jun 2027 18:39:13.085   02 Jun 2027 18:41:59.622           166.537              Murmansk2          5204.281
       226   02 Jun 2027 18:49:36.435   02 Jun 2027 18:50:13.991            37.556               Magadan1          1173.625
       227   02 Jun 2027 18:54:06.150   02 Jun 2027 18:54:50.867            44.717               Magadan1          1397.406
       228   02 Jun 2027 20:22:27.850   02 Jun 2027 20:24:05.558            97.708                Anadyr2          3053.375
       229   02 Jun 2027 20:24:32.467   02 Jun 2027 20:25:34.793            62.326                Anadyr1          1947.687
       230   02 Jun 2027 20:25:44.827   02 Jun 2027 20:28:07.971           143.144               Magadan1          4473.250
       231   02 Jun 2027 20:28:07.971   02 Jun 2027 20:28:11.608             3.637               Magadan2           113.656
       232   02 Jun 2027 20:28:44.530   02 Jun 2027 20:30:16.181            91.651               Magadan1          2864.094
       233   02 Jun 2027 20:33:08.057   02 Jun 2027 20:33:15.037             6.980               Magadan1           218.125
       234   02 Jun 2027 20:33:49.450   02 Jun 2027 20:34:26.511            37.061               Magadan2          1158.156
       235   02 Jun 2027 21:18:32.571   02 Jun 2027 21:20:56.587           144.016            RioGallegos          4500.500
       236   02 Jun 2027 21:23:18.782   02 Jun 2027 21:23:41.888            23.106            RioGallegos           722.063
       237   02 Jun 2027 21:58:16.938   02 Jun 2027 22:00:22.306           125.368                Anadyr1          3917.750
       238   02 Jun 2027 22:00:24.791   02 Jun 2027 22:01:51.858            87.067                Norilsk          2720.844
       239   02 Jun 2027 22:03:01.156   02 Jun 2027 22:03:24.249            23.093                Norilsk           721.656
       240   02 Jun 2027 22:03:32.581   02 Jun 2027 22:03:39.528             6.947               Magadan1           217.094
       241   02 Jun 2027 22:03:46.738   02 Jun 2027 22:04:03.192            16.454                Norilsk           514.188
       242   02 Jun 2027 22:05:18.457   02 Jun 2027 22:05:57.424            38.967                Irkutsk          1217.719
       243   02 Jun 2027 22:07:17.695   02 Jun 2027 22:08:03.070            45.375                Irkutsk          1417.969
       244   02 Jun 2027 22:14:09.112   02 Jun 2027 22:14:19.181            10.069                Irkutsk           314.656
       245   02 Jun 2027 22:20:12.644   02 Jun 2027 22:21:56.621           103.977                Sumatra          3249.281
       246   02 Jun 2027 22:23:47.122   02 Jun 2027 22:24:07.767            20.645                Sumatra           645.156
       247   02 Jun 2027 22:26:19.979   02 Jun 2027 22:27:59.972            99.993                Sumatra          3124.781
       248   02 Jun 2027 23:33:32.818   02 Jun 2027 23:33:48.249            15.431                Anadyr1           482.219
       249   02 Jun 2027 23:34:23.413   02 Jun 2027 23:35:42.149            78.736                Anadyr2          2460.500
       250   02 Jun 2027 23:36:11.472   02 Jun 2027 23:36:45.446            33.974                Norilsk          1061.688
       251   02 Jun 2027 23:36:48.682   02 Jun 2027 23:37:03.404            14.722               Magadan2           460.062
       252   02 Jun 2027 23:37:14.720   02 Jun 2027 23:37:33.283            18.563               Magadan2           580.094
       253   02 Jun 2027 23:38:19.033   02 Jun 2027 23:38:33.930            14.897               Magadan2           465.531
       254   02 Jun 2027 23:40:06.451   02 Jun 2027 23:41:11.375            64.924                Irkutsk          2028.875
       255   02 Jun 2027 23:41:57.998   02 Jun 2027 23:42:38.245            40.247                Novosib          1257.719
       256   02 Jun 2027 23:44:05.709   02 Jun 2027 23:44:21.005            15.296                Novosib           478.000
       257   02 Jun 2027 23:45:47.632   02 Jun 2027 23:46:51.640            64.008                Novosib          2000.250
       258   02 Jun 2027 23:50:36.274   02 Jun 2027 23:51:51.782            75.508                  Delhi          2359.625
       259   03 Jun 2027 00:30:37.764   03 Jun 2027 00:30:55.263            17.499            RioGallegos           546.844
       260   03 Jun 2027 00:34:58.694   03 Jun 2027 00:35:08.211             9.517            RioGallegos           297.406
       261   03 Jun 2027 00:37:02.914   03 Jun 2027 00:37:51.105            48.191            RioGallegos          1505.969
       262   03 Jun 2027 01:07:56.313   03 Jun 2027 01:08:12.071            15.758                Anadyr1           492.438
       263   03 Jun 2027 01:08:55.582   03 Jun 2027 01:09:52.525            56.943                Anadyr2          1779.469
       264   03 Jun 2027 01:09:52.525   03 Jun 2027 01:09:54.706             2.181                Anadyr1            68.156
       265   03 Jun 2027 01:10:01.483   03 Jun 2027 01:10:13.259            11.776                Anadyr1           368.000
       266   03 Jun 2027 01:12:12.103   03 Jun 2027 01:14:11.376           119.273                Norilsk          3727.281
       267   03 Jun 2027 01:14:35.265   03 Jun 2027 01:14:38.274             3.009               Magadan1            94.031
       268   03 Jun 2027 01:15:05.002   03 Jun 2027 01:18:07.959           182.957              Murmansk2          5717.406
       269   03 Jun 2027 01:25:00.611   03 Jun 2027 01:26:00.848            60.237                  Delhi          1882.406
       270   03 Jun 2027 01:36:00.093   03 Jun 2027 01:36:07.251             7.158                  Delhi           223.687
       271   03 Jun 2027 02:05:17.532   03 Jun 2027 02:07:20.780           123.248            RioGallegos          3851.500
       272   03 Jun 2027 02:10:05.828   03 Jun 2027 02:10:09.423             3.595            RioGallegos           112.344
       273   03 Jun 2027 02:40:56.166   03 Jun 2027 02:41:03.127             6.961                Anadyr2           217.531
       274   03 Jun 2027 02:41:50.402   03 Jun 2027 02:42:00.068             9.666                Anadyr2           302.063
       275   03 Jun 2027 02:43:06.343   03 Jun 2027 02:43:20.212            13.869                Anadyr2           433.406
       276   03 Jun 2027 02:44:07.265   03 Jun 2027 02:44:15.246             7.981                Anadyr1           249.406
       277   03 Jun 2027 02:44:44.625   03 Jun 2027 02:45:27.482            42.857                Anadyr2          1339.281
       278   03 Jun 2027 02:47:00.143   03 Jun 2027 02:47:47.261            47.118               Magadan2          1472.438
       279   03 Jun 2027 02:48:07.560   03 Jun 2027 02:48:11.694             4.134                Norilsk           129.187
       280   03 Jun 2027 02:49:12.189   03 Jun 2027 02:49:31.502            19.313               Magadan2           603.531
       281   03 Jun 2027 02:50:21.801   03 Jun 2027 02:50:30.685             8.884              Murmansk1           277.625
       282   03 Jun 2027 02:50:30.685   03 Jun 2027 02:52:01.470            90.785              Murmansk2          2837.031
       283   03 Jun 2027 02:52:19.005   03 Jun 2027 02:52:52.604            33.599              Murmansk1          1049.969
       284   03 Jun 2027 02:53:38.485   03 Jun 2027 02:54:20.003            41.518                Irkutsk          1297.438
       285   03 Jun 2027 02:56:57.681   03 Jun 2027 02:57:46.174            48.493                Irkutsk          1515.406
       286   03 Jun 2027 03:01:14.020   03 Jun 2027 03:01:41.028            27.008                  Delhi           844.000
       287   03 Jun 2027 04:34:28.932   03 Jun 2027 04:35:18.653            49.721                Novosib          1553.781
       288   03 Jun 2027 04:37:36.997   03 Jun 2027 04:37:57.016            20.019              Murmansk2           625.594
       289   03 Jun 2027 05:56:40.813   03 Jun 2027 05:58:20.435            99.622                Anadyr2          3113.187
       290   03 Jun 2027 05:58:35.468   03 Jun 2027 05:58:50.829            15.361               Magadan1           480.031
       291   03 Jun 2027 05:58:50.829   03 Jun 2027 05:59:08.262            17.433               Magadan2           544.781
       292   03 Jun 2027 05:59:29.006   03 Jun 2027 06:00:31.421            62.415               Magadan1          1950.469
       293   03 Jun 2027 07:33:05.194   03 Jun 2027 07:33:26.011            20.817                Anadyr1           650.531
       294   03 Jun 2027 07:33:40.768   03 Jun 2027 07:34:03.930            23.162               Magadan1           723.812
       295   03 Jun 2027 07:34:13.655   03 Jun 2027 07:35:11.589            57.934                Anadyr1          1810.438
       296   03 Jun 2027 07:35:22.245   03 Jun 2027 07:36:32.530            70.285               Magadan2          2196.406
       297   03 Jun 2027 07:42:34.797   03 Jun 2027 07:42:44.047             9.250                 Moscow           289.063
       298   03 Jun 2027 08:16:21.958   03 Jun 2027 08:17:08.317            46.359            RioGallegos          1448.719
       299   03 Jun 2027 09:07:04.842   03 Jun 2027 09:08:54.009           109.167               Magadan1          3411.469
       300   03 Jun 2027 09:09:03.270   03 Jun 2027 09:09:40.305            37.035               Magadan1          1157.344
       301   03 Jun 2027 09:10:21.242   03 Jun 2027 09:11:55.494            94.252                Anadyr2          2945.375
       302   03 Jun 2027 09:12:15.761   03 Jun 2027 09:12:16.886             1.125                Irkutsk            35.156
       303   03 Jun 2027 09:12:39.910   03 Jun 2027 09:12:46.312             6.402                Anadyr1           200.062
       304   03 Jun 2027 09:12:47.624   03 Jun 2027 09:14:04.022            76.398                Irkutsk          2387.438
       305   03 Jun 2027 09:14:08.031   03 Jun 2027 09:14:16.886             8.855              Murmansk2           276.719
       306   03 Jun 2027 09:14:22.813   03 Jun 2027 09:14:32.507             9.694              Murmansk2           302.937
       307   03 Jun 2027 09:15:36.283   03 Jun 2027 09:15:42.534             6.251              Murmansk1           195.344
       308   03 Jun 2027 09:15:42.534   03 Jun 2027 09:16:47.822            65.288              Murmansk2          2040.250
       309   03 Jun 2027 09:49:17.568   03 Jun 2027 09:49:38.619            21.051            RioGallegos           657.844
       310   03 Jun 2027 09:50:15.773   03 Jun 2027 09:50:38.123            22.350            RioGallegos           698.438
       311   03 Jun 2027 10:25:48.821   03 Jun 2027 10:27:16.585            87.764                Sumatra          2742.625
       312   03 Jun 2027 10:43:41.882   03 Jun 2027 10:43:50.896             9.014                Novosib           281.688
       313   03 Jun 2027 10:43:53.528   03 Jun 2027 10:43:56.172             2.644                Novosib            82.625
       314   03 Jun 2027 10:44:09.193   03 Jun 2027 10:44:10.239             1.046                Norilsk            32.687
       315   03 Jun 2027 10:44:18.946   03 Jun 2027 10:45:40.756            81.810                Norilsk          2556.562
       316   03 Jun 2027 10:45:45.260   03 Jun 2027 10:45:56.981            11.721                Novosib           366.281
       317   03 Jun 2027 10:45:59.770   03 Jun 2027 10:46:38.320            38.550                Novosib          1204.688
       318   03 Jun 2027 10:46:58.370   03 Jun 2027 10:47:29.011            30.641                Norilsk           957.531
       319   03 Jun 2027 10:47:52.373   03 Jun 2027 10:47:52.823             0.450                Novosib            14.063
       320   03 Jun 2027 10:47:53.359   03 Jun 2027 10:47:54.778             1.419                Norilsk            44.344
       321   03 Jun 2027 10:48:10.708   03 Jun 2027 10:48:33.593            22.885                Irkutsk           715.156
       322   03 Jun 2027 10:48:37.253   03 Jun 2027 10:48:44.748             7.495              Murmansk2           234.219
       323   03 Jun 2027 10:48:48.325   03 Jun 2027 10:49:42.737            54.412                Irkutsk          1700.375
       324   03 Jun 2027 10:49:49.803   03 Jun 2027 10:50:16.005            26.202                Novosib           818.812
       325   03 Jun 2027 10:50:54.557   03 Jun 2027 10:51:00.782             6.225              Murmansk2           194.531
       326   03 Jun 2027 10:56:26.878   03 Jun 2027 10:57:01.947            35.069              Murmansk1          1095.906
       327   03 Jun 2027 11:27:57.266   03 Jun 2027 11:29:14.930            77.664            RioGallegos          2427.000
       328   03 Jun 2027 12:02:08.243   03 Jun 2027 12:02:48.654            40.411                Sumatra          1262.844
       329   03 Jun 2027 12:14:59.247   03 Jun 2027 12:17:16.422           137.175                Novosib          4286.719
       330   03 Jun 2027 12:18:45.957   03 Jun 2027 12:19:40.868            54.911                Norilsk          1715.969
       331   03 Jun 2027 12:23:32.459   03 Jun 2027 12:23:44.729            12.270              Murmansk2           383.438
       332   03 Jun 2027 12:27:34.307   03 Jun 2027 12:27:39.538             5.231                Norilsk           163.469
       333   03 Jun 2027 12:27:57.344   03 Jun 2027 12:28:16.244            18.900              Murmansk2           590.625
       334   03 Jun 2027 12:31:22.359   03 Jun 2027 12:32:08.324            45.965              Murmansk2          1436.406
       335   03 Jun 2027 13:44:49.293   03 Jun 2027 13:45:56.504            67.211                  Delhi          2100.344
       336   03 Jun 2027 13:48:54.262   03 Jun 2027 13:49:56.550            62.288                  Delhi          1946.500
       337   03 Jun 2027 13:53:04.041   03 Jun 2027 13:56:09.819           185.778                Novosib          5805.562
       338   03 Jun 2027 13:56:47.722   03 Jun 2027 13:58:09.644            81.922                Novosib          2560.062
       339   03 Jun 2027 14:05:05.284   03 Jun 2027 14:05:34.736            29.452                Norilsk           920.375
       340   03 Jun 2027 15:28:33.846   03 Jun 2027 15:31:54.485           200.639                 Moscow          6269.969
       341   03 Jun 2027 15:32:05.179   03 Jun 2027 15:33:14.833            69.654              Murmansk1          2176.687
       342   03 Jun 2027 15:37:45.038   03 Jun 2027 15:40:12.293           147.255                Norilsk          4601.719
       343   03 Jun 2027 15:40:31.894   03 Jun 2027 15:40:56.761            24.867                Norilsk           777.094
       344   03 Jun 2027 15:41:30.604   03 Jun 2027 15:41:50.350            19.746                Norilsk           617.063
       345   03 Jun 2027 16:42:24.639   03 Jun 2027 16:42:59.492            34.853               CapeTown          1089.156
       346   03 Jun 2027 16:53:31.246   03 Jun 2027 16:53:41.719            10.473               CapeTown           327.281
       347   03 Jun 2027 17:07:04.651   03 Jun 2027 17:07:50.520            45.869                 Moscow          1433.406
       348   03 Jun 2027 17:09:38.198   03 Jun 2027 17:11:42.681           124.483                 Moscow          3890.094
       349   03 Jun 2027 17:22:49.225   03 Jun 2027 17:24:19.953            90.728                Anadyr1          2835.250
       350   03 Jun 2027 17:27:44.985   03 Jun 2027 17:27:53.834             8.849                Anadyr1           276.531
       351   03 Jun 2027 17:28:19.811   03 Jun 2027 17:28:45.134            25.323                Anadyr1           791.344
       352   03 Jun 2027 18:18:19.194   03 Jun 2027 18:19:11.542            52.348               CapeTown          1635.875
       353   03 Jun 2027 18:22:21.537   03 Jun 2027 18:22:43.747            22.210               CapeTown           694.062
       354   03 Jun 2027 18:29:20.762   03 Jun 2027 18:29:38.415            17.653               CapeTown           551.656
       355   03 Jun 2027 18:49:54.717   03 Jun 2027 18:54:45.558           290.841              Murmansk2          9088.781
       356   03 Jun 2027 19:01:26.201   03 Jun 2027 19:02:06.415            40.214               Magadan1          1256.687
       357   03 Jun 2027 19:05:23.111   03 Jun 2027 19:05:36.964            13.853               Magadan2           432.906
       358   03 Jun 2027 19:05:58.257   03 Jun 2027 19:06:11.013            12.756               Magadan1           398.625
       359   03 Jun 2027 19:06:45.378   03 Jun 2027 19:07:14.010            28.632               Magadan2           894.750
       360   03 Jun 2027 19:08:56.192   03 Jun 2027 19:09:35.445            39.253               Magadan2          1226.656
       361   03 Jun 2027 20:34:29.350   03 Jun 2027 20:36:34.267           124.917                Anadyr2          3903.656
       362   03 Jun 2027 20:36:35.470   03 Jun 2027 20:37:22.292            46.822                Anadyr1          1463.188
       363   03 Jun 2027 20:37:57.964   03 Jun 2027 20:38:28.260            30.296               Magadan1           946.750
       364   03 Jun 2027 20:38:32.542   03 Jun 2027 20:39:54.036            81.494               Magadan1          2546.688
       365   03 Jun 2027 20:39:54.036   03 Jun 2027 20:41:06.147            72.111               Magadan2          2253.469
       366   03 Jun 2027 20:41:56.446   03 Jun 2027 20:42:21.222            24.776               Magadan1           774.250
       367   03 Jun 2027 21:29:55.302   03 Jun 2027 21:32:49.160           173.858            RioGallegos          5433.062
       368   03 Jun 2027 21:35:13.903   03 Jun 2027 21:35:53.981            40.078            RioGallegos          1252.438
       369   03 Jun 2027 22:10:16.034   03 Jun 2027 22:11:10.037            54.003                Anadyr1          1687.594
       370   03 Jun 2027 22:11:16.641   03 Jun 2027 22:11:24.832             8.191                Anadyr1           255.969
       371   03 Jun 2027 22:11:32.789   03 Jun 2027 22:12:28.952            56.163                Anadyr1          1755.094
       372   03 Jun 2027 22:12:37.898   03 Jun 2027 22:13:16.949            39.051                Norilsk          1220.344
       373   03 Jun 2027 22:14:07.354   03 Jun 2027 22:14:42.931            35.577               Magadan2          1111.781
       374   03 Jun 2027 22:14:51.334   03 Jun 2027 22:15:32.954            41.620                Norilsk          1300.625
       375   03 Jun 2027 22:16:38.816   03 Jun 2027 22:16:44.792             5.976               Magadan2           186.750
       376   03 Jun 2027 22:17:01.945   03 Jun 2027 22:17:55.634            53.689                Irkutsk          1677.781
       377   03 Jun 2027 22:19:52.784   03 Jun 2027 22:20:19.212            26.428                Irkutsk           825.875
       378   03 Jun 2027 22:31:28.726   03 Jun 2027 22:34:09.989           161.263                Sumatra          5039.469
       379   03 Jun 2027 23:45:24.977   03 Jun 2027 23:47:43.013           138.036                Anadyr1          4313.625
       380   03 Jun 2027 23:48:23.211   03 Jun 2027 23:48:37.608            14.397                Norilsk           449.906
       381   03 Jun 2027 23:48:51.676   03 Jun 2027 23:50:15.944            84.268               Magadan1          2633.375
       382   03 Jun 2027 23:50:27.749   03 Jun 2027 23:51:28.332            60.583               Magadan2          1893.219
       383   03 Jun 2027 23:52:12.089   03 Jun 2027 23:52:52.533            40.444                Irkutsk          1263.875
       384   03 Jun 2027 23:53:27.947   03 Jun 2027 23:54:51.537            83.590                Novosib          2612.187
       385   04 Jun 2027 00:04:52.064   04 Jun 2027 00:05:04.521            12.457                  Delhi           389.281
       386   04 Jun 2027 00:06:29.838   04 Jun 2027 00:07:09.426            39.588                  Delhi          1237.125
       387   04 Jun 2027 00:40:17.985   04 Jun 2027 00:40:29.011            11.026            RioGallegos           344.563
       388   04 Jun 2027 00:41:30.619   04 Jun 2027 00:42:12.515            41.896            RioGallegos          1309.250
       389   04 Jun 2027 00:47:37.553   04 Jun 2027 00:47:57.747            20.194            RioGallegos           631.062
       390   04 Jun 2027 00:51:17.203   04 Jun 2027 00:51:43.090            25.887            RioGallegos           808.969
       391   04 Jun 2027 01:19:21.763   04 Jun 2027 01:20:13.321            51.558                Anadyr2          1611.187
       392   04 Jun 2027 01:20:13.321   04 Jun 2027 01:20:44.510            31.189                Anadyr1           974.656
       393   04 Jun 2027 01:21:34.700   04 Jun 2027 01:21:42.525             7.825                Anadyr2           244.531
       394   04 Jun 2027 01:24:14.169   04 Jun 2027 01:26:16.771           122.602                Norilsk          3831.312
       395   04 Jun 2027 01:26:54.584   04 Jun 2027 01:28:10.746            76.162              Murmansk1          2380.062
       396   04 Jun 2027 01:28:12.318   04 Jun 2027 01:28:56.445            44.127                Novosib          1378.969
       397   04 Jun 2027 01:29:58.031   04 Jun 2027 01:30:17.837            19.806              Murmansk2           618.938
       398   04 Jun 2027 01:32:01.632   04 Jun 2027 01:32:19.367            17.735              Murmansk1           554.219
       399   04 Jun 2027 01:33:04.488   04 Jun 2027 01:33:17.827            13.339              Murmansk2           416.844
       400   04 Jun 2027 01:34:58.583   04 Jun 2027 01:35:14.922            16.339                Novosib           510.594
       401   04 Jun 2027 01:37:57.058   04 Jun 2027 01:38:32.678            35.620                  Delhi          1113.125
       402   04 Jun 2027 01:44:01.798   04 Jun 2027 01:44:22.277            20.479                  Delhi           639.969
       403   04 Jun 2027 01:45:13.308   04 Jun 2027 01:46:51.998            98.690                  Delhi          3084.062
       404   04 Jun 2027 02:17:40.438   04 Jun 2027 02:18:21.337            40.899            RioGallegos          1278.094
       405   04 Jun 2027 02:19:15.723   04 Jun 2027 02:19:55.768            40.045            RioGallegos          1251.406
       406   04 Jun 2027 02:52:38.529   04 Jun 2027 02:52:41.892             3.363                Anadyr2           105.094
       407   04 Jun 2027 02:53:02.574   04 Jun 2027 02:53:29.489            26.915                Anadyr1           841.094
       408   04 Jun 2027 02:58:31.846   04 Jun 2027 02:58:55.409            23.563               Magadan1           736.344
       409   04 Jun 2027 02:59:25.825   04 Jun 2027 02:59:27.037             1.212               Magadan2            37.875
       410   04 Jun 2027 03:00:08.152   04 Jun 2027 03:00:30.035            21.883               Magadan1           683.844
       411   04 Jun 2027 03:08:52.359   04 Jun 2027 03:09:36.099            43.740              Murmansk1          1366.875
       412   04 Jun 2027 03:09:43.071   04 Jun 2027 03:10:19.452            36.381              Murmansk2          1136.906
       413   04 Jun 2027 03:10:25.322   04 Jun 2027 03:11:38.780            73.458              Murmansk2          2295.563
       414   04 Jun 2027 03:11:57.886   04 Jun 2027 03:12:53.863            55.977              Murmansk1          1749.281
       415   04 Jun 2027 03:13:09.493   04 Jun 2027 03:14:25.719            76.226                 Moscow          2382.062
       416   04 Jun 2027 03:17:54.786   04 Jun 2027 03:18:44.505            49.719                  Delhi          1553.719
       417   04 Jun 2027 04:26:38.610   04 Jun 2027 04:27:56.380            77.770                Anadyr1          2430.312
       418   04 Jun 2027 04:47:09.452   04 Jun 2027 04:47:49.212            39.760              Murmansk1          1242.500
       419   04 Jun 2027 04:47:49.212   04 Jun 2027 04:48:08.878            19.666              Murmansk2           614.562
       420   04 Jun 2027 04:48:19.985   04 Jun 2027 04:48:36.666            16.681              Murmansk2           521.281
       421   04 Jun 2027 04:49:09.267   04 Jun 2027 04:49:34.325            25.058                 Moscow           783.063
       422   04 Jun 2027 04:49:56.419   04 Jun 2027 04:50:33.203            36.784              Murmansk2          1149.500
       423   04 Jun 2027 04:51:42.625   04 Jun 2027 04:51:44.876             2.251                 Moscow            70.344
       424   04 Jun 2027 04:53:04.195   04 Jun 2027 04:53:15.497            11.302                 Moscow           353.188
       425   04 Jun 2027 05:05:29.836   04 Jun 2027 05:06:21.827            51.991               CapeTown          1624.719
       426   04 Jun 2027 05:07:48.002   04 Jun 2027 05:08:25.888            37.886               CapeTown          1183.938
       427   04 Jun 2027 05:09:45.005   04 Jun 2027 05:10:20.923            35.918               CapeTown          1122.438
       428   04 Jun 2027 06:02:53.973   04 Jun 2027 06:03:04.636            10.663               Magadan2           333.219
       429   04 Jun 2027 06:06:19.887   04 Jun 2027 06:06:36.148            16.261                Anadyr2           508.156
       430   04 Jun 2027 06:08:01.737   04 Jun 2027 06:11:16.041           194.304                Anadyr1          6072.000
       431   04 Jun 2027 07:44:49.210   04 Jun 2027 07:45:06.982            17.772                Anadyr1           555.375
       432   04 Jun 2027 07:45:26.699   04 Jun 2027 07:46:25.150            58.451                Anadyr2          1826.594
       433   04 Jun 2027 07:46:25.150   04 Jun 2027 07:47:11.218            46.068                Anadyr1          1439.625
       434   04 Jun 2027 07:47:26.168   04 Jun 2027 07:48:31.732            65.564               Magadan2          2048.875
       435   04 Jun 2027 07:55:44.422   04 Jun 2027 07:56:01.749            17.327                 Moscow           541.469
       436   04 Jun 2027 08:27:48.093   04 Jun 2027 08:28:18.345            30.252            RioGallegos           945.375
       437   04 Jun 2027 08:31:47.786   04 Jun 2027 08:32:11.382            23.596            RioGallegos           737.375
       438   04 Jun 2027 09:20:10.044   04 Jun 2027 09:20:27.013            16.969               Magadan1           530.281
       439   04 Jun 2027 09:20:27.013   04 Jun 2027 09:20:42.844            15.831               Magadan2           494.719
       440   04 Jun 2027 09:21:05.069   04 Jun 2027 09:22:23.443            78.374               Magadan2          2449.187
       441   04 Jun 2027 09:22:43.246   04 Jun 2027 09:23:20.271            37.025               Magadan2          1157.031
       442   04 Jun 2027 09:23:27.084   04 Jun 2027 09:24:54.859            87.775               Magadan1          2742.969
       443   04 Jun 2027 09:25:03.212   04 Jun 2027 09:25:14.277            11.065              Murmansk2           345.781
       444   04 Jun 2027 09:25:25.969   04 Jun 2027 09:26:04.200            38.231               Magadan2          1194.719
       445   04 Jun 2027 09:26:10.764   04 Jun 2027 09:26:11.640             0.876                Irkutsk            27.375
       446   04 Jun 2027 09:26:11.812   04 Jun 2027 09:26:36.273            24.461                Norilsk           764.406
       447   04 Jun 2027 09:28:38.711   04 Jun 2027 09:28:49.554            10.843              Murmansk1           338.844
       448   04 Jun 2027 09:32:22.636   04 Jun 2027 09:32:30.979             8.343              Murmansk2           260.719
       449   04 Jun 2027 10:01:11.365   04 Jun 2027 10:02:10.488            59.123            RioGallegos          1847.594
       450   04 Jun 2027 10:12:54.840   04 Jun 2027 10:13:11.884            17.044            RioGallegos           532.625
       451   04 Jun 2027 10:37:11.674   04 Jun 2027 10:37:45.545            33.871                Sumatra          1058.469
       452   04 Jun 2027 10:51:08.651   04 Jun 2027 10:51:57.862            49.211                Irkutsk          1537.844
       453   04 Jun 2027 10:56:04.741   04 Jun 2027 10:56:14.775            10.034                Novosib           313.562
       454   04 Jun 2027 10:56:27.660   04 Jun 2027 10:57:21.083            53.423                Norilsk          1669.469
       455   04 Jun 2027 10:57:25.233   04 Jun 2027 10:58:03.564            38.331                Novosib          1197.844
       456   04 Jun 2027 10:58:07.645   04 Jun 2027 10:58:40.679            33.034                Irkutsk          1032.312
       457   04 Jun 2027 10:58:45.710   04 Jun 2027 10:59:16.699            30.989                Norilsk           968.406
       458   04 Jun 2027 10:59:25.055   04 Jun 2027 10:59:30.943             5.888              Murmansk1           184.000
       459   04 Jun 2027 10:59:42.513   04 Jun 2027 10:59:52.743            10.230                Novosib           319.688
       460   04 Jun 2027 10:59:53.899   04 Jun 2027 11:00:18.190            24.291                Norilsk           759.094
       461   04 Jun 2027 11:00:20.959   04 Jun 2027 11:01:31.928            70.969                Norilsk          2217.781
       462   04 Jun 2027 11:01:35.460   04 Jun 2027 11:02:02.544            27.084              Murmansk2           846.375
       463   04 Jun 2027 11:02:08.103   04 Jun 2027 11:02:36.369            28.266              Murmansk2           883.313
       464   04 Jun 2027 11:02:45.548   04 Jun 2027 11:03:22.956            37.408                Norilsk          1169.000
       465   04 Jun 2027 11:38:09.770   04 Jun 2027 11:38:29.787            20.017            RioGallegos           625.531
       466   04 Jun 2027 11:40:16.543   04 Jun 2027 11:41:08.746            52.203            RioGallegos          1631.344
       467   04 Jun 2027 12:12:25.310   04 Jun 2027 12:12:56.857            31.547                Sumatra           985.844
       468   04 Jun 2027 12:17:07.319   04 Jun 2027 12:17:09.125             1.806                Sumatra            56.437
       469   04 Jun 2027 12:20:38.215   04 Jun 2027 12:21:02.509            24.294                  Delhi           759.188
       470   04 Jun 2027 12:21:17.562   04 Jun 2027 12:22:22.218            64.656                  Delhi          2020.500
       471   04 Jun 2027 12:27:36.608   04 Jun 2027 12:28:05.285            28.677                Irkutsk           896.156
       472   04 Jun 2027 12:28:27.486   04 Jun 2027 12:28:52.628            25.142                Novosib           785.688
       473   04 Jun 2027 12:30:57.650   04 Jun 2027 12:32:32.968            95.318                Norilsk          2978.687
       474   04 Jun 2027 12:37:22.468   04 Jun 2027 12:37:32.395             9.927                Norilsk           310.219
       475   04 Jun 2027 12:39:20.442   04 Jun 2027 12:39:23.200             2.758              Murmansk1            86.188
       476   04 Jun 2027 12:39:41.173   04 Jun 2027 12:40:08.376            27.203              Murmansk2           850.094
       477   04 Jun 2027 13:57:19.245   04 Jun 2027 14:00:35.736           196.491                  Delhi          6140.344
       478   04 Jun 2027 14:05:42.773   04 Jun 2027 14:08:06.905           144.132                Novosib          4504.125
       479   04 Jun 2027 14:09:23.095   04 Jun 2027 14:10:52.854            89.759                Norilsk          2804.969
       480   04 Jun 2027 14:14:13.977   04 Jun 2027 14:14:18.785             4.808                Norilsk           150.250
       481   04 Jun 2027 15:40:41.661   04 Jun 2027 15:42:39.468           117.807                 Moscow          3681.469
       482   04 Jun 2027 15:43:39.292   04 Jun 2027 15:44:27.581            48.289                 Moscow          1509.031
