uniorb/output/strategy_2/Drop/Drop_KinoSat_110903.txt

KinoSat_110903
-------------------------
    Access    *     Start Time (UTCG)     *     Stop Time (UTCG)  *   Duration (s)        *       Station  *  Data (Mbytes)
         1   01 Jun 2027 03:51:08.349   01 Jun 2027 03:51:12.890             4.541                Anadyr1           141.906
         2   01 Jun 2027 03:51:30.541   01 Jun 2027 03:51:39.181             8.640               Magadan2           270.000
         3   01 Jun 2027 03:51:46.865   01 Jun 2027 03:54:12.533           145.668                Anadyr2          4552.125
         4   01 Jun 2027 03:54:36.146   01 Jun 2027 03:54:40.696             4.550               Magadan1           142.187
         5   01 Jun 2027 05:29:44.999   01 Jun 2027 05:30:45.352            60.353               Magadan1          1886.031
         6   01 Jun 2027 07:03:34.982   01 Jun 2027 07:03:41.125             6.143                Novosib           191.969
         7   01 Jun 2027 07:05:02.222   01 Jun 2027 07:06:42.136            99.914               Magadan1          3122.312
         8   01 Jun 2027 07:06:44.926   01 Jun 2027 07:07:29.675            44.749                Novosib          1398.406
         9   01 Jun 2027 07:07:41.325   01 Jun 2027 07:08:34.086            52.761                Irkutsk          1648.781
        10   01 Jun 2027 07:08:46.305   01 Jun 2027 07:09:41.351            55.046                Novosib          1720.187
        11   01 Jun 2027 08:40:34.416   01 Jun 2027 08:40:41.885             7.469                Novosib           233.406
        12   01 Jun 2027 08:40:51.699   01 Jun 2027 08:42:24.675            92.976                Irkutsk          2905.500
        13   01 Jun 2027 08:42:46.723   01 Jun 2027 08:44:37.209           110.486                Irkutsk          3452.688
        14   01 Jun 2027 09:55:18.026   01 Jun 2027 09:56:10.000            51.974                Sumatra          1624.188
        15   01 Jun 2027 09:57:41.243   01 Jun 2027 09:58:36.372            55.129                Sumatra          1722.781
        16   01 Jun 2027 10:06:35.294   01 Jun 2027 10:07:05.575            30.281                  Delhi           946.281
        17   01 Jun 2027 10:17:58.374   01 Jun 2027 10:18:17.969            19.595                 Moscow           612.344
        18   01 Jun 2027 10:18:33.207   01 Jun 2027 10:19:11.919            38.712                Irkutsk          1209.750
        19   01 Jun 2027 10:19:15.255   01 Jun 2027 10:21:50.723           155.468                Novosib          4858.375
        20   01 Jun 2027 10:22:20.649   01 Jun 2027 10:23:01.823            41.174                 Moscow          1286.687
        21   01 Jun 2027 11:40:35.043   01 Jun 2027 11:40:41.445             6.402                  Delhi           200.062
        22   01 Jun 2027 11:40:55.208   01 Jun 2027 11:42:15.330            80.122                  Delhi          2503.812
        23   01 Jun 2027 11:43:09.915   01 Jun 2027 11:44:12.218            62.303                  Delhi          1946.969
        24   01 Jun 2027 11:48:30.985   01 Jun 2027 11:49:01.959            30.974                  Delhi           967.938
        25   01 Jun 2027 11:53:13.874   01 Jun 2027 11:54:02.797            48.923                 Moscow          1528.844
        26   01 Jun 2027 11:54:22.085   01 Jun 2027 11:55:23.657            61.572              Murmansk1          1924.125
        27   01 Jun 2027 11:55:28.969   01 Jun 2027 11:56:38.168            69.199              Murmansk1          2162.469
        28   01 Jun 2027 11:57:03.246   01 Jun 2027 11:58:28.729            85.483                Norilsk          2671.344
        29   01 Jun 2027 11:58:29.090   01 Jun 2027 11:59:15.618            46.528              Murmansk2          1454.000
        30   01 Jun 2027 11:59:23.143   01 Jun 2027 11:59:27.427             4.284                 Moscow           133.875
        31   01 Jun 2027 13:04:15.902   01 Jun 2027 13:07:20.335           184.433               CapeTown          5763.531
        32   01 Jun 2027 13:23:11.432   01 Jun 2027 13:24:28.482            77.050                 Moscow          2407.813
        33   01 Jun 2027 13:26:40.155   01 Jun 2027 13:28:39.179           119.024              Murmansk1          3719.500
        34   01 Jun 2027 13:28:39.179   01 Jun 2027 13:31:16.190           157.011              Murmansk2          4906.594
        35   01 Jun 2027 13:31:55.844   01 Jun 2027 13:32:04.869             9.025              Murmansk2           282.031
        36   01 Jun 2027 13:32:31.617   01 Jun 2027 13:33:13.735            42.118              Murmansk2          1316.188
        37   01 Jun 2027 13:33:39.518   01 Jun 2027 13:34:45.017            65.499              Murmansk2          2046.844
        38   01 Jun 2027 13:34:45.017   01 Jun 2027 13:35:06.961            21.944              Murmansk1           685.750
        39   01 Jun 2027 13:35:22.207   01 Jun 2027 13:35:55.017            32.810              Murmansk2          1025.312
        40   01 Jun 2027 13:36:24.106   01 Jun 2027 13:36:25.820             1.714              Murmansk1            53.563
        41   01 Jun 2027 13:36:47.118   01 Jun 2027 13:37:51.916            64.798              Murmansk1          2024.937
        42   01 Jun 2027 13:37:51.916   01 Jun 2027 13:38:03.467            11.551              Murmansk2           360.969
        43   01 Jun 2027 13:38:15.409   01 Jun 2027 13:38:32.659            17.250              Murmansk1           539.063
        44   01 Jun 2027 13:38:32.659   01 Jun 2027 13:39:11.775            39.116              Murmansk2          1222.375
        45   01 Jun 2027 13:41:59.306   01 Jun 2027 13:43:04.564            65.258                Anadyr1          2039.312
        46   01 Jun 2027 13:43:04.564   01 Jun 2027 13:45:58.132           173.568                Anadyr2          5424.000
        47   01 Jun 2027 13:47:54.340   01 Jun 2027 13:48:36.686            42.346                Anadyr1          1323.313
        48   01 Jun 2027 14:46:57.512   01 Jun 2027 14:48:17.628            80.116               CapeTown          2503.625
        49   01 Jun 2027 15:04:59.032   01 Jun 2027 15:05:24.648            25.616              Murmansk2           800.500
        50   01 Jun 2027 15:06:33.835   01 Jun 2027 15:07:14.467            40.632              Murmansk1          1269.750
        51   01 Jun 2027 15:09:11.100   01 Jun 2027 15:09:27.708            16.608              Murmansk2           519.000
        52   01 Jun 2027 15:09:27.708   01 Jun 2027 15:10:23.644            55.936              Murmansk1          1748.000
        53   01 Jun 2027 15:11:08.122   01 Jun 2027 15:11:48.489            40.367              Murmansk1          1261.469
        54   01 Jun 2027 15:12:24.634   01 Jun 2027 15:12:59.380            34.746              Murmansk1          1085.813
        55   01 Jun 2027 15:12:59.380   01 Jun 2027 15:13:19.796            20.416              Murmansk2           638.000
        56   01 Jun 2027 15:13:20.957   01 Jun 2027 15:14:53.291            92.334              Murmansk1          2885.437
        57   01 Jun 2027 15:18:58.202   01 Jun 2027 15:19:12.046            13.844                Anadyr2           432.625
        58   01 Jun 2027 15:19:51.738   01 Jun 2027 15:20:25.448            33.710                Anadyr2          1053.437
        59   01 Jun 2027 15:20:25.448   01 Jun 2027 15:21:00.354            34.906                Anadyr1          1090.812
        60   01 Jun 2027 15:21:43.811   01 Jun 2027 15:22:07.659            23.848                Anadyr2           745.250
        61   01 Jun 2027 15:22:40.717   01 Jun 2027 15:23:12.246            31.529                Anadyr2           985.281
        62   01 Jun 2027 15:23:14.077   01 Jun 2027 15:23:30.432            16.355                Anadyr1           511.094
        63   01 Jun 2027 15:23:43.919   01 Jun 2027 15:24:16.400            32.481                Anadyr2          1015.031
        64   01 Jun 2027 15:24:16.400   01 Jun 2027 15:24:56.385            39.985                Anadyr1          1249.531
        65   01 Jun 2027 15:25:09.862   01 Jun 2027 15:26:03.344            53.482                Anadyr1          1671.312
        66   01 Jun 2027 15:26:33.544   01 Jun 2027 15:27:30.468            56.924                Anadyr1          1778.875
        67   01 Jun 2027 15:28:22.081   01 Jun 2027 15:28:44.150            22.069                Anadyr2           689.656
        68   01 Jun 2027 16:46:41.106   01 Jun 2027 16:47:13.924            32.818              Murmansk2          1025.562
        69   01 Jun 2027 16:47:51.345   01 Jun 2027 16:48:49.449            58.104              Murmansk1          1815.750
        70   01 Jun 2027 16:49:31.484   01 Jun 2027 16:49:40.065             8.581              Murmansk1           268.156
        71   01 Jun 2027 16:54:07.171   01 Jun 2027 16:54:32.274            25.103                Anadyr1           784.469
        72   01 Jun 2027 16:54:56.474   01 Jun 2027 16:55:30.878            34.404                Anadyr1          1075.125
        73   01 Jun 2027 16:55:39.368   01 Jun 2027 16:56:45.444            66.076               Magadan2          2064.875
        74   01 Jun 2027 16:57:24.340   01 Jun 2027 16:57:50.344            26.004               Magadan2           812.625
        75   01 Jun 2027 16:59:17.448   01 Jun 2027 17:00:07.923            50.475               Magadan2          1577.344
        76   01 Jun 2027 17:00:07.923   01 Jun 2027 17:00:51.717            43.794               Magadan1          1368.562
        77   01 Jun 2027 17:01:48.029   01 Jun 2027 17:02:10.678            22.649               Magadan2           707.781
        78   01 Jun 2027 17:02:19.643   01 Jun 2027 17:02:29.074             9.431               Magadan1           294.719
        79   01 Jun 2027 17:03:04.671   01 Jun 2027 17:03:26.217            21.546                Anadyr2           673.312
        80   01 Jun 2027 17:03:30.255   01 Jun 2027 17:03:35.244             4.989                Anadyr2           155.906
        81   01 Jun 2027 17:03:47.660   01 Jun 2027 17:04:19.444            31.784               Magadan2           993.250
        82   01 Jun 2027 17:04:19.444   01 Jun 2027 17:04:55.767            36.323               Magadan1          1135.094
        83   01 Jun 2027 17:04:58.157   01 Jun 2027 17:05:21.168            23.011                Anadyr2           719.094
        84   01 Jun 2027 17:05:37.744   01 Jun 2027 17:05:55.012            17.268               Magadan2           539.625
        85   01 Jun 2027 17:06:32.086   01 Jun 2027 17:06:40.323             8.237               Magadan2           257.406
        86   01 Jun 2027 18:28:44.152   01 Jun 2027 18:30:27.189           103.037                Anadyr1          3219.906
        87   01 Jun 2027 18:31:01.221   01 Jun 2027 18:31:37.556            36.335               Magadan1          1135.469
        88   01 Jun 2027 18:31:42.291   01 Jun 2027 18:34:59.926           197.635                Norilsk          6176.094
        89   01 Jun 2027 18:38:14.515   01 Jun 2027 18:38:52.935            38.420               Magadan2          1200.625
        90   01 Jun 2027 18:38:52.935   01 Jun 2027 18:39:20.358            27.423               Magadan1           856.969
        91   01 Jun 2027 18:39:49.316   01 Jun 2027 18:40:36.752            47.436               Magadan2          1482.375
        92   01 Jun 2027 18:41:44.091   01 Jun 2027 18:42:54.126            70.035               Magadan1          2188.594
        93   01 Jun 2027 18:43:10.068   01 Jun 2027 18:43:41.928            31.860               Magadan1           995.625
        94   01 Jun 2027 18:43:41.928   01 Jun 2027 18:43:56.448            14.520               Magadan2           453.750
        95   01 Jun 2027 19:24:09.920   01 Jun 2027 19:25:02.805            52.885            RioGallegos          1652.656
        96   01 Jun 2027 19:27:16.520   01 Jun 2027 19:27:49.670            33.150            RioGallegos          1035.937
        97   01 Jun 2027 19:28:47.323   01 Jun 2027 19:29:33.509            46.186            RioGallegos          1443.313
        98   01 Jun 2027 19:29:57.387   01 Jun 2027 19:30:27.833            30.446            RioGallegos           951.438
        99   01 Jun 2027 19:30:40.370   01 Jun 2027 19:32:44.780           124.410            RioGallegos          3887.812
       100   01 Jun 2027 20:11:05.844   01 Jun 2027 20:12:21.514            75.670                Irkutsk          2364.688
       101   01 Jun 2027 20:13:20.962   01 Jun 2027 20:17:04.797           223.835                Novosib          6994.844
       102   01 Jun 2027 20:21:29.602   01 Jun 2027 20:22:23.479            53.877                Irkutsk          1683.656
       103   01 Jun 2027 20:31:30.180   01 Jun 2027 20:32:55.947            85.767                Sumatra          2680.219
       104   01 Jun 2027 20:34:03.700   01 Jun 2027 20:35:13.373            69.673                Sumatra          2177.281
       105   01 Jun 2027 21:46:38.287   01 Jun 2027 21:47:50.730            72.443                Norilsk          2263.844
       106   01 Jun 2027 21:49:27.920   01 Jun 2027 21:50:28.309            60.389                Novosib          1887.156
       107   01 Jun 2027 21:51:56.305   01 Jun 2027 21:53:10.937            74.632                Norilsk          2332.250
       108   01 Jun 2027 21:54:59.898   01 Jun 2027 21:55:16.652            16.754                Irkutsk           523.562
       109   01 Jun 2027 21:55:20.363   01 Jun 2027 21:55:53.854            33.491                Novosib          1046.594
       110   01 Jun 2027 21:56:21.073   01 Jun 2027 21:57:56.002            94.929                Novosib          2966.531
       111   01 Jun 2027 22:00:46.725   01 Jun 2027 22:01:57.821            71.096                  Delhi          2221.750
       112   01 Jun 2027 22:05:08.019   01 Jun 2027 22:05:39.750            31.731                  Delhi           991.594
       113   01 Jun 2027 23:16:09.965   01 Jun 2027 23:16:40.488            30.523                Anadyr1           953.844
       114   01 Jun 2027 23:18:06.553   01 Jun 2027 23:19:09.031            62.478                Anadyr1          1952.437
       115   01 Jun 2027 23:19:22.952   01 Jun 2027 23:20:25.495            62.543                Anadyr1          1954.469
       116   01 Jun 2027 23:20:56.384   01 Jun 2027 23:23:03.654           127.270              Murmansk2          3977.188
       117   01 Jun 2027 23:23:31.882   01 Jun 2027 23:24:56.894            85.012              Murmansk1          2656.625
       118   01 Jun 2027 23:27:04.981   01 Jun 2027 23:28:05.548            60.567                 Moscow          1892.719
       119   01 Jun 2027 23:30:59.282   01 Jun 2027 23:31:28.017            28.735                 Moscow           897.969
       120   01 Jun 2027 23:38:22.453   01 Jun 2027 23:39:21.801            59.348                  Delhi          1854.625
       121   01 Jun 2027 23:40:55.567   01 Jun 2027 23:41:45.423            49.856                  Delhi          1558.000
       122   02 Jun 2027 00:48:25.964   02 Jun 2027 00:48:54.119            28.155                Anadyr1           879.844
       123   02 Jun 2027 00:49:33.606   02 Jun 2027 00:49:34.022             0.416                Anadyr1            13.000
       124   02 Jun 2027 00:49:52.774   02 Jun 2027 00:50:13.109            20.335                Anadyr2           635.469
       125   02 Jun 2027 00:50:52.806   02 Jun 2027 00:51:52.421            59.615                Anadyr2          1862.969
       126   02 Jun 2027 00:52:36.322   02 Jun 2027 00:53:55.613            79.291               Magadan2          2477.844
       127   02 Jun 2027 00:54:31.780   02 Jun 2027 00:54:50.713            18.933               Magadan1           591.656
       128   02 Jun 2027 00:56:34.047   02 Jun 2027 00:56:52.581            18.534               Magadan2           579.188
       129   02 Jun 2027 00:57:03.489   02 Jun 2027 00:57:06.150             2.661              Murmansk1            83.156
       130   02 Jun 2027 00:57:46.626   02 Jun 2027 00:58:06.154            19.528                Norilsk           610.250
       131   02 Jun 2027 00:58:30.220   02 Jun 2027 00:58:58.837            28.617              Murmansk1           894.281
       132   02 Jun 2027 00:59:39.466   02 Jun 2027 01:00:33.089            53.623              Murmansk1          1675.719
       133   02 Jun 2027 01:02:59.636   02 Jun 2027 01:03:09.110             9.474              Murmansk2           296.062
       134   02 Jun 2027 01:03:41.896   02 Jun 2027 01:03:59.787            17.891                 Moscow           559.094
       135   02 Jun 2027 01:04:52.689   02 Jun 2027 01:04:56.647             3.958              Murmansk2           123.688
       136   02 Jun 2027 01:06:02.122   02 Jun 2027 01:07:08.313            66.191                Novosib          2068.469
       137   02 Jun 2027 01:08:08.944   02 Jun 2027 01:08:33.163            24.219                 Moscow           756.844
       138   02 Jun 2027 01:11:27.174   02 Jun 2027 01:12:10.373            43.199                 Moscow          1349.969
       139   02 Jun 2027 01:32:08.029   02 Jun 2027 01:32:43.406            35.377               CapeTown          1105.531
       140   02 Jun 2027 01:35:11.392   02 Jun 2027 01:36:21.082            69.690               CapeTown          2177.812
       141   02 Jun 2027 02:21:33.334   02 Jun 2027 02:21:45.105            11.771                Anadyr1           367.844
       142   02 Jun 2027 02:22:19.658   02 Jun 2027 02:22:51.920            32.262                Anadyr2          1008.187
       143   02 Jun 2027 02:23:12.551   02 Jun 2027 02:23:18.998             6.447               Magadan2           201.469
       144   02 Jun 2027 02:23:30.530   02 Jun 2027 02:23:41.582            11.052               Magadan1           345.375
       145   02 Jun 2027 02:24:13.050   02 Jun 2027 02:24:38.241            25.191               Magadan1           787.219
       146   02 Jun 2027 02:25:50.683   02 Jun 2027 02:26:08.047            17.364               Magadan2           542.625
       147   02 Jun 2027 02:27:00.219   02 Jun 2027 02:27:06.488             6.269               Magadan2           195.906
       148   02 Jun 2027 02:27:14.981   02 Jun 2027 02:27:27.805            12.824               Magadan1           400.750
       149   02 Jun 2027 02:28:26.377   02 Jun 2027 02:28:52.984            26.607               Magadan2           831.469
       150   02 Jun 2027 02:29:42.867   02 Jun 2027 02:30:14.386            31.519                Norilsk           984.969
       151   02 Jun 2027 02:31:42.975   02 Jun 2027 02:32:11.693            28.718               Magadan1           897.438
       152   02 Jun 2027 02:33:07.429   02 Jun 2027 02:33:37.527            30.098              Murmansk1           940.563
       153   02 Jun 2027 02:35:43.130   02 Jun 2027 02:36:09.185            26.055                Norilsk           814.219
       154   02 Jun 2027 02:37:03.512   02 Jun 2027 02:37:05.833             2.321              Murmansk2            72.531
       155   02 Jun 2027 02:37:15.197   02 Jun 2027 02:37:29.165            13.968                 Moscow           436.500
       156   02 Jun 2027 02:38:27.961   02 Jun 2027 02:38:45.642            17.681              Murmansk2           552.531
       157   02 Jun 2027 02:40:01.573   02 Jun 2027 02:40:45.807            44.234                 Moscow          1382.312
       158   02 Jun 2027 02:42:18.244   02 Jun 2027 02:42:27.613             9.369                 Moscow           292.781
       159   02 Jun 2027 02:43:19.386   02 Jun 2027 02:43:41.212            21.826                 Moscow           682.063
       160   02 Jun 2027 02:45:27.630   02 Jun 2027 02:45:39.967            12.337                 Moscow           385.531
       161   02 Jun 2027 02:46:18.603   02 Jun 2027 02:46:55.678            37.075                 Moscow          1158.594
       162   02 Jun 2027 03:07:23.205   02 Jun 2027 03:08:25.877            62.672               CapeTown          1958.500
       163   02 Jun 2027 04:03:32.505   02 Jun 2027 04:04:25.328            52.823               Magadan2          1650.719
       164   02 Jun 2027 04:04:40.333   02 Jun 2027 04:04:54.014            13.681               Magadan2           427.531
       165   02 Jun 2027 04:04:54.014   02 Jun 2027 04:05:21.155            27.141               Magadan1           848.156
       166   02 Jun 2027 04:05:22.402   02 Jun 2027 04:05:31.823             9.421                Anadyr1           294.406
       167   02 Jun 2027 04:05:59.441   02 Jun 2027 04:06:38.208            38.767                Anadyr2          1211.469
       168   02 Jun 2027 04:07:25.471   02 Jun 2027 04:07:43.894            18.423               Magadan1           575.719
       169   02 Jun 2027 04:08:40.500   02 Jun 2027 04:08:48.265             7.765               Magadan2           242.656
       170   02 Jun 2027 04:08:48.265   02 Jun 2027 04:09:01.684            13.419               Magadan1           419.344
       171   02 Jun 2027 04:50:45.203   02 Jun 2027 04:51:57.856            72.653            RioGallegos          2270.406
       172   02 Jun 2027 05:40:27.008   02 Jun 2027 05:41:38.105            71.097                Irkutsk          2221.781
       173   02 Jun 2027 05:42:36.390   02 Jun 2027 05:43:10.301            33.911                Irkutsk          1059.719
       174   02 Jun 2027 07:15:36.575   02 Jun 2027 07:15:58.811            22.236               Magadan1           694.875
       175   02 Jun 2027 07:16:22.370   02 Jun 2027 07:16:32.222             9.852               Magadan1           307.875
       176   02 Jun 2027 07:16:55.659   02 Jun 2027 07:18:41.546           105.887               Magadan1          3308.969
       177   02 Jun 2027 07:19:05.736   02 Jun 2027 07:20:04.864            59.128               Magadan2          1847.750
       178   02 Jun 2027 07:20:24.825   02 Jun 2027 07:21:41.273            76.448              Murmansk1          2389.000
       179   02 Jun 2027 07:22:12.211   02 Jun 2027 07:22:42.467            30.256                Norilsk           945.500
       180   02 Jun 2027 07:27:31.874   02 Jun 2027 07:27:38.511             6.637              Murmansk2           207.406
       181   02 Jun 2027 07:55:22.219   02 Jun 2027 07:56:14.107            51.888            RioGallegos          1621.500
       182   02 Jun 2027 07:57:01.219   02 Jun 2027 07:57:27.805            26.586            RioGallegos           830.812
       183   02 Jun 2027 08:30:32.655   02 Jun 2027 08:31:43.686            71.031                Sumatra          2219.719
       184   02 Jun 2027 08:42:33.777   02 Jun 2027 08:44:12.408            98.631                  Delhi          3082.219
       185   02 Jun 2027 08:46:15.838   02 Jun 2027 08:47:10.235            54.397                  Delhi          1699.906
       186   02 Jun 2027 08:52:03.495   02 Jun 2027 08:52:06.919             3.424                Norilsk           107.000
       187   02 Jun 2027 08:52:13.046   02 Jun 2027 08:53:44.779            91.733                Irkutsk          2866.656
       188   02 Jun 2027 08:54:07.561   02 Jun 2027 08:55:35.688            88.127                Novosib          2753.969
       189   02 Jun 2027 08:55:37.409   02 Jun 2027 08:56:09.571            32.162                Norilsk          1005.062
       190   02 Jun 2027 08:56:10.871   02 Jun 2027 08:56:30.477            19.606              Murmansk2           612.688
       191   02 Jun 2027 09:01:13.393   02 Jun 2027 09:02:07.364            53.971              Murmansk1          1686.594
       192   02 Jun 2027 09:33:44.101   02 Jun 2027 09:34:20.352            36.251            RioGallegos          1132.844
       193   02 Jun 2027 10:08:00.692   02 Jun 2027 10:10:16.695           136.003                Sumatra          4250.094
       194   02 Jun 2027 10:28:33.505   02 Jun 2027 10:28:48.019            14.514                Novosib           453.563
       195   02 Jun 2027 10:29:11.384   02 Jun 2027 10:30:02.474            51.090                 Moscow          1596.563
       196   02 Jun 2027 10:30:07.837   02 Jun 2027 10:30:09.172             1.335                Novosib            41.719
       197   02 Jun 2027 10:30:14.880   02 Jun 2027 10:31:49.073            94.193              Murmansk1          2943.531
       198   02 Jun 2027 10:31:52.524   02 Jun 2027 10:32:41.994            49.470              Murmansk2          1545.937
       199   02 Jun 2027 11:53:41.071   02 Jun 2027 11:55:11.283            90.212                  Delhi          2819.125
       200   02 Jun 2027 11:57:14.466   02 Jun 2027 11:57:21.652             7.186                  Delhi           224.563
       201   02 Jun 2027 12:00:14.451   02 Jun 2027 12:00:18.420             3.969                  Delhi           124.031
       202   02 Jun 2027 12:05:09.677   02 Jun 2027 12:05:37.243            27.566                Novosib           861.438
       203   02 Jun 2027 12:05:49.452   02 Jun 2027 12:06:00.299            10.847                Novosib           338.969
       204   02 Jun 2027 12:07:42.889   02 Jun 2027 12:07:58.674            15.785                Novosib           493.281
       205   02 Jun 2027 12:08:39.781   02 Jun 2027 12:09:28.499            48.718              Murmansk2          1522.437
       206   02 Jun 2027 12:12:30.124   02 Jun 2027 12:12:53.852            23.728              Murmansk1           741.500
       207   02 Jun 2027 13:14:56.097   02 Jun 2027 13:17:21.053           144.956               CapeTown          4529.875
       208   02 Jun 2027 13:19:56.054   02 Jun 2027 13:20:49.767            53.713               CapeTown          1678.531
       209   02 Jun 2027 13:36:22.843   02 Jun 2027 13:36:30.124             7.281                 Moscow           227.531
       210   02 Jun 2027 13:38:52.196   02 Jun 2027 13:40:48.795           116.599              Murmansk2          3643.719
       211   02 Jun 2027 13:41:37.610   02 Jun 2027 13:42:12.129            34.519              Murmansk2          1078.719
       212   02 Jun 2027 13:44:31.067   02 Jun 2027 13:44:35.010             3.943              Murmansk1           123.219
       213   02 Jun 2027 13:45:14.991   02 Jun 2027 13:45:42.829            27.838              Murmansk1           869.938
       214   02 Jun 2027 13:48:43.314   02 Jun 2027 13:48:50.013             6.699              Murmansk1           209.344
       215   02 Jun 2027 13:49:33.946   02 Jun 2027 13:49:51.151            17.205              Murmansk1           537.656
       216   02 Jun 2027 13:50:56.405   02 Jun 2027 13:51:05.511             9.106              Murmansk2           284.563
       217   02 Jun 2027 13:53:45.504   02 Jun 2027 13:57:13.663           208.159                Anadyr2          6504.969
       218   02 Jun 2027 13:58:17.632   02 Jun 2027 13:58:36.018            18.386                Anadyr2           574.563
       219   02 Jun 2027 15:17:28.884   02 Jun 2027 15:18:20.912            52.028              Murmansk1          1625.875
       220   02 Jun 2027 15:18:49.194   02 Jun 2027 15:19:15.800            26.606              Murmansk1           831.437
       221   02 Jun 2027 15:21:24.780   02 Jun 2027 15:21:33.806             9.026              Murmansk1           282.062
       222   02 Jun 2027 15:23:10.695   02 Jun 2027 15:23:17.048             6.353              Murmansk2           198.531
       223   02 Jun 2027 15:23:27.421   02 Jun 2027 15:24:18.210            50.789              Murmansk1          1587.156
       224   02 Jun 2027 15:28:58.987   02 Jun 2027 15:30:19.559            80.572                Anadyr1          2517.875
       225   02 Jun 2027 15:30:41.663   02 Jun 2027 15:30:48.956             7.293                Anadyr2           227.906
       226   02 Jun 2027 15:30:48.956   02 Jun 2027 15:31:09.587            20.631                Anadyr1           644.719
       227   02 Jun 2027 15:32:08.788   02 Jun 2027 15:33:00.920            52.132                Anadyr2          1629.125
       228   02 Jun 2027 15:33:37.331   02 Jun 2027 15:36:06.565           149.234               Magadan1          4663.562
       229   02 Jun 2027 15:36:06.565   02 Jun 2027 15:36:17.269            10.704               Magadan2           334.500
       230   02 Jun 2027 15:36:46.864   02 Jun 2027 15:37:38.375            51.511               Magadan1          1609.719
       231   02 Jun 2027 17:04:50.809   02 Jun 2027 17:05:58.980            68.171                Anadyr2          2130.344
       232   02 Jun 2027 17:05:58.980   02 Jun 2027 17:06:27.005            28.025                Anadyr1           875.781
       233   02 Jun 2027 17:07:20.587   02 Jun 2027 17:08:59.158            98.571               Magadan1          3080.344
       234   02 Jun 2027 17:09:10.593   02 Jun 2027 17:09:25.691            15.098               Magadan2           471.813
       235   02 Jun 2027 17:14:21.292   02 Jun 2027 17:14:31.167             9.875               Magadan1           308.594
       236   02 Jun 2027 17:15:28.185   02 Jun 2027 17:15:53.004            24.819               Magadan1           775.594
       237   02 Jun 2027 17:18:38.959   02 Jun 2027 17:19:02.467            23.508               Magadan1           734.625
       238   02 Jun 2027 18:40:44.709   02 Jun 2027 18:44:26.036           221.327                Anadyr2          6916.469
       239   02 Jun 2027 18:44:27.464   02 Jun 2027 18:46:22.013           114.549               Magadan1          3579.656
       240   02 Jun 2027 18:47:26.627   02 Jun 2027 18:48:04.580            37.953                Norilsk          1186.031
       241   02 Jun 2027 19:35:08.138   02 Jun 2027 19:38:16.137           187.999            RioGallegos          5874.969
       242   02 Jun 2027 19:46:02.417   02 Jun 2027 19:46:06.036             3.619            RioGallegos           113.094
       243   02 Jun 2027 20:18:17.072   02 Jun 2027 20:18:43.009            25.937                Anadyr1           810.531
       244   02 Jun 2027 20:19:01.005   02 Jun 2027 20:20:44.306           103.301                Norilsk          3228.156
       245   02 Jun 2027 20:20:56.068   02 Jun 2027 20:21:18.599            22.531               Magadan1           704.094
       246   02 Jun 2027 20:21:58.709   02 Jun 2027 20:22:05.003             6.294               Magadan1           196.688
       247   02 Jun 2027 20:22:40.567   02 Jun 2027 20:23:41.814            61.247                Norilsk          1913.969
       248   02 Jun 2027 20:24:06.176   02 Jun 2027 20:24:53.473            47.297                Irkutsk          1478.031
       249   02 Jun 2027 20:25:33.620   02 Jun 2027 20:28:02.357           148.737                Novosib          4648.031
       250   02 Jun 2027 20:29:50.193   02 Jun 2027 20:29:58.876             8.683                Novosib           271.344
       251   02 Jun 2027 20:36:27.166   02 Jun 2027 20:38:48.646           141.480                Sumatra          4421.250
       252   02 Jun 2027 20:46:52.502   02 Jun 2027 20:48:12.997            80.495                Sumatra          2515.469
       253   02 Jun 2027 21:58:25.809   02 Jun 2027 21:59:01.846            36.037                Irkutsk          1126.156
       254   02 Jun 2027 22:00:21.746   02 Jun 2027 22:01:42.045            80.299                Novosib          2509.344
       255   02 Jun 2027 22:04:25.005   02 Jun 2027 22:04:26.868             1.863                Novosib            58.219
       256   02 Jun 2027 22:06:03.870   02 Jun 2027 22:07:08.320            64.450                Novosib          2014.062
       257   02 Jun 2027 22:07:32.733   02 Jun 2027 22:09:07.281            94.548                  Delhi          2954.625
       258   02 Jun 2027 22:14:56.479   02 Jun 2027 22:16:31.996            95.517                  Delhi          2984.906
       259   02 Jun 2027 23:30:32.796   02 Jun 2027 23:32:28.225           115.429               Magadan2          3607.156
       260   02 Jun 2027 23:32:53.667   02 Jun 2027 23:35:42.894           169.227              Murmansk1          5288.344
       261   02 Jun 2027 23:36:18.394   02 Jun 2027 23:36:52.159            33.765              Murmansk1          1055.156
       262   02 Jun 2027 23:37:33.117   02 Jun 2027 23:39:02.597            89.480                 Moscow          2796.250
       263   02 Jun 2027 23:40:54.414   02 Jun 2027 23:41:30.723            36.309                 Moscow          1134.656
       264   02 Jun 2027 23:43:36.174   02 Jun 2027 23:44:37.875            61.701                 Moscow          1928.156
       265   03 Jun 2027 00:59:59.772   03 Jun 2027 01:00:23.549            23.777                Anadyr2           743.031
       266   03 Jun 2027 01:02:52.509   03 Jun 2027 01:04:55.459           122.950               Magadan1          3842.188
       267   03 Jun 2027 01:05:24.732   03 Jun 2027 01:06:31.234            66.502               Magadan1          2078.187
       268   03 Jun 2027 01:08:40.495   03 Jun 2027 01:09:48.524            68.029              Murmansk2          2125.906
       269   03 Jun 2027 01:10:16.524   03 Jun 2027 01:10:59.214            42.690              Murmansk1          1334.062
       270   03 Jun 2027 01:14:10.072   03 Jun 2027 01:14:37.112            27.040                 Moscow           845.000
       271   03 Jun 2027 01:19:15.690   03 Jun 2027 01:19:29.761            14.071                 Moscow           439.719
       272   03 Jun 2027 01:19:39.761   03 Jun 2027 01:19:52.953            13.192                 Moscow           412.250
       273   03 Jun 2027 01:23:25.140   03 Jun 2027 01:23:55.939            30.799                 Moscow           962.469
       274   03 Jun 2027 01:36:13.663   03 Jun 2027 01:36:31.739            18.076               CapeTown           564.875
       275   03 Jun 2027 01:38:48.663   03 Jun 2027 01:39:06.125            17.462               CapeTown           545.687
       276   03 Jun 2027 01:39:22.401   03 Jun 2027 01:39:51.520            29.119               CapeTown           909.969
       277   03 Jun 2027 01:47:10.922   03 Jun 2027 01:47:39.842            28.920               CapeTown           903.750
       278   03 Jun 2027 02:32:34.097   03 Jun 2027 02:33:45.355            71.258                Anadyr2          2226.812
       279   03 Jun 2027 02:33:45.355   03 Jun 2027 02:34:04.527            19.172                Anadyr1           599.125
       280   03 Jun 2027 02:34:45.182   03 Jun 2027 02:35:00.919            15.737                Anadyr1           491.781
       281   03 Jun 2027 02:35:21.646   03 Jun 2027 02:35:28.352             6.706               Magadan1           209.562
       282   03 Jun 2027 02:35:42.472   03 Jun 2027 02:36:06.172            23.700               Magadan2           740.625
       283   03 Jun 2027 02:36:58.516   03 Jun 2027 02:37:19.427            20.911               Magadan2           653.469
       284   03 Jun 2027 02:37:23.799   03 Jun 2027 02:37:46.064            22.265               Magadan2           695.781
       285   03 Jun 2027 02:41:28.277   03 Jun 2027 02:42:21.640            53.363               Magadan1          1667.594
       286   03 Jun 2027 02:44:38.683   03 Jun 2027 02:45:37.425            58.742              Murmansk1          1835.687
       287   03 Jun 2027 02:45:59.169   03 Jun 2027 02:46:26.907            27.738              Murmansk2           866.813
       288   03 Jun 2027 02:48:04.434   03 Jun 2027 02:48:17.487            13.053                 Moscow           407.906
       289   03 Jun 2027 02:50:52.115   03 Jun 2027 02:51:24.465            32.350                 Moscow          1010.937
       290   03 Jun 2027 02:54:12.087   03 Jun 2027 02:54:15.193             3.106                 Moscow            97.062
       291   03 Jun 2027 02:54:32.185   03 Jun 2027 02:54:51.507            19.322                 Moscow           603.812
       292   03 Jun 2027 03:12:45.723   03 Jun 2027 03:13:16.483            30.760               CapeTown           961.250
       293   03 Jun 2027 04:14:23.647   03 Jun 2027 04:14:24.353             0.706               Magadan2            22.062
       294   03 Jun 2027 04:15:22.504   03 Jun 2027 04:16:30.235            67.731               Magadan2          2116.594
       295   03 Jun 2027 04:16:30.235   03 Jun 2027 04:16:56.011            25.776               Magadan1           805.500
       296   03 Jun 2027 04:17:23.409   03 Jun 2027 04:20:56.218           212.809                Anadyr1          6650.281
       297   03 Jun 2027 04:20:56.218   03 Jun 2027 04:21:17.098            20.880                Anadyr2           652.500
       298   03 Jun 2027 05:01:31.923   03 Jun 2027 05:02:46.813            74.890            RioGallegos          2340.313
       299   03 Jun 2027 05:51:10.239   03 Jun 2027 05:51:21.584            11.345                Irkutsk           354.531
       300   03 Jun 2027 05:51:45.117   03 Jun 2027 05:52:51.652            66.535                Anadyr1          2079.219
       301   03 Jun 2027 05:53:00.635   03 Jun 2027 05:54:43.221           102.586               Magadan2          3205.812
       302   03 Jun 2027 05:54:44.548   03 Jun 2027 05:55:06.297            21.749                Anadyr1           679.656
       303   03 Jun 2027 07:26:58.304   03 Jun 2027 07:27:17.264            18.960               Magadan1           592.500
       304   03 Jun 2027 07:27:41.152   03 Jun 2027 07:28:34.326            53.174                Novosib          1661.688
       305   03 Jun 2027 07:28:43.634   03 Jun 2027 07:28:56.924            13.290                Norilsk           415.312
       306   03 Jun 2027 07:28:59.056   03 Jun 2027 07:30:40.256           101.200               Magadan1          3162.500
       307   03 Jun 2027 07:30:43.829   03 Jun 2027 07:30:51.063             7.234              Murmansk1           226.063
       308   03 Jun 2027 07:31:04.519   03 Jun 2027 07:31:07.657             3.138               Magadan2            98.063
       309   03 Jun 2027 07:31:08.570   03 Jun 2027 07:31:41.715            33.145               Magadan1          1035.781
       310   03 Jun 2027 07:31:44.111   03 Jun 2027 07:31:52.968             8.857              Murmansk2           276.781
       311   03 Jun 2027 07:32:01.061   03 Jun 2027 07:33:10.493            69.432              Murmansk1          2169.750
       312   03 Jun 2027 08:07:27.261   03 Jun 2027 08:08:20.624            53.363            RioGallegos          1667.594
       313   03 Jun 2027 08:42:23.173   03 Jun 2027 08:43:25.002            61.829                Sumatra          1932.156
       314   03 Jun 2027 08:45:18.068   03 Jun 2027 08:45:25.070             7.002                Sumatra           218.812
       315   03 Jun 2027 08:53:29.872   03 Jun 2027 08:54:35.147            65.275                  Delhi          2039.844
       316   03 Jun 2027 08:56:43.706   03 Jun 2027 08:57:14.068            30.362                  Delhi           948.812
       317   03 Jun 2027 08:58:36.423   03 Jun 2027 08:58:58.916            22.493                  Delhi           702.906
       318   03 Jun 2027 09:03:25.594   03 Jun 2027 09:03:32.799             7.205                Irkutsk           225.156
       319   03 Jun 2027 09:03:46.982   03 Jun 2027 09:03:54.651             7.669                Novosib           239.656
       320   03 Jun 2027 09:04:05.197   03 Jun 2027 09:04:06.015             0.818                Norilsk            25.562
       321   03 Jun 2027 09:04:09.990   03 Jun 2027 09:04:46.410            36.420                Norilsk          1138.125
       322   03 Jun 2027 09:04:52.619   03 Jun 2027 09:04:58.510             5.891              Murmansk1           184.094
       323   03 Jun 2027 09:05:08.253   03 Jun 2027 09:05:12.417             4.164                Norilsk           130.125
       324   03 Jun 2027 09:05:16.550   03 Jun 2027 09:05:51.507            34.957                Novosib          1092.406
       325   03 Jun 2027 09:06:08.270   03 Jun 2027 09:07:20.158            71.888              Murmansk2          2246.500
       326   03 Jun 2027 09:07:22.814   03 Jun 2027 09:07:50.178            27.364                 Moscow           855.125
       327   03 Jun 2027 09:07:53.870   03 Jun 2027 09:08:21.941            28.071                Irkutsk           877.219
       328   03 Jun 2027 09:08:22.995   03 Jun 2027 09:08:43.423            20.428              Murmansk2           638.375
       329   03 Jun 2027 09:08:43.423   03 Jun 2027 09:08:53.546            10.123              Murmansk1           316.344
       330   03 Jun 2027 09:09:00.610   03 Jun 2027 09:09:17.828            17.218                 Moscow           538.062
       331   03 Jun 2027 09:09:59.312   03 Jun 2027 09:10:15.979            16.667                 Moscow           520.844
       332   03 Jun 2027 09:46:30.602   03 Jun 2027 09:47:00.065            29.463            RioGallegos           920.719
       333   03 Jun 2027 09:50:38.123   03 Jun 2027 09:50:48.892            10.769            RioGallegos           336.531
       334   03 Jun 2027 09:54:06.987   03 Jun 2027 09:54:21.723            14.736            RioGallegos           460.500
       335   03 Jun 2027 10:21:06.208   03 Jun 2027 10:22:03.852            57.644                Sumatra          1801.375
       336   03 Jun 2027 10:26:29.824   03 Jun 2027 10:26:37.526             7.702                  Delhi           240.688
       337   03 Jun 2027 10:29:41.760   03 Jun 2027 10:30:48.114            66.354                  Delhi          2073.562
       338   03 Jun 2027 10:40:28.622   03 Jun 2027 10:40:31.790             3.168                 Moscow            99.000
       339   03 Jun 2027 10:41:10.505   03 Jun 2027 10:41:36.611            26.106              Murmansk2           815.812
       340   03 Jun 2027 10:41:44.850   03 Jun 2027 10:42:02.121            17.271                Norilsk           539.719
       341   03 Jun 2027 10:42:03.439   03 Jun 2027 10:42:37.144            33.705              Murmansk1          1053.281
       342   03 Jun 2027 10:42:46.497   03 Jun 2027 10:42:48.011             1.514              Murmansk2            47.312
       343   03 Jun 2027 10:42:55.129   03 Jun 2027 10:43:07.208            12.079                Norilsk           377.469
       344   03 Jun 2027 10:43:11.148   03 Jun 2027 10:43:40.431            29.283                Norilsk           915.094
       345   03 Jun 2027 10:43:43.398   03 Jun 2027 10:44:22.923            39.525                 Moscow          1235.156
       346   03 Jun 2027 10:47:29.021   03 Jun 2027 10:47:31.551             2.530                 Moscow            79.063
       347   03 Jun 2027 12:07:41.488   03 Jun 2027 12:10:05.271           143.783                  Delhi          4493.219
       348   03 Jun 2027 12:12:49.121   03 Jun 2027 12:14:11.471            82.350                 Moscow          2573.438
       349   03 Jun 2027 12:14:19.546   03 Jun 2027 12:14:55.137            35.591              Murmansk2          1112.219
       350   03 Jun 2027 12:15:16.917   03 Jun 2027 12:15:30.278            13.361              Murmansk1           417.531
       351   03 Jun 2027 12:15:43.517   03 Jun 2027 12:16:01.308            17.791              Murmansk2           555.969
       352   03 Jun 2027 12:17:48.301   03 Jun 2027 12:18:10.088            21.787              Murmansk2           680.844
       353   03 Jun 2027 12:21:27.529   03 Jun 2027 12:21:41.417            13.888              Murmansk1           434.000
       354   03 Jun 2027 12:22:53.692   03 Jun 2027 12:22:56.806             3.114                Norilsk            97.313
       355   03 Jun 2027 12:23:28.856   03 Jun 2027 12:23:39.924            11.068                Norilsk           345.875
       356   03 Jun 2027 13:26:10.295   03 Jun 2027 13:29:03.556           173.261               CapeTown          5414.406
       357   03 Jun 2027 13:32:06.906   03 Jun 2027 13:33:41.900            94.994               CapeTown          2968.563
       358   03 Jun 2027 13:51:06.153   03 Jun 2027 13:53:30.637           144.484              Murmansk1          4515.125
       359   03 Jun 2027 13:59:58.024   03 Jun 2027 14:00:37.661            39.637              Murmansk1          1238.656
       360   03 Jun 2027 14:05:35.764   03 Jun 2027 14:09:14.821           219.057                Anadyr1          6845.531
       361   03 Jun 2027 14:11:18.708   03 Jun 2027 14:11:54.841            36.133                Anadyr1          1129.156
       362   03 Jun 2027 15:30:01.611   03 Jun 2027 15:30:19.720            18.109              Murmansk2           565.906
       363   03 Jun 2027 15:31:16.908   03 Jun 2027 15:31:33.544            16.636              Murmansk1           519.875
       364   03 Jun 2027 15:33:14.833   03 Jun 2027 15:33:20.338             5.505              Murmansk1           172.031
       365   03 Jun 2027 15:33:35.060   03 Jun 2027 15:35:08.808            93.748              Murmansk1          2929.625
       366   03 Jun 2027 15:40:58.959   03 Jun 2027 15:41:50.385            51.426                Anadyr1          1607.062
       367   03 Jun 2027 15:41:50.385   03 Jun 2027 15:42:49.564            59.179                Anadyr2          1849.344
       368   03 Jun 2027 15:44:55.465   03 Jun 2027 15:48:36.270           220.805               Magadan2          6900.156
       369   03 Jun 2027 15:50:10.584   03 Jun 2027 15:50:36.800            26.216               Magadan2           819.250
       370   03 Jun 2027 17:16:52.218   03 Jun 2027 17:17:26.133            33.915                Anadyr2          1059.844
       371   03 Jun 2027 17:17:31.875   03 Jun 2027 17:17:49.558            17.683                Anadyr2           552.594
       372   03 Jun 2027 17:18:18.399   03 Jun 2027 17:18:41.822            23.423                Anadyr1           731.969
       373   03 Jun 2027 17:19:17.855   03 Jun 2027 17:20:59.481           101.626               Magadan2          3175.813
       374   03 Jun 2027 17:25:44.575   03 Jun 2027 17:26:15.756            31.181               Magadan2           974.406
       375   03 Jun 2027 17:27:06.875   03 Jun 2027 17:27:35.103            28.228               Magadan1           882.125
       376   03 Jun 2027 18:52:44.983   03 Jun 2027 18:54:29.868           104.885                Anadyr2          3277.656
       377   03 Jun 2027 18:54:49.412   03 Jun 2027 18:56:35.215           105.803                Anadyr1          3306.344
       378   03 Jun 2027 18:56:52.799   03 Jun 2027 18:58:55.644           122.845                Norilsk          3838.906
       379   03 Jun 2027 19:01:12.425   03 Jun 2027 19:03:43.861           151.436                Irkutsk          4732.375
       380   03 Jun 2027 19:05:02.094   03 Jun 2027 19:05:56.813            54.719                Irkutsk          1709.969
       381   03 Jun 2027 19:48:37.105   03 Jun 2027 19:49:33.023            55.918            RioGallegos          1747.438
       382   03 Jun 2027 20:30:41.925   03 Jun 2027 20:30:44.743             2.818                Anadyr2            88.062
       383   03 Jun 2027 20:30:55.188   03 Jun 2027 20:32:25.220            90.032                Norilsk          2813.500
       384   03 Jun 2027 20:34:11.321   03 Jun 2027 20:34:32.852            21.531               Magadan1           672.844
       385   03 Jun 2027 20:34:39.971   03 Jun 2027 20:36:27.478           107.507                Irkutsk          3359.594
       386   03 Jun 2027 20:36:47.622   03 Jun 2027 20:39:12.690           145.068                Novosib          4533.375
       387   03 Jun 2027 20:39:59.027   03 Jun 2027 20:40:23.317            24.290                Novosib           759.063
       388   03 Jun 2027 20:41:08.751   03 Jun 2027 20:41:33.136            24.385                Novosib           762.031
       389   03 Jun 2027 20:42:07.249   03 Jun 2027 20:42:50.981            43.732                Novosib          1366.625
       390   03 Jun 2027 20:48:20.617   03 Jun 2027 20:49:12.815            52.198                Sumatra          1631.188
       391   03 Jun 2027 22:07:12.033   03 Jun 2027 22:08:29.945            77.912               Magadan1          2434.750
       392   03 Jun 2027 22:10:29.344   03 Jun 2027 22:10:51.287            21.943                Irkutsk           685.719
       393   03 Jun 2027 22:11:56.902   03 Jun 2027 22:12:07.518            10.616                Irkutsk           331.750
       394   03 Jun 2027 22:12:08.360   03 Jun 2027 22:13:19.754            71.394                Novosib          2231.063
       395   03 Jun 2027 22:14:00.814   03 Jun 2027 22:16:16.079           135.265                Novosib          4227.031
       396   03 Jun 2027 22:18:01.202   03 Jun 2027 22:19:15.732            74.530                  Delhi          2329.062
       397   03 Jun 2027 22:21:49.011   03 Jun 2027 22:22:41.013            52.002                  Delhi          1625.062
       398   03 Jun 2027 23:42:18.359   03 Jun 2027 23:43:49.354            90.995               Magadan2          2843.594
       399   03 Jun 2027 23:44:50.107   03 Jun 2027 23:46:00.614            70.507               Magadan2          2203.344
       400   03 Jun 2027 23:46:23.728   03 Jun 2027 23:46:37.927            14.199                Novosib           443.719
       401   03 Jun 2027 23:46:53.250   03 Jun 2027 23:49:00.147           126.897              Murmansk1          3965.531
       402   03 Jun 2027 23:49:10.677   03 Jun 2027 23:50:20.434            69.757                 Moscow          2179.906
       403   03 Jun 2027 23:50:52.118   03 Jun 2027 23:52:36.095           103.977                 Moscow          3249.281
       404   04 Jun 2027 00:17:40.240   04 Jun 2027 00:18:25.550            45.310               CapeTown          1415.937
       405   04 Jun 2027 00:19:18.881   04 Jun 2027 00:20:14.956            56.075               CapeTown          1752.344
       406   04 Jun 2027 01:14:20.553   04 Jun 2027 01:15:18.199            57.646               Magadan1          1801.438
       407   04 Jun 2027 01:15:38.838   04 Jun 2027 01:15:46.860             8.022               Magadan1           250.687
       408   04 Jun 2027 01:18:08.258   04 Jun 2027 01:18:29.563            21.305               Magadan1           665.781
       409   04 Jun 2027 01:20:42.038   04 Jun 2027 01:22:24.195           102.157              Murmansk2          3192.406
       410   04 Jun 2027 01:22:52.742   04 Jun 2027 01:23:09.967            17.225                Novosib           538.281
       411   04 Jun 2027 01:23:14.008   04 Jun 2027 01:23:42.305            28.297              Murmansk1           884.281
       412   04 Jun 2027 01:23:59.206   04 Jun 2027 01:25:49.866           110.660                 Moscow          3458.125
       413   04 Jun 2027 01:50:57.073   04 Jun 2027 01:51:29.214            32.141               CapeTown          1004.406
       414   04 Jun 2027 01:56:24.604   04 Jun 2027 01:56:38.033            13.429               CapeTown           419.656
       415   04 Jun 2027 01:58:33.871   04 Jun 2027 01:58:57.404            23.533               CapeTown           735.406
       416   04 Jun 2027 02:44:33.049   04 Jun 2027 02:45:31.511            58.462                Anadyr2          1826.937
       417   04 Jun 2027 02:45:45.917   04 Jun 2027 02:46:19.462            33.545                Anadyr2          1048.281
       418   04 Jun 2027 02:46:25.855   04 Jun 2027 02:47:22.101            56.246               Magadan2          1757.687
       419   04 Jun 2027 02:47:24.368   04 Jun 2027 02:47:34.590            10.222               Magadan1           319.437
       420   04 Jun 2027 02:49:13.692   04 Jun 2027 02:49:20.183             6.491               Magadan1           202.844
       421   04 Jun 2027 02:50:57.815   04 Jun 2027 02:51:21.622            23.807               Magadan1           743.969
       422   04 Jun 2027 02:52:57.988   04 Jun 2027 02:53:00.929             2.941               Magadan1            91.906
       423   04 Jun 2027 02:53:39.686   04 Jun 2027 02:54:14.600            34.914                Norilsk          1091.062
       424   04 Jun 2027 02:56:09.584   04 Jun 2027 02:56:33.209            23.625                Norilsk           738.281
       425   04 Jun 2027 02:56:40.125   04 Jun 2027 02:57:19.060            38.935              Murmansk1          1216.719
       426   04 Jun 2027 02:58:21.628   04 Jun 2027 02:58:30.583             8.955              Murmansk2           279.844
       427   04 Jun 2027 02:58:59.309   04 Jun 2027 03:00:01.507            62.198              Murmansk1          1943.687
       428   04 Jun 2027 04:26:58.263   04 Jun 2027 04:27:18.827            20.564               Magadan1           642.625
       429   04 Jun 2027 04:27:28.631   04 Jun 2027 04:28:15.947            47.316                Anadyr2          1478.625
       430   04 Jun 2027 04:28:18.941   04 Jun 2027 04:28:27.717             8.776                Norilsk           274.250
       431   04 Jun 2027 04:28:32.713   04 Jun 2027 04:28:58.389            25.676               Magadan1           802.375
       432   04 Jun 2027 04:29:04.397   04 Jun 2027 04:29:51.678            47.281               Magadan1          1477.531
       433   04 Jun 2027 04:29:51.678   04 Jun 2027 04:29:52.474             0.796               Magadan2            24.875
       434   04 Jun 2027 04:29:59.269   04 Jun 2027 04:31:41.358           102.089                Anadyr2          3190.281
       435   04 Jun 2027 06:01:56.458   04 Jun 2027 06:03:04.636            68.178               Magadan1          2130.562
       436   04 Jun 2027 06:03:04.636   04 Jun 2027 06:03:12.264             7.628               Magadan2           238.375
       437   04 Jun 2027 06:03:21.804   04 Jun 2027 06:04:09.654            47.850                Irkutsk          1495.313
       438   04 Jun 2027 06:04:15.924   04 Jun 2027 06:07:05.758           169.834                Anadyr1          5307.313
       439   04 Jun 2027 06:07:19.603   04 Jun 2027 06:08:54.239            94.636               Magadan2          2957.375
       440   04 Jun 2027 06:44:15.361   04 Jun 2027 06:46:34.889           139.528            RioGallegos          4360.250
       441   04 Jun 2027 07:23:47.469   04 Jun 2027 07:24:05.896            18.427                Sumatra           575.844
       442   04 Jun 2027 07:24:30.909   04 Jun 2027 07:26:12.185           101.276                Sumatra          3164.875
       443   04 Jun 2027 07:37:48.505   04 Jun 2027 07:38:58.017            69.512               Magadan1          2172.250
       444   04 Jun 2027 07:39:14.184   04 Jun 2027 07:39:18.106             3.922                Irkutsk           122.563
       445   04 Jun 2027 07:39:20.340   04 Jun 2027 07:39:45.568            25.228               Magadan1           788.375
       446   04 Jun 2027 07:40:17.064   04 Jun 2027 07:40:35.085            18.021               Magadan1           563.156
       447   04 Jun 2027 07:40:40.059   04 Jun 2027 07:41:22.636            42.577                Irkutsk          1330.531
       448   04 Jun 2027 07:41:39.979   04 Jun 2027 07:41:54.128            14.149                Irkutsk           442.156
       449   04 Jun 2027 07:42:04.494   04 Jun 2027 07:42:06.353             1.859                Novosib            58.094
       450   04 Jun 2027 07:42:07.868   04 Jun 2027 07:42:55.974            48.106                Novosib          1503.312
       451   04 Jun 2027 07:43:11.231   04 Jun 2027 07:43:30.188            18.957               Magadan2           592.406
       452   04 Jun 2027 07:43:33.773   04 Jun 2027 07:43:40.155             6.382              Murmansk1           199.437
       453   04 Jun 2027 07:43:59.307   04 Jun 2027 07:44:04.551             5.244              Murmansk1           163.875
       454   04 Jun 2027 07:44:04.551   04 Jun 2027 07:45:23.842            79.291              Murmansk2          2477.844
       455   04 Jun 2027 08:19:35.847   04 Jun 2027 08:19:55.005            19.158            RioGallegos           598.687
       456   04 Jun 2027 08:23:55.427   04 Jun 2027 08:24:01.379             5.952            RioGallegos           186.000
       457   04 Jun 2027 08:30:25.587   04 Jun 2027 08:30:43.767            18.180            RioGallegos           568.125
       458   04 Jun 2027 08:54:19.472   04 Jun 2027 08:54:58.439            38.967                Sumatra          1217.719
       459   04 Jun 2027 08:56:11.157   04 Jun 2027 08:57:12.836            61.679                Sumatra          1927.469
       460   04 Jun 2027 09:04:42.222   04 Jun 2027 09:05:38.757            56.535                  Delhi          1766.719
       461   04 Jun 2027 09:14:43.390   04 Jun 2027 09:15:08.561            25.171                Irkutsk           786.594
       462   04 Jun 2027 09:15:17.557   04 Jun 2027 09:15:22.882             5.325                Novosib           166.406
       463   04 Jun 2027 09:15:54.389   04 Jun 2027 09:16:46.193            51.804                Novosib          1618.875
       464   04 Jun 2027 09:17:09.127   04 Jun 2027 09:18:00.199            51.072              Murmansk2          1596.000
       465   04 Jun 2027 09:18:00.958   04 Jun 2027 09:19:07.769            66.811                 Moscow          2087.844
       466   04 Jun 2027 09:19:11.782   04 Jun 2027 09:19:46.136            34.354              Murmansk2          1073.562
       467   04 Jun 2027 09:19:53.278   04 Jun 2027 09:20:51.419            58.141                Novosib          1816.906
       468   04 Jun 2027 09:59:29.587   04 Jun 2027 09:59:57.381            27.794            RioGallegos           868.562
       469   04 Jun 2027 10:02:10.488   04 Jun 2027 10:02:15.617             5.129            RioGallegos           160.281
       470   04 Jun 2027 10:03:04.674   04 Jun 2027 10:03:20.892            16.218            RioGallegos           506.813
       471   04 Jun 2027 10:38:41.642   04 Jun 2027 10:39:23.752            42.110                  Delhi          1315.938
       472   04 Jun 2027 10:41:39.543   04 Jun 2027 10:43:11.460            91.917                  Delhi          2872.406
       473   04 Jun 2027 10:52:27.124   04 Jun 2027 10:53:22.609            55.485              Murmansk2          1733.906
       474   04 Jun 2027 10:53:27.754   04 Jun 2027 10:54:13.628            45.874                 Moscow          1433.562
       475   04 Jun 2027 10:54:30.541   04 Jun 2027 10:55:14.149            43.608                 Moscow          1362.750
       476   04 Jun 2027 10:55:19.674   04 Jun 2027 10:55:28.811             9.137                Novosib           285.531
       477   04 Jun 2027 10:55:33.226   04 Jun 2027 10:55:42.358             9.132                Norilsk           285.375
       478   04 Jun 2027 10:55:43.814   04 Jun 2027 10:55:53.450             9.636              Murmansk1           301.125
       479   04 Jun 2027 10:56:01.126   04 Jun 2027 10:56:04.741             3.615                Novosib           112.969
       480   04 Jun 2027 10:56:07.170   04 Jun 2027 10:56:42.589            35.419              Murmansk2          1106.844
       481   04 Jun 2027 10:57:52.721   04 Jun 2027 10:58:00.304             7.583              Murmansk1           236.969
       482   04 Jun 2027 12:22:55.972   04 Jun 2027 12:26:56.985           241.013                 Moscow          7531.656
