uniorb/output/strategy_2/Drop/Drop_KinoSat_110107.txt

KinoSat_110107
-------------------------
    Access    *     Start Time (UTCG)     *     Stop Time (UTCG)  *   Duration (s)        *       Station  *  Data (Mbytes)
         1   01 Jun 2027 03:47:54.825   01 Jun 2027 03:48:42.361            47.536                Norilsk          2996.000
         2   01 Jun 2027 03:48:50.666   01 Jun 2027 03:49:46.763            56.097                Novosib          4152.500
         3   01 Jun 2027 03:49:58.094   01 Jun 2027 03:50:15.389            17.295                Norilsk          2161.875
         4   01 Jun 2027 03:50:24.071   01 Jun 2027 03:51:28.686            64.615                Norilsk          7844.625
         5   01 Jun 2027 03:51:38.001   01 Jun 2027 03:52:38.018            60.017              Murmansk1          4657.500
         6   01 Jun 2027 03:52:53.900   01 Jun 2027 03:53:21.835            27.935                Novosib          3491.875
         7   01 Jun 2027 03:53:25.628   01 Jun 2027 03:54:22.736            57.108              Murmansk2          6345.625
         8   01 Jun 2027 05:25:22.234   01 Jun 2027 05:25:42.539            20.305              Murmansk1           857.500
         9   01 Jun 2027 05:25:45.605   01 Jun 2027 05:26:44.663            59.058                Novosib          1533.000
        10   01 Jun 2027 05:26:50.903   01 Jun 2027 05:27:29.187            38.284              Murmansk1          3120.000
        11   01 Jun 2027 05:27:30.495   01 Jun 2027 05:28:53.154            82.659                Irkutsk           654.000
        12   01 Jun 2027 05:29:05.790   01 Jun 2027 05:29:44.153            38.363                 Moscow          4795.375
        13   01 Jun 2027 05:29:44.935   01 Jun 2027 05:30:32.210            47.275              Murmansk2          1913.625
        14   01 Jun 2027 07:01:25.816   01 Jun 2027 07:02:10.590            44.774              Murmansk2          2247.000
        15   01 Jun 2027 07:02:13.478   01 Jun 2027 07:02:40.684            27.206                 Moscow          1444.000
        16   01 Jun 2027 07:02:46.881   01 Jun 2027 07:03:22.530            35.649                Norilsk          3098.500
        17   01 Jun 2027 07:03:34.756   01 Jun 2027 07:04:54.976            80.220                Norilsk          6113.000
        18   01 Jun 2027 07:04:56.963   01 Jun 2027 07:05:47.260            50.297              Murmansk1           993.500
        19   01 Jun 2027 07:05:49.148   01 Jun 2027 07:06:08.331            19.183              Murmansk1           944.000
        20   01 Jun 2027 07:06:11.455   01 Jun 2027 07:07:07.492            56.037                 Moscow          1562.000
        21   02 Jun 2027 03:59:39.140   02 Jun 2027 04:00:33.692            54.552                Irkutsk          3441.000
        22   02 Jun 2027 04:00:43.337   02 Jun 2027 04:01:38.428            55.091                Norilsk          4822.500
        23   02 Jun 2027 04:01:40.337   02 Jun 2027 04:02:05.981            25.644                Norilsk           954.500
        24   02 Jun 2027 04:02:13.874   02 Jun 2027 04:03:03.310            49.436                Norilsk          3946.500
        25   02 Jun 2027 04:03:09.786   02 Jun 2027 04:03:50.069            40.283              Murmansk1          3238.000
        26   02 Jun 2027 04:03:56.643   02 Jun 2027 04:04:27.201            30.558                Norilsk          3287.000
        27   02 Jun 2027 04:04:39.937   02 Jun 2027 04:05:37.133            57.196              Murmansk2          6368.000
        28   02 Jun 2027 04:05:41.562   02 Jun 2027 04:05:48.878             7.316                Novosib           914.500
        29   02 Jun 2027 04:05:52.003   02 Jun 2027 04:06:43.911            51.908              Murmansk2          2862.500
        30   02 Jun 2027 05:37:59.926   02 Jun 2027 05:38:22.804            22.878                Norilsk          2859.750
        31   02 Jun 2027 05:38:33.463   02 Jun 2027 05:38:50.070            16.607                Irkutsk          2075.875
        32   02 Jun 2027 05:38:53.081   02 Jun 2027 05:39:50.512            57.431              Murmansk2          7124.875
        33   02 Jun 2027 05:39:56.326   02 Jun 2027 05:40:40.015            43.689              Murmansk2          2907.000
        34   02 Jun 2027 05:40:41.697   02 Jun 2027 05:41:07.845            26.148                Norilsk           841.000
        35   02 Jun 2027 05:41:15.898   02 Jun 2027 05:41:55.990            40.092              Murmansk1          4026.500
        36   02 Jun 2027 07:13:12.944   02 Jun 2027 07:14:00.246            47.302              Murmansk1          1176.500
        37   02 Jun 2027 07:14:05.936   02 Jun 2027 07:15:02.385            56.449                 Moscow          2845.000
        38   02 Jun 2027 07:15:11.084   02 Jun 2027 07:15:47.119            36.035                Norilsk          4349.500
        39   02 Jun 2027 07:15:59.499   02 Jun 2027 07:16:57.645            58.146                 Moscow          6190.000
        40   02 Jun 2027 07:16:59.783   02 Jun 2027 07:17:22.871            23.088                Norilsk          1069.000
        41   02 Jun 2027 07:17:40.899   02 Jun 2027 07:18:06.590            25.691              Murmansk1           761.500
        42   02 Jun 2027 07:18:10.706   02 Jun 2027 07:18:51.834            41.128                 Moscow          2058.000
        43   03 Jun 2027 04:11:55.125   03 Jun 2027 04:13:10.320            75.195                Irkutsk          1204.500
        44   03 Jun 2027 04:13:10.845   03 Jun 2027 04:13:35.388            24.543                Norilsk           262.500
        45   03 Jun 2027 04:13:40.496   03 Jun 2027 04:14:50.947            70.451                Irkutsk          2554.000
        46   03 Jun 2027 04:14:54.668   03 Jun 2027 04:15:13.326            18.658              Murmansk2          1860.500
        47   03 Jun 2027 04:15:24.579   03 Jun 2027 04:16:38.901            74.322                Novosib          5626.500
        48   03 Jun 2027 04:16:41.920   03 Jun 2027 04:17:04.095            22.175              Murmansk1          1509.500
        49   03 Jun 2027 04:17:11.827   03 Jun 2027 04:17:51.490            39.663                 Moscow          3866.000
        50   03 Jun 2027 04:17:57.270   03 Jun 2027 04:18:25.966            28.696              Murmansk1          2890.000
        51   03 Jun 2027 05:49:51.989   03 Jun 2027 05:50:31.608            39.619              Murmansk1          2344.000
        52   03 Jun 2027 05:50:43.926   03 Jun 2027 05:51:16.957            33.031                Norilsk          4128.875
        53   03 Jun 2027 05:51:19.167   03 Jun 2027 05:51:55.573            36.406                Novosib          3135.125
        54   03 Jun 2027 05:52:08.207   03 Jun 2027 05:52:38.020            29.813                Norilsk          3726.625
        55   03 Jun 2027 05:52:39.890   03 Jun 2027 05:53:06.621            26.731              Murmansk2          3341.375
        56   03 Jun 2027 05:53:06.621   03 Jun 2027 05:53:30.511            23.890              Murmansk1           184.000
        57   03 Jun 2027 05:53:43.090   03 Jun 2027 05:54:05.840            22.750                Novosib          2843.750
        58   03 Jun 2027 05:54:08.212   03 Jun 2027 05:54:33.975            25.763                 Moscow          3220.375
        59   03 Jun 2027 05:54:44.489   03 Jun 2027 05:55:07.334            22.845              Murmansk1           225.375
        60   03 Jun 2027 07:23:04.867   03 Jun 2027 07:23:14.873            10.006                 Moscow          1250.750
        61   03 Jun 2027 07:23:26.361   03 Jun 2027 07:24:48.631            82.270                 Moscow         10195.750
        62   03 Jun 2027 07:24:52.689   03 Jun 2027 07:25:19.607            26.918                Novosib          2029.000
        63   03 Jun 2027 07:25:20.985   03 Jun 2027 07:25:51.478            30.493                 Moscow           689.000
        64   03 Jun 2027 07:26:00.888   03 Jun 2027 07:26:55.853            54.965                Novosib          4705.000
        65   03 Jun 2027 07:26:59.118   03 Jun 2027 07:27:41.152            42.034                Novosib          1632.500
        66   03 Jun 2027 07:27:55.376   03 Jun 2027 07:29:33.402            98.026              Murmansk1          7112.000
        67   03 Jun 2027 07:29:55.256   03 Jun 2027 07:30:03.506             8.250              Murmansk2            87.500
        68   03 Jun 2027 07:30:03.534   03 Jun 2027 07:30:14.515            10.981                Norilsk            14.000
        69   03 Jun 2027 07:30:19.426   03 Jun 2027 07:30:31.208            11.782                Norilsk          1472.750
        70   03 Jun 2027 07:30:38.192   03 Jun 2027 07:31:44.111            65.919              Murmansk2          4474.750
        71   04 Jun 2027 04:23:49.326   04 Jun 2027 04:24:18.052            28.726                Novosib           864.500
        72   04 Jun 2027 04:24:44.379   04 Jun 2027 04:26:36.865           112.486                Norilsk         13163.500
        73   04 Jun 2027 04:26:38.873   04 Jun 2027 04:26:54.742            15.869                Novosib          1004.000
        74   04 Jun 2027 04:26:59.019   04 Jun 2027 04:27:41.358            42.339              Murmansk1          2138.500
        75   04 Jun 2027 04:27:41.455   04 Jun 2027 04:27:41.958             0.503                Norilsk            48.500
        76   04 Jun 2027 04:27:49.970   04 Jun 2027 04:29:00.702            70.732                Irkutsk          4006.000
        77   04 Jun 2027 04:29:17.557   04 Jun 2027 04:30:27.375            69.818              Murmansk2          8427.500
        78   04 Jun 2027 06:01:53.448   04 Jun 2027 06:02:19.624            26.176                Irkutsk          3052.500
        79   04 Jun 2027 06:02:21.190   04 Jun 2027 06:02:33.121            11.931                Norilsk           783.000
        80   04 Jun 2027 06:02:34.492   04 Jun 2027 06:02:53.731            19.239                Novosib           685.500
        81   04 Jun 2027 06:02:57.428   04 Jun 2027 06:03:24.757            27.329              Murmansk2          1848.500
        82   04 Jun 2027 06:03:25.878   04 Jun 2027 06:03:58.484            32.606                 Moscow           560.500
        83   04 Jun 2027 06:04:03.389   04 Jun 2027 06:04:34.925            31.536                Norilsk          2452.500
        84   04 Jun 2027 06:04:41.152   04 Jun 2027 06:05:23.489            42.337              Murmansk2          3113.500
        85   04 Jun 2027 06:05:27.334   04 Jun 2027 06:05:50.757            23.423                Norilsk          1922.500
        86   04 Jun 2027 06:05:53.846   04 Jun 2027 06:06:02.474             8.628              Murmansk1          1078.500
        87   04 Jun 2027 06:06:02.474   04 Jun 2027 06:06:12.684            10.210              Murmansk2           466.000
        88   04 Jun 2027 07:35:31.928   04 Jun 2027 07:36:50.073            78.145                 Moscow          4130.500
        89   04 Jun 2027 07:36:54.151   04 Jun 2027 07:37:12.728            18.577                 Moscow          2039.000
        90   04 Jun 2027 07:37:39.667   04 Jun 2027 07:39:43.007           123.340                 Moscow         13469.500
        91   04 Jun 2027 07:39:48.286   04 Jun 2027 07:40:11.806            23.520                Norilsk          2639.500
        92   04 Jun 2027 07:40:15.545   04 Jun 2027 07:40:52.994            37.449                 Moscow          1869.500
        93   04 Jun 2027 07:40:55.300   04 Jun 2027 07:41:08.563            13.263                Norilsk          1153.000
        94   04 Jun 2027 07:41:26.654   04 Jun 2027 07:42:40.459            73.805              Murmansk1          9045.500
        95   04 Jun 2027 07:42:56.159   04 Jun 2027 07:43:33.773            37.614              Murmansk1          3779.000
        96   05 Jun 2027 03:00:18.746   05 Jun 2027 03:00:20.012             1.266                Norilsk           158.250
        97   05 Jun 2027 03:00:21.028   05 Jun 2027 03:01:39.027            77.999               Magadan1          9722.750
        98   05 Jun 2027 03:01:47.552   05 Jun 2027 03:02:33.773            46.221                Norilsk          4262.500
        99   05 Jun 2027 03:02:33.976   05 Jun 2027 03:02:49.026            15.050               Magadan2           101.500
       100   05 Jun 2027 03:02:54.661   05 Jun 2027 03:03:30.677            36.016                Norilsk          2817.500
       101   05 Jun 2027 03:03:34.681   05 Jun 2027 03:04:06.105            31.424                Novosib          2002.000
       102   05 Jun 2027 03:04:15.482   05 Jun 2027 03:05:35.416            79.934                Norilsk          4688.500
       103   05 Jun 2027 03:05:49.201   05 Jun 2027 03:06:58.269            69.068              Murmansk2          6892.500
       104   05 Jun 2027 04:35:53.823   05 Jun 2027 04:36:57.767            63.944                Novosib          4741.000
       105   05 Jun 2027 04:37:12.321   05 Jun 2027 04:38:15.746            63.425                Norilsk          7277.000
       106   05 Jun 2027 04:38:19.123   05 Jun 2027 04:38:46.213            27.090                Novosib          1688.500
       107   05 Jun 2027 04:38:47.659   05 Jun 2027 04:39:00.602            12.943              Murmansk1           723.000
       108   05 Jun 2027 04:39:02.320   05 Jun 2027 04:40:13.117            70.797                Irkutsk           859.000
       109   05 Jun 2027 04:40:13.537   05 Jun 2027 04:41:02.902            49.365                 Moscow           210.000
       110   05 Jun 2027 04:41:06.648   05 Jun 2027 04:42:03.003            56.355              Murmansk1          1873.000
       111   05 Jun 2027 04:42:26.145   05 Jun 2027 04:43:57.622            91.477              Murmansk1          9966.000
       112   05 Jun 2027 06:13:49.068   05 Jun 2027 06:14:52.452            63.384                Novosib          7253.500
       113   05 Jun 2027 06:14:59.550   05 Jun 2027 06:15:44.175            44.625              Murmansk2          3549.000
       114   05 Jun 2027 06:15:59.689   05 Jun 2027 06:17:15.901            76.212                Norilsk          7757.000
       115   05 Jun 2027 06:17:20.609   05 Jun 2027 06:18:13.178            52.569                 Moscow          2354.000
       116   05 Jun 2027 07:49:33.425   05 Jun 2027 07:49:56.744            23.319              Murmansk2            42.000
       117   05 Jun 2027 07:50:17.965   05 Jun 2027 07:51:55.842            97.877              Murmansk2         10610.500
       118   05 Jun 2027 07:51:58.659   05 Jun 2027 07:52:22.041            23.382              Murmansk2          1408.500
       119   05 Jun 2027 07:52:22.258   05 Jun 2027 07:52:31.613             9.355                 Moscow           108.500
       120   05 Jun 2027 07:52:34.907   05 Jun 2027 07:52:54.962            20.055                Norilsk          1647.000
       121   05 Jun 2027 07:53:04.448   05 Jun 2027 07:53:46.770            42.322                 Moscow          4743.000
       122   05 Jun 2027 07:53:53.585   05 Jun 2027 07:54:29.208            35.623              Murmansk2          1926.500
       123   06 Jun 2027 03:11:24.367   06 Jun 2027 03:12:18.435            54.068                Norilsk          6758.500
       124   06 Jun 2027 03:12:29.408   06 Jun 2027 03:13:04.683            35.275               Magadan2          4409.375
       125   06 Jun 2027 03:13:04.683   06 Jun 2027 03:13:39.784            35.101               Magadan1          2141.125
       126   06 Jun 2027 03:13:43.830   06 Jun 2027 03:13:47.994             4.164                Irkutsk           520.500
       127   06 Jun 2027 03:13:48.313   06 Jun 2027 03:14:33.877            45.564                Norilsk          1662.000
       128   06 Jun 2027 03:14:35.583   06 Jun 2027 03:14:46.277            10.694               Magadan2           853.000
       129   06 Jun 2027 03:14:50.548   06 Jun 2027 03:15:19.081            28.533                Norilsk          2135.500
       130   06 Jun 2027 03:15:22.604   06 Jun 2027 03:15:38.476            15.872               Magadan1          1761.500
       131   06 Jun 2027 03:15:48.552   06 Jun 2027 03:15:55.587             7.035               Magadan2           879.375
       132   06 Jun 2027 03:15:56.253   06 Jun 2027 03:16:28.751            32.498                Norilsk          4062.250
       133   06 Jun 2027 03:16:35.830   06 Jun 2027 03:17:17.592            41.762                Irkutsk          3968.875
       134   06 Jun 2027 03:17:23.594   06 Jun 2027 03:18:04.409            40.815                Irkutsk          3001.000
       135   06 Jun 2027 03:18:08.426   06 Jun 2027 03:18:33.072            24.646              Murmansk2          2008.500
       136   06 Jun 2027 04:49:00.916   06 Jun 2027 04:51:43.808           162.892                Norilsk         20008.500
       137   06 Jun 2027 04:51:47.970   06 Jun 2027 04:52:05.127            17.157              Murmansk2          2081.000
       138   06 Jun 2027 04:52:15.687   06 Jun 2027 04:53:09.214            53.527                 Moscow          5280.000
       139   06 Jun 2027 04:53:13.592   06 Jun 2027 04:54:02.180            48.588                 Moscow          2189.000
       140   06 Jun 2027 04:54:03.586   06 Jun 2027 04:54:13.959            10.373              Murmansk2           703.000
       141   06 Jun 2027 06:25:18.165   06 Jun 2027 06:26:17.651            59.486                Norilsk          7158.500
       142   06 Jun 2027 06:26:18.520   06 Jun 2027 06:26:22.361             3.841              Murmansk1           434.500
       143   06 Jun 2027 06:26:30.900   06 Jun 2027 06:27:26.497            55.597              Murmansk2          4269.500
       144   06 Jun 2027 06:27:35.944   06 Jun 2027 06:28:21.596            45.652                Norilsk          4723.500
       145   06 Jun 2027 06:28:25.504   06 Jun 2027 06:28:59.816            34.312                 Moscow          1954.000
       146   06 Jun 2027 06:29:02.114   06 Jun 2027 06:29:22.344            20.230                Novosib          1149.000
       147   06 Jun 2027 06:29:32.126   06 Jun 2027 06:30:11.291            39.165              Murmansk1          4891.000
       148   06 Jun 2027 08:00:22.211   06 Jun 2027 08:00:47.064            24.853                 Moscow          1699.000
       149   06 Jun 2027 08:02:04.321   06 Jun 2027 08:02:38.896            34.575                 Moscow          1742.500
       150   06 Jun 2027 08:02:54.394   06 Jun 2027 08:03:45.084            50.690              Murmansk2          6336.250
       151   06 Jun 2027 08:03:45.084   06 Jun 2027 08:03:56.742            11.658              Murmansk1          1412.750
       152   06 Jun 2027 08:04:26.060   06 Jun 2027 08:06:32.655           126.595                 Moscow         14659.000
       153   07 Jun 2027 03:23:40.886   07 Jun 2027 03:24:52.213            71.327                Novosib          5696.000
       154   07 Jun 2027 03:24:56.889   07 Jun 2027 03:25:37.185            40.296                Novosib          2338.000
       155   07 Jun 2027 03:25:49.316   07 Jun 2027 03:26:45.244            55.928                Norilsk          6065.500
       156   07 Jun 2027 03:26:45.983   07 Jun 2027 03:27:07.573            21.590                Norilsk           369.500
       157   07 Jun 2027 03:27:09.785   07 Jun 2027 03:28:15.326            65.541                Irkutsk          1106.000
       158   07 Jun 2027 03:28:16.844   07 Jun 2027 03:28:20.540             3.696                Norilsk           462.000
       159   07 Jun 2027 03:28:27.846   07 Jun 2027 03:29:11.602            43.756                Novosib          3950.000
       160   07 Jun 2027 03:29:21.976   07 Jun 2027 03:30:12.061            50.085                Norilsk          5187.000
       161   07 Jun 2027 03:30:14.303   07 Jun 2027 03:30:34.930            20.627              Murmansk2            29.000
       162   07 Jun 2027 05:00:49.726   07 Jun 2027 05:01:09.066            19.340                Norilsk          2417.500
       163   07 Jun 2027 05:01:09.756   07 Jun 2027 05:02:07.080            57.324                Novosib          7165.500
       164   07 Jun 2027 05:02:07.125   07 Jun 2027 05:02:41.937            34.812                 Moscow          1937.000
       165   07 Jun 2027 05:02:46.128   07 Jun 2027 05:03:04.338            18.210              Murmansk1          2095.500
       166   07 Jun 2027 05:03:07.710   07 Jun 2027 05:03:49.866            42.156                Irkutsk          1686.000
       167   07 Jun 2027 05:03:54.422   07 Jun 2027 05:04:06.080            11.658                Irkutsk          1457.250
       168   07 Jun 2027 05:04:14.251   07 Jun 2027 05:05:35.818            81.567              Murmansk1          4906.250
       169   07 Jun 2027 06:37:21.852   07 Jun 2027 06:38:06.245            44.393              Murmansk2          4397.500
       170   07 Jun 2027 06:38:24.803   07 Jun 2027 06:40:19.891           115.088                 Moscow          9279.000
       171   07 Jun 2027 06:40:20.089   07 Jun 2027 06:40:25.009             4.920                Norilsk            99.000
       172   07 Jun 2027 06:40:28.742   07 Jun 2027 06:40:40.753            12.011                Norilsk          1501.375
       173   07 Jun 2027 06:40:43.477   07 Jun 2027 06:40:50.864             7.387              Murmansk1           923.375
       174   07 Jun 2027 06:40:50.864   07 Jun 2027 06:41:24.393            33.529              Murmansk2           803.750
       175   07 Jun 2027 06:41:25.699   07 Jun 2027 06:42:22.423            56.724              Murmansk2           653.000
       176   07 Jun 2027 08:15:25.510   07 Jun 2027 08:16:33.730            68.220                 Moscow           415.500
       177   08 Jun 2027 03:35:58.207   08 Jun 2027 03:36:16.900            18.693                Novosib           664.500
       178   08 Jun 2027 03:36:25.926   08 Jun 2027 03:37:16.862            50.936                Novosib          4513.000
       179   08 Jun 2027 03:37:17.530   08 Jun 2027 03:37:31.777            14.247                Irkutsk           334.000
       180   08 Jun 2027 03:37:35.564   08 Jun 2027 03:37:53.163            17.599                Irkutsk          1893.500
       181   08 Jun 2027 03:37:55.605   08 Jun 2027 03:38:24.558            28.953                Norilsk          1221.000
       182   08 Jun 2027 03:38:32.959   08 Jun 2027 03:39:23.051            50.092                Norilsk          4200.500
       183   08 Jun 2027 03:39:24.461   08 Jun 2027 03:40:04.185            39.724              Murmansk2           705.000
       184   08 Jun 2027 03:40:06.298   08 Jun 2027 03:40:21.893            15.595                Novosib          1056.500
       185   08 Jun 2027 03:40:36.682   08 Jun 2027 03:41:51.774            75.092              Murmansk1          7394.500
       186   08 Jun 2027 03:41:52.807   08 Jun 2027 03:42:01.216             8.409              Murmansk1           516.500
       187   08 Jun 2027 03:42:07.845   08 Jun 2027 03:42:36.750            28.905              Murmansk2          3314.500
       188   08 Jun 2027 05:13:29.986   08 Jun 2027 05:14:09.325            39.339              Murmansk2           516.000
       189   08 Jun 2027 05:14:14.032   08 Jun 2027 05:14:40.706            26.674                Norilsk          2353.500
       190   08 Jun 2027 05:14:42.602   08 Jun 2027 05:15:06.401            23.799              Murmansk1           948.000
       191   08 Jun 2027 05:15:08.973   08 Jun 2027 05:16:10.351            61.378                Novosib          1286.000
       192   08 Jun 2027 05:16:14.546   08 Jun 2027 05:16:33.868            19.322                 Moscow          2097.500
       193   08 Jun 2027 05:16:49.000   08 Jun 2027 05:17:00.702            11.702                Novosib          1462.750
       194   08 Jun 2027 05:17:05.775   08 Jun 2027 05:17:19.640            13.865                Norilsk          1733.125
       195   08 Jun 2027 05:17:24.044   08 Jun 2027 05:18:39.934            75.890                Novosib          9108.625
       196   08 Jun 2027 06:49:42.359   08 Jun 2027 06:50:06.963            24.604                Norilsk          3075.500
       197   08 Jun 2027 06:50:27.892   08 Jun 2027 06:52:25.615           117.723                 Moscow         11979.000
       198   08 Jun 2027 06:52:27.609   08 Jun 2027 06:52:42.857            15.248                Norilsk           997.000
       199   08 Jun 2027 06:52:43.659   08 Jun 2027 06:52:53.122             9.463              Murmansk1           401.000
       200   08 Jun 2027 06:52:57.176   08 Jun 2027 06:53:20.183            23.007                Novosib          2027.000
       201   08 Jun 2027 06:53:22.196   08 Jun 2027 06:53:32.629            10.433                 Moscow          1006.500
       202   08 Jun 2027 06:53:51.642   08 Jun 2027 06:54:24.243            32.601                Norilsk          4075.125
       203   08 Jun 2027 06:54:24.510   08 Jun 2027 06:55:05.737            41.227                 Moscow          3234.875
       204   09 Jun 2027 03:48:15.959   09 Jun 2027 03:49:00.302            44.343                Irkutsk          5542.875
       205   09 Jun 2027 03:49:06.509   09 Jun 2027 03:50:00.784            54.275                Novosib          3601.625
       206   09 Jun 2027 03:50:13.587   09 Jun 2027 03:50:45.197            31.610                Norilsk          3951.250
       207   09 Jun 2027 03:50:49.590   09 Jun 2027 03:51:44.172            54.582                Norilsk          4646.750
       208   09 Jun 2027 03:51:52.499   09 Jun 2027 03:52:29.783            37.284              Murmansk1          4163.500
       209   09 Jun 2027 03:52:33.969   09 Jun 2027 03:53:11.792            37.823                Irkutsk          2093.000
       210   09 Jun 2027 03:53:15.092   09 Jun 2027 03:53:40.169            25.077              Murmansk1          1650.000
       211   09 Jun 2027 03:53:56.643   09 Jun 2027 03:54:59.825            63.182              Murmansk1          5360.500
       212   09 Jun 2027 05:25:38.494   09 Jun 2027 05:26:12.755            34.261                Irkutsk          1855.000
       213   09 Jun 2027 05:26:21.431   09 Jun 2027 05:26:50.492            29.061              Murmansk2          3632.625
       214   09 Jun 2027 05:26:59.274   09 Jun 2027 05:27:49.129            49.855                Norilsk          5096.375
       215   09 Jun 2027 05:27:49.585   09 Jun 2027 05:28:14.609            25.024                Novosib           228.000
       216   09 Jun 2027 05:28:16.337   09 Jun 2027 05:28:27.304            10.967              Murmansk1           864.000
       217   09 Jun 2027 05:28:39.307   09 Jun 2027 05:29:58.292            78.985                 Moscow          6001.500
       218   09 Jun 2027 05:30:03.341   09 Jun 2027 05:30:52.033            48.692              Murmansk1          2524.500
       219   09 Jun 2027 07:01:40.860   09 Jun 2027 07:02:25.255            44.395              Murmansk2          2497.000
       220   09 Jun 2027 07:02:31.499   09 Jun 2027 07:03:06.086            34.587                 Moscow          3122.000
       221   09 Jun 2027 07:03:06.994   09 Jun 2027 07:03:28.625            21.631              Murmansk2           454.000
       222   09 Jun 2027 07:03:35.986   09 Jun 2027 07:04:26.452            50.466              Murmansk1          3680.500
       223   09 Jun 2027 07:04:26.884   09 Jun 2027 07:04:32.556             5.672                Norilsk           216.000
       224   09 Jun 2027 07:04:34.820   09 Jun 2027 07:04:55.343            20.523              Murmansk2          1132.000
       225   09 Jun 2027 07:04:58.684   09 Jun 2027 07:06:02.797            64.113              Murmansk2          1670.500
       226   09 Jun 2027 07:06:03.755   09 Jun 2027 07:06:25.683            21.928              Murmansk1           479.000
       227   09 Jun 2027 07:06:29.280   09 Jun 2027 07:07:24.372            55.092                 Moscow          1798.500
       228   10 Jun 2027 04:00:06.896   10 Jun 2027 04:00:29.313            22.417                Norilsk          2802.125
       229   10 Jun 2027 04:00:47.132   10 Jun 2027 04:02:19.672            92.540                Novosib         11567.500
       230   10 Jun 2027 04:02:20.523   10 Jun 2027 04:02:35.829            15.306                Norilsk          1913.250
       231   10 Jun 2027 04:02:49.275   10 Jun 2027 04:05:17.534           148.259                Irkutsk          9687.125
       232   10 Jun 2027 04:05:18.578   10 Jun 2027 04:05:57.953            39.375                Norilsk           522.000
       233   10 Jun 2027 04:05:58.521   10 Jun 2027 04:06:03.459             4.938                Novosib           284.000
       234   10 Jun 2027 04:06:08.258   10 Jun 2027 04:06:40.173            31.915              Murmansk1          2399.500
       235   10 Jun 2027 05:38:14.550   10 Jun 2027 05:38:57.613            43.063                Norilsk          4957.500
       236   10 Jun 2027 05:39:04.340   10 Jun 2027 05:39:39.065            34.725                Irkutsk          3363.500
       237   10 Jun 2027 05:39:39.108   10 Jun 2027 05:39:40.436             1.328                Norilsk            21.500
       238   10 Jun 2027 05:39:42.811   10 Jun 2027 05:40:05.138            22.327              Murmansk1          1187.500
       239   10 Jun 2027 05:40:10.958   10 Jun 2027 05:40:58.124            47.166              Murmansk2          2910.000
       240   10 Jun 2027 05:41:14.146   10 Jun 2027 05:42:23.486            69.340                 Moscow          8011.000
       241   10 Jun 2027 07:12:05.782   10 Jun 2027 07:12:23.676            17.894                Novosib           124.500
       242   10 Jun 2027 07:12:27.779   10 Jun 2027 07:12:51.821            24.042              Murmansk2          2051.500
       243   10 Jun 2027 07:13:27.982   10 Jun 2027 07:14:14.926            46.944              Murmansk2          1443.000
       244   10 Jun 2027 07:14:20.493   10 Jun 2027 07:15:11.230            50.737                 Moscow          2783.500
       245   10 Jun 2027 07:15:14.571   10 Jun 2027 07:15:31.588            17.017                Novosib          1670.500
       246   10 Jun 2027 07:15:35.103   10 Jun 2027 07:15:55.652            20.549              Murmansk2          1757.500
       247   10 Jun 2027 07:16:01.924   10 Jun 2027 07:17:04.972            63.048                Norilsk          3136.000
       248   10 Jun 2027 07:17:06.354   10 Jun 2027 07:17:55.514            49.160              Murmansk2           691.000
       249   10 Jun 2027 07:17:58.732   10 Jun 2027 07:18:23.831            25.099              Murmansk1          1609.000
       250   10 Jun 2027 07:18:25.579   10 Jun 2027 07:18:34.562             8.983                 Moscow           874.000
       251   10 Jun 2027 07:18:41.289   10 Jun 2027 07:18:44.017             2.728                Norilsk           341.000
       252   10 Jun 2027 07:18:54.820   10 Jun 2027 07:19:37.057            42.237              Murmansk1          5279.625
       253   10 Jun 2027 07:19:37.057   10 Jun 2027 07:20:09.854            32.797              Murmansk2          2534.875
       254   11 Jun 2027 04:12:09.232   11 Jun 2027 04:13:24.069            74.837                Irkutsk           295.000
       255   11 Jun 2027 04:13:30.258   11 Jun 2027 04:14:12.773            42.515                Irkutsk          3094.500
       256   11 Jun 2027 04:14:24.259   11 Jun 2027 04:14:33.531             9.272                Norilsk          1159.000
       257   11 Jun 2027 04:14:45.325   11 Jun 2027 04:16:53.786           128.461                Novosib         10481.000
       258   11 Jun 2027 04:16:58.632   11 Jun 2027 04:17:18.658            20.026              Murmansk2          2423.000
       259   11 Jun 2027 04:17:26.043   11 Jun 2027 04:18:07.595            41.552                 Moscow          3692.500
       260   11 Jun 2027 04:18:13.449   11 Jun 2027 04:18:41.718            28.269              Murmansk1          2927.000
       261   11 Jun 2027 05:50:10.793   11 Jun 2027 05:51:07.465            56.672              Murmansk2          4290.000
       262   11 Jun 2027 05:51:12.886   11 Jun 2027 05:51:41.924            29.038              Murmansk1          2710.500
       263   11 Jun 2027 05:51:51.218   11 Jun 2027 05:52:28.772            37.554                 Moscow          4647.000
       264   11 Jun 2027 05:52:33.804   11 Jun 2027 05:53:00.132            26.328              Murmansk2          2516.000
       265   11 Jun 2027 05:53:03.683   11 Jun 2027 05:53:30.646            26.963                 Moscow          1775.500
       266   11 Jun 2027 05:53:36.174   11 Jun 2027 05:54:01.830            25.656                Novosib          2764.000
       267   11 Jun 2027 07:23:19.665   11 Jun 2027 07:23:41.148            21.483                 Moscow          2685.375
       268   11 Jun 2027 07:24:01.230   11 Jun 2027 07:26:06.083           124.853                 Moscow         12718.125
       269   11 Jun 2027 07:26:15.504   11 Jun 2027 07:27:10.337            54.833                Novosib          4710.500
       270   11 Jun 2027 07:27:14.145   11 Jun 2027 07:27:34.996            20.851                Norilsk          1904.000
       271   11 Jun 2027 07:27:36.345   11 Jun 2027 07:28:10.513            34.168                 Moscow           674.500
       272   11 Jun 2027 07:28:10.812   11 Jun 2027 07:28:18.661             7.849              Murmansk1           149.500
       273   11 Jun 2027 07:28:26.516   11 Jun 2027 07:28:59.669            33.153                Norilsk          3927.500
       274   11 Jun 2027 07:29:02.227   11 Jun 2027 07:29:48.028            45.801              Murmansk1          1279.000
       275   11 Jun 2027 07:30:17.576   11 Jun 2027 07:30:45.871            28.295                Norilsk          3412.500
       276   11 Jun 2027 07:30:55.378   11 Jun 2027 07:31:58.899            63.521              Murmansk1          4753.500
       277   12 Jun 2027 04:24:00.204   12 Jun 2027 04:24:06.489             6.285                Novosib           431.500
       278   12 Jun 2027 04:24:24.132   12 Jun 2027 04:25:39.320            75.188                Norilsk          8821.500
       279   12 Jun 2027 04:25:42.026   12 Jun 2027 04:25:45.396             3.370                Irkutsk           421.250
       280   12 Jun 2027 04:25:55.752   12 Jun 2027 04:26:54.908            59.156                Norilsk          6109.750
       281   12 Jun 2027 04:26:55.859   12 Jun 2027 04:27:15.045            19.186              Murmansk1           475.500
       282   12 Jun 2027 04:27:16.600   12 Jun 2027 04:27:59.148            42.548              Murmansk2           777.500
       283   12 Jun 2027 04:28:05.385   12 Jun 2027 04:29:15.041            69.656                Irkutsk          3118.500
       284   12 Jun 2027 04:29:32.217   12 Jun 2027 04:30:43.126            70.909              Murmansk2          8080.500
       285   12 Jun 2027 06:02:07.843   12 Jun 2027 06:02:26.848            19.005                Irkutsk          2375.625
       286   12 Jun 2027 06:02:29.948   12 Jun 2027 06:02:48.819            18.871                Novosib          1981.875
       287   12 Jun 2027 06:02:56.775   12 Jun 2027 06:03:39.384            42.609              Murmansk1          3978.000
       288   12 Jun 2027 06:03:40.416   12 Jun 2027 06:04:08.023            27.607                Novosib           516.000
       289   12 Jun 2027 06:04:13.437   12 Jun 2027 06:04:57.189            43.752                 Moscow          2707.000
       290   12 Jun 2027 06:04:57.793   12 Jun 2027 06:05:02.259             4.466              Murmansk1           302.000
       291   12 Jun 2027 06:05:05.695   12 Jun 2027 06:05:59.016            53.321                Novosib          1718.000
       292   12 Jun 2027 06:06:03.134   12 Jun 2027 06:06:21.989            18.855                Novosib          2059.000
       293   12 Jun 2027 07:35:46.708   12 Jun 2027 07:37:07.792            81.084                 Moscow          4022.000
       294   12 Jun 2027 07:37:09.221   12 Jun 2027 07:37:29.686            20.465                 Moscow           714.500
       295   12 Jun 2027 07:37:54.317   12 Jun 2027 07:39:36.585           102.268                 Moscow         12315.500
       296   12 Jun 2027 07:39:39.099   12 Jun 2027 07:39:58.265            19.166              Murmansk2          1257.000
       297   12 Jun 2027 07:40:00.759   12 Jun 2027 07:40:20.325            19.566                 Moscow          1247.000
       298   12 Jun 2027 07:40:21.286   12 Jun 2027 07:40:40.447            19.161              Murmansk1           480.500
       299   12 Jun 2027 07:40:43.280   12 Jun 2027 07:41:10.530            27.250                 Moscow          1416.500
       300   12 Jun 2027 07:41:41.290   12 Jun 2027 07:43:48.577           127.287              Murmansk2         15380.000
       301   13 Jun 2027 03:00:08.723   13 Jun 2027 03:01:06.398            57.675                Novosib          4361.500
       302   13 Jun 2027 03:01:10.595   13 Jun 2027 03:01:39.193            28.598                Novosib          2098.500
       303   13 Jun 2027 03:01:45.503   13 Jun 2027 03:02:35.030            49.527                Irkutsk          3155.000
       304   13 Jun 2027 03:02:44.402   13 Jun 2027 03:03:50.585            66.183                Novosib          4686.000
       305   13 Jun 2027 03:03:50.795   13 Jun 2027 03:03:56.725             5.930               Magadan1           105.000
       306   13 Jun 2027 03:04:14.683   13 Jun 2027 03:05:51.651            96.968                Norilsk          8979.000
       307   13 Jun 2027 03:06:07.945   13 Jun 2027 03:07:22.137            74.192                Norilsk          8147.000
       308   13 Jun 2027 04:36:07.979   13 Jun 2027 04:37:15.912            67.933                Novosib          4027.500
       309   13 Jun 2027 04:37:27.798   13 Jun 2027 04:38:22.565            54.767                Norilsk          5943.000
       310   13 Jun 2027 04:38:30.297   13 Jun 2027 04:39:02.145            31.848              Murmansk2          3866.000
       311   13 Jun 2027 04:39:03.107   13 Jun 2027 04:39:17.022            13.915                Irkutsk           481.000
       312   13 Jun 2027 04:39:18.199   13 Jun 2027 04:40:08.188            49.989              Murmansk2           588.500
       313   13 Jun 2027 04:40:09.407   13 Jun 2027 04:40:49.421            40.014              Murmansk1           609.500
       314   13 Jun 2027 04:40:59.809   13 Jun 2027 04:42:19.041            79.232              Murmansk1          5194.000
       315   13 Jun 2027 04:42:40.618   13 Jun 2027 04:44:14.648            94.030              Murmansk2          9270.500
       316   13 Jun 2027 06:13:51.679   13 Jun 2027 06:14:38.097            46.418                 Moscow          1166.500
       317   13 Jun 2027 06:14:45.449   13 Jun 2027 06:15:17.160            31.711              Murmansk2          3676.000
       318   13 Jun 2027 06:15:18.251   13 Jun 2027 06:15:31.651            13.400                Norilsk           545.500
       319   13 Jun 2027 06:15:37.557   13 Jun 2027 06:16:21.392            43.835                 Moscow          2953.000
       320   13 Jun 2027 06:16:26.669   13 Jun 2027 06:17:36.664            69.995                 Moscow          2638.500
       321   13 Jun 2027 06:17:48.664   13 Jun 2027 06:17:53.801             5.137                Novosib           642.125
       322   13 Jun 2027 06:17:56.600   13 Jun 2027 06:18:58.343            61.743              Murmansk2          6757.375
       323   13 Jun 2027 07:49:58.223   13 Jun 2027 07:50:35.378            37.155              Murmansk2          4545.000
       324   13 Jun 2027 07:50:50.917   13 Jun 2027 07:51:53.776            62.859                 Moscow          7769.500
       325   13 Jun 2027 07:52:08.392   13 Jun 2027 07:53:35.285            86.893              Murmansk2          7308.000
       326   13 Jun 2027 07:53:42.363   13 Jun 2027 07:54:45.105            62.742              Murmansk1          3539.000
