uniorb/output/strategy_2/Drop/Drop_KinoSat_111906.txt

KinoSat_111906
-------------------------
    Access    *     Start Time (UTCG)     *     Stop Time (UTCG)  *   Duration (s)        *       Station  *  Data (Mbytes)
         1   01 Jun 2027 04:32:18.998   01 Jun 2027 04:32:21.543             2.545                Irkutsk            79.531
         2   01 Jun 2027 04:32:45.499   01 Jun 2027 04:33:54.845            69.346                Novosib          2167.063
         3   01 Jun 2027 04:34:08.098   01 Jun 2027 04:36:04.842           116.744              Murmansk1          3648.250
         4   01 Jun 2027 04:36:09.489   01 Jun 2027 04:39:04.079           174.590                  Delhi          5455.937
         5   01 Jun 2027 06:10:58.123   01 Jun 2027 06:11:39.638            41.515              Murmansk2          1297.344
         6   01 Jun 2027 06:12:05.664   01 Jun 2027 06:12:41.319            35.655                 Moscow          1114.219
         7   01 Jun 2027 06:12:50.019   01 Jun 2027 06:13:42.775            52.756              Murmansk2          1648.625
         8   01 Jun 2027 06:13:42.775   01 Jun 2027 06:14:04.801            22.026              Murmansk1           688.313
         9   01 Jun 2027 06:14:11.340   01 Jun 2027 06:15:12.851            61.511                 Moscow          1922.219
        10   01 Jun 2027 06:16:11.793   01 Jun 2027 06:17:12.582            60.789                 Moscow          1899.656
        11   01 Jun 2027 06:28:29.021   01 Jun 2027 06:32:34.169           245.148               CapeTown          7660.875
        12   01 Jun 2027 07:32:24.966   01 Jun 2027 07:34:52.345           147.379                Anadyr1          4605.594
        13   01 Jun 2027 07:34:54.414   01 Jun 2027 07:37:28.246           153.832                Anadyr2          4807.250
        14   01 Jun 2027 09:07:35.025   01 Jun 2027 09:08:07.106            32.081                Anadyr1          1002.531
        15   01 Jun 2027 09:08:32.210   01 Jun 2027 09:09:07.707            35.497                Anadyr1          1109.281
        16   01 Jun 2027 09:10:07.132   01 Jun 2027 09:13:57.384           230.252                Anadyr2          7195.375
        17   01 Jun 2027 09:21:23.291   01 Jun 2027 09:21:48.551            25.260                 Moscow           789.375
        18   01 Jun 2027 10:42:34.793   01 Jun 2027 10:45:41.650           186.857               Magadan2          5839.281
        19   01 Jun 2027 10:45:43.287   01 Jun 2027 10:48:32.920           169.633                Anadyr2          5301.031
        20   01 Jun 2027 12:20:03.464   01 Jun 2027 12:22:40.473           157.009               Magadan2          4906.531
        21   01 Jun 2027 13:40:39.444   01 Jun 2027 13:43:49.128           189.684                Sumatra          5927.625
        22   01 Jun 2027 13:54:44.019   01 Jun 2027 13:57:17.092           153.073                Irkutsk          4783.531
        23   01 Jun 2027 15:22:01.504   01 Jun 2027 15:24:54.474           172.970                  Delhi          5405.313
        24   01 Jun 2027 15:28:47.938   01 Jun 2027 15:29:15.340            27.402                Novosib           856.313
        25   01 Jun 2027 15:32:06.250   01 Jun 2027 15:33:23.564            77.314                Novosib          2416.062
        26   01 Jun 2027 15:34:41.835   01 Jun 2027 15:37:06.919           145.084                Novosib          4533.875
        27   01 Jun 2027 17:12:35.565   01 Jun 2027 17:16:41.896           246.331                Norilsk          7697.844
        28   01 Jun 2027 19:55:40.268   01 Jun 2027 19:57:40.038           119.770               CapeTown          3742.812
        29   01 Jun 2027 20:24:37.734   01 Jun 2027 20:29:05.611           267.877              Murmansk1          8371.156
        30   01 Jun 2027 20:30:10.030   01 Jun 2027 20:30:41.797            31.767              Murmansk2           992.719
        31   01 Jun 2027 22:09:34.518   01 Jun 2027 22:12:35.712           181.194                Anadyr1          5662.312
        32   01 Jun 2027 22:13:03.180   01 Jun 2027 22:14:37.497            94.317               Magadan2          2947.406
        33   01 Jun 2027 22:15:58.531   01 Jun 2027 22:16:00.535             2.004               Magadan2            62.625
        34   01 Jun 2027 22:16:05.009   01 Jun 2027 22:16:11.948             6.939               Magadan2           216.844
        35   01 Jun 2027 22:16:47.897   01 Jun 2027 22:17:32.315            44.418               Magadan1          1388.063
        36   01 Jun 2027 22:20:56.998   01 Jun 2027 22:21:09.857            12.859               Magadan1           401.844
        37   01 Jun 2027 22:21:26.198   01 Jun 2027 22:21:30.974             4.776               Magadan1           149.250
        38   01 Jun 2027 23:05:13.190   01 Jun 2027 23:06:45.859            92.669            RioGallegos          2895.906
        39   01 Jun 2027 23:07:47.365   01 Jun 2027 23:07:56.049             8.684            RioGallegos           271.375
        40   01 Jun 2027 23:10:03.592   01 Jun 2027 23:10:17.998            14.406            RioGallegos           450.187
        41   01 Jun 2027 23:45:22.807   01 Jun 2027 23:46:41.372            78.565                Anadyr2          2455.156
        42   01 Jun 2027 23:46:45.067   01 Jun 2027 23:47:08.008            22.941                Anadyr1           716.906
        43   01 Jun 2027 23:47:27.595   01 Jun 2027 23:48:59.122            91.527                Norilsk          2860.219
        44   01 Jun 2027 23:49:19.406   01 Jun 2027 23:51:30.021           130.615               Magadan2          4081.719
        45   01 Jun 2027 23:52:12.960   01 Jun 2027 23:52:32.818            19.858                Irkutsk           620.562
        46   01 Jun 2027 23:54:15.564   01 Jun 2027 23:54:39.887            24.323                Irkutsk           760.094
        47   02 Jun 2027 00:06:51.326   02 Jun 2027 00:08:40.158           108.832                Sumatra          3401.000
        48   02 Jun 2027 00:13:18.542   02 Jun 2027 00:14:23.134            64.592                Sumatra          2018.500
        49   02 Jun 2027 00:46:29.873   02 Jun 2027 00:46:56.464            26.591            RioGallegos           830.969
        50   02 Jun 2027 01:20:35.323   02 Jun 2027 01:21:42.861            67.538                Anadyr1          2110.563
        51   02 Jun 2027 01:22:22.066   02 Jun 2027 01:22:47.075            25.009                Anadyr1           781.531
        52   02 Jun 2027 01:23:17.514   02 Jun 2027 01:25:11.964           114.450                Norilsk          3576.563
        53   02 Jun 2027 01:25:13.025   02 Jun 2027 01:25:42.313            29.288               Magadan2           915.250
        54   02 Jun 2027 01:27:11.868   02 Jun 2027 01:29:10.878           119.010                Irkutsk          3719.062
        55   02 Jun 2027 01:32:42.146   02 Jun 2027 01:32:55.763            13.617                Irkutsk           425.531
        56   02 Jun 2027 01:36:21.377   02 Jun 2027 01:36:46.776            25.399                Irkutsk           793.719
        57   02 Jun 2027 01:39:27.658   02 Jun 2027 01:39:44.405            16.747                  Delhi           523.344
        58   02 Jun 2027 01:41:14.186   02 Jun 2027 01:41:35.628            21.442                Sumatra           670.062
        59   02 Jun 2027 01:43:14.679   02 Jun 2027 01:43:31.633            16.954                  Delhi           529.813
        60   02 Jun 2027 01:43:53.575   02 Jun 2027 01:46:02.769           129.194                Sumatra          4037.313
        61   02 Jun 2027 02:25:55.992   02 Jun 2027 02:26:47.644            51.652            RioGallegos          1614.125
        62   02 Jun 2027 02:56:42.100   02 Jun 2027 02:57:19.235            37.135                Anadyr2          1160.469
        63   02 Jun 2027 02:59:18.721   02 Jun 2027 03:00:23.434            64.713                Norilsk          2022.281
        64   02 Jun 2027 03:03:33.309   02 Jun 2027 03:03:51.792            18.483               Magadan1           577.594
        65   02 Jun 2027 03:04:05.196   02 Jun 2027 03:04:52.448            47.252               Magadan1          1476.625
        66   02 Jun 2027 03:04:52.448   02 Jun 2027 03:05:00.578             8.130               Magadan2           254.063
        67   02 Jun 2027 03:06:23.726   02 Jun 2027 03:06:40.545            16.819                Novosib           525.594
        68   02 Jun 2027 03:06:51.704   02 Jun 2027 03:07:18.081            26.377              Murmansk1           824.281
        69   02 Jun 2027 03:07:29.567   02 Jun 2027 03:08:47.694            78.127                Novosib          2441.469
        70   02 Jun 2027 03:08:56.906   02 Jun 2027 03:11:19.415           142.509                Novosib          4453.406
        71   02 Jun 2027 03:11:55.017   02 Jun 2027 03:12:41.181            46.164                Novosib          1442.625
        72   02 Jun 2027 03:13:21.625   02 Jun 2027 03:14:27.357            65.732                  Delhi          2054.125
        73   02 Jun 2027 03:52:37.200   02 Jun 2027 03:57:46.822           309.622            RioGallegos          9675.687
        74   02 Jun 2027 04:42:36.120   02 Jun 2027 04:42:53.722            17.602                Irkutsk           550.063
        75   02 Jun 2027 04:43:53.930   02 Jun 2027 04:44:08.866            14.936                Norilsk           466.750
        76   02 Jun 2027 04:44:16.439   02 Jun 2027 04:45:47.150            90.711                 Moscow          2834.719
        77   02 Jun 2027 04:45:55.091   02 Jun 2027 04:48:10.966           135.875                 Moscow          4246.094
        78   02 Jun 2027 04:48:53.080   02 Jun 2027 04:52:58.794           245.714                  Delhi          7678.562
        79   02 Jun 2027 06:21:28.916   02 Jun 2027 06:21:39.097            10.181                Novosib           318.156
        80   02 Jun 2027 06:21:57.069   02 Jun 2027 06:22:08.695            11.626              Murmansk2           363.312
        81   02 Jun 2027 06:22:08.695   02 Jun 2027 06:23:00.353            51.658              Murmansk1          1614.312
        82   02 Jun 2027 06:23:13.362   02 Jun 2027 06:23:38.432            25.070              Murmansk2           783.437
        83   02 Jun 2027 06:24:11.762   02 Jun 2027 06:25:36.181            84.419              Murmansk1          2638.094
        84   02 Jun 2027 06:27:02.233   02 Jun 2027 06:27:37.383            35.150                 Moscow          1098.437
        85   02 Jun 2027 06:40:32.396   02 Jun 2027 06:44:51.276           258.880               CapeTown          8090.000
        86   02 Jun 2027 07:44:04.222   02 Jun 2027 07:44:20.905            16.683               Magadan1           521.344
        87   02 Jun 2027 07:44:20.905   02 Jun 2027 07:46:30.649           129.744               Magadan2          4054.500
        88   02 Jun 2027 07:46:36.319   02 Jun 2027 07:46:59.212            22.893                Anadyr1           715.406
        89   02 Jun 2027 07:48:12.388   02 Jun 2027 07:49:30.442            78.054                Anadyr2          2439.187
        90   02 Jun 2027 08:21:56.304   02 Jun 2027 08:24:44.184           167.880               CapeTown          5246.250
        91   02 Jun 2027 09:20:59.638   02 Jun 2027 09:25:55.901           296.263                Anadyr1          9258.219
        92   02 Jun 2027 10:52:11.109   02 Jun 2027 10:55:23.427           192.318               Magadan2          6009.938
        93   02 Jun 2027 10:56:39.924   02 Jun 2027 10:56:50.956            11.032                Norilsk           344.750
        94   02 Jun 2027 10:57:05.158   02 Jun 2027 10:58:41.032            95.874               Magadan2          2996.062
        95   02 Jun 2027 10:58:41.032   02 Jun 2027 11:01:04.313           143.281               Magadan1          4477.531
        96   02 Jun 2027 11:01:11.262   02 Jun 2027 11:01:23.581            12.319               Magadan1           384.969
        97   02 Jun 2027 11:47:52.410   02 Jun 2027 11:48:06.373            13.963            RioGallegos           436.344
        98   02 Jun 2027 12:12:31.678   02 Jun 2027 12:12:49.027            17.349                Sumatra           542.156
        99   02 Jun 2027 12:13:59.514   02 Jun 2027 12:15:18.613            79.099                Sumatra          2471.844
       100   02 Jun 2027 12:24:37.035   02 Jun 2027 12:27:37.445           180.410                Irkutsk          5637.813
       101   02 Jun 2027 12:29:31.978   02 Jun 2027 12:30:14.693            42.715                Norilsk          1334.844
       102   02 Jun 2027 12:40:24.895   02 Jun 2027 12:40:47.951            23.056              Murmansk2           720.500
       103   02 Jun 2027 13:13:04.374   02 Jun 2027 13:13:31.308            26.934            RioGallegos           841.688
       104   02 Jun 2027 13:14:38.533   02 Jun 2027 13:15:06.226            27.693            RioGallegos           865.406
       105   02 Jun 2027 13:47:22.528   02 Jun 2027 13:52:23.227           300.699                Sumatra          9396.844
       106   02 Jun 2027 14:02:26.103   02 Jun 2027 14:06:25.739           239.636                Irkutsk          7488.625
       107   02 Jun 2027 15:32:10.724   02 Jun 2027 15:35:37.528           206.804                  Delhi          6462.625
       108   02 Jun 2027 15:36:23.554   02 Jun 2027 15:37:12.343            48.789                  Delhi          1524.656
       109   02 Jun 2027 15:40:30.125   02 Jun 2027 15:43:02.300           152.175                Novosib          4755.469
       110   02 Jun 2027 17:15:43.463   02 Jun 2027 17:16:44.617            61.154                 Moscow          1911.063
       111   02 Jun 2027 17:18:54.435   02 Jun 2027 17:19:31.175            36.740                 Moscow          1148.125
       112   02 Jun 2027 17:22:08.102   02 Jun 2027 17:22:24.510            16.408              Murmansk1           512.750
       113   02 Jun 2027 17:25:21.313   02 Jun 2027 17:29:15.355           234.042                Norilsk          7313.813
       114   02 Jun 2027 18:36:11.135   02 Jun 2027 18:36:36.184            25.049               CapeTown           782.781
       115   02 Jun 2027 18:38:52.551   02 Jun 2027 18:39:33.386            40.835               CapeTown          1276.094
       116   02 Jun 2027 18:54:33.812   02 Jun 2027 18:59:08.252           274.440                 Moscow          8576.250
       117   02 Jun 2027 19:20:41.362   02 Jun 2027 19:20:47.260             5.898                Anadyr2           184.312
       118   02 Jun 2027 20:05:33.752   02 Jun 2027 20:07:19.867           106.115               CapeTown          3316.094
       119   02 Jun 2027 20:08:58.125   02 Jun 2027 20:09:47.711            49.586               CapeTown          1549.562
       120   02 Jun 2027 20:37:26.921   02 Jun 2027 20:41:46.340           259.419              Murmansk2          8106.844
       121   02 Jun 2027 20:42:11.034   02 Jun 2027 20:43:20.874            69.840              Murmansk1          2182.500
       122   02 Jun 2027 22:21:36.150   02 Jun 2027 22:26:56.854           320.704                Anadyr1         10022.000
       123   02 Jun 2027 22:27:04.570   02 Jun 2027 22:29:25.131           140.561               Magadan2          4392.531
       124   02 Jun 2027 22:33:22.232   02 Jun 2027 22:33:30.856             8.624               Magadan1           269.500
       125   02 Jun 2027 22:34:10.762   02 Jun 2027 22:34:42.900            32.138               Magadan1          1004.313
       126   02 Jun 2027 23:16:44.437   02 Jun 2027 23:18:00.993            76.556            RioGallegos          2392.375
       127   02 Jun 2027 23:18:23.075   02 Jun 2027 23:18:52.880            29.805            RioGallegos           931.406
       128   02 Jun 2027 23:21:58.706   02 Jun 2027 23:22:47.601            48.895            RioGallegos          1527.969
       129   02 Jun 2027 23:57:21.782   02 Jun 2027 23:58:34.690            72.908                Anadyr1          2278.375
       130   02 Jun 2027 23:58:41.817   02 Jun 2027 23:58:53.392            11.575                Anadyr2           361.719
       131   02 Jun 2027 23:59:26.652   03 Jun 2027 00:01:13.391           106.739                Norilsk          3335.594
       132   03 Jun 2027 00:01:19.036   03 Jun 2027 00:02:23.486            64.450               Magadan1          2014.062
       133   03 Jun 2027 00:02:32.137   03 Jun 2027 00:02:56.527            24.390                Norilsk           762.188
       134   03 Jun 2027 00:03:59.330   03 Jun 2027 00:05:08.370            69.040                Irkutsk          2157.500
       135   03 Jun 2027 00:06:12.418   03 Jun 2027 00:06:16.663             4.245                Irkutsk           132.656
       136   03 Jun 2027 00:09:26.006   03 Jun 2027 00:09:32.146             6.140                Irkutsk           191.875
       137   03 Jun 2027 00:09:34.792   03 Jun 2027 00:10:07.863            33.071                Irkutsk          1033.469
       138   03 Jun 2027 00:18:15.024   03 Jun 2027 00:21:12.042           177.018                Sumatra          5531.813
       139   03 Jun 2027 00:54:27.039   03 Jun 2027 00:55:06.525            39.486            RioGallegos          1233.937
       140   03 Jun 2027 01:01:46.830   03 Jun 2027 01:02:03.474            16.644            RioGallegos           520.125
       141   03 Jun 2027 01:03:11.625   03 Jun 2027 01:04:07.657            56.032            RioGallegos          1751.000
       142   03 Jun 2027 01:34:14.956   03 Jun 2027 01:35:14.629            59.673                Anadyr2          1864.781
       143   03 Jun 2027 01:35:48.950   03 Jun 2027 01:37:14.170            85.220                Norilsk          2663.125
       144   03 Jun 2027 01:37:43.678   03 Jun 2027 01:38:18.212            34.534               Magadan2          1079.187
       145   03 Jun 2027 01:39:12.819   03 Jun 2027 01:41:59.637           166.818                Irkutsk          5213.063
       146   03 Jun 2027 01:48:15.524   03 Jun 2027 01:48:21.869             6.345                  Delhi           198.281
       147   03 Jun 2027 01:48:54.410   03 Jun 2027 01:50:59.693           125.283                  Delhi          3915.094
       148   03 Jun 2027 01:53:32.720   03 Jun 2027 01:55:24.740           112.020                Sumatra          3500.625
       149   03 Jun 2027 02:01:44.407   03 Jun 2027 02:04:54.640           190.233                Sumatra          5944.781
       150   03 Jun 2027 03:16:22.238   03 Jun 2027 03:16:28.647             6.409               Magadan2           200.281
       151   03 Jun 2027 03:18:41.890   03 Jun 2027 03:19:07.351            25.461              Murmansk2           795.656
       152   03 Jun 2027 03:19:38.535   03 Jun 2027 03:19:42.522             3.987                Irkutsk           124.594
       153   03 Jun 2027 03:19:45.333   03 Jun 2027 03:20:15.088            29.755                Norilsk           929.844
       154   03 Jun 2027 03:20:20.969   03 Jun 2027 03:22:05.185           104.216                Novosib          3256.750
       155   03 Jun 2027 03:22:15.384   03 Jun 2027 03:23:04.788            49.404                Norilsk          1543.875
       156   03 Jun 2027 03:23:14.055   03 Jun 2027 03:23:43.074            29.019                Irkutsk           906.844
       157   03 Jun 2027 03:24:43.264   03 Jun 2027 03:24:49.517             6.253                Novosib           195.406
       158   03 Jun 2027 03:25:29.067   03 Jun 2027 03:25:45.016            15.949                Novosib           498.406
       159   03 Jun 2027 03:26:01.216   03 Jun 2027 03:26:36.681            35.465                Novosib          1108.281
       160   03 Jun 2027 03:31:19.452   03 Jun 2027 03:33:18.991           119.539                  Delhi          3735.594
       161   03 Jun 2027 04:05:06.029   03 Jun 2027 04:07:51.192           165.163            RioGallegos          5161.344
       162   03 Jun 2027 04:08:09.910   03 Jun 2027 04:09:48.573            98.663            RioGallegos          3083.219
       163   03 Jun 2027 04:54:51.908   03 Jun 2027 04:55:05.395            13.487                Irkutsk           421.469
       164   03 Jun 2027 04:55:17.273   03 Jun 2027 04:55:34.264            16.991                Norilsk           530.969
       165   03 Jun 2027 04:55:39.037   03 Jun 2027 04:56:01.362            22.325              Murmansk1           697.656
       166   03 Jun 2027 04:57:37.304   03 Jun 2027 04:58:22.803            45.499              Murmansk2          1421.844
       167   03 Jun 2027 04:58:37.751   03 Jun 2027 04:59:04.969            27.218                Novosib           850.563
       168   03 Jun 2027 04:59:09.431   03 Jun 2027 05:00:19.149            69.718              Murmansk1          2178.687
       169   03 Jun 2027 05:02:52.867   03 Jun 2027 05:04:19.236            86.369                  Delhi          2699.031
       170   03 Jun 2027 05:18:14.643   03 Jun 2027 05:18:20.828             6.185               CapeTown           193.281
       171   03 Jun 2027 05:18:55.124   03 Jun 2027 05:19:04.365             9.241               CapeTown           288.781
       172   03 Jun 2027 06:32:48.832   03 Jun 2027 06:34:03.643            74.811              Murmansk1          2337.844
       173   03 Jun 2027 06:34:08.319   03 Jun 2027 06:34:33.402            25.083              Murmansk2           783.844
       174   03 Jun 2027 06:34:38.694   03 Jun 2027 06:35:32.086            53.392                 Moscow          1668.500
       175   03 Jun 2027 06:35:40.002   03 Jun 2027 06:36:20.647            40.645                 Moscow          1270.156
       176   03 Jun 2027 06:36:52.579   03 Jun 2027 06:37:14.574            21.995              Murmansk2           687.344
       177   03 Jun 2027 06:39:12.345   03 Jun 2027 06:39:30.765            18.420                 Moscow           575.625
       178   03 Jun 2027 06:52:41.038   03 Jun 2027 06:55:05.786           144.748               CapeTown          4523.375
       179   03 Jun 2027 07:55:39.721   03 Jun 2027 07:56:07.115            27.394               Magadan2           856.062
       180   03 Jun 2027 07:56:27.386   03 Jun 2027 07:57:36.590            69.204                Anadyr1          2162.625
       181   03 Jun 2027 07:57:49.763   03 Jun 2027 07:57:52.410             2.647               Magadan1            82.719
       182   03 Jun 2027 07:57:55.342   03 Jun 2027 07:58:17.367            22.025                Anadyr1           688.281
       183   03 Jun 2027 07:59:08.258   03 Jun 2027 08:00:12.564            64.306                Anadyr2          2009.562
       184   03 Jun 2027 09:26:12.839   03 Jun 2027 09:27:12.975            60.136               Magadan1          1879.250
       185   03 Jun 2027 09:27:33.405   03 Jun 2027 09:28:06.927            33.522                Anadyr2          1047.562
       186   03 Jun 2027 09:31:59.153   03 Jun 2027 09:32:29.080            29.927                Anadyr2           935.219
       187   03 Jun 2027 09:32:29.080   03 Jun 2027 09:33:39.565            70.485                Anadyr1          2202.656
       188   03 Jun 2027 09:33:51.988   03 Jun 2027 09:33:54.563             2.575               Magadan1            80.469
       189   03 Jun 2027 09:34:06.992   03 Jun 2027 09:37:32.293           205.301                Anadyr2          6415.656
       190   03 Jun 2027 11:03:23.934   03 Jun 2027 11:03:42.345            18.411               Magadan2           575.344
       191   03 Jun 2027 11:07:01.225   03 Jun 2027 11:07:10.099             8.874                Novosib           277.313
       192   03 Jun 2027 11:07:16.458   03 Jun 2027 11:09:38.345           141.887               Magadan1          4433.969
       193   03 Jun 2027 11:09:57.918   03 Jun 2027 11:10:28.788            30.870                Irkutsk           964.687
       194   03 Jun 2027 11:10:33.058   03 Jun 2027 11:10:47.713            14.655                Norilsk           457.969
       195   03 Jun 2027 11:11:10.684   03 Jun 2027 11:11:28.891            18.207                Norilsk           568.969
       196   03 Jun 2027 11:11:38.588   03 Jun 2027 11:12:08.157            29.569                Irkutsk           924.031
       197   03 Jun 2027 11:12:24.774   03 Jun 2027 11:12:36.530            11.756              Murmansk1           367.375
       198   03 Jun 2027 11:12:37.287   03 Jun 2027 11:12:52.898            15.611              Murmansk2           487.844
       199   03 Jun 2027 11:12:57.067   03 Jun 2027 11:13:24.197            27.130                Norilsk           847.812
       200   03 Jun 2027 11:13:30.484   03 Jun 2027 11:13:43.063            12.579              Murmansk2           393.094
       201   03 Jun 2027 11:14:37.328   03 Jun 2027 11:14:58.854            21.526              Murmansk2           672.687
       202   03 Jun 2027 11:19:13.317   03 Jun 2027 11:19:25.040            11.723              Murmansk2           366.344
       203   03 Jun 2027 11:21:58.263   03 Jun 2027 11:22:10.205            11.942              Murmansk2           373.187
       204   03 Jun 2027 11:48:15.103   03 Jun 2027 11:49:30.060            74.957            RioGallegos          2342.406
       205   03 Jun 2027 12:24:00.912   03 Jun 2027 12:25:05.389            64.477                Sumatra          2014.906
       206   03 Jun 2027 12:36:39.802   03 Jun 2027 12:39:56.699           196.897                Irkutsk          6153.031
       207   03 Jun 2027 12:41:32.283   03 Jun 2027 12:42:09.385            37.102                Norilsk          1159.437
       208   03 Jun 2027 12:47:35.121   03 Jun 2027 12:47:35.830             0.709              Murmansk1            22.156
       209   03 Jun 2027 12:48:45.821   03 Jun 2027 12:49:25.771            39.950                Norilsk          1248.437
       210   03 Jun 2027 13:25:30.813   03 Jun 2027 13:26:33.751            62.938            RioGallegos          1966.812
       211   03 Jun 2027 13:30:17.336   03 Jun 2027 13:30:30.599            13.263            RioGallegos           414.469
       212   03 Jun 2027 13:32:53.359   03 Jun 2027 13:32:58.256             4.897            RioGallegos           153.031
       213   03 Jun 2027 13:59:44.972   03 Jun 2027 14:03:46.058           241.086                Sumatra          7533.937
       214   03 Jun 2027 14:15:04.382   03 Jun 2027 14:17:59.909           175.527                Irkutsk          5485.219
       215   03 Jun 2027 15:44:46.477   03 Jun 2027 15:49:32.875           286.398                  Delhi          8949.937
       216   03 Jun 2027 15:53:13.113   03 Jun 2027 15:57:44.944           271.831                Novosib          8494.719
       217   03 Jun 2027 17:30:54.357   03 Jun 2027 17:32:08.922            74.565                 Moscow          2330.156
       218   03 Jun 2027 17:34:07.710   03 Jun 2027 17:34:20.270            12.560              Murmansk2           392.500
       219   03 Jun 2027 17:38:20.673   03 Jun 2027 17:38:44.486            23.813              Murmansk2           744.156
       220   03 Jun 2027 17:40:04.971   03 Jun 2027 17:41:10.220            65.249                Norilsk          2039.031
       221   03 Jun 2027 17:47:25.090   03 Jun 2027 17:47:50.870            25.780                Anadyr2           805.625
       222   03 Jun 2027 18:41:17.144   03 Jun 2027 18:43:22.150           125.006               CapeTown          3906.438
       223   03 Jun 2027 19:07:23.821   03 Jun 2027 19:11:44.398           260.577                 Moscow          8143.031
       224   03 Jun 2027 19:14:34.410   03 Jun 2027 19:15:01.843            27.433                 Moscow           857.281
       225   03 Jun 2027 19:19:35.711   03 Jun 2027 19:19:59.814            24.103              Murmansk1           753.219
       226   03 Jun 2027 20:17:52.326   03 Jun 2027 20:19:45.101           112.775               CapeTown          3524.219
       227   03 Jun 2027 20:20:36.222   03 Jun 2027 20:22:56.514           140.292               CapeTown          4384.125
       228   03 Jun 2027 20:50:23.509   03 Jun 2027 20:55:06.826           283.317              Murmansk1          8853.656
       229   03 Jun 2027 22:33:37.624   03 Jun 2027 22:37:27.239           229.615                Anadyr1          7175.469
       230   03 Jun 2027 22:37:29.425   03 Jun 2027 22:38:50.033            80.608                Norilsk          2519.000
       231   03 Jun 2027 22:39:04.139   03 Jun 2027 22:40:18.851            74.712               Magadan1          2334.750
       232   03 Jun 2027 22:40:31.853   03 Jun 2027 22:41:14.566            42.713               Magadan2          1334.781
       233   03 Jun 2027 22:46:37.266   03 Jun 2027 22:46:43.977             6.711               Magadan1           209.719
       234   03 Jun 2027 22:47:06.018   03 Jun 2027 22:47:16.657            10.639               Magadan2           332.469
       235   03 Jun 2027 23:28:24.357   03 Jun 2027 23:30:40.758           136.401            RioGallegos          4262.531
       236   03 Jun 2027 23:30:56.832   03 Jun 2027 23:31:42.069            45.237            RioGallegos          1413.656
       237   04 Jun 2027 00:09:20.147   04 Jun 2027 00:10:37.655            77.508                Anadyr2          2422.125
       238   04 Jun 2027 00:10:48.026   04 Jun 2027 00:11:36.899            48.873                Anadyr2          1527.281
       239   04 Jun 2027 00:11:55.094   04 Jun 2027 00:13:54.177           119.083               Magadan2          3721.344
       240   04 Jun 2027 00:14:12.578   04 Jun 2027 00:14:45.736            33.158               Magadan1          1036.188
       241   04 Jun 2027 00:15:49.234   04 Jun 2027 00:16:58.219            68.985                Irkutsk          2155.781
       242   04 Jun 2027 00:18:06.160   04 Jun 2027 00:18:16.561            10.401                Irkutsk           325.031
       243   04 Jun 2027 00:24:07.880   04 Jun 2027 00:26:06.450           118.570                Irkutsk          3705.313
       244   04 Jun 2027 00:29:49.009   04 Jun 2027 00:30:20.435            31.426                Sumatra           982.063
       245   04 Jun 2027 00:33:42.977   04 Jun 2027 00:36:05.513           142.536                Sumatra          4454.250
       246   04 Jun 2027 01:44:17.226   04 Jun 2027 01:46:04.930           107.704                Anadyr2          3365.750
       247   04 Jun 2027 01:46:42.493   04 Jun 2027 01:46:57.599            15.106                Anadyr1           472.062
       248   04 Jun 2027 01:47:22.156   04 Jun 2027 01:48:38.085            75.929                Norilsk          2372.781
       249   04 Jun 2027 01:48:58.882   04 Jun 2027 01:49:08.986            10.104                Norilsk           315.750
       250   04 Jun 2027 01:50:30.180   04 Jun 2027 01:50:45.979            15.799                Norilsk           493.719
       251   04 Jun 2027 01:51:14.646   04 Jun 2027 01:54:32.100           197.454                Irkutsk          6170.437
       252   04 Jun 2027 02:04:02.420   04 Jun 2027 02:05:06.318            63.898                  Delhi          1996.813
       253   04 Jun 2027 02:05:59.572   04 Jun 2027 02:07:14.902            75.330                Sumatra          2354.063
       254   04 Jun 2027 02:09:16.693   04 Jun 2027 02:11:01.059           104.366                Sumatra          3261.437
       255   04 Jun 2027 02:47:33.361   04 Jun 2027 02:48:03.358            29.997            RioGallegos           937.406
       256   04 Jun 2027 03:30:28.308   04 Jun 2027 03:30:31.322             3.014              Murmansk1            94.187
       257   04 Jun 2027 03:30:31.322   04 Jun 2027 03:31:00.821            29.499              Murmansk2           921.844
       258   04 Jun 2027 03:31:03.183   04 Jun 2027 03:31:08.872             5.689              Murmansk1           177.781
       259   04 Jun 2027 03:31:42.488   04 Jun 2027 03:33:08.268            85.780                 Moscow          2680.625
       260   04 Jun 2027 03:33:15.256   04 Jun 2027 03:33:44.560            29.304              Murmansk1           915.750
       261   04 Jun 2027 03:33:56.476   04 Jun 2027 03:35:26.903            90.427                 Moscow          2825.844
       262   04 Jun 2027 03:35:27.250   04 Jun 2027 03:36:05.860            38.610                Norilsk          1206.563
       263   04 Jun 2027 03:36:07.010   04 Jun 2027 03:36:21.182            14.172                Irkutsk           442.875
       264   04 Jun 2027 03:36:34.548   04 Jun 2027 03:37:10.154            35.606                Irkutsk          1112.688
       265   04 Jun 2027 03:38:03.305   04 Jun 2027 03:38:36.028            32.723                Novosib          1022.594
       266   04 Jun 2027 04:19:24.995   04 Jun 2027 04:20:25.238            60.243            RioGallegos          1882.594
       267   04 Jun 2027 04:52:12.451   04 Jun 2027 04:52:29.955            17.504                Anadyr1           547.000
       268   04 Jun 2027 04:52:52.299   04 Jun 2027 04:52:55.684             3.385                Anadyr1           105.781
       269   04 Jun 2027 05:07:28.198   04 Jun 2027 05:08:48.442            80.244                Norilsk          2507.625
       270   04 Jun 2027 05:08:54.701   04 Jun 2027 05:09:00.195             5.494                Norilsk           171.687
       271   04 Jun 2027 05:09:00.237   04 Jun 2027 05:10:47.625           107.388                Novosib          3355.875
       272   04 Jun 2027 05:10:56.190   04 Jun 2027 05:11:04.164             7.974                Norilsk           249.187
       273   04 Jun 2027 05:11:04.725   04 Jun 2027 05:11:55.831            51.106              Murmansk1          1597.062
       274   04 Jun 2027 05:12:41.983   04 Jun 2027 05:13:12.318            30.335                Novosib           947.969
       275   04 Jun 2027 05:14:10.812   04 Jun 2027 05:14:30.072            19.260                 Moscow           601.875
       276   04 Jun 2027 05:16:07.298   04 Jun 2027 05:16:10.774             3.476                 Moscow           108.625
       277   04 Jun 2027 05:29:45.375   04 Jun 2027 05:30:48.806            63.431               CapeTown          1982.219
       278   04 Jun 2027 05:31:15.690   04 Jun 2027 05:32:46.921            91.231               CapeTown          2850.969
       279   04 Jun 2027 06:43:53.946   04 Jun 2027 06:44:10.552            16.606                 Moscow           518.938
       280   04 Jun 2027 06:44:26.283   04 Jun 2027 06:44:38.592            12.309              Murmansk2           384.656
       281   04 Jun 2027 06:44:48.287   04 Jun 2027 06:44:56.872             8.585                Norilsk           268.281
       282   04 Jun 2027 06:45:08.900   04 Jun 2027 06:45:57.428            48.528              Murmansk2          1516.500
       283   04 Jun 2027 06:46:17.731   04 Jun 2027 06:46:29.620            11.889              Murmansk2           371.531
       284   04 Jun 2027 06:46:29.620   04 Jun 2027 06:48:06.139            96.519              Murmansk1          3016.219
       285   04 Jun 2027 07:04:55.338   04 Jun 2027 07:05:11.288            15.950               CapeTown           498.438
       286   04 Jun 2027 07:05:48.307   04 Jun 2027 07:07:34.820           106.513               CapeTown          3328.531
       287   04 Jun 2027 08:07:37.665   04 Jun 2027 08:08:09.835            32.170               Magadan2          1005.313
       288   04 Jun 2027 08:08:25.114   04 Jun 2027 08:08:40.789            15.675               Magadan2           489.844
       289   04 Jun 2027 08:08:40.789   04 Jun 2027 08:09:53.035            72.246               Magadan1          2257.688
       290   04 Jun 2027 08:10:11.179   04 Jun 2027 08:10:19.152             7.973                Anadyr1           249.156
       291   04 Jun 2027 08:10:19.152   04 Jun 2027 08:10:28.215             9.063                Anadyr2           283.219
       292   04 Jun 2027 08:10:57.249   04 Jun 2027 08:11:05.123             7.874               Magadan2           246.062
       293   04 Jun 2027 08:11:19.569   04 Jun 2027 08:12:12.235            52.666                Anadyr1          1645.813
       294   04 Jun 2027 08:13:33.091   04 Jun 2027 08:13:52.211            19.120               Magadan2           597.500
       295   04 Jun 2027 08:25:11.984   04 Jun 2027 08:26:22.103            70.119                 Moscow          2191.219
       296   04 Jun 2027 09:40:18.602   04 Jun 2027 09:41:51.197            92.595                Anadyr2          2893.594
       297   04 Jun 2027 09:43:52.521   04 Jun 2027 09:47:06.286           193.765                Anadyr2          6055.156
       298   04 Jun 2027 09:47:06.286   04 Jun 2027 09:48:31.945            85.659                Anadyr1          2676.844
       299   04 Jun 2027 09:48:57.166   04 Jun 2027 09:49:49.862            52.696                Anadyr1          1646.750
       300   04 Jun 2027 11:19:03.632   04 Jun 2027 11:20:57.886           114.254               Magadan2          3570.438
       301   04 Jun 2027 11:21:20.978   04 Jun 2027 11:21:26.872             5.894                Norilsk           184.188
       302   04 Jun 2027 11:21:33.621   04 Jun 2027 11:22:25.844            52.223                Irkutsk          1631.969
       303   04 Jun 2027 11:22:35.009   04 Jun 2027 11:22:49.214            14.205                Norilsk           443.906
       304   04 Jun 2027 11:23:04.693   04 Jun 2027 11:23:41.611            36.918                Irkutsk          1153.687
       305   04 Jun 2027 11:24:11.792   04 Jun 2027 11:25:08.506            56.714                Irkutsk          1772.313
       306   04 Jun 2027 11:25:17.504   04 Jun 2027 11:25:27.127             9.623                Irkutsk           300.719
       307   04 Jun 2027 11:25:32.110   04 Jun 2027 11:26:34.709            62.599              Murmansk2          1956.219
       308   04 Jun 2027 12:01:28.046   04 Jun 2027 12:03:13.304           105.258            RioGallegos          3289.313
       309   04 Jun 2027 12:35:39.088   04 Jun 2027 12:36:19.024            39.936                Sumatra          1248.000
       310   04 Jun 2027 12:48:45.936   04 Jun 2027 12:51:57.204           191.268                Irkutsk          5977.125
       311   04 Jun 2027 12:53:33.977   04 Jun 2027 12:54:18.289            44.312                Norilsk          1384.750
       312   04 Jun 2027 13:38:03.003   04 Jun 2027 13:40:03.924           120.921            RioGallegos          3778.781
       313   04 Jun 2027 14:12:16.931   04 Jun 2027 14:17:10.257           293.326                Sumatra          9166.438
       314   04 Jun 2027 14:27:51.081   04 Jun 2027 14:31:20.934           209.853                Irkutsk          6557.906
       315   04 Jun 2027 14:32:56.486   04 Jun 2027 14:34:53.617           117.131                Irkutsk          3660.344
       316   04 Jun 2027 15:58:13.370   04 Jun 2027 16:02:01.263           227.893                  Delhi          7121.656
       317   04 Jun 2027 16:06:36.897   04 Jun 2027 16:10:22.449           225.552                Novosib          7048.500
       318   04 Jun 2027 17:46:30.499   04 Jun 2027 17:46:33.161             2.662              Murmansk1            83.187
       319   04 Jun 2027 17:48:37.778   04 Jun 2027 17:49:39.357            61.579                 Moscow          1924.344
       320   04 Jun 2027 17:58:45.873   04 Jun 2027 17:59:10.960            25.087                Anadyr1           783.969
       321   04 Jun 2027 18:04:26.051   04 Jun 2027 18:04:39.938            13.887                Anadyr2           433.969
       322   04 Jun 2027 18:53:13.417   04 Jun 2027 18:55:38.126           144.709               CapeTown          4522.156
       323   04 Jun 2027 19:20:26.660   04 Jun 2027 19:24:27.539           240.879                 Moscow          7527.469
       324   04 Jun 2027 19:26:11.563   04 Jun 2027 19:26:24.043            12.480              Murmansk2           390.000
       325   04 Jun 2027 19:26:37.914   04 Jun 2027 19:27:02.307            24.393              Murmansk1           762.281
       326   04 Jun 2027 20:30:16.710   04 Jun 2027 20:35:20.957           304.247               CapeTown          9507.719
       327   04 Jun 2027 21:03:33.903   04 Jun 2027 21:06:41.048           187.145              Murmansk1          5848.281
       328   04 Jun 2027 21:13:34.994   04 Jun 2027 21:13:37.249             2.255               Magadan2            70.469
       329   04 Jun 2027 21:14:50.553   04 Jun 2027 21:15:28.521            37.968               Magadan1          1186.500
       330   04 Jun 2027 21:18:29.162   04 Jun 2027 21:18:32.440             3.278               Magadan2           102.437
       331   04 Jun 2027 21:18:54.573   04 Jun 2027 21:20:01.795            67.222               Magadan1          2100.688
       332   04 Jun 2027 22:45:38.883   04 Jun 2027 22:49:27.752           228.869                Anadyr2          7152.156
       333   04 Jun 2027 22:49:27.937   04 Jun 2027 22:51:14.669           106.732               Magadan1          3335.375
       334   04 Jun 2027 22:51:14.669   04 Jun 2027 22:51:40.127            25.458               Magadan2           795.562
       335   04 Jun 2027 22:51:55.476   04 Jun 2027 22:52:13.797            18.321               Magadan1           572.531
       336   04 Jun 2027 22:52:20.558   04 Jun 2027 22:53:02.734            42.176               Magadan2          1318.000
       337   04 Jun 2027 22:58:50.089   04 Jun 2027 22:59:41.475            51.386               Magadan1          1605.812
       338   04 Jun 2027 23:40:09.712   04 Jun 2027 23:42:15.946           126.234            RioGallegos          3944.812
       339   04 Jun 2027 23:43:35.120   04 Jun 2027 23:44:27.505            52.385            RioGallegos          1637.031
       340   05 Jun 2027 00:21:17.802   05 Jun 2027 00:22:17.683            59.881                Anadyr1          1871.281
       341   05 Jun 2027 00:22:20.928   05 Jun 2027 00:22:34.745            13.817                Anadyr2           431.781
       342   05 Jun 2027 00:22:44.599   05 Jun 2027 00:22:45.494             0.895                Anadyr2            27.969
       343   05 Jun 2027 00:23:27.103   05 Jun 2027 00:25:03.794            96.691                Norilsk          3021.594
       344   05 Jun 2027 00:25:24.137   05 Jun 2027 00:26:29.328            65.191               Magadan1          2037.219
       345   05 Jun 2027 00:26:49.249   05 Jun 2027 00:27:58.946            69.697               Magadan2          2178.031
       346   05 Jun 2027 00:29:09.896   05 Jun 2027 00:29:19.938            10.042                Irkutsk           313.813
       347   05 Jun 2027 00:29:27.231   05 Jun 2027 00:31:03.812            96.581                Irkutsk          3018.156
       348   05 Jun 2027 00:38:14.595   05 Jun 2027 00:38:27.649            13.054                Irkutsk           407.937
       349   05 Jun 2027 00:41:30.970   05 Jun 2027 00:42:16.175            45.205                Sumatra          1412.656
       350   05 Jun 2027 00:43:40.836   05 Jun 2027 00:45:00.899            80.063                Sumatra          2501.969
       351   05 Jun 2027 01:15:36.040   05 Jun 2027 01:15:51.079            15.039            RioGallegos           469.969
       352   05 Jun 2027 01:19:14.402   05 Jun 2027 01:19:21.048             6.646            RioGallegos           207.688
       353   05 Jun 2027 01:19:52.889   05 Jun 2027 01:20:10.726            17.837            RioGallegos           557.406
       354   05 Jun 2027 01:22:21.845   05 Jun 2027 01:23:09.612            47.767            RioGallegos          1492.719
       355   05 Jun 2027 01:27:45.269   05 Jun 2027 01:28:14.004            28.735            RioGallegos           897.969
       356   05 Jun 2027 01:56:16.710   05 Jun 2027 01:56:38.042            21.332                Anadyr1           666.625
       357   05 Jun 2027 01:56:50.337   05 Jun 2027 01:57:09.999            19.662                Anadyr1           614.437
       358   05 Jun 2027 01:57:40.776   05 Jun 2027 01:58:22.954            42.178                Anadyr1          1318.062
       359   05 Jun 2027 01:59:24.587   05 Jun 2027 02:00:34.447            69.860                Norilsk          2183.125
       360   05 Jun 2027 02:01:16.540   05 Jun 2027 02:01:36.825            20.285               Magadan1           633.906
       361   05 Jun 2027 02:03:17.306   05 Jun 2027 02:06:30.132           192.826                Irkutsk          6025.813
       362   05 Jun 2027 02:17:01.620   05 Jun 2027 02:17:24.482            22.862                  Delhi           714.438
       363   05 Jun 2027 02:18:37.679   05 Jun 2027 02:23:21.398           283.719                Sumatra          8866.219
       364   05 Jun 2027 03:41:32.897   05 Jun 2027 03:42:13.056            40.159                Irkutsk          1254.969
       365   05 Jun 2027 03:44:07.598   05 Jun 2027 03:46:23.252           135.654              Murmansk1          4239.188
       366   05 Jun 2027 03:46:34.599   05 Jun 2027 03:48:08.790            94.191                Irkutsk          2943.469
       367   05 Jun 2027 05:12:25.369   05 Jun 2027 05:13:46.280            80.911               Magadan2          2528.469
       368   05 Jun 2027 05:20:07.023   05 Jun 2027 05:20:09.855             2.832              Murmansk2            88.500
       369   05 Jun 2027 05:20:09.855   05 Jun 2027 05:20:17.559             7.704              Murmansk1           240.750
       370   05 Jun 2027 05:20:39.874   05 Jun 2027 05:21:51.975            72.101                 Moscow          2253.156
       371   05 Jun 2027 05:22:10.707   05 Jun 2027 05:23:09.836            59.129                Norilsk          1847.781
       372   05 Jun 2027 05:23:18.346   05 Jun 2027 05:24:26.067            67.721                 Moscow          2116.281
       373   05 Jun 2027 05:24:59.945   05 Jun 2027 05:25:11.765            11.820              Murmansk1           369.375
       374   05 Jun 2027 05:26:15.237   05 Jun 2027 05:26:28.106            12.869                 Moscow           402.156
       375   05 Jun 2027 05:27:33.409   05 Jun 2027 05:27:45.048            11.639                 Moscow           363.719
       376   05 Jun 2027 05:28:13.411   05 Jun 2027 05:28:31.569            18.158                 Moscow           567.437
       377   05 Jun 2027 05:41:22.691   05 Jun 2027 05:42:43.609            80.918               CapeTown          2528.687
       378   05 Jun 2027 05:44:35.474   05 Jun 2027 05:44:37.856             2.382               CapeTown            74.438
       379   05 Jun 2027 05:45:34.218   05 Jun 2027 05:47:14.734           100.516               CapeTown          3141.125
       380   05 Jun 2027 06:45:07.748   05 Jun 2027 06:46:17.146            69.398                Anadyr2          2168.688
       381   05 Jun 2027 06:47:36.259   05 Jun 2027 06:47:41.781             5.522                Anadyr2           172.562
       382   05 Jun 2027 06:51:43.657   05 Jun 2027 06:52:09.087            25.430              Murmansk1           794.687
       383   05 Jun 2027 06:54:13.329   05 Jun 2027 06:54:44.727            31.398                 Moscow           981.188
       384   05 Jun 2027 06:56:29.039   05 Jun 2027 06:56:43.181            14.142              Murmansk1           441.937
       385   05 Jun 2027 06:57:10.206   05 Jun 2027 06:58:17.548            67.342              Murmansk2          2104.437
       386   05 Jun 2027 06:58:23.392   05 Jun 2027 06:59:10.302            46.910                 Moscow          1465.938
       387   05 Jun 2027 07:00:00.102   05 Jun 2027 07:00:17.544            17.442              Murmansk2           545.062
       388   05 Jun 2027 07:01:10.399   05 Jun 2027 07:01:33.339            22.940              Murmansk1           716.875
       389   05 Jun 2027 07:17:15.931   05 Jun 2027 07:18:23.357            67.426               CapeTown          2107.062
       390   05 Jun 2027 07:19:25.482   05 Jun 2027 07:22:27.072           181.590               CapeTown          5674.688
       391   05 Jun 2027 08:19:58.256   05 Jun 2027 08:20:41.536            43.280               Magadan1          1352.500
       392   05 Jun 2027 08:21:45.898   05 Jun 2027 08:22:20.808            34.910                Anadyr2          1090.937
       393   05 Jun 2027 08:22:20.808   05 Jun 2027 08:22:50.199            29.391                Anadyr1           918.469
       394   05 Jun 2027 08:24:11.280   05 Jun 2027 08:24:28.223            16.943                Anadyr2           529.469
       395   05 Jun 2027 09:07:36.118   05 Jun 2027 09:07:39.657             3.539            RioGallegos           110.594
       396   05 Jun 2027 09:08:57.206   05 Jun 2027 09:09:26.572            29.366            RioGallegos           917.688
       397   05 Jun 2027 09:52:16.371   05 Jun 2027 09:52:44.254            27.883               Magadan2           871.344
       398   05 Jun 2027 09:52:44.254   05 Jun 2027 09:53:02.186            17.932               Magadan1           560.375
       399   05 Jun 2027 09:53:39.325   05 Jun 2027 09:57:23.499           224.174                Anadyr1          7005.437
       400   05 Jun 2027 09:57:58.018   05 Jun 2027 09:58:08.618            10.600               Magadan1           331.250
       401   05 Jun 2027 09:58:15.120   05 Jun 2027 09:59:41.154            86.034               Magadan2          2688.563
       402   05 Jun 2027 10:01:43.414   05 Jun 2027 10:01:44.668             1.254                Anadyr1            39.187
       403   05 Jun 2027 10:39:14.256   05 Jun 2027 10:39:59.762            45.506            RioGallegos          1422.062
       404   05 Jun 2027 11:28:01.564   05 Jun 2027 11:33:14.411           312.847               Magadan2          9776.469
       405   05 Jun 2027 11:33:30.559   05 Jun 2027 11:37:00.157           209.598               Magadan2          6549.937
       406   05 Jun 2027 11:37:28.734   05 Jun 2027 11:37:33.774             5.040              Murmansk1           157.500
       407   05 Jun 2027 11:37:46.032   05 Jun 2027 11:38:32.058            46.026              Murmansk2          1438.313
       408   05 Jun 2027 12:12:16.443   05 Jun 2027 12:13:24.591            68.148            RioGallegos          2129.625
       409   05 Jun 2027 12:20:00.222   05 Jun 2027 12:20:51.816            51.594            RioGallegos          1612.312
       410   05 Jun 2027 12:48:11.847   05 Jun 2027 12:49:55.269           103.422                Sumatra          3231.937
       411   05 Jun 2027 13:00:55.599   05 Jun 2027 13:01:36.991            41.392                Irkutsk          1293.500
       412   05 Jun 2027 13:02:32.651   05 Jun 2027 13:03:09.460            36.809                Novosib          1150.281
       413   05 Jun 2027 13:03:56.695   05 Jun 2027 13:05:22.834            86.139                Irkutsk          2691.844
       414   05 Jun 2027 13:10:51.151   05 Jun 2027 13:11:15.824            24.673                Norilsk           771.031
       415   05 Jun 2027 13:16:15.537   05 Jun 2027 13:16:39.962            24.425                Norilsk           763.281
       416   05 Jun 2027 13:50:42.141   05 Jun 2027 13:53:29.407           167.266            RioGallegos          5227.063
       417   05 Jun 2027 14:25:02.781   05 Jun 2027 14:29:34.720           271.939                Sumatra          8498.094
       418   05 Jun 2027 14:40:49.761   05 Jun 2027 14:44:57.464           247.703                Irkutsk          7740.719
       419   05 Jun 2027 16:10:45.255   05 Jun 2027 16:14:39.617           234.362                  Delhi          7323.813
       420   05 Jun 2027 16:19:12.013   05 Jun 2027 16:24:52.520           340.507                Novosib         10640.844
       421   05 Jun 2027 18:10:52.219   05 Jun 2027 18:11:12.435            20.216                Anadyr1           631.750
       422   05 Jun 2027 18:14:04.582   05 Jun 2027 18:14:42.983            38.401                Anadyr1          1200.031
       423   05 Jun 2027 19:05:12.674   05 Jun 2027 19:07:59.023           166.349               CapeTown          5198.406
       424   05 Jun 2027 19:33:55.750   05 Jun 2027 19:37:20.008           204.258                 Moscow          6383.062
       425   05 Jun 2027 19:37:35.771   05 Jun 2027 19:40:08.645           152.874              Murmansk2          4777.312
       426   05 Jun 2027 20:42:49.745   05 Jun 2027 20:47:40.792           291.047               CapeTown          9095.219
       427   05 Jun 2027 20:49:43.929   05 Jun 2027 20:50:27.999            44.070               CapeTown          1377.188
       428   05 Jun 2027 21:25:11.381   05 Jun 2027 21:26:08.624            57.243               Magadan1          1788.844
       429   05 Jun 2027 21:26:52.086   05 Jun 2027 21:27:10.425            18.339               Magadan2           573.094
       430   05 Jun 2027 21:28:07.075   05 Jun 2027 21:28:42.577            35.502               Magadan1          1109.438
       431   05 Jun 2027 21:34:52.709   05 Jun 2027 21:35:31.069            38.360               Magadan1          1198.750
       432   05 Jun 2027 22:57:39.897   05 Jun 2027 23:01:27.884           227.987                Anadyr2          7124.594
       433   05 Jun 2027 23:01:55.773   05 Jun 2027 23:02:47.266            51.493                Anadyr1          1609.156
       434   05 Jun 2027 23:02:47.814   05 Jun 2027 23:03:38.027            50.213                Norilsk          1569.156
       435   05 Jun 2027 23:04:07.142   05 Jun 2027 23:05:28.565            81.423               Magadan1          2544.469
       436   05 Jun 2027 23:07:18.639   05 Jun 2027 23:08:47.281            88.642                Irkutsk          2770.062
       437   05 Jun 2027 23:51:58.871   05 Jun 2027 23:54:11.892           133.021            RioGallegos          4156.906
       438   05 Jun 2027 23:55:30.200   05 Jun 2027 23:56:06.143            35.943            RioGallegos          1123.219
       439   05 Jun 2027 23:57:24.837   05 Jun 2027 23:57:39.834            14.997            RioGallegos           468.656
       440   06 Jun 2027 00:33:14.668   06 Jun 2027 00:34:03.377            48.709                Anadyr2          1522.156
       441   06 Jun 2027 00:34:07.235   06 Jun 2027 00:34:24.244            17.009                Anadyr1           531.531
       442   06 Jun 2027 00:34:41.934   06 Jun 2027 00:35:16.120            34.186                Anadyr1          1068.313
       443   06 Jun 2027 00:35:28.146   06 Jun 2027 00:37:19.849           111.703                Norilsk          3490.719
       444   06 Jun 2027 00:37:45.440   06 Jun 2027 00:38:12.872            27.432               Magadan2           857.250
       445   06 Jun 2027 00:38:18.711   06 Jun 2027 00:39:28.367            69.656               Magadan2          2176.750
       446   06 Jun 2027 00:39:36.433   06 Jun 2027 00:40:41.566            65.133                Irkutsk          2035.406
       447   06 Jun 2027 00:41:11.442   06 Jun 2027 00:42:14.036            62.594                Novosib          1956.063
       448   06 Jun 2027 00:49:50.279   06 Jun 2027 00:50:19.305            29.026                Irkutsk           907.063
       449   06 Jun 2027 00:54:05.991   06 Jun 2027 00:56:12.435           126.444                Sumatra          3951.375
       450   06 Jun 2027 01:31:18.501   06 Jun 2027 01:32:01.871            43.370            RioGallegos          1355.313
       451   06 Jun 2027 01:39:16.172   06 Jun 2027 01:39:59.244            43.072            RioGallegos          1346.000
       452   06 Jun 2027 02:07:53.822   06 Jun 2027 02:08:36.394            42.572                Anadyr2          1330.375
       453   06 Jun 2027 02:09:08.778   06 Jun 2027 02:09:40.011            31.233                Anadyr1           976.031
       454   06 Jun 2027 02:11:27.046   06 Jun 2027 02:12:27.836            60.790                Norilsk          1899.687
       455   06 Jun 2027 02:12:49.067   06 Jun 2027 02:12:51.790             2.723                Norilsk            85.094
       456   06 Jun 2027 02:13:03.100   06 Jun 2027 02:13:50.018            46.918               Magadan2          1466.188
       457   06 Jun 2027 02:15:20.763   06 Jun 2027 02:18:16.374           175.611                Irkutsk          5487.844
       458   06 Jun 2027 02:29:36.260   06 Jun 2027 02:29:52.505            16.245                  Delhi           507.656
       459   06 Jun 2027 02:30:14.633   06 Jun 2027 02:30:17.434             2.801                  Delhi            87.531
       460   06 Jun 2027 02:31:33.944   06 Jun 2027 02:36:51.672           317.728                Sumatra          9929.000
       461   06 Jun 2027 03:12:40.313   06 Jun 2027 03:12:51.310            10.997            RioGallegos           343.656
       462   06 Jun 2027 03:55:50.629   06 Jun 2027 03:56:20.895            30.266                 Moscow           945.812
       463   06 Jun 2027 03:56:25.098   06 Jun 2027 03:56:25.321             0.223                Norilsk             6.969
       464   06 Jun 2027 03:56:28.245   06 Jun 2027 03:56:28.728             0.483                Irkutsk            15.094
       465   06 Jun 2027 03:56:41.177   06 Jun 2027 03:57:26.115            44.938                Irkutsk          1404.312
       466   06 Jun 2027 03:57:26.293   06 Jun 2027 03:58:29.951            63.658                 Moscow          1989.312
       467   06 Jun 2027 03:58:38.553   06 Jun 2027 03:58:43.666             5.113                Norilsk           159.781
       468   06 Jun 2027 03:58:49.349   06 Jun 2027 03:58:58.550             9.201              Murmansk1           287.531
       469   06 Jun 2027 03:59:00.794   06 Jun 2027 04:03:27.376           266.582                  Delhi          8330.687
       470   06 Jun 2027 04:07:10.085   06 Jun 2027 04:10:03.697           173.612                  Delhi          5425.375
       471   06 Jun 2027 05:32:40.289   06 Jun 2027 05:33:42.482            62.193                 Moscow          1943.531
       472   06 Jun 2027 05:33:47.156   06 Jun 2027 05:34:28.737            41.581                 Moscow          1299.406
       473   06 Jun 2027 05:34:32.539   06 Jun 2027 05:34:55.298            22.759              Murmansk1           711.219
       474   06 Jun 2027 05:34:55.298   06 Jun 2027 05:35:43.696            48.398              Murmansk2          1512.437
       475   06 Jun 2027 05:35:43.884   06 Jun 2027 05:36:12.623            28.739                Novosib           898.094
       476   06 Jun 2027 05:36:28.003   06 Jun 2027 05:36:34.155             6.152                 Moscow           192.250
       477   06 Jun 2027 05:36:34.642   06 Jun 2027 05:37:47.596            72.954              Murmansk1          2279.812
       478   06 Jun 2027 05:38:20.150   06 Jun 2027 05:38:27.153             7.003                 Moscow           218.844
       479   06 Jun 2027 05:39:01.169   06 Jun 2027 05:40:14.863            73.694                 Moscow          2302.938
       480   06 Jun 2027 05:53:05.848   06 Jun 2027 05:54:57.258           111.410               CapeTown          3481.563
       481   06 Jun 2027 06:56:37.582   06 Jun 2027 06:57:14.877            37.295                Anadyr2          1165.469
       482   06 Jun 2027 06:57:37.878   06 Jun 2027 06:57:41.195             3.317               Magadan2           103.656
