uniorb/output/strategy_2/Drop/Drop_KinoSat_111908.txt

KinoSat_111908
-------------------------
    Access    *     Start Time (UTCG)     *     Stop Time (UTCG)  *   Duration (s)        *       Station  *  Data (Mbytes)
         1   01 Jun 2027 04:10:16.118   01 Jun 2027 04:10:21.616             5.498                Irkutsk           171.813
         2   01 Jun 2027 04:12:37.150   01 Jun 2027 04:13:06.668            29.518                Novosib           922.438
         3   01 Jun 2027 04:13:22.949   01 Jun 2027 04:13:39.152            16.203                Irkutsk           506.344
         4   01 Jun 2027 04:13:48.281   01 Jun 2027 04:17:20.342           212.061                 Moscow          6626.906
         5   01 Jun 2027 04:18:11.548   01 Jun 2027 04:19:35.892            84.344                Novosib          2635.750
         6   01 Jun 2027 04:19:35.972   01 Jun 2027 04:19:36.433             0.461                 Moscow            14.406
         7   01 Jun 2027 04:21:10.899   01 Jun 2027 04:25:42.214           271.315                  Delhi          8478.594
         8   01 Jun 2027 05:48:45.013   01 Jun 2027 05:49:22.554            37.541                Novosib          1173.156
         9   01 Jun 2027 05:49:56.336   01 Jun 2027 05:52:28.463           152.127                Novosib          4753.969
        10   01 Jun 2027 05:53:11.016   01 Jun 2027 05:53:38.835            27.819              Murmansk1           869.344
        11   01 Jun 2027 05:53:54.527   01 Jun 2027 05:57:36.402           221.875                 Moscow          6933.594
        12   01 Jun 2027 07:13:13.970   01 Jun 2027 07:14:02.138            48.168                Anadyr1          1505.250
        13   01 Jun 2027 07:14:29.156   01 Jun 2027 07:14:38.287             9.131               Magadan1           285.344
        14   01 Jun 2027 07:14:52.390   01 Jun 2027 07:15:37.272            44.882                Anadyr1          1402.562
        15   01 Jun 2027 08:47:35.088   01 Jun 2027 08:48:12.554            37.466                Anadyr1          1170.813
        16   01 Jun 2027 08:48:51.312   01 Jun 2027 08:50:25.590            94.278               Magadan1          2946.188
        17   01 Jun 2027 08:50:25.590   01 Jun 2027 08:51:14.257            48.667               Magadan2          1520.844
        18   01 Jun 2027 08:51:18.801   01 Jun 2027 08:52:38.575            79.774               Magadan2          2492.937
        19   01 Jun 2027 08:52:39.954   01 Jun 2027 08:54:49.795           129.841                Anadyr2          4057.531
        20   01 Jun 2027 09:01:08.046   01 Jun 2027 09:02:28.730            80.684                 Moscow          2521.375
        21   01 Jun 2027 10:22:56.399   01 Jun 2027 10:29:56.499           420.100                Anadyr2         13128.125
        22   01 Jun 2027 11:58:35.011   01 Jun 2027 12:04:50.963           375.952               Magadan1         11748.500
        23   01 Jun 2027 14:21:29.915   01 Jun 2027 14:27:24.606           354.691            RioGallegos         11084.094
        24   01 Jun 2027 16:52:53.465   01 Jun 2027 16:57:53.605           300.140                Norilsk          9379.375
        25   01 Jun 2027 20:04:21.641   01 Jun 2027 20:06:14.109           112.468              Murmansk2          3514.625
        26   01 Jun 2027 20:06:32.931   01 Jun 2027 20:12:29.087           356.156              Murmansk2         11129.875
        27   01 Jun 2027 23:53:49.998   01 Jun 2027 23:54:29.945            39.947                Sumatra          1248.344
        28   02 Jun 2027 00:25:45.722   02 Jun 2027 00:26:10.978            25.256            RioGallegos           789.250
        29   02 Jun 2027 00:27:04.577   02 Jun 2027 00:27:40.970            36.393            RioGallegos          1137.281
        30   02 Jun 2027 00:29:40.462   02 Jun 2027 00:29:48.872             8.410            RioGallegos           262.812
        31   02 Jun 2027 00:29:58.614   02 Jun 2027 00:31:02.197            63.583            RioGallegos          1986.969
        32   02 Jun 2027 01:01:37.633   02 Jun 2027 01:01:54.886            17.253                Anadyr2           539.156
        33   02 Jun 2027 01:02:08.658   02 Jun 2027 01:02:12.104             3.446                Anadyr2           107.688
        34   02 Jun 2027 01:02:41.415   02 Jun 2027 01:03:13.989            32.574                Anadyr1          1017.937
        35   02 Jun 2027 01:03:54.568   02 Jun 2027 01:04:25.256            30.688                Anadyr2           959.000
        36   02 Jun 2027 01:04:42.288   02 Jun 2027 01:05:12.473            30.185                Norilsk           943.281
        37   02 Jun 2027 01:05:13.452   02 Jun 2027 01:06:18.032            64.580               Magadan1          2018.125
        38   02 Jun 2027 01:06:48.113   02 Jun 2027 01:07:12.848            24.735               Magadan1           772.969
        39   02 Jun 2027 01:09:15.173   02 Jun 2027 01:09:34.958            19.785               Magadan1           618.281
        40   02 Jun 2027 01:09:53.694   02 Jun 2027 01:10:19.258            25.564                Novosib           798.875
        41   02 Jun 2027 01:11:40.301   02 Jun 2027 01:12:20.333            40.032                Irkutsk          1251.000
        42   02 Jun 2027 01:13:39.606   02 Jun 2027 01:13:44.533             4.927               Magadan2           153.969
        43   02 Jun 2027 01:13:51.133   02 Jun 2027 01:14:42.651            51.518                Irkutsk          1609.938
        44   02 Jun 2027 01:18:51.804   02 Jun 2027 01:20:30.035            98.231                Irkutsk          3069.719
        45   02 Jun 2027 01:24:56.907   02 Jun 2027 01:26:08.833            71.926                Sumatra          2247.687
        46   02 Jun 2027 01:30:54.073   02 Jun 2027 01:31:13.563            19.490                Sumatra           609.063
        47   02 Jun 2027 02:00:56.773   02 Jun 2027 02:00:58.001             1.228            RioGallegos            38.375
        48   02 Jun 2027 02:01:41.430   02 Jun 2027 02:02:18.777            37.347            RioGallegos          1167.094
        49   02 Jun 2027 02:02:42.454   02 Jun 2027 02:02:47.915             5.461            RioGallegos           170.656
        50   02 Jun 2027 02:04:08.717   02 Jun 2027 02:04:24.485            15.768            RioGallegos           492.750
        51   02 Jun 2027 02:04:55.638   02 Jun 2027 02:05:13.636            17.998            RioGallegos           562.438
        52   02 Jun 2027 02:05:42.832   02 Jun 2027 02:07:33.551           110.719            RioGallegos          3459.969
        53   02 Jun 2027 02:42:17.605   02 Jun 2027 02:42:50.067            32.462                Norilsk          1014.438
        54   02 Jun 2027 02:44:05.689   02 Jun 2027 02:44:22.955            17.266                Irkutsk           539.563
        55   02 Jun 2027 02:45:36.463   02 Jun 2027 02:46:29.162            52.699                Irkutsk          1646.844
        56   02 Jun 2027 02:48:47.609   02 Jun 2027 02:48:52.525             4.916                Irkutsk           153.625
        57   02 Jun 2027 02:49:28.987   02 Jun 2027 02:49:37.948             8.961                Irkutsk           280.031
        58   02 Jun 2027 02:50:42.374   02 Jun 2027 02:50:49.885             7.511                Novosib           234.719
        59   02 Jun 2027 02:50:57.886   02 Jun 2027 02:51:04.755             6.869                Novosib           214.656
        60   02 Jun 2027 02:51:50.970   02 Jun 2027 02:51:53.769             2.799                Novosib            87.469
        61   02 Jun 2027 02:51:58.049   02 Jun 2027 02:52:15.765            17.716                Irkutsk           553.625
        62   02 Jun 2027 02:52:37.779   02 Jun 2027 02:53:15.442            37.663                Irkutsk          1176.969
        63   02 Jun 2027 02:55:29.128   02 Jun 2027 02:55:57.009            27.881                Irkutsk           871.281
        64   02 Jun 2027 02:57:52.926   02 Jun 2027 02:58:15.752            22.826                  Delhi           713.313
        65   02 Jun 2027 02:59:38.248   02 Jun 2027 03:01:34.538           116.290                  Delhi          3634.062
        66   02 Jun 2027 03:32:57.903   02 Jun 2027 03:35:01.385           123.482            RioGallegos          3858.812
        67   02 Jun 2027 04:25:12.063   02 Jun 2027 04:25:26.035            13.972                Irkutsk           436.625
        68   02 Jun 2027 04:25:30.403   02 Jun 2027 04:25:34.744             4.341                Novosib           135.656
        69   02 Jun 2027 04:25:35.681   02 Jun 2027 04:27:37.432           121.751              Murmansk1          3804.719
        70   02 Jun 2027 04:27:37.432   02 Jun 2027 04:28:04.649            27.217              Murmansk2           850.531
        71   02 Jun 2027 04:28:25.022   02 Jun 2027 04:28:48.004            22.982                Norilsk           718.188
        72   02 Jun 2027 04:29:38.421   02 Jun 2027 04:35:01.206           322.785                  Delhi         10087.031
        73   02 Jun 2027 06:02:39.826   02 Jun 2027 06:03:35.948            56.122                Novosib          1753.812
        74   02 Jun 2027 06:03:48.367   02 Jun 2027 06:05:40.497           112.130              Murmansk2          3504.062
        75   02 Jun 2027 06:05:40.497   02 Jun 2027 06:05:47.975             7.478              Murmansk1           233.687
        76   02 Jun 2027 06:06:08.474   02 Jun 2027 06:07:02.018            53.544                 Moscow          1673.250
        77   02 Jun 2027 07:26:01.677   02 Jun 2027 07:29:16.691           195.014               Magadan2          6094.188
        78   02 Jun 2027 07:30:24.366   02 Jun 2027 07:30:32.378             8.012               Magadan2           250.375
        79   02 Jun 2027 09:01:39.086   02 Jun 2027 09:06:49.429           310.343                Anadyr2          9698.219
        80   02 Jun 2027 09:13:08.866   02 Jun 2027 09:14:22.582            73.716                 Moscow          2303.625
        81   02 Jun 2027 09:14:39.761   02 Jun 2027 09:14:51.255            11.494                 Moscow           359.187
        82   02 Jun 2027 10:35:25.097   02 Jun 2027 10:36:02.049            36.952               Magadan2          1154.750
        83   02 Jun 2027 10:36:11.609   02 Jun 2027 10:39:53.782           222.173               Magadan1          6942.906
        84   02 Jun 2027 10:40:01.938   02 Jun 2027 10:41:39.088            97.150                Anadyr2          3035.937
        85   02 Jun 2027 10:41:51.803   02 Jun 2027 10:42:27.235            35.432                Norilsk          1107.250
        86   02 Jun 2027 10:42:40.682   02 Jun 2027 10:42:57.476            16.794              Murmansk2           524.813
        87   02 Jun 2027 11:17:24.355   02 Jun 2027 11:17:59.388            35.033            RioGallegos          1094.781
        88   02 Jun 2027 11:18:21.274   02 Jun 2027 11:18:38.228            16.954            RioGallegos           529.812
        89   02 Jun 2027 11:26:50.864   02 Jun 2027 11:27:56.377            65.513            RioGallegos          2047.281
        90   02 Jun 2027 11:56:39.460   02 Jun 2027 11:56:42.681             3.221                Sumatra           100.656
        91   02 Jun 2027 12:05:30.824   02 Jun 2027 12:06:45.474            74.650                Irkutsk          2332.812
        92   02 Jun 2027 12:09:58.518   02 Jun 2027 12:10:32.776            34.258                Novosib          1070.562
        93   02 Jun 2027 12:11:45.122   02 Jun 2027 12:12:17.261            32.139                Norilsk          1004.344
        94   02 Jun 2027 12:12:37.271   02 Jun 2027 12:16:13.150           215.879               Magadan1          6746.219
        95   02 Jun 2027 13:02:55.767   02 Jun 2027 13:03:12.782            17.015            RioGallegos           531.719
        96   02 Jun 2027 13:27:53.331   02 Jun 2027 13:28:49.705            56.374                Sumatra          1761.688
        97   02 Jun 2027 13:30:54.783   02 Jun 2027 13:32:20.554            85.771                Sumatra          2680.344
        98   02 Jun 2027 13:36:31.322   02 Jun 2027 13:36:39.083             7.761                Sumatra           242.531
        99   02 Jun 2027 13:42:30.124   02 Jun 2027 13:43:06.702            36.578                Irkutsk          1143.063
       100   02 Jun 2027 13:43:40.359   02 Jun 2027 13:47:35.154           234.795                Irkutsk          7337.344
       101   02 Jun 2027 14:35:15.300   02 Jun 2027 14:38:12.695           177.395            RioGallegos          5543.594
       102   02 Jun 2027 15:20:26.387   02 Jun 2027 15:22:14.938           108.551                  Delhi          3392.219
       103   02 Jun 2027 15:25:06.576   02 Jun 2027 15:25:46.577            40.001                Novosib          1250.031
       104   02 Jun 2027 15:27:35.691   02 Jun 2027 15:27:59.191            23.500                Novosib           734.375
       105   02 Jun 2027 15:28:39.988   02 Jun 2027 15:29:28.570            48.582                Norilsk          1518.187
       106   02 Jun 2027 16:56:26.013   02 Jun 2027 16:57:40.850            74.837                 Moscow          2338.656
       107   02 Jun 2027 16:59:55.873   02 Jun 2027 17:00:47.834            51.961              Murmansk1          1623.781
       108   02 Jun 2027 17:03:33.008   02 Jun 2027 17:04:30.760            57.752                 Moscow          1804.750
       109   02 Jun 2027 17:04:45.736   02 Jun 2027 17:10:47.336           361.600                Norilsk         11300.000
       110   02 Jun 2027 18:34:23.048   02 Jun 2027 18:35:54.211            91.163                 Moscow          2848.844
       111   02 Jun 2027 18:40:59.288   02 Jun 2027 18:41:20.661            21.373              Murmansk1           667.906
       112   02 Jun 2027 18:43:44.560   02 Jun 2027 18:44:26.259            41.699                 Moscow          1303.094
       113   02 Jun 2027 18:59:16.961   02 Jun 2027 18:59:51.140            34.179                Anadyr2          1068.094
       114   02 Jun 2027 19:46:04.493   02 Jun 2027 19:48:41.057           156.564               CapeTown          4892.625
       115   02 Jun 2027 20:17:03.117   02 Jun 2027 20:19:13.746           130.629              Murmansk1          4082.156
       116   02 Jun 2027 20:19:42.411   02 Jun 2027 20:23:30.413           228.002              Murmansk2          7125.062
       117   02 Jun 2027 20:24:20.705   02 Jun 2027 20:24:24.726             4.021              Murmansk2           125.656
       118   02 Jun 2027 22:02:25.043   02 Jun 2027 22:06:05.898           220.855                Anadyr1          6901.719
       119   02 Jun 2027 22:06:12.332   02 Jun 2027 22:09:42.264           209.932               Magadan1          6560.375
       120   02 Jun 2027 22:13:38.418   02 Jun 2027 22:14:05.487            27.069               Magadan1           845.906
       121   02 Jun 2027 22:58:28.322   02 Jun 2027 23:01:05.266           156.944            RioGallegos          4904.500
       122   02 Jun 2027 23:38:14.675   02 Jun 2027 23:39:36.135            81.460                Anadyr2          2545.625
       123   02 Jun 2027 23:39:46.103   02 Jun 2027 23:40:14.137            28.034                Anadyr1           876.063
       124   02 Jun 2027 23:40:20.185   02 Jun 2027 23:41:49.139            88.954                Norilsk          2779.812
       125   02 Jun 2027 23:42:16.808   02 Jun 2027 23:42:30.722            13.914               Magadan2           434.813
       126   02 Jun 2027 23:42:30.722   02 Jun 2027 23:43:36.523            65.801               Magadan1          2056.281
       127   02 Jun 2027 23:45:14.605   02 Jun 2027 23:46:01.413            46.808                Irkutsk          1462.750
       128   02 Jun 2027 23:47:07.191   02 Jun 2027 23:47:37.308            30.117                Irkutsk           941.156
       129   02 Jun 2027 23:48:53.381   02 Jun 2027 23:49:33.037            39.656                Irkutsk          1239.250
       130   03 Jun 2027 00:00:10.422   03 Jun 2027 00:02:08.497           118.075                Sumatra          3689.844
       131   03 Jun 2027 00:32:14.058   03 Jun 2027 00:33:22.771            68.713            RioGallegos          2147.281
       132   03 Jun 2027 00:40:19.169   03 Jun 2027 00:41:08.746            49.577            RioGallegos          1549.281
       133   03 Jun 2027 01:13:31.170   03 Jun 2027 01:13:35.919             4.749                Anadyr1           148.406
       134   03 Jun 2027 01:13:37.129   03 Jun 2027 01:13:57.362            20.233                Anadyr2           632.281
       135   03 Jun 2027 01:14:28.408   03 Jun 2027 01:14:36.145             7.737                Anadyr2           241.781
       136   03 Jun 2027 01:15:13.305   03 Jun 2027 01:16:08.022            54.717                Anadyr2          1709.906
       137   03 Jun 2027 01:16:19.041   03 Jun 2027 01:16:22.919             3.878                Anadyr1           121.188
       138   03 Jun 2027 01:16:32.572   03 Jun 2027 01:18:02.020            89.448                Norilsk          2795.250
       139   03 Jun 2027 01:18:08.570   03 Jun 2027 01:19:55.251           106.681               Magadan1          3333.781
       140   03 Jun 2027 01:20:03.295   03 Jun 2027 01:21:14.711            71.416                Irkutsk          2231.750
       141   03 Jun 2027 01:30:33.443   03 Jun 2027 01:31:18.089            44.646                  Delhi          1395.187
       142   03 Jun 2027 01:32:12.724   03 Jun 2027 01:32:25.546            12.822                  Delhi           400.688
       143   03 Jun 2027 01:33:12.257   03 Jun 2027 01:35:23.826           131.569                  Delhi          4111.531
       144   03 Jun 2027 02:08:09.698   03 Jun 2027 02:10:05.828           116.130            RioGallegos          3629.063
       145   03 Jun 2027 02:52:08.927   03 Jun 2027 02:53:16.597            67.670                Norilsk          2114.687
       146   03 Jun 2027 02:54:43.683   03 Jun 2027 02:54:48.194             4.511                Norilsk           140.969
       147   03 Jun 2027 02:54:59.583   03 Jun 2027 02:55:53.304            53.721              Murmansk1          1678.781
       148   03 Jun 2027 02:55:56.637   03 Jun 2027 02:57:02.259            65.622                Novosib          2050.687
       149   03 Jun 2027 02:57:46.174   03 Jun 2027 02:58:45.276            59.102                Irkutsk          1846.937
       150   03 Jun 2027 03:00:36.664   03 Jun 2027 03:00:53.862            17.198                Norilsk           537.438
       151   03 Jun 2027 03:01:02.149   03 Jun 2027 03:01:14.419            12.270                Irkutsk           383.437
       152   03 Jun 2027 03:01:39.400   03 Jun 2027 03:01:44.962             5.562                Novosib           173.812
       153   03 Jun 2027 03:01:44.963   03 Jun 2027 03:03:09.491            84.528                Norilsk          2641.500
       154   03 Jun 2027 03:03:16.898   03 Jun 2027 03:06:11.035           174.137                  Delhi          5441.781
       155   03 Jun 2027 03:45:15.912   03 Jun 2027 03:50:25.698           309.786            RioGallegos          9680.813
       156   03 Jun 2027 04:37:33.220   03 Jun 2027 04:37:34.935             1.715                Irkutsk            53.594
       157   03 Jun 2027 04:37:57.016   03 Jun 2027 04:40:55.457           178.441              Murmansk2          5576.281
       158   03 Jun 2027 04:41:11.360   03 Jun 2027 04:46:21.106           309.746                  Delhi          9679.562
       159   03 Jun 2027 06:11:09.280   03 Jun 2027 06:11:38.623            29.343                Novosib           916.969
       160   03 Jun 2027 06:14:23.298   03 Jun 2027 06:15:18.002            54.704                Norilsk          1709.500
       161   03 Jun 2027 06:15:25.979   03 Jun 2027 06:16:07.270            41.291              Murmansk2          1290.344
       162   03 Jun 2027 06:16:07.270   03 Jun 2027 06:17:09.991            62.721              Murmansk1          1960.031
       163   03 Jun 2027 06:18:19.004   03 Jun 2027 06:19:34.035            75.031                 Moscow          2344.719
       164   03 Jun 2027 06:33:21.341   03 Jun 2027 06:36:34.800           193.459               CapeTown          6045.594
       165   03 Jun 2027 07:36:22.866   03 Jun 2027 07:37:17.033            54.167                Anadyr1          1692.719
       166   03 Jun 2027 07:37:23.999   03 Jun 2027 07:37:41.365            17.366               Magadan1           542.688
       167   03 Jun 2027 07:37:53.510   03 Jun 2027 07:38:05.205            11.695               Magadan1           365.469
       168   03 Jun 2027 07:38:13.886   03 Jun 2027 07:38:41.862            27.976               Magadan2           874.250
       169   03 Jun 2027 07:38:50.485   03 Jun 2027 07:39:05.953            15.468                Anadyr1           483.375
       170   03 Jun 2027 07:39:39.067   03 Jun 2027 07:39:46.492             7.425                Anadyr1           232.031
       171   03 Jun 2027 07:40:13.076   03 Jun 2027 07:40:29.149            16.073               Magadan2           502.281
       172   03 Jun 2027 07:41:37.737   03 Jun 2027 07:42:24.505            46.768                Anadyr1          1461.500
       173   03 Jun 2027 08:13:25.845   03 Jun 2027 08:17:03.718           217.873               CapeTown          6808.531
       174   03 Jun 2027 09:12:46.312   03 Jun 2027 09:14:53.865           127.553                Anadyr2          3986.031
       175   03 Jun 2027 09:14:58.848   03 Jun 2027 09:16:29.196            90.348                Anadyr2          2823.375
       176   03 Jun 2027 09:26:04.852   03 Jun 2027 09:26:24.852            20.000                 Moscow           625.000
       177   03 Jun 2027 10:45:19.500   03 Jun 2027 10:47:57.685           158.185               Magadan1          4943.281
       178   03 Jun 2027 10:48:21.614   03 Jun 2027 10:49:07.270            45.656               Magadan1          1426.750
       179   03 Jun 2027 10:49:30.145   03 Jun 2027 10:49:41.046            10.901                Norilsk           340.656
       180   03 Jun 2027 10:49:42.737   03 Jun 2027 10:50:00.352            17.615                Irkutsk           550.469
       181   03 Jun 2027 10:50:05.335   03 Jun 2027 10:52:51.282           165.947                Anadyr2          5185.844
       182   03 Jun 2027 10:52:52.632   03 Jun 2027 10:53:23.784            31.152               Magadan1           973.500
       183   03 Jun 2027 10:53:41.385   03 Jun 2027 10:53:48.657             7.272              Murmansk2           227.250
       184   03 Jun 2027 10:54:00.179   03 Jun 2027 10:55:16.754            76.575                Norilsk          2392.969
       185   03 Jun 2027 11:29:14.930   03 Jun 2027 11:30:22.205            67.275            RioGallegos          2102.344
       186   03 Jun 2027 12:07:37.699   03 Jun 2027 12:08:19.902            42.203                Sumatra          1318.844
       187   03 Jun 2027 12:17:28.469   03 Jun 2027 12:20:14.399           165.930                Irkutsk          5185.312
       188   03 Jun 2027 12:22:23.952   03 Jun 2027 12:22:53.692            29.740                Norilsk           929.375
       189   03 Jun 2027 12:23:47.159   03 Jun 2027 12:24:24.705            37.546                Norilsk          1173.312
       190   03 Jun 2027 13:05:42.846   03 Jun 2027 13:07:58.255           135.409            RioGallegos          4231.531
       191   03 Jun 2027 13:14:37.110   03 Jun 2027 13:15:35.226            58.116            RioGallegos          1816.125
       192   03 Jun 2027 13:40:04.514   03 Jun 2027 13:40:21.020            16.506                Sumatra           515.813
       193   03 Jun 2027 13:42:46.102   03 Jun 2027 13:44:51.176           125.074                Sumatra          3908.563
       194   03 Jun 2027 13:54:58.475   03 Jun 2027 13:59:28.596           270.121                Irkutsk          8441.281
       195   03 Jun 2027 15:24:45.892   03 Jun 2027 15:26:23.591            97.699                  Delhi          3053.094
       196   03 Jun 2027 15:32:48.178   03 Jun 2027 15:34:43.102           114.924                  Delhi          3591.375
       197   03 Jun 2027 15:36:50.321   03 Jun 2027 15:38:37.584           107.263                Novosib          3351.969
       198   03 Jun 2027 15:41:50.350   03 Jun 2027 15:42:19.335            28.985                Norilsk           905.781
       199   03 Jun 2027 15:46:11.615   03 Jun 2027 15:46:47.296            35.681                Norilsk          1115.031
       200   03 Jun 2027 15:47:07.390   03 Jun 2027 15:47:16.645             9.255                Norilsk           289.219
       201   03 Jun 2027 17:08:30.791   03 Jun 2027 17:09:38.198            67.407                 Moscow          2106.469
       202   03 Jun 2027 17:11:42.681   03 Jun 2027 17:12:03.274            20.593                 Moscow           643.531
       203   03 Jun 2027 17:12:45.121   03 Jun 2027 17:14:59.299           134.178              Murmansk2          4193.063
       204   03 Jun 2027 17:17:38.339   03 Jun 2027 17:21:52.138           253.799                Norilsk          7931.219
       205   03 Jun 2027 18:47:00.365   03 Jun 2027 18:49:35.488           155.123                 Moscow          4847.594
       206   03 Jun 2027 18:51:19.837   03 Jun 2027 18:51:41.513            21.676                 Moscow           677.375
       207   03 Jun 2027 18:59:18.688   03 Jun 2027 18:59:31.268            12.580              Murmansk2           393.125
       208   03 Jun 2027 19:06:00.889   03 Jun 2027 19:06:03.280             2.391                Anadyr2            74.719
       209   03 Jun 2027 19:09:21.724   03 Jun 2027 19:09:50.747            29.023                Anadyr1           906.969
       210   03 Jun 2027 19:58:16.543   03 Jun 2027 20:00:23.999           127.456               CapeTown          3983.000
       211   03 Jun 2027 20:29:49.105   03 Jun 2027 20:34:13.780           264.675              Murmansk1          8271.094
       212   03 Jun 2027 20:35:01.369   03 Jun 2027 20:36:04.055            62.686              Murmansk2          1958.938
       213   03 Jun 2027 20:42:37.585   03 Jun 2027 20:43:42.147            64.562               Magadan2          2017.563
       214   03 Jun 2027 22:14:26.753   03 Jun 2027 22:18:08.891           222.138                Anadyr1          6941.813
       215   03 Jun 2027 22:18:08.891   03 Jun 2027 22:18:13.397             4.506                Anadyr2           140.812
       216   03 Jun 2027 22:18:27.871   03 Jun 2027 22:20:52.527           144.656               Magadan1          4520.500
       217   03 Jun 2027 22:21:02.712   03 Jun 2027 22:21:31.211            28.499               Magadan2           890.594
       218   03 Jun 2027 22:21:31.211   03 Jun 2027 22:21:36.686             5.475               Magadan1           171.094
       219   03 Jun 2027 22:21:43.586   03 Jun 2027 22:22:24.264            40.678               Magadan1          1271.187
       220   03 Jun 2027 23:09:51.344   03 Jun 2027 23:12:46.447           175.103            RioGallegos          5471.969
       221   03 Jun 2027 23:50:13.983   03 Jun 2027 23:51:44.147            90.164                Anadyr2          2817.625
       222   03 Jun 2027 23:51:46.338   03 Jun 2027 23:51:59.142            12.804                Anadyr1           400.125
       223   03 Jun 2027 23:52:18.629   03 Jun 2027 23:53:42.259            83.630                Norilsk          2613.437
       224   03 Jun 2027 23:53:52.503   03 Jun 2027 23:54:37.973            45.470                Norilsk          1420.938
       225   03 Jun 2027 23:55:20.158   03 Jun 2027 23:56:11.863            51.705               Magadan2          1615.781
       226   03 Jun 2027 23:58:03.843   03 Jun 2027 23:58:28.322            24.479               Magadan1           764.969
       227   03 Jun 2027 23:59:21.934   04 Jun 2027 00:01:01.371            99.437                Irkutsk          3107.406
       228   04 Jun 2027 00:12:58.968   04 Jun 2027 00:14:11.363            72.395                Sumatra          2262.344
       229   04 Jun 2027 00:15:19.090   04 Jun 2027 00:16:06.332            47.242                Sumatra          1476.313
       230   04 Jun 2027 00:44:12.092   04 Jun 2027 00:45:27.233            75.141            RioGallegos          2348.156
       231   04 Jun 2027 01:25:23.506   04 Jun 2027 01:26:32.573            69.067                Anadyr2          2158.344
       232   04 Jun 2027 01:26:32.573   04 Jun 2027 01:27:13.056            40.483                Anadyr1          1265.094
       233   04 Jun 2027 01:27:51.700   04 Jun 2027 01:28:10.435            18.735                Anadyr1           585.469
       234   04 Jun 2027 01:28:22.335   04 Jun 2027 01:30:04.265           101.930                Norilsk          3185.312
       235   04 Jun 2027 01:30:33.814   04 Jun 2027 01:31:26.878            53.064               Magadan1          1658.250
       236   04 Jun 2027 01:32:03.689   04 Jun 2027 01:33:58.397           114.708                Irkutsk          3584.625
       237   04 Jun 2027 01:39:29.524   04 Jun 2027 01:40:31.300            61.776                Novosib          1930.500
       238   04 Jun 2027 01:46:12.567   04 Jun 2027 01:48:39.419           146.852                Sumatra          4589.125
       239   04 Jun 2027 02:22:07.488   04 Jun 2027 02:22:32.226            24.738            RioGallegos           773.063
       240   04 Jun 2027 02:25:04.257   04 Jun 2027 02:25:38.898            34.641            RioGallegos          1082.531
       241   04 Jun 2027 02:31:35.715   04 Jun 2027 02:32:00.268            24.553            RioGallegos           767.281
       242   04 Jun 2027 03:08:46.864   04 Jun 2027 03:08:59.765            12.901               Magadan2           403.156
       243   04 Jun 2027 03:11:06.344   04 Jun 2027 03:12:40.543            94.199                Norilsk          2943.719
       244   04 Jun 2027 03:12:53.863   04 Jun 2027 03:13:26.521            32.658              Murmansk1          1020.563
       245   04 Jun 2027 03:13:36.603   04 Jun 2027 03:13:50.614            14.011                Novosib           437.844
       246   04 Jun 2027 03:13:57.750   04 Jun 2027 03:14:14.684            16.934                Norilsk           529.188
       247   04 Jun 2027 03:14:44.131   04 Jun 2027 03:17:00.906           136.775                Norilsk          4274.219
       248   04 Jun 2027 03:17:33.519   04 Jun 2027 03:17:57.630            24.111                Novosib           753.469
       249   04 Jun 2027 03:18:13.923   04 Jun 2027 03:19:17.694            63.771                Irkutsk          1992.844
       250   04 Jun 2027 03:57:39.440   04 Jun 2027 04:02:45.195           305.755            RioGallegos          9554.844
       251   04 Jun 2027 04:32:36.641   04 Jun 2027 04:33:45.079            68.438                Anadyr1          2138.688
       252   04 Jun 2027 04:48:11.353   04 Jun 2027 04:49:20.609            69.256                Irkutsk          2164.250
       253   04 Jun 2027 04:49:27.890   04 Jun 2027 04:49:56.419            28.529              Murmansk1           891.531
       254   04 Jun 2027 04:50:24.537   04 Jun 2027 04:50:25.844             1.307                Norilsk            40.844
       255   04 Jun 2027 04:50:33.203   04 Jun 2027 04:53:26.708           173.505              Murmansk2          5422.031
       256   04 Jun 2027 04:54:17.055   04 Jun 2027 04:58:22.244           245.189                  Delhi          7662.156
       257   04 Jun 2027 06:23:23.374   04 Jun 2027 06:23:42.985            19.611                Novosib           612.844
       258   04 Jun 2027 06:25:20.927   04 Jun 2027 06:25:46.198            25.271              Murmansk2           789.719
       259   04 Jun 2027 06:25:57.871   04 Jun 2027 06:26:52.406            54.535              Murmansk1          1704.219
       260   04 Jun 2027 06:26:53.588   04 Jun 2027 06:27:24.845            31.257              Murmansk2           976.781
       261   04 Jun 2027 06:27:38.933   04 Jun 2027 06:29:04.090            85.157              Murmansk1          2661.156
       262   04 Jun 2027 06:45:26.885   04 Jun 2027 06:48:25.684           178.799               CapeTown          5587.469
       263   04 Jun 2027 07:48:14.208   04 Jun 2027 07:49:18.270            64.062                Anadyr1          2001.937
       264   04 Jun 2027 07:49:35.977   04 Jun 2027 07:49:42.572             6.595               Magadan2           206.094
       265   04 Jun 2027 07:50:09.401   04 Jun 2027 07:51:07.864            58.463                Anadyr2          1826.969
       266   04 Jun 2027 07:53:03.949   04 Jun 2027 07:54:19.382            75.433                Anadyr2          2357.281
       267   04 Jun 2027 09:22:05.455   04 Jun 2027 09:23:14.037            68.582                Anadyr1          2143.188
       268   04 Jun 2027 09:24:53.569   04 Jun 2027 09:26:58.835           125.266                Anadyr1          3914.563
       269   04 Jun 2027 09:26:58.835   04 Jun 2027 09:27:05.656             6.821                Anadyr2           213.156
       270   04 Jun 2027 09:27:23.246   04 Jun 2027 09:29:36.316           133.070               Magadan1          4158.438
       271   04 Jun 2027 11:00:13.759   04 Jun 2027 11:00:35.532            21.773               Magadan1           680.406
       272   04 Jun 2027 11:00:35.532   04 Jun 2027 11:02:54.097           138.565               Magadan2          4330.156
       273   04 Jun 2027 11:03:11.516   04 Jun 2027 11:03:35.472            23.956                Irkutsk           748.625
       274   04 Jun 2027 11:04:01.059   04 Jun 2027 11:04:23.311            22.252                Norilsk           695.375
       275   04 Jun 2027 11:04:27.894   04 Jun 2027 11:04:58.933            31.039                Irkutsk           969.969
       276   04 Jun 2027 11:05:01.332   04 Jun 2027 11:05:10.072             8.740              Murmansk1           273.125
       277   04 Jun 2027 11:05:16.163   04 Jun 2027 11:05:18.352             2.189                Norilsk            68.406
       278   04 Jun 2027 11:05:22.129   04 Jun 2027 11:05:33.029            10.900               Magadan1           340.625
       279   04 Jun 2027 11:05:33.029   04 Jun 2027 11:06:13.009            39.980               Magadan2          1249.375
       280   04 Jun 2027 11:06:20.470   04 Jun 2027 11:06:21.537             1.067              Murmansk2            33.344
       281   04 Jun 2027 11:06:39.225   04 Jun 2027 11:07:27.793            48.568              Murmansk2          1517.750
       282   04 Jun 2027 11:41:08.746   04 Jun 2027 11:42:22.090            73.344            RioGallegos          2292.000
       283   04 Jun 2027 12:17:09.125   04 Jun 2027 12:17:23.580            14.455                Sumatra           451.719
       284   04 Jun 2027 12:22:05.915   04 Jun 2027 12:22:19.439            13.524                Sumatra           422.625
       285   04 Jun 2027 12:26:46.326   04 Jun 2027 12:27:39.322            52.996                Sumatra          1656.125
       286   04 Jun 2027 12:29:29.323   04 Jun 2027 12:30:41.939            72.616                Irkutsk          2269.250
       287   04 Jun 2027 12:31:05.669   04 Jun 2027 12:32:40.020            94.351                Irkutsk          2948.469
       288   04 Jun 2027 12:34:38.509   04 Jun 2027 12:35:12.715            34.206                Norilsk          1068.938
       289   04 Jun 2027 13:18:06.306   04 Jun 2027 13:18:46.594            40.288            RioGallegos          1259.000
       290   04 Jun 2027 13:19:55.208   04 Jun 2027 13:23:11.189           195.981            RioGallegos          6124.406
       291   04 Jun 2027 13:52:22.445   04 Jun 2027 13:54:01.397            98.952                Sumatra          3092.250
       292   04 Jun 2027 14:07:32.749   04 Jun 2027 14:11:07.615           214.866                Irkutsk          6714.563
       293   04 Jun 2027 15:37:15.906   04 Jun 2027 15:42:11.660           295.754                  Delhi          9242.313
       294   04 Jun 2027 15:45:38.671   04 Jun 2027 15:47:59.277           140.606                Novosib          4393.937
       295   04 Jun 2027 15:48:27.399   04 Jun 2027 15:50:17.521           110.122                Novosib          3441.313
       296   04 Jun 2027 17:23:46.038   04 Jun 2027 17:24:37.373            51.335                 Moscow          1604.219
       297   04 Jun 2027 17:26:59.268   04 Jun 2027 17:27:18.510            19.242              Murmansk2           601.312
       298   04 Jun 2027 17:30:40.354   04 Jun 2027 17:33:06.301           145.947                Norilsk          4560.844
       299   04 Jun 2027 17:33:31.962   04 Jun 2027 17:34:03.744            31.782                Norilsk           993.187
       300   04 Jun 2027 18:35:34.206   04 Jun 2027 18:36:06.007            31.801               CapeTown           993.781
       301   04 Jun 2027 18:43:00.587   04 Jun 2027 18:43:18.405            17.818               CapeTown           556.813
       302   04 Jun 2027 18:59:45.019   04 Jun 2027 19:04:14.219           269.200                 Moscow          8412.500
       303   04 Jun 2027 19:07:04.199   04 Jun 2027 19:07:17.354            13.155              Murmansk2           411.094
       304   04 Jun 2027 19:08:56.842   04 Jun 2027 19:09:25.351            28.509              Murmansk1           890.906
       305   04 Jun 2027 19:11:51.534   04 Jun 2027 19:12:08.757            17.223              Murmansk1           538.219
       306   04 Jun 2027 20:10:32.444   04 Jun 2027 20:12:01.082            88.638               CapeTown          2769.937
       307   04 Jun 2027 20:13:34.737   04 Jun 2027 20:14:20.623            45.886               CapeTown          1433.938
       308   04 Jun 2027 20:15:18.005   04 Jun 2027 20:15:23.592             5.587               CapeTown           174.594
       309   04 Jun 2027 20:42:41.004   04 Jun 2027 20:48:07.369           326.365              Murmansk1         10198.906
       310   04 Jun 2027 21:03:14.498   04 Jun 2027 21:03:44.080            29.582               Magadan2           924.437
       311   04 Jun 2027 22:26:28.322   04 Jun 2027 22:31:47.266           318.944                Anadyr1          9967.000
       312   04 Jun 2027 22:31:59.088   04 Jun 2027 22:33:23.045            83.957               Magadan1          2623.656
       313   04 Jun 2027 22:33:28.856   04 Jun 2027 22:34:11.365            42.509               Magadan1          1328.406
       314   04 Jun 2027 22:41:32.375   04 Jun 2027 22:41:37.693             5.318               Magadan1           166.188
       315   04 Jun 2027 23:21:26.789   04 Jun 2027 23:23:14.534           107.745            RioGallegos          3367.031
       316   04 Jun 2027 23:23:43.573   04 Jun 2027 23:24:38.740            55.167            RioGallegos          1723.969
       317   04 Jun 2027 23:26:46.980   04 Jun 2027 23:27:41.080            54.100            RioGallegos          1690.625
       318   05 Jun 2027 00:02:12.710   05 Jun 2027 00:03:22.948            70.238                Anadyr2          2194.938
       319   05 Jun 2027 00:03:25.165   05 Jun 2027 00:03:41.506            16.341                Anadyr1           510.656
       320   05 Jun 2027 00:04:18.069   05 Jun 2027 00:05:52.570            94.501                Norilsk          2953.156
       321   05 Jun 2027 00:05:58.254   05 Jun 2027 00:06:43.763            45.509               Magadan1          1422.156
       322   05 Jun 2027 00:08:46.286   05 Jun 2027 00:09:59.755            73.469                Irkutsk          2295.906
       323   05 Jun 2027 00:11:01.479   05 Jun 2027 00:13:13.471           131.992                Irkutsk          4124.750
       324   05 Jun 2027 00:23:11.731   05 Jun 2027 00:23:51.050            39.319                Sumatra          1228.719
       325   05 Jun 2027 00:28:51.400   05 Jun 2027 00:29:36.832            45.432                Sumatra          1419.750
       326   05 Jun 2027 00:56:11.379   05 Jun 2027 00:56:24.540            13.161            RioGallegos           411.281
       327   05 Jun 2027 00:58:50.348   05 Jun 2027 00:59:22.233            31.885            RioGallegos           996.406
       328   05 Jun 2027 01:03:43.736   05 Jun 2027 01:03:53.117             9.381            RioGallegos           293.156
       329   05 Jun 2027 01:05:04.517   05 Jun 2027 01:05:45.837            41.320            RioGallegos          1291.250
       330   05 Jun 2027 01:37:14.570   05 Jun 2027 01:37:55.811            41.241                Anadyr2          1288.781
       331   05 Jun 2027 01:37:55.811   05 Jun 2027 01:38:30.774            34.963                Anadyr1          1092.594
       332   05 Jun 2027 01:39:12.868   05 Jun 2027 01:39:36.437            23.569                Anadyr2           736.531
       333   05 Jun 2027 01:40:03.059   05 Jun 2027 01:40:20.042            16.983                Anadyr1           530.719
       334   05 Jun 2027 01:40:38.358   05 Jun 2027 01:41:42.744            64.386                Norilsk          2012.062
       335   05 Jun 2027 01:41:54.489   05 Jun 2027 01:42:06.310            11.821                Norilsk           369.406
       336   05 Jun 2027 01:42:57.218   05 Jun 2027 01:43:44.873            47.655               Magadan2          1489.219
       337   05 Jun 2027 01:44:05.018   05 Jun 2027 01:45:17.410            72.392                Irkutsk          2262.250
       338   05 Jun 2027 01:45:55.556   05 Jun 2027 01:46:52.226            56.670                Novosib          1770.937
       339   05 Jun 2027 01:50:14.474   05 Jun 2027 01:50:37.840            23.366                Novosib           730.187
       340   05 Jun 2027 01:52:52.366   05 Jun 2027 01:53:13.463            21.097                  Delhi           659.281
       341   05 Jun 2027 01:55:44.820   05 Jun 2027 01:56:03.558            18.738                  Delhi           585.562
       342   05 Jun 2027 01:58:34.336   05 Jun 2027 02:02:41.928           247.592                Sumatra          7737.250
       343   05 Jun 2027 03:20:44.092   05 Jun 2027 03:20:58.405            14.313               Magadan2           447.281
       344   05 Jun 2027 03:23:28.656   05 Jun 2027 03:23:53.404            24.748              Murmansk2           773.375
       345   05 Jun 2027 03:24:16.814   05 Jun 2027 03:24:38.939            22.125                Irkutsk           691.406
       346   05 Jun 2027 03:24:39.669   05 Jun 2027 03:25:17.882            38.213              Murmansk1          1194.156
       347   05 Jun 2027 03:25:21.388   05 Jun 2027 03:25:44.339            22.951                Norilsk           717.219
       348   05 Jun 2027 03:25:56.586   05 Jun 2027 03:26:06.456             9.870              Murmansk1           308.438
       349   05 Jun 2027 03:26:11.888   05 Jun 2027 03:26:39.411            27.523                Norilsk           860.094
       350   05 Jun 2027 03:27:05.604   05 Jun 2027 03:27:12.877             7.273                Norilsk           227.281
       351   05 Jun 2027 03:27:18.430   05 Jun 2027 03:28:16.159            57.729                Irkutsk          1804.031
       352   05 Jun 2027 03:28:56.945   05 Jun 2027 03:30:15.061            78.116                Novosib          2441.125
       353   05 Jun 2027 03:30:17.042   05 Jun 2027 03:30:53.059            36.017                Irkutsk          1125.531
       354   05 Jun 2027 04:10:14.119   05 Jun 2027 04:14:10.176           236.057            RioGallegos          7376.781
       355   05 Jun 2027 04:50:01.981   05 Jun 2027 04:50:14.736            12.755               Magadan2           398.594
       356   05 Jun 2027 04:50:42.983   05 Jun 2027 04:50:52.313             9.330               Magadan2           291.563
       357   05 Jun 2027 04:59:32.685   05 Jun 2027 05:00:04.442            31.757                Norilsk           992.406
       358   05 Jun 2027 05:00:37.455   05 Jun 2027 05:00:55.082            17.627                Norilsk           550.844
       359   05 Jun 2027 05:01:04.117   05 Jun 2027 05:01:12.055             7.938              Murmansk2           248.063
       360   05 Jun 2027 05:01:38.347   05 Jun 2027 05:01:40.124             1.777                Norilsk            55.531
       361   05 Jun 2027 05:01:50.747   05 Jun 2027 05:01:52.160             1.413                Norilsk            44.156
       362   05 Jun 2027 05:02:01.104   05 Jun 2027 05:03:16.312            75.208              Murmansk2          2350.250
       363   05 Jun 2027 05:03:19.969   05 Jun 2027 05:03:30.926            10.957                 Moscow           342.406
       364   05 Jun 2027 05:03:34.819   05 Jun 2027 05:04:04.402            29.583              Murmansk1           924.469
       365   05 Jun 2027 05:04:09.144   05 Jun 2027 05:04:30.882            21.738                Norilsk           679.313
       366   05 Jun 2027 05:04:39.571   05 Jun 2027 05:04:51.223            11.652                 Moscow           364.125
       367   05 Jun 2027 05:05:46.683   05 Jun 2027 05:05:48.097             1.414              Murmansk2            44.187
       368   05 Jun 2027 05:22:53.093   05 Jun 2027 05:24:00.655            67.562               CapeTown          2111.312
       369   05 Jun 2027 05:26:30.928   05 Jun 2027 05:27:27.813            56.885               CapeTown          1777.656
       370   05 Jun 2027 06:36:47.393   05 Jun 2027 06:37:14.102            26.709                 Moscow           834.656
       371   05 Jun 2027 06:37:18.882   05 Jun 2027 06:38:52.536            93.654              Murmansk1          2926.688
       372   05 Jun 2027 06:39:04.062   05 Jun 2027 06:39:24.120            20.058              Murmansk2           626.812
       373   05 Jun 2027 06:39:27.690   05 Jun 2027 06:39:58.234            30.544              Murmansk2           954.500
       374   05 Jun 2027 06:39:58.851   05 Jun 2027 06:40:58.018            59.167                 Moscow          1848.969
       375   05 Jun 2027 06:57:37.834   05 Jun 2027 06:59:31.409           113.575               CapeTown          3549.219
       376   05 Jun 2027 08:00:30.186   05 Jun 2027 08:01:27.695            57.509               Magadan2          1797.156
       377   05 Jun 2027 08:01:32.913   05 Jun 2027 08:02:42.757            69.844               Magadan2          2182.625
       378   05 Jun 2027 08:02:54.272   05 Jun 2027 08:03:39.411            45.139               Magadan1          1410.594
       379   05 Jun 2027 08:05:03.923   05 Jun 2027 08:06:12.248            68.325                Anadyr2          2135.156
       380   05 Jun 2027 09:31:59.504   05 Jun 2027 09:33:06.504            67.000               Magadan2          2093.750
       381   05 Jun 2027 09:33:11.809   05 Jun 2027 09:33:19.510             7.701                Anadyr1           240.656
       382   05 Jun 2027 09:36:48.140   05 Jun 2027 09:39:47.223           179.083                Anadyr2          5596.344
       383   05 Jun 2027 09:40:07.747   05 Jun 2027 09:42:43.666           155.919                Anadyr2          4872.469
       384   05 Jun 2027 11:07:54.633   05 Jun 2027 11:08:32.443            37.810               Magadan1          1181.562
       385   05 Jun 2027 11:12:03.088   05 Jun 2027 11:13:19.803            76.715               Magadan2          2397.344
       386   05 Jun 2027 11:13:19.803   05 Jun 2027 11:14:59.808           100.005               Magadan1          3125.156
       387   05 Jun 2027 11:14:59.808   05 Jun 2027 11:17:52.515           172.707               Magadan2          5397.094
       388   05 Jun 2027 11:18:13.310   05 Jun 2027 11:18:22.063             8.753              Murmansk1           273.531
       389   05 Jun 2027 11:19:27.751   05 Jun 2027 11:19:54.238            26.487              Murmansk1           827.719
       390   05 Jun 2027 11:53:05.817   05 Jun 2027 11:54:20.815            74.998            RioGallegos          2343.687
       391   05 Jun 2027 12:28:42.368   05 Jun 2027 12:29:11.968            29.600                Sumatra           925.000
       392   05 Jun 2027 12:41:33.483   05 Jun 2027 12:45:45.801           252.318                Irkutsk          7884.938
       393   05 Jun 2027 12:51:18.746   05 Jun 2027 12:51:38.884            20.138                Norilsk           629.312
       394   05 Jun 2027 13:30:35.038   05 Jun 2027 13:31:57.512            82.474            RioGallegos          2577.313
       395   05 Jun 2027 13:35:01.362   05 Jun 2027 13:35:31.055            29.693            RioGallegos           927.906
       396   05 Jun 2027 14:04:48.523   05 Jun 2027 14:09:51.315           302.792                Sumatra          9462.250
       397   05 Jun 2027 14:20:14.258   05 Jun 2027 14:20:49.399            35.141                Irkutsk          1098.156
       398   05 Jun 2027 14:22:37.152   05 Jun 2027 14:24:49.008           131.856                Irkutsk          4120.500
       399   05 Jun 2027 15:49:56.447   05 Jun 2027 15:52:03.011           126.564                  Delhi          3955.125
       400   05 Jun 2027 15:56:27.757   05 Jun 2027 15:57:15.715            47.958                  Delhi          1498.688
       401   05 Jun 2027 15:58:25.164   05 Jun 2027 16:02:51.448           266.284                Novosib          8321.375
       402   05 Jun 2027 17:32:49.833   05 Jun 2027 17:33:28.629            38.796                 Moscow          1212.375
       403   05 Jun 2027 17:35:45.607   05 Jun 2027 17:37:17.988            92.381                 Moscow          2886.906
       404   05 Jun 2027 17:38:58.591   05 Jun 2027 17:39:20.743            22.152              Murmansk1           692.250
       405   05 Jun 2027 17:39:44.935   05 Jun 2027 17:39:47.212             2.277              Murmansk1            71.156
       406   05 Jun 2027 17:44:09.904   05 Jun 2027 17:45:36.824            86.920                Norilsk          2716.250
       407   05 Jun 2027 17:51:46.930   05 Jun 2027 17:52:12.411            25.481                Anadyr2           796.281
       408   05 Jun 2027 18:46:06.746   05 Jun 2027 18:47:56.022           109.276               CapeTown          3414.875
       409   05 Jun 2027 18:52:02.266   05 Jun 2027 18:52:39.449            37.183               CapeTown          1161.969
       410   05 Jun 2027 19:12:39.656   05 Jun 2027 19:16:53.095           253.439                 Moscow          7919.969
       411   05 Jun 2027 19:19:48.194   05 Jun 2027 19:20:11.412            23.218              Murmansk1           725.562
       412   05 Jun 2027 19:24:48.412   05 Jun 2027 19:24:51.527             3.115              Murmansk2            97.344
       413   05 Jun 2027 20:22:53.218   05 Jun 2027 20:28:03.211           309.993               CapeTown          9687.281
       414   05 Jun 2027 20:55:42.047   05 Jun 2027 20:59:43.397           241.350              Murmansk2          7542.188
       415   05 Jun 2027 22:38:29.714   05 Jun 2027 22:42:18.983           229.269                Anadyr2          7164.656
       416   05 Jun 2027 22:42:19.540   05 Jun 2027 22:44:21.147           121.607                Norilsk          3800.219
       417   05 Jun 2027 22:44:28.652   05 Jun 2027 22:46:02.241            93.589               Magadan1          2924.656
       418   05 Jun 2027 22:50:59.852   05 Jun 2027 22:51:25.701            25.849               Magadan1           807.781
       419   05 Jun 2027 23:33:09.246   05 Jun 2027 23:35:49.886           160.640            RioGallegos          5020.000
       420   05 Jun 2027 23:38:31.365   05 Jun 2027 23:38:37.585             6.220            RioGallegos           194.375
       421   06 Jun 2027 00:14:10.793   06 Jun 2027 00:16:27.147           136.354                Anadyr1          4261.062
       422   06 Jun 2027 00:16:27.147   06 Jun 2027 00:17:02.395            35.248                Anadyr2          1101.500
       423   06 Jun 2027 00:17:14.732   06 Jun 2027 00:18:07.700            52.968                Norilsk          1655.250
       424   06 Jun 2027 00:18:31.118   06 Jun 2027 00:19:58.816            87.698               Magadan2          2740.562
       425   06 Jun 2027 00:20:37.383   06 Jun 2027 00:22:00.447            83.064                Irkutsk          2595.750
       426   06 Jun 2027 00:23:31.397   06 Jun 2027 00:24:11.784            40.387                Irkutsk          1262.094
       427   06 Jun 2027 00:25:13.287   06 Jun 2027 00:25:55.173            41.886                Novosib          1308.937
       428   06 Jun 2027 00:34:32.135   06 Jun 2027 00:35:10.799            38.664                Sumatra          1208.250
       429   06 Jun 2027 00:36:18.229   06 Jun 2027 00:36:40.312            22.083                Sumatra           690.094
       430   06 Jun 2027 00:40:59.745   06 Jun 2027 00:41:01.216             1.471                Sumatra            45.969
       431   06 Jun 2027 00:41:46.087   06 Jun 2027 00:42:05.150            19.063                Sumatra           595.719
       432   06 Jun 2027 00:44:40.275   06 Jun 2027 00:46:12.189            91.914                Sumatra          2872.312
       433   06 Jun 2027 01:16:58.306   06 Jun 2027 01:17:38.887            40.581            RioGallegos          1268.156
       434   06 Jun 2027 01:49:04.310   06 Jun 2027 01:49:40.514            36.204                Anadyr1          1131.375
       435   06 Jun 2027 01:49:40.514   06 Jun 2027 01:50:07.427            26.913                Anadyr2           841.031
       436   06 Jun 2027 01:50:30.804   06 Jun 2027 01:51:13.609            42.805                Anadyr1          1337.656
       437   06 Jun 2027 01:52:14.707   06 Jun 2027 01:52:34.911            20.204                Norilsk           631.375
       438   06 Jun 2027 01:52:56.062   06 Jun 2027 01:53:53.491            57.429               Magadan2          1794.656
       439   06 Jun 2027 01:54:26.439   06 Jun 2027 01:54:37.330            10.891               Magadan2           340.344
       440   06 Jun 2027 01:56:07.201   06 Jun 2027 01:58:59.084           171.883                Irkutsk          5371.344
       441   06 Jun 2027 02:04:24.669   06 Jun 2027 02:04:37.633            12.964                  Delhi           405.125
       442   06 Jun 2027 02:07:28.836   06 Jun 2027 02:07:33.076             4.240                  Delhi           132.500
       443   06 Jun 2027 02:08:02.080   06 Jun 2027 02:08:24.702            22.622                  Delhi           706.937
       444   06 Jun 2027 02:11:05.391   06 Jun 2027 02:16:00.215           294.824                Sumatra          9213.250
       445   06 Jun 2027 03:35:20.852   06 Jun 2027 03:35:48.689            27.837              Murmansk1           869.906
       446   06 Jun 2027 03:36:26.018   06 Jun 2027 03:36:55.180            29.162                Norilsk           911.313
       447   06 Jun 2027 03:36:57.579   06 Jun 2027 03:37:05.644             8.065              Murmansk1           252.031
       448   06 Jun 2027 03:37:07.243   06 Jun 2027 03:37:29.463            22.220                 Moscow           694.375
       449   06 Jun 2027 03:37:36.188   06 Jun 2027 03:37:44.674             8.486                Norilsk           265.187
       450   06 Jun 2027 03:37:51.097   06 Jun 2027 03:39:12.978            81.881                Norilsk          2558.781
       451   06 Jun 2027 03:39:14.452   06 Jun 2027 03:39:23.587             9.135                 Moscow           285.469
       452   06 Jun 2027 03:39:31.309   06 Jun 2027 03:44:29.240           297.931                  Delhi          9310.344
       453   06 Jun 2027 05:13:04.520   06 Jun 2027 05:13:10.384             5.864              Murmansk2           183.250
       454   06 Jun 2027 05:13:31.489   06 Jun 2027 05:14:02.339            30.850                 Moscow           964.063
       455   06 Jun 2027 05:14:03.232   06 Jun 2027 05:14:15.577            12.345              Murmansk2           385.781
       456   06 Jun 2027 05:14:15.577   06 Jun 2027 05:15:14.067            58.490              Murmansk1          1827.813
       457   06 Jun 2027 05:15:20.470   06 Jun 2027 05:15:57.780            37.310              Murmansk1          1165.937
       458   06 Jun 2027 05:15:57.780   06 Jun 2027 05:16:44.871            47.091              Murmansk2          1471.594
       459   06 Jun 2027 05:18:07.579   06 Jun 2027 05:18:15.330             7.751                 Moscow           242.219
       460   06 Jun 2027 05:19:03.821   06 Jun 2027 05:19:20.655            16.834                 Moscow           526.063
       461   06 Jun 2027 05:20:15.143   06 Jun 2027 05:20:27.251            12.108                 Moscow           378.375
       462   06 Jun 2027 05:21:03.173   06 Jun 2027 05:21:20.442            17.269                 Moscow           539.656
       463   06 Jun 2027 05:34:26.689   06 Jun 2027 05:35:27.712            61.023               CapeTown          1906.969
       464   06 Jun 2027 05:37:59.211   06 Jun 2027 05:38:28.466            29.255               CapeTown           914.219
       465   06 Jun 2027 05:40:43.844   06 Jun 2027 05:41:01.581            17.737               CapeTown           554.281
       466   06 Jun 2027 06:48:01.008   06 Jun 2027 06:48:17.997            16.989                Novosib           530.906
       467   06 Jun 2027 06:48:43.529   06 Jun 2027 06:49:55.116            71.587                 Moscow          2237.094
       468   06 Jun 2027 06:50:08.365   06 Jun 2027 06:51:33.859            85.494                 Moscow          2671.688
       469   06 Jun 2027 06:51:40.396   06 Jun 2027 06:52:07.160            26.764                 Moscow           836.375
       470   06 Jun 2027 06:52:55.884   06 Jun 2027 06:53:45.192            49.308              Murmansk1          1540.875
       471   06 Jun 2027 06:53:59.430   06 Jun 2027 06:54:31.724            32.294                 Moscow          1009.187
       472   06 Jun 2027 07:09:54.662   06 Jun 2027 07:10:29.100            34.438               CapeTown          1076.187
       473   06 Jun 2027 07:12:22.928   06 Jun 2027 07:14:54.552           151.624               CapeTown          4738.250
       474   06 Jun 2027 08:13:02.396   06 Jun 2027 08:13:32.232            29.836               Magadan1           932.375
       475   06 Jun 2027 08:14:40.671   06 Jun 2027 08:15:29.488            48.817                Anadyr2          1525.531
       476   06 Jun 2027 08:15:29.488   06 Jun 2027 08:16:16.531            47.043                Anadyr1          1470.094
       477   06 Jun 2027 08:28:33.906   06 Jun 2027 08:28:38.500             4.594                 Moscow           143.562
       478   06 Jun 2027 08:28:45.188   06 Jun 2027 08:28:48.050             2.862                 Moscow            89.438
       479   06 Jun 2027 09:01:50.075   06 Jun 2027 09:02:10.769            20.694            RioGallegos           646.687
       480   06 Jun 2027 09:46:35.858   06 Jun 2027 09:47:29.758            53.900               Magadan1          1684.375
       481   06 Jun 2027 09:48:40.500   06 Jun 2027 09:49:57.900            77.400                Anadyr1          2418.750
       482   06 Jun 2027 09:49:57.900   06 Jun 2027 09:51:48.815           110.915                Anadyr2          3466.094
