uniorb/output/strategy_2/Drop/Drop_KinoSat_110701.txt

KinoSat_110701
-------------------------
    Access    *     Start Time (UTCG)     *     Stop Time (UTCG)  *   Duration (s)        *       Station  *  Data (Mbytes)
         1   01 Jun 2027 04:18:43.249   01 Jun 2027 04:19:19.460            36.211                Irkutsk          1131.594
         2   01 Jun 2027 04:20:39.886   01 Jun 2027 04:22:07.181            87.295                Anadyr2          2727.969
         3   01 Jun 2027 05:01:06.446   01 Jun 2027 05:02:34.135            87.689            RioGallegos          2740.281
         4   01 Jun 2027 05:56:03.864   01 Jun 2027 05:57:54.489           110.625                Irkutsk          3457.031
         5   01 Jun 2027 05:58:39.832   01 Jun 2027 05:58:51.345            11.513                Norilsk           359.781
         6   01 Jun 2027 05:58:55.576   01 Jun 2027 05:59:40.539            44.963               Magadan1          1405.094
         7   01 Jun 2027 05:59:45.078   01 Jun 2027 05:59:52.485             7.407               Magadan1           231.469
         8   01 Jun 2027 05:59:57.933   01 Jun 2027 06:00:40.278            42.345              Murmansk1          1323.281
         9   01 Jun 2027 06:00:40.278   01 Jun 2027 06:01:02.462            22.184              Murmansk2           693.250
        10   01 Jun 2027 06:34:53.326   01 Jun 2027 06:37:09.118           135.792            RioGallegos          4243.500
        11   01 Jun 2027 07:10:33.558   01 Jun 2027 07:14:06.225           212.667                Sumatra          6645.844
        12   01 Jun 2027 07:30:44.386   01 Jun 2027 07:31:05.076            20.690                Irkutsk           646.562
        13   01 Jun 2027 07:32:00.602   01 Jun 2027 07:33:20.169            79.567                Irkutsk          2486.469
        14   01 Jun 2027 07:34:34.051   01 Jun 2027 07:34:54.309            20.258                Novosib           633.063
        15   01 Jun 2027 07:35:30.114   01 Jun 2027 07:38:38.429           188.315              Murmansk2          5884.844
        16   01 Jun 2027 07:39:02.878   01 Jun 2027 07:39:02.884             0.006              Murmansk1             0.188
        17   01 Jun 2027 07:39:58.051   01 Jun 2027 07:40:37.021            38.970              Murmansk1          1217.812
        18   01 Jun 2027 08:12:19.087   01 Jun 2027 08:13:06.179            47.092            RioGallegos          1471.625
        19   01 Jun 2027 08:14:43.151   01 Jun 2027 08:15:22.735            39.584            RioGallegos          1237.000
        20   01 Jun 2027 08:46:30.935   01 Jun 2027 08:47:04.541            33.606                Sumatra          1050.188
        21   01 Jun 2027 08:47:59.115   01 Jun 2027 08:49:10.466            71.351                Sumatra          2229.719
        22   01 Jun 2027 08:54:11.871   01 Jun 2027 08:57:53.092           221.221                  Delhi          6913.156
        23   01 Jun 2027 09:09:52.551   01 Jun 2027 09:10:33.256            40.705                Irkutsk          1272.031
        24   01 Jun 2027 09:10:39.583   01 Jun 2027 09:10:56.335            16.752                Novosib           523.500
        25   01 Jun 2027 09:11:08.315   01 Jun 2027 09:14:47.749           219.434              Murmansk2          6857.313
        26   01 Jun 2027 09:14:47.749   01 Jun 2027 09:15:14.314            26.565              Murmansk1           830.156
        27   01 Jun 2027 10:31:37.671   01 Jun 2027 10:33:32.918           115.247                  Delhi          3601.469
        28   01 Jun 2027 10:45:35.932   01 Jun 2027 10:45:50.188            14.256                 Moscow           445.500
        29   01 Jun 2027 10:45:58.685   01 Jun 2027 10:48:49.807           171.122              Murmansk2          5347.562
        30   01 Jun 2027 10:48:49.807   01 Jun 2027 10:50:35.956           106.149              Murmansk1          3317.156
        31   01 Jun 2027 12:14:35.764   01 Jun 2027 12:15:40.778            65.014                 Moscow          2031.687
        32   01 Jun 2027 12:16:47.281   01 Jun 2027 12:17:32.244            44.963                 Moscow          1405.094
        33   01 Jun 2027 12:18:06.007   01 Jun 2027 12:20:59.841           173.834              Murmansk2          5432.313
        34   01 Jun 2027 12:21:20.290   01 Jun 2027 12:22:25.140            64.850              Murmansk2          2026.563
        35   01 Jun 2027 12:22:48.763   01 Jun 2027 12:22:59.838            11.075              Murmansk1           346.094
        36   01 Jun 2027 12:33:43.389   01 Jun 2027 12:37:17.883           214.494                Anadyr2          6702.938
        37   01 Jun 2027 12:38:16.039   01 Jun 2027 12:39:34.434            78.395                Anadyr1          2449.844
        38   01 Jun 2027 13:56:14.676   01 Jun 2027 13:56:42.113            27.437              Murmansk1           857.406
        39   01 Jun 2027 13:58:14.928   01 Jun 2027 13:58:32.102            17.174              Murmansk1           536.688
        40   01 Jun 2027 13:59:29.527   01 Jun 2027 14:00:03.727            34.200              Murmansk2          1068.750
        41   01 Jun 2027 14:08:32.354   01 Jun 2027 14:11:50.674           198.320                Anadyr1          6197.500
        42   01 Jun 2027 14:13:08.729   01 Jun 2027 14:14:36.843            88.114                Anadyr1          2753.562
        43   01 Jun 2027 15:37:58.732   01 Jun 2027 15:38:18.349            19.617              Murmansk2           613.031
        44   01 Jun 2027 15:44:20.795   01 Jun 2027 15:46:31.640           130.845                Anadyr1          4088.906
        45   01 Jun 2027 15:46:59.760   01 Jun 2027 15:51:02.583           242.823               Magadan2          7588.219
        46   01 Jun 2027 15:52:33.559   01 Jun 2027 15:53:27.228            53.669               Magadan2          1677.156
        47   01 Jun 2027 15:56:05.293   01 Jun 2027 15:56:38.122            32.829               Magadan1          1025.906
        48   01 Jun 2027 17:22:32.755   01 Jun 2027 17:24:00.534            87.779               Magadan1          2743.094
        49   01 Jun 2027 17:25:37.226   01 Jun 2027 17:25:37.914             0.688                Norilsk            21.500
        50   01 Jun 2027 17:28:21.952   01 Jun 2027 17:29:18.527            56.575               Magadan2          1767.969
        51   01 Jun 2027 18:15:01.489   01 Jun 2027 18:21:20.278           378.789            RioGallegos         11837.156
        52   01 Jun 2027 18:59:25.499   01 Jun 2027 18:59:58.758            33.259                Norilsk          1039.344
        53   01 Jun 2027 19:02:27.650   01 Jun 2027 19:03:22.284            54.634                Irkutsk          1707.313
        54   01 Jun 2027 19:03:44.360   01 Jun 2027 19:04:19.209            34.849                Irkutsk          1089.031
        55   01 Jun 2027 19:07:51.563   01 Jun 2027 19:08:20.709            29.146                Irkutsk           910.813
        56   01 Jun 2027 19:11:23.390   01 Jun 2027 19:11:56.023            32.633                Irkutsk          1019.781
        57   01 Jun 2027 19:16:22.619   01 Jun 2027 19:17:47.985            85.366                Sumatra          2667.687
        58   01 Jun 2027 19:20:05.085   01 Jun 2027 19:22:39.761           154.676                Sumatra          4833.625
        59   01 Jun 2027 20:41:39.112   01 Jun 2027 20:42:14.473            35.361                Novosib          1105.031
        60   01 Jun 2027 20:44:29.106   01 Jun 2027 20:45:11.844            42.738                Novosib          1335.563
        61   01 Jun 2027 20:46:17.048   01 Jun 2027 20:47:32.038            74.990                  Delhi          2343.438
        62   01 Jun 2027 20:49:08.868   01 Jun 2027 20:49:42.279            33.411                  Delhi          1044.094
        63   01 Jun 2027 20:51:30.623   01 Jun 2027 20:53:04.946            94.323                  Delhi          2947.594
        64   01 Jun 2027 22:12:31.220   01 Jun 2027 22:19:00.032           388.812              Murmansk1         12150.375
        65   01 Jun 2027 22:19:15.156   01 Jun 2027 22:22:27.408           192.252                 Moscow          6007.875
        66   01 Jun 2027 23:49:26.074   01 Jun 2027 23:49:35.101             9.027              Murmansk1           282.094
        67   01 Jun 2027 23:51:36.928   01 Jun 2027 23:51:51.063            14.135              Murmansk2           441.719
        68   01 Jun 2027 23:52:26.738   01 Jun 2027 23:53:36.049            69.311              Murmansk2          2165.969
        69   01 Jun 2027 23:55:05.174   01 Jun 2027 23:55:44.497            39.323                 Moscow          1228.844
        70   01 Jun 2027 23:58:41.655   01 Jun 2027 23:58:50.913             9.258                 Moscow           289.312
        71   01 Jun 2027 23:59:52.737   02 Jun 2027 00:00:09.818            17.081                 Moscow           533.781
        72   02 Jun 2027 00:01:53.809   02 Jun 2027 00:02:46.015            52.206                 Moscow          1631.438
        73   02 Jun 2027 00:17:36.523   02 Jun 2027 00:19:42.516           125.993               CapeTown          3937.281
        74   02 Jun 2027 01:18:00.426   02 Jun 2027 01:18:25.114            24.688               Magadan2           771.500
        75   02 Jun 2027 01:18:29.014   02 Jun 2027 01:18:39.665            10.651               Magadan1           332.844
        76   02 Jun 2027 01:19:57.555   02 Jun 2027 01:20:12.300            14.745               Magadan2           460.781
        77   02 Jun 2027 01:20:50.276   02 Jun 2027 01:21:12.276            22.000               Magadan1           687.500
        78   02 Jun 2027 01:21:23.027   02 Jun 2027 01:21:26.835             3.808               Magadan1           119.000
        79   02 Jun 2027 01:24:08.324   02 Jun 2027 01:25:11.187            62.863              Murmansk1          1964.469
        80   02 Jun 2027 01:27:21.234   02 Jun 2027 01:28:20.771            59.537                 Moscow          1860.531
        81   02 Jun 2027 01:33:40.872   02 Jun 2027 01:33:44.103             3.231              Murmansk1           100.969
        82   02 Jun 2027 01:34:16.382   02 Jun 2027 01:34:23.966             7.584                 Moscow           237.000
        83   02 Jun 2027 01:35:42.385   02 Jun 2027 01:36:03.488            21.103                 Moscow           659.469
        84   02 Jun 2027 01:37:12.694   02 Jun 2027 01:37:38.531            25.837                 Moscow           807.406
        85   02 Jun 2027 01:56:30.675   02 Jun 2027 01:56:40.043             9.368               CapeTown           292.750
        86   02 Jun 2027 01:58:44.096   02 Jun 2027 01:58:46.823             2.727               CapeTown            85.219
        87   02 Jun 2027 02:01:05.579   02 Jun 2027 02:01:25.376            19.797               CapeTown           618.656
        88   02 Jun 2027 02:48:14.278   02 Jun 2027 02:51:00.987           166.709               Magadan1          5209.656
        89   02 Jun 2027 02:51:07.743   02 Jun 2027 02:51:09.913             2.170               Magadan2            67.812
        90   02 Jun 2027 02:51:34.346   02 Jun 2027 02:52:05.818            31.472               Magadan2           983.500
        91   02 Jun 2027 02:53:35.338   02 Jun 2027 02:53:44.813             9.475               Magadan2           296.094
        92   02 Jun 2027 02:55:41.090   02 Jun 2027 02:55:52.087            10.997               Magadan2           343.656
        93   02 Jun 2027 02:56:05.115   02 Jun 2027 02:56:43.871            38.756                Norilsk          1211.125
        94   02 Jun 2027 03:00:01.799   02 Jun 2027 03:00:43.765            41.966              Murmansk1          1311.437
        95   02 Jun 2027 03:43:33.105   02 Jun 2027 03:43:56.109            23.004            RioGallegos           718.875
        96   02 Jun 2027 04:31:46.801   02 Jun 2027 04:32:42.025            55.224                Irkutsk          1725.750
        97   02 Jun 2027 04:34:07.808   02 Jun 2027 04:34:17.776             9.968                Anadyr1           311.500
        98   02 Jun 2027 04:34:28.606   02 Jun 2027 04:34:33.962             5.356               Magadan1           167.375
        99   02 Jun 2027 04:34:45.950   02 Jun 2027 04:35:02.476            16.526                Irkutsk           516.438
       100   02 Jun 2027 04:36:12.788   02 Jun 2027 04:36:14.323             1.535                Norilsk            47.969
       101   02 Jun 2027 05:12:40.025   02 Jun 2027 05:15:53.141           193.116            RioGallegos          6034.875
       102   02 Jun 2027 06:07:31.475   02 Jun 2027 06:09:39.978           128.503               Magadan1          4015.719
       103   02 Jun 2027 06:09:44.312   02 Jun 2027 06:10:45.351            61.039               Magadan2          1907.469
       104   02 Jun 2027 06:10:57.149   02 Jun 2027 06:13:07.240           130.091              Murmansk2          4065.344
       105   02 Jun 2027 06:46:52.960   02 Jun 2027 06:48:17.319            84.359            RioGallegos          2636.219
       106   02 Jun 2027 07:22:13.523   02 Jun 2027 07:26:05.335           231.812                Sumatra          7244.125
       107   02 Jun 2027 07:34:58.299   02 Jun 2027 07:36:07.653            69.354                  Delhi          2167.312
       108   02 Jun 2027 07:44:41.939   02 Jun 2027 07:45:20.435            38.496                Norilsk          1203.000
       109   02 Jun 2027 07:45:24.649   02 Jun 2027 07:47:03.877            99.228                Novosib          3100.875
       110   02 Jun 2027 07:47:32.038   02 Jun 2027 07:47:53.495            21.457                Norilsk           670.531
       111   02 Jun 2027 07:47:55.255   02 Jun 2027 07:49:25.890            90.635                Novosib          2832.344
       112   02 Jun 2027 07:49:34.952   02 Jun 2027 07:49:37.874             2.922                Norilsk            91.312
       113   02 Jun 2027 07:49:43.518   02 Jun 2027 07:51:49.985           126.467              Murmansk2          3952.094
       114   02 Jun 2027 07:52:34.357   02 Jun 2027 07:53:11.075            36.718              Murmansk1          1147.437
       115   02 Jun 2027 08:24:52.663   02 Jun 2027 08:25:53.808            61.145            RioGallegos          1910.781
       116   02 Jun 2027 08:59:05.149   02 Jun 2027 09:01:44.641           159.492                Sumatra          4984.125
       117   02 Jun 2027 09:06:03.789   02 Jun 2027 09:09:10.086           186.297                  Delhi          5821.781
       118   02 Jun 2027 09:10:18.246   02 Jun 2027 09:10:26.494             8.248                  Delhi           257.750
       119   02 Jun 2027 09:21:09.610   02 Jun 2027 09:21:24.153            14.543              Murmansk2           454.469
       120   02 Jun 2027 09:21:24.153   02 Jun 2027 09:21:48.886            24.733              Murmansk1           772.906
       121   02 Jun 2027 09:22:06.571   02 Jun 2027 09:23:04.152            57.581                Norilsk          1799.406
       122   02 Jun 2027 09:23:29.335   02 Jun 2027 09:23:53.011            23.676                Norilsk           739.875
       123   02 Jun 2027 09:24:06.634   02 Jun 2027 09:25:25.169            78.535                 Moscow          2454.219
       124   02 Jun 2027 09:25:35.388   02 Jun 2027 09:25:53.535            18.147                 Moscow           567.094
       125   02 Jun 2027 10:44:30.362   02 Jun 2027 10:46:21.213           110.851                  Delhi          3464.094
       126   02 Jun 2027 10:47:58.156   02 Jun 2027 10:48:21.379            23.223                  Delhi           725.719
       127   02 Jun 2027 10:55:34.209   02 Jun 2027 10:55:59.003            24.794                 Moscow           774.812
       128   02 Jun 2027 10:56:13.917   02 Jun 2027 10:56:34.609            20.692                Novosib           646.625
       129   02 Jun 2027 10:56:45.580   02 Jun 2027 10:57:11.139            25.559              Murmansk1           798.719
       130   02 Jun 2027 10:57:14.364   02 Jun 2027 10:57:59.966            45.602                 Moscow          1425.063
       131   02 Jun 2027 10:58:01.785   02 Jun 2027 10:58:08.648             6.863              Murmansk2           214.469
       132   02 Jun 2027 10:58:09.273   02 Jun 2027 10:58:31.444            22.171              Murmansk1           692.844
       133   02 Jun 2027 10:58:34.485   02 Jun 2027 10:59:24.752            50.267              Murmansk1          1570.844
       134   02 Jun 2027 10:59:46.889   02 Jun 2027 11:00:10.947            24.058                 Moscow           751.812
       135   02 Jun 2027 11:00:26.329   02 Jun 2027 11:00:27.691             1.362                Norilsk            42.562
       136   02 Jun 2027 11:00:36.976   02 Jun 2027 11:00:51.399            14.423              Murmansk2           450.719
       137   02 Jun 2027 11:01:18.545   02 Jun 2027 11:01:27.506             8.961                 Moscow           280.031
       138   02 Jun 2027 11:01:51.375   02 Jun 2027 11:02:36.523            45.148              Murmansk2          1410.875
       139   02 Jun 2027 12:07:09.512   02 Jun 2027 12:09:12.211           122.699               CapeTown          3834.344
       140   02 Jun 2027 12:12:27.405   02 Jun 2027 12:12:41.729            14.324               CapeTown           447.625
       141   02 Jun 2027 12:26:49.484   02 Jun 2027 12:27:39.177            49.693                 Moscow          1552.906
       142   02 Jun 2027 12:30:16.894   02 Jun 2027 12:32:54.105           157.211              Murmansk2          4912.844
       143   02 Jun 2027 12:33:40.261   02 Jun 2027 12:34:26.666            46.405              Murmansk1          1450.156
       144   02 Jun 2027 12:45:25.806   02 Jun 2027 12:49:11.796           225.990                Anadyr1          7062.188
       145   02 Jun 2027 12:50:34.637   02 Jun 2027 12:52:28.927           114.290                Anadyr2          3571.563
       146   02 Jun 2027 14:08:42.871   02 Jun 2027 14:09:01.584            18.713              Murmansk2           584.781
       147   02 Jun 2027 14:10:16.242   02 Jun 2027 14:10:48.528            32.286              Murmansk2          1008.937
       148   02 Jun 2027 14:20:31.483   02 Jun 2027 14:22:09.978            98.495                Anadyr1          3077.969
       149   02 Jun 2027 14:22:16.771   02 Jun 2027 14:24:04.604           107.833                Anadyr2          3369.781
       150   02 Jun 2027 14:26:05.283   02 Jun 2027 14:27:51.189           105.906               Magadan2          3309.562
       151   02 Jun 2027 15:51:51.494   02 Jun 2027 15:52:07.189            15.695              Murmansk2           490.469
       152   02 Jun 2027 15:56:22.097   02 Jun 2027 15:59:29.447           187.350                Anadyr2          5854.688
       153   02 Jun 2027 16:00:22.175   02 Jun 2027 16:01:55.460            93.285               Magadan1          2915.156
       154   02 Jun 2027 16:01:55.460   02 Jun 2027 16:04:19.215           143.755               Magadan2          4492.344
       155   02 Jun 2027 16:07:20.878   02 Jun 2027 16:07:34.775            13.897               Magadan2           434.281
       156   02 Jun 2027 17:32:16.414   02 Jun 2027 17:33:29.312            72.898                Anadyr1          2278.063
       157   02 Jun 2027 17:34:33.829   02 Jun 2027 17:36:24.990           111.161               Magadan1          3473.781
       158   02 Jun 2027 17:37:39.102   02 Jun 2027 17:38:45.233            66.131                Norilsk          2066.594
       159   02 Jun 2027 18:26:47.244   02 Jun 2027 18:29:42.551           175.307            RioGallegos          5478.344
       160   02 Jun 2027 18:30:35.603   02 Jun 2027 18:31:20.672            45.069            RioGallegos          1408.406
       161   02 Jun 2027 18:37:03.555   02 Jun 2027 18:37:20.052            16.497            RioGallegos           515.531
       162   02 Jun 2027 19:10:08.505   02 Jun 2027 19:11:43.151            94.646                Norilsk          2957.688
       163   02 Jun 2027 19:14:20.161   02 Jun 2027 19:16:58.725           158.564                Irkutsk          4955.125
       164   02 Jun 2027 19:17:25.282   02 Jun 2027 19:21:16.275           230.993                Novosib          7218.531
       165   02 Jun 2027 19:29:32.649   02 Jun 2027 19:30:43.218            70.569                Sumatra          2205.281
       166   02 Jun 2027 19:31:57.716   02 Jun 2027 19:32:38.791            41.075                Sumatra          1283.594
       167   02 Jun 2027 19:38:49.852   02 Jun 2027 19:40:27.514            97.662                Sumatra          3051.937
       168   02 Jun 2027 20:53:35.020   02 Jun 2027 20:54:20.030            45.010                Novosib          1406.562
       169   02 Jun 2027 20:54:58.822   02 Jun 2027 20:56:33.417            94.595                Novosib          2956.094
       170   02 Jun 2027 20:57:55.642   02 Jun 2027 21:01:23.923           208.281                  Delhi          6508.781
       171   02 Jun 2027 22:24:27.614   02 Jun 2027 22:26:42.117           134.503              Murmansk2          4203.219
       172   02 Jun 2027 22:26:57.984   02 Jun 2027 22:28:36.870            98.886              Murmansk1          3090.187
       173   02 Jun 2027 22:29:24.094   02 Jun 2027 22:34:03.074           278.980                 Moscow          8718.125
       174   03 Jun 2027 00:00:11.863   03 Jun 2027 00:01:03.328            51.465              Murmansk1          1608.281
       175   03 Jun 2027 00:03:34.189   03 Jun 2027 00:05:20.041           105.852                 Moscow          3307.875
       176   03 Jun 2027 00:05:50.068   03 Jun 2027 00:06:10.403            20.335                 Moscow           635.469
       177   03 Jun 2027 00:13:35.024   03 Jun 2027 00:15:22.730           107.706                 Moscow          3365.813
       178   03 Jun 2027 00:27:55.761   03 Jun 2027 00:31:37.723           221.962               CapeTown          6936.312
       179   03 Jun 2027 01:36:09.882   03 Jun 2027 01:37:27.838            77.956              Murmansk1          2436.125
       180   03 Jun 2027 01:39:23.930   03 Jun 2027 01:40:42.129            78.199                 Moscow          2443.719
       181   03 Jun 2027 01:43:48.980   03 Jun 2027 01:44:32.022            43.042                 Moscow          1345.063
       182   03 Jun 2027 02:04:01.010   03 Jun 2027 02:04:35.964            34.954               CapeTown          1092.313
       183   03 Jun 2027 02:07:47.459   03 Jun 2027 02:08:14.536            27.077               CapeTown           846.156
       184   03 Jun 2027 02:14:00.079   03 Jun 2027 02:14:09.742             9.663               CapeTown           301.969
       185   03 Jun 2027 03:00:05.728   03 Jun 2027 03:00:40.884            35.156               Magadan1          1098.625
       186   03 Jun 2027 03:00:42.089   03 Jun 2027 03:01:18.210            36.121                Anadyr1          1128.781
       187   03 Jun 2027 03:02:58.425   03 Jun 2027 03:03:23.236            24.811               Magadan1           775.344
       188   03 Jun 2027 03:05:22.851   03 Jun 2027 03:06:11.881            49.030               Magadan1          1532.188
       189   03 Jun 2027 03:06:18.456   03 Jun 2027 03:06:55.701            37.245                Anadyr1          1163.906
       190   03 Jun 2027 03:06:55.701   03 Jun 2027 03:08:19.404            83.703                Anadyr2          2615.719
       191   03 Jun 2027 03:08:20.473   03 Jun 2027 03:08:27.922             7.449               Magadan2           232.781
       192   03 Jun 2027 03:08:59.246   03 Jun 2027 03:09:32.351            33.105               Magadan2          1034.531
       193   03 Jun 2027 03:09:53.296   03 Jun 2027 03:10:16.209            22.913                Anadyr2           716.031
       194   03 Jun 2027 03:10:30.264   03 Jun 2027 03:12:43.943           133.679                Anadyr2          4177.469
       195   03 Jun 2027 04:43:59.711   03 Jun 2027 04:44:20.710            20.999               Magadan1           656.219
       196   03 Jun 2027 04:44:20.710   03 Jun 2027 04:45:23.515            62.805               Magadan2          1962.656
       197   03 Jun 2027 04:45:45.125   03 Jun 2027 04:46:32.508            47.383               Magadan1          1480.719
       198   03 Jun 2027 04:46:32.508   03 Jun 2027 04:47:36.694            64.186               Magadan2          2005.813
       199   03 Jun 2027 04:48:01.453   03 Jun 2027 04:48:17.573            16.120                Anadyr1           503.750
       200   03 Jun 2027 05:24:17.112   03 Jun 2027 05:26:24.487           127.375            RioGallegos          3980.469
       201   03 Jun 2027 06:18:04.470   03 Jun 2027 06:18:56.333            51.863               Magadan2          1620.719
       202   03 Jun 2027 06:19:40.374   03 Jun 2027 06:19:50.920            10.546               Magadan1           329.562
       203   03 Jun 2027 06:19:51.976   03 Jun 2027 06:19:59.389             7.413               Magadan2           231.656
       204   03 Jun 2027 06:20:19.328   03 Jun 2027 06:21:42.302            82.974               Magadan1          2592.937
       205   03 Jun 2027 06:21:52.587   03 Jun 2027 06:22:31.694            39.107               Magadan1          1222.094
       206   03 Jun 2027 06:22:37.309   03 Jun 2027 06:23:31.448            54.139               Magadan2          1691.844
       207   03 Jun 2027 06:23:58.371   03 Jun 2027 06:24:17.276            18.905                Norilsk           590.781
       208   03 Jun 2027 06:24:25.370   03 Jun 2027 06:24:33.411             8.041              Murmansk1           251.281
       209   03 Jun 2027 06:24:59.557   03 Jun 2027 06:25:37.877            38.320              Murmansk1          1197.500
       210   03 Jun 2027 06:58:55.914   03 Jun 2027 07:00:26.333            90.419            RioGallegos          2825.594
       211   03 Jun 2027 07:34:00.303   03 Jun 2027 07:36:49.808           169.505                Sumatra          5297.031
       212   03 Jun 2027 07:45:37.822   03 Jun 2027 07:47:35.204           117.382                  Delhi          3668.187
       213   03 Jun 2027 07:50:56.442   03 Jun 2027 07:52:55.498           119.056                  Delhi          3720.500
       214   03 Jun 2027 07:54:38.531   03 Jun 2027 07:54:53.949            15.418                Irkutsk           481.813
       215   03 Jun 2027 07:54:59.135   03 Jun 2027 07:55:33.407            34.272                Novosib          1071.000
       216   03 Jun 2027 07:55:36.587   03 Jun 2027 07:55:36.846             0.259                Novosib             8.094
       217   03 Jun 2027 07:55:53.332   03 Jun 2027 07:56:02.925             9.593                Irkutsk           299.781
       218   03 Jun 2027 07:56:29.471   03 Jun 2027 07:57:22.003            52.532                Novosib          1641.625
       219   03 Jun 2027 07:57:28.421   03 Jun 2027 07:58:02.042            33.621              Murmansk2          1050.656
       220   03 Jun 2027 07:58:07.647   03 Jun 2027 07:58:33.963            26.316              Murmansk2           822.375
       221   03 Jun 2027 07:58:37.431   03 Jun 2027 07:58:41.632             4.201                Novosib           131.281
       222   03 Jun 2027 07:58:43.200   03 Jun 2027 07:58:58.435            15.235                Norilsk           476.094
       223   03 Jun 2027 07:59:01.199   03 Jun 2027 07:59:04.822             3.623                Irkutsk           113.219
       224   03 Jun 2027 07:59:07.783   03 Jun 2027 08:00:03.996            56.213              Murmansk1          1756.656
       225   03 Jun 2027 08:00:46.888   03 Jun 2027 08:01:22.816            35.928              Murmansk1          1122.750
       226   03 Jun 2027 08:01:22.816   03 Jun 2027 08:01:59.458            36.642              Murmansk2          1145.062
       227   03 Jun 2027 08:37:33.606   03 Jun 2027 08:37:51.989            18.383            RioGallegos           574.469
       228   03 Jun 2027 08:39:01.330   03 Jun 2027 08:39:18.622            17.292            RioGallegos           540.375
       229   03 Jun 2027 09:11:54.875   03 Jun 2027 09:13:21.070            86.195                Sumatra          2693.594
       230   03 Jun 2027 09:18:01.006   03 Jun 2027 09:18:34.453            33.447                  Delhi          1045.219
       231   03 Jun 2027 09:21:00.025   03 Jun 2027 09:21:13.572            13.547                  Delhi           423.344
       232   03 Jun 2027 09:21:47.742   03 Jun 2027 09:22:41.170            53.428                  Delhi          1669.625
       233   03 Jun 2027 09:32:01.093   03 Jun 2027 09:32:07.332             6.239              Murmansk1           194.969
       234   03 Jun 2027 09:32:22.799   03 Jun 2027 09:33:03.970            41.171                 Moscow          1286.594
       235   03 Jun 2027 09:33:11.922   03 Jun 2027 09:33:14.941             3.019              Murmansk1            94.344
       236   03 Jun 2027 09:33:18.436   03 Jun 2027 09:33:41.827            23.391                Norilsk           730.969
       237   03 Jun 2027 09:33:52.171   03 Jun 2027 09:34:30.725            38.554                 Moscow          1204.813
       238   03 Jun 2027 09:34:33.230   03 Jun 2027 09:34:44.330            11.100                Norilsk           346.875
       239   03 Jun 2027 09:35:00.360   03 Jun 2027 09:35:41.445            41.085              Murmansk2          1283.906
       240   03 Jun 2027 09:36:26.356   03 Jun 2027 09:36:33.957             7.601              Murmansk1           237.531
       241   03 Jun 2027 09:37:26.583   03 Jun 2027 09:37:37.306            10.723                 Moscow           335.094
       242   03 Jun 2027 10:57:49.429   03 Jun 2027 11:00:07.178           137.749                  Delhi          4304.656
       243   03 Jun 2027 11:05:42.106   03 Jun 2027 11:06:42.824            60.718                 Moscow          1897.438
       244   03 Jun 2027 11:06:49.336   03 Jun 2027 11:07:10.501            21.165                 Moscow           661.406
       245   03 Jun 2027 11:07:33.004   03 Jun 2027 11:07:38.668             5.664              Murmansk1           177.000
       246   03 Jun 2027 11:07:41.578   03 Jun 2027 11:07:55.558            13.980              Murmansk1           436.875
       247   03 Jun 2027 11:07:55.558   03 Jun 2027 11:08:20.334            24.776              Murmansk2           774.250
       248   03 Jun 2027 11:08:32.514   03 Jun 2027 11:08:51.782            19.268                Novosib           602.125
       249   03 Jun 2027 11:09:04.140   03 Jun 2027 11:10:01.092            56.952                 Moscow          1779.750
       250   03 Jun 2027 11:10:12.882   03 Jun 2027 11:10:21.446             8.564              Murmansk2           267.625
       251   03 Jun 2027 11:10:21.446   03 Jun 2027 11:10:26.332             4.886              Murmansk1           152.687
       252   03 Jun 2027 11:10:34.559   03 Jun 2027 11:11:05.997            31.438              Murmansk1           982.438
       253   03 Jun 2027 11:11:21.360   03 Jun 2027 11:12:24.774            63.414              Murmansk2          1981.687
       254   03 Jun 2027 11:12:36.530   03 Jun 2027 11:12:37.287             0.757              Murmansk1            23.656
       255   03 Jun 2027 11:12:51.958   03 Jun 2027 11:12:55.338             3.380                Norilsk           105.625
       256   03 Jun 2027 11:13:25.485   03 Jun 2027 11:13:30.484             4.999              Murmansk2           156.219
       257   03 Jun 2027 11:13:43.063   03 Jun 2027 11:14:37.328            54.265              Murmansk2          1695.781
       258   03 Jun 2027 12:18:07.963   03 Jun 2027 12:20:52.900           164.937               CapeTown          5154.281
       259   03 Jun 2027 12:24:40.618   03 Jun 2027 12:25:59.693            79.075               CapeTown          2471.094
       260   03 Jun 2027 12:42:29.651   03 Jun 2027 12:43:10.212            40.561              Murmansk2          1267.531
       261   03 Jun 2027 12:43:18.576   03 Jun 2027 12:44:15.575            56.999              Murmansk1          1781.219
       262   03 Jun 2027 12:44:20.629   03 Jun 2027 12:44:36.204            15.575              Murmansk1           486.719
       263   03 Jun 2027 12:46:24.442   03 Jun 2027 12:46:28.763             4.321              Murmansk2           135.031
       264   03 Jun 2027 12:46:42.849   03 Jun 2027 12:47:00.927            18.078              Murmansk2           564.937
       265   03 Jun 2027 12:57:13.733   03 Jun 2027 13:01:07.350           233.617                Anadyr2          7300.531
       266   03 Jun 2027 13:01:21.612   03 Jun 2027 13:03:14.244           112.632                Anadyr1          3519.750
       267   03 Jun 2027 14:24:07.347   03 Jun 2027 14:24:25.264            17.917              Murmansk2           559.906
       268   03 Jun 2027 14:25:06.104   03 Jun 2027 14:25:36.247            30.143              Murmansk2           941.969
       269   03 Jun 2027 14:32:31.137   03 Jun 2027 14:35:51.952           200.815                Anadyr2          6275.469
       270   03 Jun 2027 14:36:50.246   03 Jun 2027 14:41:44.676           294.430               Magadan1          9200.938
       271   03 Jun 2027 16:08:23.442   03 Jun 2027 16:10:15.935           112.493                Anadyr2          3515.406
       272   03 Jun 2027 16:10:51.607   03 Jun 2027 16:12:51.498           119.891               Magadan1          3746.594
       273   03 Jun 2027 16:15:25.016   03 Jun 2027 16:16:02.868            37.852               Magadan1          1182.875
       274   03 Jun 2027 16:17:56.758   03 Jun 2027 16:18:59.622            62.864               Magadan2          1964.500
       275   03 Jun 2027 17:44:16.812   03 Jun 2027 17:45:35.784            78.972                Anadyr1          2467.875
       276   03 Jun 2027 17:46:35.218   03 Jun 2027 17:48:12.738            97.520               Magadan2          3047.500
       277   03 Jun 2027 17:48:26.731   03 Jun 2027 17:50:41.273           134.542                Norilsk          4204.437
       278   03 Jun 2027 17:53:34.335   03 Jun 2027 17:55:34.306           119.971                Irkutsk          3749.094
       279   03 Jun 2027 18:39:51.767   03 Jun 2027 18:40:26.831            35.064            RioGallegos          1095.750
       280   03 Jun 2027 18:41:45.038   03 Jun 2027 18:41:53.520             8.482            RioGallegos           265.062
       281   03 Jun 2027 19:22:08.974   03 Jun 2027 19:23:39.101            90.127                Norilsk          2816.469
       282   03 Jun 2027 19:25:49.655   03 Jun 2027 19:26:26.191            36.536                Norilsk          1141.750
       283   03 Jun 2027 19:27:06.205   03 Jun 2027 19:27:35.856            29.651                Norilsk           926.594
       284   03 Jun 2027 19:27:46.446   03 Jun 2027 19:34:30.737           404.291                Novosib         12634.094
       285   03 Jun 2027 19:41:10.142   03 Jun 2027 19:41:51.105            40.963                Sumatra          1280.094
       286   03 Jun 2027 19:42:40.260   03 Jun 2027 19:42:54.825            14.565                Sumatra           455.156
       287   03 Jun 2027 21:02:02.901   03 Jun 2027 21:02:41.159            38.258                Novosib          1195.563
       288   03 Jun 2027 21:03:57.714   03 Jun 2027 21:04:42.944            45.230                Novosib          1413.438
       289   03 Jun 2027 21:05:38.312   03 Jun 2027 21:05:52.300            13.988                Novosib           437.125
       290   03 Jun 2027 21:09:40.254   03 Jun 2027 21:13:33.609           233.355                  Delhi          7292.344
       291   03 Jun 2027 21:13:44.184   03 Jun 2027 21:14:00.449            16.265                  Delhi           508.281
       292   03 Jun 2027 22:36:25.280   03 Jun 2027 22:42:38.472           373.192              Murmansk1         11662.250
       293   03 Jun 2027 22:43:01.136   03 Jun 2027 22:47:49.866           288.730                 Moscow          9022.812
       294   04 Jun 2027 00:13:08.588   04 Jun 2027 00:13:45.854            37.266              Murmansk2          1164.562
       295   04 Jun 2027 00:15:32.113   04 Jun 2027 00:17:47.438           135.325                 Moscow          4228.906
       296   04 Jun 2027 00:39:40.201   04 Jun 2027 00:41:27.612           107.411               CapeTown          3356.594
       297   04 Jun 2027 00:42:12.555   04 Jun 2027 00:43:14.365            61.810               CapeTown          1931.562
       298   04 Jun 2027 01:38:53.203   04 Jun 2027 01:39:31.609            38.406               Magadan2          1200.187
       299   04 Jun 2027 01:40:37.742   04 Jun 2027 01:41:22.775            45.033               Magadan1          1407.281
       300   04 Jun 2027 01:48:11.343   04 Jun 2027 01:50:19.190           127.847              Murmansk1          3995.219
       301   04 Jun 2027 01:51:27.111   04 Jun 2027 01:51:35.574             8.463                 Moscow           264.469
       302   04 Jun 2027 01:51:38.649   04 Jun 2027 01:51:44.751             6.102                 Moscow           190.687
       303   04 Jun 2027 01:54:19.040   04 Jun 2027 01:54:34.552            15.512                 Moscow           484.750
       304   04 Jun 2027 01:57:01.866   04 Jun 2027 01:57:14.105            12.239                 Moscow           382.469
       305   04 Jun 2027 01:58:21.153   04 Jun 2027 01:59:59.847            98.694                 Moscow          3084.187
       306   04 Jun 2027 02:23:34.008   04 Jun 2027 02:25:22.547           108.539               CapeTown          3391.844
       307   04 Jun 2027 03:17:34.495   04 Jun 2027 03:18:19.770            45.275               Magadan1          1414.844
       308   04 Jun 2027 03:18:19.770   04 Jun 2027 03:18:33.275            13.505               Magadan2           422.031
       309   04 Jun 2027 03:18:47.903   04 Jun 2027 03:18:57.243             9.340               Magadan1           291.875
       310   04 Jun 2027 03:19:17.010   04 Jun 2027 03:19:59.067            42.057               Magadan1          1314.281
       311   04 Jun 2027 03:20:20.227   04 Jun 2027 03:22:29.840           129.613                Anadyr1          4050.406
       312   04 Jun 2027 03:22:29.840   04 Jun 2027 03:24:52.267           142.427                Anadyr2          4450.844
       313   04 Jun 2027 04:54:08.762   04 Jun 2027 04:55:08.024            59.262                Anadyr2          1851.938
       314   04 Jun 2027 04:55:48.292   04 Jun 2027 04:57:37.517           109.225                Irkutsk          3413.281
       315   04 Jun 2027 04:57:45.920   04 Jun 2027 04:57:48.030             2.110               Magadan2            65.938
       316   04 Jun 2027 04:58:05.172   04 Jun 2027 04:58:33.463            28.291               Magadan1           884.094
       317   04 Jun 2027 04:58:33.463   04 Jun 2027 04:59:39.495            66.032               Magadan2          2063.500
       318   04 Jun 2027 04:59:48.293   04 Jun 2027 05:00:27.135            38.842               Magadan2          1213.812
       319   04 Jun 2027 05:00:49.590   04 Jun 2027 05:01:04.100            14.510              Murmansk2           453.438
       320   04 Jun 2027 05:01:04.100   04 Jun 2027 05:01:29.830            25.730              Murmansk1           804.062
       321   04 Jun 2027 05:02:06.592   04 Jun 2027 05:02:23.155            16.563                Norilsk           517.594
       322   04 Jun 2027 05:35:57.570   04 Jun 2027 05:39:30.908           213.338            RioGallegos          6666.812
       323   04 Jun 2027 05:43:42.316   04 Jun 2027 05:44:39.053            56.737            RioGallegos          1773.031
       324   04 Jun 2027 06:23:49.305   04 Jun 2027 06:24:07.580            18.275                Irkutsk           571.094
       325   04 Jun 2027 06:28:29.268   04 Jun 2027 06:28:38.904             9.636                Novosib           301.125
       326   04 Jun 2027 06:29:23.563   04 Jun 2027 06:29:32.929             9.366                Norilsk           292.687
       327   04 Jun 2027 06:29:46.766   04 Jun 2027 06:29:47.517             0.751                Irkutsk            23.469
       328   04 Jun 2027 06:29:53.520   04 Jun 2027 06:30:07.573            14.053               Magadan2           439.156
       329   04 Jun 2027 06:30:26.089   04 Jun 2027 06:30:28.501             2.412                Norilsk            75.375
       330   04 Jun 2027 06:31:02.093   04 Jun 2027 06:31:11.130             9.037                Irkutsk           282.406
       331   04 Jun 2027 06:31:11.721   04 Jun 2027 06:31:17.113             5.392               Magadan2           168.500
       332   04 Jun 2027 06:31:34.632   04 Jun 2027 06:31:45.165            10.533               Magadan2           329.156
       333   04 Jun 2027 06:31:52.866   04 Jun 2027 06:32:22.939            30.073               Magadan2           939.781
       334   04 Jun 2027 06:32:53.803   04 Jun 2027 06:33:16.356            22.553                Irkutsk           704.781
       335   04 Jun 2027 06:33:42.687   04 Jun 2027 06:34:31.509            48.822               Magadan2          1525.687
       336   04 Jun 2027 06:34:41.853   04 Jun 2027 06:35:12.487            30.634                Norilsk           957.312
       337   04 Jun 2027 06:35:21.531   04 Jun 2027 06:35:41.208            19.677                Novosib           614.906
       338   04 Jun 2027 06:35:53.676   04 Jun 2027 06:36:09.690            16.014                Novosib           500.437
       339   04 Jun 2027 06:36:28.114   04 Jun 2027 06:36:36.230             8.116              Murmansk2           253.625
       340   04 Jun 2027 06:36:55.876   04 Jun 2027 06:37:30.652            34.776                Novosib          1086.750
       341   04 Jun 2027 06:37:33.560   04 Jun 2027 06:38:33.325            59.765              Murmansk1          1867.656
       342   04 Jun 2027 07:11:02.302   04 Jun 2027 07:11:52.978            50.676            RioGallegos          1583.625
       343   04 Jun 2027 07:45:53.106   04 Jun 2027 07:48:22.165           149.059                Sumatra          4658.094
       344   04 Jun 2027 07:56:41.466   04 Jun 2027 07:59:10.188           148.722                  Delhi          4647.562
       345   04 Jun 2027 08:02:50.548   04 Jun 2027 08:02:55.886             5.338                  Delhi           166.812
       346   04 Jun 2027 08:03:53.455   04 Jun 2027 08:04:43.701            50.246                  Delhi          1570.187
       347   04 Jun 2027 08:06:26.546   04 Jun 2027 08:06:29.843             3.297                Irkutsk           103.031
       348   04 Jun 2027 08:06:38.978   04 Jun 2027 08:07:04.637            25.659                Irkutsk           801.844
       349   04 Jun 2027 08:07:32.295   04 Jun 2027 08:07:54.501            22.206                Novosib           693.937
       350   04 Jun 2027 08:08:02.740   04 Jun 2027 08:08:19.595            16.855                Irkutsk           526.719
       351   04 Jun 2027 08:08:24.473   04 Jun 2027 08:08:39.731            15.258              Murmansk2           476.812
       352   04 Jun 2027 08:08:57.103   04 Jun 2027 08:08:59.698             2.595                Norilsk            81.094
       353   04 Jun 2027 08:09:01.464   04 Jun 2027 08:09:57.029            55.565              Murmansk1          1736.406
       354   04 Jun 2027 08:10:17.330   04 Jun 2027 08:11:08.679            51.349                Irkutsk          1604.656
       355   04 Jun 2027 08:11:20.414   04 Jun 2027 08:11:54.177            33.763              Murmansk1          1055.094
       356   04 Jun 2027 08:11:55.341   04 Jun 2027 08:12:33.394            38.053              Murmansk2          1189.156
       357   04 Jun 2027 08:12:56.513   04 Jun 2027 08:13:26.526            30.013                 Moscow           937.906
       358   04 Jun 2027 08:52:11.461   04 Jun 2027 08:52:45.321            33.860            RioGallegos          1058.125
       359   04 Jun 2027 09:25:17.284   04 Jun 2027 09:26:01.415            44.131                Sumatra          1379.094
       360   04 Jun 2027 09:27:22.267   04 Jun 2027 09:28:26.052            63.785                Sumatra          1993.281
       361   04 Jun 2027 09:30:53.200   04 Jun 2027 09:31:21.900            28.700                  Delhi           896.875
       362   04 Jun 2027 09:33:03.535   04 Jun 2027 09:33:13.320             9.785                  Delhi           305.781
       363   04 Jun 2027 09:34:06.667   04 Jun 2027 09:35:02.598            55.931                  Delhi          1747.844
       364   04 Jun 2027 09:44:02.210   04 Jun 2027 09:44:24.742            22.532              Murmansk1           704.125
       365   04 Jun 2027 09:44:24.742   04 Jun 2027 09:44:44.918            20.176              Murmansk2           630.500
       366   04 Jun 2027 09:44:48.901   04 Jun 2027 09:44:55.076             6.175                Norilsk           192.969
       367   04 Jun 2027 09:45:00.102   04 Jun 2027 09:45:13.817            13.715              Murmansk2           428.594
       368   04 Jun 2027 09:45:15.688   04 Jun 2027 09:45:37.367            21.679                Norilsk           677.469
       369   04 Jun 2027 09:46:13.934   04 Jun 2027 09:46:28.779            14.845              Murmansk2           463.906
       370   04 Jun 2027 09:46:34.874   04 Jun 2027 09:47:01.659            26.785                Norilsk           837.031
       371   04 Jun 2027 09:47:04.470   04 Jun 2027 09:47:04.608             0.138                Novosib             4.313
       372   04 Jun 2027 09:47:09.616   04 Jun 2027 09:47:15.866             6.250                Norilsk           195.313
       373   04 Jun 2027 09:47:16.886   04 Jun 2027 09:47:31.950            15.064                Novosib           470.750
       374   04 Jun 2027 09:47:44.245   04 Jun 2027 09:47:55.242            10.997                Norilsk           343.656
       375   04 Jun 2027 09:47:58.672   04 Jun 2027 09:48:15.789            17.117              Murmansk1           534.906
       376   04 Jun 2027 09:48:32.694   04 Jun 2027 09:48:58.111            25.417                Norilsk           794.281
       377   04 Jun 2027 11:17:44.423   04 Jun 2027 11:18:47.328            62.905                 Moscow          1965.781
       378   04 Jun 2027 11:18:51.248   04 Jun 2027 11:19:27.402            36.154              Murmansk2          1129.813
       379   04 Jun 2027 11:19:32.255   04 Jun 2027 11:19:36.605             4.350              Murmansk2           135.937
       380   04 Jun 2027 11:19:56.308   04 Jun 2027 11:20:21.990            25.682              Murmansk1           802.563
       381   04 Jun 2027 11:20:40.303   04 Jun 2027 11:21:13.692            33.389              Murmansk2          1043.406
       382   04 Jun 2027 11:21:36.493   04 Jun 2027 11:22:12.157            35.664              Murmansk1          1114.500
       383   04 Jun 2027 11:22:18.754   04 Jun 2027 11:22:25.652             6.898              Murmansk2           215.562
       384   04 Jun 2027 11:22:34.927   04 Jun 2027 11:22:43.147             8.220              Murmansk2           256.875
       385   04 Jun 2027 11:22:43.147   04 Jun 2027 11:23:19.285            36.138              Murmansk1          1129.312
       386   04 Jun 2027 11:23:44.744   04 Jun 2027 11:24:02.318            17.574                 Moscow           549.188
       387   04 Jun 2027 11:24:23.383   04 Jun 2027 11:24:36.956            13.573                 Moscow           424.156
       388   04 Jun 2027 11:24:50.040   04 Jun 2027 11:25:49.243            59.203                 Moscow          1850.094
       389   04 Jun 2027 12:29:28.861   04 Jun 2027 12:32:38.904           190.043               CapeTown          5938.844
       390   04 Jun 2027 12:34:37.704   04 Jun 2027 12:36:39.673           121.969               CapeTown          3811.531
       391   04 Jun 2027 12:54:44.342   04 Jun 2027 12:54:52.714             8.372              Murmansk1           261.625
       392   04 Jun 2027 12:54:52.714   04 Jun 2027 12:55:45.755            53.041              Murmansk2          1657.531
       393   04 Jun 2027 13:04:22.467   04 Jun 2027 13:04:41.767            19.300              Murmansk1           603.125
       394   04 Jun 2027 13:09:05.082   04 Jun 2027 13:13:52.284           287.202                Anadyr1          8975.063
       395   04 Jun 2027 13:14:04.674   04 Jun 2027 13:15:04.210            59.536                Anadyr2          1860.500
       396   04 Jun 2027 14:37:29.853   04 Jun 2027 14:37:53.248            23.395              Murmansk1           731.094
       397   04 Jun 2027 14:38:21.667   04 Jun 2027 14:38:29.136             7.469              Murmansk2           233.406
       398   04 Jun 2027 14:40:10.360   04 Jun 2027 14:40:10.910             0.550              Murmansk1            17.188
       399   04 Jun 2027 14:44:31.207   04 Jun 2027 14:46:02.210            91.003                Anadyr2          2843.844
       400   04 Jun 2027 14:46:03.406   04 Jun 2027 14:46:47.045            43.639                Anadyr1          1363.719
       401   04 Jun 2027 14:47:52.188   04 Jun 2027 14:48:07.259            15.071                Anadyr1           470.969
       402   04 Jun 2027 14:48:16.850   04 Jun 2027 14:53:10.084           293.234               Magadan1          9163.563
       403   04 Jun 2027 14:53:10.084   04 Jun 2027 14:54:53.564           103.480               Magadan2          3233.750
       404   04 Jun 2027 16:22:49.200   04 Jun 2027 16:26:15.734           206.534               Magadan2          6454.187
       405   04 Jun 2027 17:56:16.903   04 Jun 2027 17:58:45.873           148.970                Anadyr1          4655.313
       406   04 Jun 2027 17:59:11.398   04 Jun 2027 18:04:42.473           331.075                Norilsk         10346.094
       407   04 Jun 2027 18:05:36.697   04 Jun 2027 18:07:17.218           100.521                Irkutsk          3141.281
       408   04 Jun 2027 18:08:31.241   04 Jun 2027 18:10:15.054           103.813                Irkutsk          3244.156
       409   04 Jun 2027 18:21:46.418   04 Jun 2027 18:23:47.417           120.999                Sumatra          3781.219
       410   04 Jun 2027 19:35:10.198   04 Jun 2027 19:35:36.589            26.391                Norilsk           824.719
       411   04 Jun 2027 19:39:20.327   04 Jun 2027 19:46:34.162           433.835                Novosib         13557.344
       412   04 Jun 2027 21:14:18.961   04 Jun 2027 21:15:52.388            93.427              Murmansk1          2919.594
       413   04 Jun 2027 21:21:29.665   04 Jun 2027 21:24:11.533           161.868                  Delhi          5058.375
       414   04 Jun 2027 21:32:49.419   04 Jun 2027 21:33:53.965            64.546                  Delhi          2017.062
       415   04 Jun 2027 22:48:23.913   04 Jun 2027 22:50:10.231           106.318              Murmansk2          3322.437
       416   04 Jun 2027 22:50:15.377   04 Jun 2027 22:54:50.912           275.535              Murmansk1          8610.469
       417   04 Jun 2027 22:55:04.644   04 Jun 2027 22:57:35.074           150.430                 Moscow          4700.938
       418   04 Jun 2027 22:58:25.588   04 Jun 2027 22:58:57.291            31.703                 Moscow           990.719
       419   04 Jun 2027 23:20:28.565   04 Jun 2027 23:21:41.825            73.260               CapeTown          2289.375
       420   04 Jun 2027 23:24:02.916   04 Jun 2027 23:25:34.716            91.800               CapeTown          2868.750
       421   05 Jun 2027 00:28:55.817   05 Jun 2027 00:29:14.060            18.243                 Moscow           570.094
       422   05 Jun 2027 00:31:16.197   05 Jun 2027 00:31:37.814            21.617                 Moscow           675.531
       423   05 Jun 2027 00:36:49.501   05 Jun 2027 00:37:05.196            15.695                 Moscow           490.469
       424   05 Jun 2027 00:51:29.832   05 Jun 2027 00:53:17.282           107.450               CapeTown          3357.812
       425   05 Jun 2027 00:59:09.693   05 Jun 2027 00:59:39.608            29.915               CapeTown           934.844
       426   05 Jun 2027 01:48:47.976   05 Jun 2027 01:48:59.443            11.467                Anadyr1           358.344
       427   05 Jun 2027 01:49:13.919   05 Jun 2027 01:49:19.773             5.854                Anadyr2           182.937
       428   05 Jun 2027 01:49:49.351   05 Jun 2027 01:50:57.677            68.326               Magadan1          2135.187
       429   05 Jun 2027 01:51:28.396   05 Jun 2027 01:51:48.998            20.602               Magadan1           643.812
       430   05 Jun 2027 01:54:28.083   05 Jun 2027 01:54:35.248             7.165               Magadan2           223.906
       431   05 Jun 2027 01:54:45.629   05 Jun 2027 01:54:59.109            13.480               Magadan2           421.250
       432   05 Jun 2027 01:57:27.585   05 Jun 2027 01:57:30.746             3.161                Norilsk            98.781
       433   05 Jun 2027 01:58:44.602   05 Jun 2027 01:58:51.922             7.320               Magadan1           228.750
       434   05 Jun 2027 01:59:02.942   05 Jun 2027 01:59:24.587            21.645                Norilsk           676.406
       435   05 Jun 2027 02:00:12.681   05 Jun 2027 02:01:27.933            75.252              Murmansk2          2351.625
       436   05 Jun 2027 02:02:59.512   05 Jun 2027 02:03:33.706            34.194              Murmansk2          1068.563
       437   05 Jun 2027 02:03:45.235   05 Jun 2027 02:04:33.781            48.546                 Moscow          1517.063
       438   05 Jun 2027 02:09:43.202   05 Jun 2027 02:09:48.165             4.963              Murmansk1           155.094
       439   05 Jun 2027 02:10:21.023   05 Jun 2027 02:10:55.384            34.361                 Moscow          1073.781
       440   05 Jun 2027 02:29:09.772   05 Jun 2027 02:30:46.181            96.409               CapeTown          3012.781
       441   05 Jun 2027 03:29:18.912   05 Jun 2027 03:29:52.613            33.701               Magadan1          1053.156
       442   05 Jun 2027 03:29:52.613   05 Jun 2027 03:30:14.266            21.653               Magadan2           676.656
       443   05 Jun 2027 03:30:23.232   05 Jun 2027 03:30:49.352            26.120                Anadyr2           816.250
       444   05 Jun 2027 03:30:49.352   05 Jun 2027 03:34:51.676           242.324                Anadyr1          7572.625
       445   05 Jun 2027 03:35:02.310   05 Jun 2027 03:35:35.368            33.058               Magadan2          1033.063
       446   05 Jun 2027 04:22:23.334   05 Jun 2027 04:22:44.165            20.831            RioGallegos           650.969
       447   05 Jun 2027 05:06:37.762   05 Jun 2027 05:08:13.918            96.156                Anadyr2          3004.875
       448   05 Jun 2027 05:08:16.881   05 Jun 2027 05:10:35.850           138.969                Anadyr2          4342.781
       449   05 Jun 2027 05:10:36.902   05 Jun 2027 05:10:46.163             9.261               Magadan1           289.406
       450   05 Jun 2027 05:10:50.431   05 Jun 2027 05:11:42.206            51.775               Magadan1          1617.969
       451   05 Jun 2027 05:11:50.669   05 Jun 2027 05:12:25.369            34.700               Magadan2          1084.375
       452   05 Jun 2027 05:12:27.467   05 Jun 2027 05:12:32.310             4.843                Novosib           151.344
       453   05 Jun 2027 05:53:47.860   05 Jun 2027 05:54:35.615            47.755            RioGallegos          1492.344
       454   05 Jun 2027 05:55:22.496   05 Jun 2027 05:55:46.664            24.168            RioGallegos           755.250
       455   05 Jun 2027 05:56:05.149   05 Jun 2027 05:57:05.128            59.979            RioGallegos          1874.344
       456   05 Jun 2027 05:57:50.099   05 Jun 2027 05:59:00.116            70.017            RioGallegos          2188.031
       457   05 Jun 2027 06:26:17.643   05 Jun 2027 06:27:25.781            68.138                Sumatra          2129.312
       458   05 Jun 2027 06:28:14.099   05 Jun 2027 06:28:39.078            24.979                Sumatra           780.594
       459   05 Jun 2027 06:30:45.173   05 Jun 2027 06:31:12.432            27.259                Sumatra           851.844
       460   05 Jun 2027 06:41:31.116   05 Jun 2027 06:42:02.320            31.204                Irkutsk           975.125
       461   05 Jun 2027 06:42:55.657   05 Jun 2027 06:42:58.800             3.143               Magadan2            98.219
       462   05 Jun 2027 06:43:26.534   05 Jun 2027 06:43:56.873            30.339                Novosib           948.094
       463   05 Jun 2027 06:44:01.438   05 Jun 2027 06:44:31.087            29.649                Irkutsk           926.531
       464   05 Jun 2027 06:44:58.646   05 Jun 2027 06:45:04.029             5.383                Norilsk           168.219
       465   05 Jun 2027 06:45:04.798   05 Jun 2027 06:45:09.743             4.945                Irkutsk           154.531
       466   05 Jun 2027 06:45:32.324   05 Jun 2027 06:45:32.432             0.108                Norilsk             3.375
       467   05 Jun 2027 06:45:40.753   05 Jun 2027 06:45:47.968             7.215               Magadan2           225.469
       468   05 Jun 2027 06:45:53.238   05 Jun 2027 06:45:54.144             0.906                Irkutsk            28.312
       469   05 Jun 2027 06:45:56.015   05 Jun 2027 06:45:58.054             2.039               Magadan2            63.719
       470   05 Jun 2027 06:45:58.054   05 Jun 2027 06:46:28.008            29.954               Magadan1           936.062
       471   05 Jun 2027 06:46:34.942   05 Jun 2027 06:46:51.208            16.266               Magadan2           508.313
       472   05 Jun 2027 06:46:51.302   05 Jun 2027 06:47:02.085            10.783              Murmansk1           336.969
       473   05 Jun 2027 06:47:08.442   05 Jun 2027 06:48:21.670            73.228              Murmansk1          2288.375
       474   05 Jun 2027 06:50:30.985   05 Jun 2027 06:50:48.747            17.762              Murmansk1           555.063
       475   05 Jun 2027 07:23:12.299   05 Jun 2027 07:24:17.528            65.229            RioGallegos          2038.406
       476   05 Jun 2027 07:57:51.566   05 Jun 2027 07:58:59.833            68.267                Sumatra          2133.344
       477   05 Jun 2027 08:04:59.472   05 Jun 2027 08:06:15.211            75.739                Sumatra          2366.844
       478   05 Jun 2027 08:07:58.513   05 Jun 2027 08:10:07.550           129.037                  Delhi          4032.406
       479   05 Jun 2027 08:14:49.932   05 Jun 2027 08:15:16.415            26.483                  Delhi           827.594
       480   05 Jun 2027 08:18:02.398   05 Jun 2027 08:18:06.408             4.010                  Delhi           125.313
       481   05 Jun 2027 08:18:11.505   05 Jun 2027 08:18:35.323            23.818                Novosib           744.312
       482   05 Jun 2027 08:18:37.121   05 Jun 2027 08:18:46.634             9.513                Novosib           297.281
