uniorb/output/strategy_2/Drop/Drop_KinoSat_111802.txt

KinoSat_111802
-------------------------
    Access    *     Start Time (UTCG)     *     Stop Time (UTCG)  *   Duration (s)        *       Station  *  Data (Mbytes)
         1   01 Jun 2027 03:36:20.440   01 Jun 2027 03:36:41.932            21.492              Murmansk2           671.625
         2   01 Jun 2027 03:37:37.329   01 Jun 2027 03:38:25.937            48.608              Murmansk2          1519.000
         3   01 Jun 2027 03:39:21.994   01 Jun 2027 03:39:58.455            36.461                 Moscow          1139.406
         4   01 Jun 2027 03:40:11.417   01 Jun 2027 03:41:23.210            71.793              Murmansk1          2243.531
         5   01 Jun 2027 03:41:25.341   01 Jun 2027 03:42:05.808            40.467                Irkutsk          1264.594
         6   01 Jun 2027 03:45:43.545   01 Jun 2027 03:49:08.230           204.685                  Delhi          6396.406
         7   01 Jun 2027 05:13:39.798   01 Jun 2027 05:13:59.529            19.731                Novosib           616.594
         8   01 Jun 2027 05:15:33.982   01 Jun 2027 05:15:38.481             4.499              Murmansk1           140.594
         9   01 Jun 2027 05:16:00.424   01 Jun 2027 05:16:24.873            24.449                Norilsk           764.031
        10   01 Jun 2027 05:16:31.161   01 Jun 2027 05:18:31.330           120.169              Murmansk1          3755.281
        11   01 Jun 2027 05:18:31.330   01 Jun 2027 05:19:01.088            29.758              Murmansk2           929.938
        12   01 Jun 2027 05:19:01.088   01 Jun 2027 05:20:00.592            59.504              Murmansk1          1859.500
        13   01 Jun 2027 05:20:22.231   01 Jun 2027 05:20:41.748            19.517                 Moscow           609.906
        14   01 Jun 2027 05:21:43.626   01 Jun 2027 05:23:39.003           115.377                 Moscow          3605.531
        15   01 Jun 2027 06:38:39.761   01 Jun 2027 06:40:35.111           115.350                Anadyr1          3604.687
        16   01 Jun 2027 06:41:37.591   01 Jun 2027 06:42:25.476            47.885                Anadyr1          1496.406
        17   01 Jun 2027 06:50:41.469   01 Jun 2027 06:52:01.564            80.095              Murmansk1          2502.969
        18   01 Jun 2027 06:52:02.894   01 Jun 2027 06:52:47.032            44.138                 Moscow          1379.313
        19   01 Jun 2027 06:53:38.357   01 Jun 2027 06:53:47.781             9.424              Murmansk1           294.500
        20   01 Jun 2027 06:54:16.124   01 Jun 2027 06:54:41.199            25.075              Murmansk2           783.594
        21   01 Jun 2027 06:56:50.198   01 Jun 2027 06:57:18.015            27.817                 Moscow           869.281
        22   01 Jun 2027 07:18:11.439   01 Jun 2027 07:19:17.139            65.700               CapeTown          2053.125
        23   01 Jun 2027 08:14:46.732   01 Jun 2027 08:16:51.127           124.395               Magadan2          3887.344
        24   01 Jun 2027 08:17:35.685   01 Jun 2027 08:20:19.849           164.164                Anadyr1          5130.125
        25   01 Jun 2027 08:25:29.690   01 Jun 2027 08:26:00.415            30.725                 Moscow           960.156
        26   01 Jun 2027 08:27:30.199   01 Jun 2027 08:27:42.410            12.211                 Moscow           381.594
        27   01 Jun 2027 08:29:42.082   01 Jun 2027 08:30:40.655            58.573                 Moscow          1830.406
        28   01 Jun 2027 09:46:20.433   01 Jun 2027 09:47:27.708            67.275               Magadan1          2102.344
        29   01 Jun 2027 09:47:52.967   01 Jun 2027 09:49:20.026            87.059                Anadyr2          2720.594
        30   01 Jun 2027 09:49:20.026   01 Jun 2027 09:55:34.944           374.918                Anadyr1         11716.188
        31   01 Jun 2027 11:25:59.786   01 Jun 2027 11:30:37.819           278.033               Magadan1          8688.531
        32   01 Jun 2027 14:24:14.953   01 Jun 2027 14:24:30.739            15.786                Sumatra           493.313
        33   01 Jun 2027 14:37:39.588   01 Jun 2027 14:39:49.706           130.118                Irkutsk          4066.188
        34   01 Jun 2027 16:16:59.522   01 Jun 2027 16:18:23.590            84.068                Norilsk          2627.125
        35   01 Jun 2027 16:21:31.787   01 Jun 2027 16:22:37.086            65.299                Norilsk          2040.594
        36   01 Jun 2027 17:47:03.059   01 Jun 2027 17:47:20.162            17.103                 Moscow           534.469
        37   01 Jun 2027 17:52:39.095   01 Jun 2027 17:54:19.054            99.959              Murmansk1          3123.719
        38   01 Jun 2027 18:59:21.560   01 Jun 2027 19:01:21.019           119.459               CapeTown          3733.094
        39   01 Jun 2027 19:29:25.461   01 Jun 2027 19:34:49.698           324.237              Murmansk2         10132.406
        40   01 Jun 2027 19:35:23.727   01 Jun 2027 19:38:01.010           157.283              Murmansk1          4915.094
        41   01 Jun 2027 20:38:32.902   01 Jun 2027 20:42:14.627           221.725               CapeTown          6928.906
        42   01 Jun 2027 21:18:13.913   01 Jun 2027 21:19:22.560            68.647               Magadan2          2145.219
        43   01 Jun 2027 21:19:39.267   01 Jun 2027 21:20:23.553            44.286               Magadan2          1383.937
        44   01 Jun 2027 21:20:42.883   01 Jun 2027 21:20:45.562             2.679               Magadan2            83.719
        45   01 Jun 2027 21:20:54.928   01 Jun 2027 21:21:10.380            15.452               Magadan2           482.875
        46   01 Jun 2027 21:23:10.194   01 Jun 2027 21:23:17.201             7.007               Magadan2           218.969
        47   01 Jun 2027 21:28:48.333   01 Jun 2027 21:29:00.682            12.349               Magadan1           385.906
        48   01 Jun 2027 22:51:44.834   01 Jun 2027 22:59:06.270           441.436                Anadyr2         13794.875
        49   01 Jun 2027 22:59:07.496   01 Jun 2027 22:59:43.094            35.598               Magadan1          1112.437
        50   01 Jun 2027 22:59:47.852   01 Jun 2027 23:00:03.256            15.404               Magadan2           481.375
        51   01 Jun 2027 23:00:25.567   01 Jun 2027 23:01:44.056            78.489                Irkutsk          2452.781
        52   01 Jun 2027 23:03:59.183   01 Jun 2027 23:04:08.199             9.016               Magadan2           281.750
        53   01 Jun 2027 23:04:15.147   01 Jun 2027 23:04:49.129            33.982                Irkutsk          1061.937
        54   01 Jun 2027 23:05:21.423   01 Jun 2027 23:05:27.858             6.435               Magadan2           201.094
        55   01 Jun 2027 23:06:03.922   01 Jun 2027 23:06:13.102             9.180                Irkutsk           286.875
        56   01 Jun 2027 23:15:57.755   01 Jun 2027 23:18:37.220           159.465                Sumatra          4983.281
        57   01 Jun 2027 23:19:57.971   01 Jun 2027 23:20:24.041            26.070                Sumatra           814.687
        58   01 Jun 2027 23:50:56.856   01 Jun 2027 23:51:05.329             8.473            RioGallegos           264.781
        59   01 Jun 2027 23:53:29.861   01 Jun 2027 23:53:40.241            10.380            RioGallegos           324.375
        60   01 Jun 2027 23:54:03.975   01 Jun 2027 23:54:59.234            55.259            RioGallegos          1726.844
        61   01 Jun 2027 23:57:17.206   01 Jun 2027 23:57:30.772            13.566            RioGallegos           423.937
        62   02 Jun 2027 00:27:11.447   02 Jun 2027 00:28:37.340            85.893                Anadyr1          2684.156
        63   02 Jun 2027 00:29:34.867   02 Jun 2027 00:31:21.605           106.738                Norilsk          3335.562
        64   02 Jun 2027 00:31:43.936   02 Jun 2027 00:32:08.890            24.954               Magadan2           779.813
        65   02 Jun 2027 00:33:35.353   02 Jun 2027 00:35:14.736            99.383                Irkutsk          3105.719
        66   02 Jun 2027 00:36:23.198   02 Jun 2027 00:36:51.894            28.696                Novosib           896.750
        67   02 Jun 2027 00:36:54.726   02 Jun 2027 00:37:34.806            40.080                Novosib          1252.500
        68   02 Jun 2027 00:40:08.393   02 Jun 2027 00:41:04.062            55.669                Novosib          1739.656
        69   02 Jun 2027 00:44:19.376   02 Jun 2027 00:44:37.430            18.054                Irkutsk           564.188
        70   02 Jun 2027 00:45:21.857   02 Jun 2027 00:46:09.015            47.158                Irkutsk          1473.687
        71   02 Jun 2027 00:51:21.676   02 Jun 2027 00:53:11.168           109.492                Sumatra          3421.625
        72   02 Jun 2027 01:26:30.612   02 Jun 2027 01:26:54.035            23.423            RioGallegos           731.969
        73   02 Jun 2027 01:27:49.165   02 Jun 2027 01:27:56.573             7.408            RioGallegos           231.500
        74   02 Jun 2027 01:29:38.031   02 Jun 2027 01:29:56.667            18.636            RioGallegos           582.375
        75   02 Jun 2027 01:31:09.598   02 Jun 2027 01:31:54.300            44.702            RioGallegos          1396.937
        76   02 Jun 2027 02:01:34.679   02 Jun 2027 02:02:24.308            49.629                Anadyr2          1550.906
        77   02 Jun 2027 02:03:19.821   02 Jun 2027 02:03:56.531            36.710                Anadyr1          1147.188
        78   02 Jun 2027 02:05:35.162   02 Jun 2027 02:06:38.844            63.682                Norilsk          1990.063
        79   02 Jun 2027 02:06:55.438   02 Jun 2027 02:07:20.861            25.423                Norilsk           794.469
        80   02 Jun 2027 02:08:19.041   02 Jun 2027 02:08:41.484            22.443                Norilsk           701.344
        81   02 Jun 2027 02:09:06.512   02 Jun 2027 02:09:25.117            18.605              Murmansk1           581.406
        82   02 Jun 2027 02:09:26.490   02 Jun 2027 02:09:58.763            32.273                Novosib          1008.531
        83   02 Jun 2027 02:10:39.772   02 Jun 2027 02:12:00.346            80.574                Novosib          2517.937
        84   02 Jun 2027 02:16:29.959   02 Jun 2027 02:16:42.277            12.318                Novosib           384.937
        85   02 Jun 2027 02:16:52.668   02 Jun 2027 02:17:45.857            53.189                  Delhi          1662.156
        86   02 Jun 2027 02:23:44.353   02 Jun 2027 02:24:27.694            43.341                  Delhi          1354.406
        87   02 Jun 2027 02:29:12.977   02 Jun 2027 02:29:27.176            14.199                  Delhi           443.719
        88   02 Jun 2027 02:58:17.374   02 Jun 2027 03:00:58.992           161.618            RioGallegos          5050.562
        89   02 Jun 2027 03:01:14.532   02 Jun 2027 03:02:44.799            90.267            RioGallegos          2820.844
        90   02 Jun 2027 03:47:35.331   02 Jun 2027 03:48:34.985            59.654                Irkutsk          1864.187
        91   02 Jun 2027 03:51:38.352   02 Jun 2027 03:51:49.483            11.131                Irkutsk           347.844
        92   02 Jun 2027 03:51:58.620   02 Jun 2027 03:53:53.627           115.007              Murmansk2          3593.969
        93   02 Jun 2027 03:53:55.074   02 Jun 2027 03:55:42.323           107.249                 Moscow          3351.531
        94   02 Jun 2027 03:58:30.184   02 Jun 2027 03:58:51.219            21.035                  Delhi           657.344
        95   02 Jun 2027 05:26:34.812   02 Jun 2027 05:27:26.817            52.005                Novosib          1625.156
        96   02 Jun 2027 05:27:51.483   02 Jun 2027 05:28:56.217            64.734              Murmansk2          2022.937
        97   02 Jun 2027 05:28:56.217   02 Jun 2027 05:30:26.042            89.825              Murmansk1          2807.031
        98   02 Jun 2027 05:30:36.775   02 Jun 2027 05:31:02.820            26.045              Murmansk1           813.906
        99   02 Jun 2027 05:31:02.820   02 Jun 2027 05:31:04.349             1.529              Murmansk2            47.781
       100   02 Jun 2027 05:31:49.276   02 Jun 2027 05:32:05.891            16.615              Murmansk1           519.219
       101   02 Jun 2027 05:32:05.891   02 Jun 2027 05:32:13.131             7.240              Murmansk2           226.250
       102   02 Jun 2027 05:33:40.306   02 Jun 2027 05:33:43.700             3.394                 Moscow           106.063
       103   02 Jun 2027 05:34:20.330   02 Jun 2027 05:35:14.438            54.108                 Moscow          1690.875
       104   02 Jun 2027 06:50:57.978   02 Jun 2027 06:51:21.856            23.878               Magadan1           746.187
       105   02 Jun 2027 06:51:21.856   02 Jun 2027 06:54:04.954           163.098               Magadan2          5096.813
       106   02 Jun 2027 06:54:04.954   02 Jun 2027 06:56:00.411           115.457               Magadan1          3608.031
       107   02 Jun 2027 08:25:14.426   02 Jun 2027 08:25:52.658            38.232                Anadyr1          1194.750
       108   02 Jun 2027 08:26:18.803   02 Jun 2027 08:27:48.707            89.904               Magadan2          2809.500
       109   02 Jun 2027 08:28:12.481   02 Jun 2027 08:30:03.573           111.092               Magadan2          3471.625
       110   02 Jun 2027 08:30:25.562   02 Jun 2027 08:31:12.501            46.939                Anadyr1          1466.844
       111   02 Jun 2027 08:39:59.541   02 Jun 2027 08:40:27.934            28.393                 Moscow           887.281
       112   02 Jun 2027 09:59:16.463   02 Jun 2027 10:00:40.939            84.476               Magadan1          2639.875
       113   02 Jun 2027 10:00:42.879   02 Jun 2027 10:05:09.781           266.902                Anadyr1          8340.687
       114   02 Jun 2027 10:05:23.476   02 Jun 2027 10:06:25.633            62.157                Anadyr1          1942.406
       115   02 Jun 2027 10:06:38.226   02 Jun 2027 10:07:52.505            74.279               Magadan2          2321.219
       116   02 Jun 2027 11:36:25.965   02 Jun 2027 11:42:11.366           345.401               Magadan1         10793.781
       117   02 Jun 2027 11:42:39.461   02 Jun 2027 11:42:58.021            18.560                Norilsk           580.000
       118   02 Jun 2027 11:43:08.900   02 Jun 2027 11:43:41.008            32.108                Norilsk          1003.375
       119   02 Jun 2027 11:43:49.293   02 Jun 2027 11:44:17.826            28.533              Murmansk2           891.656
       120   02 Jun 2027 11:45:23.730   02 Jun 2027 11:45:47.510            23.780              Murmansk2           743.125
       121   02 Jun 2027 12:18:43.681   02 Jun 2027 12:19:12.777            29.096            RioGallegos           909.250
       122   02 Jun 2027 12:20:14.430   02 Jun 2027 12:21:36.370            81.940            RioGallegos          2560.625
       123   02 Jun 2027 12:53:19.302   02 Jun 2027 12:55:22.802           123.500                Sumatra          3859.375
       124   02 Jun 2027 13:07:43.651   02 Jun 2027 13:11:57.151           253.500                Irkutsk          7921.875
       125   02 Jun 2027 13:59:26.007   02 Jun 2027 14:02:12.811           166.804            RioGallegos          5212.625
       126   02 Jun 2027 14:45:38.015   02 Jun 2027 14:46:00.704            22.689                Novosib           709.031
       127   02 Jun 2027 14:47:01.469   02 Jun 2027 14:50:40.669           219.200                Novosib          6850.000
       128   02 Jun 2027 14:55:39.997   02 Jun 2027 14:56:01.826            21.829                Novosib           682.156
       129   02 Jun 2027 14:59:20.858   02 Jun 2027 14:59:28.589             7.731                Norilsk           241.594
       130   02 Jun 2027 14:59:32.411   02 Jun 2027 14:59:47.462            15.051                Norilsk           470.344
       131   02 Jun 2027 16:21:54.654   02 Jun 2027 16:24:31.340           156.686                 Moscow          4896.438
       132   02 Jun 2027 16:25:22.750   02 Jun 2027 16:26:17.976            55.226              Murmansk2          1725.812
       133   02 Jun 2027 16:26:35.856   02 Jun 2027 16:27:00.020            24.164              Murmansk1           755.125
       134   02 Jun 2027 16:29:43.185   02 Jun 2027 16:35:35.860           352.675                Norilsk         11021.094
       135   02 Jun 2027 17:59:30.859   02 Jun 2027 18:00:17.993            47.134                 Moscow          1472.937
       136   02 Jun 2027 18:02:34.071   02 Jun 2027 18:03:12.931            38.860              Murmansk1          1214.375
       137   02 Jun 2027 18:04:03.725   02 Jun 2027 18:04:45.102            41.377                 Moscow          1293.031
       138   02 Jun 2027 18:06:18.278   02 Jun 2027 18:06:57.304            39.026              Murmansk2          1219.562
       139   02 Jun 2027 18:10:25.867   02 Jun 2027 18:10:33.799             7.932              Murmansk2           247.875
       140   02 Jun 2027 18:10:33.799   02 Jun 2027 18:10:56.110            22.311              Murmansk1           697.219
       141   02 Jun 2027 18:12:16.441   02 Jun 2027 18:12:23.999             7.558              Murmansk1           236.188
       142   02 Jun 2027 18:16:20.894   02 Jun 2027 18:16:38.195            17.301                Anadyr1           540.656
       143   02 Jun 2027 18:17:27.362   02 Jun 2027 18:17:36.237             8.875                Anadyr1           277.344
       144   02 Jun 2027 18:22:26.689   02 Jun 2027 18:22:47.563            20.874                Anadyr1           652.312
       145   02 Jun 2027 18:24:49.767   02 Jun 2027 18:25:04.791            15.024                Anadyr2           469.500
       146   02 Jun 2027 18:25:14.831   02 Jun 2027 18:25:47.599            32.768                Anadyr2          1024.000
       147   02 Jun 2027 19:11:28.183   02 Jun 2027 19:12:37.249            69.066               CapeTown          2158.312
       148   02 Jun 2027 19:15:29.574   02 Jun 2027 19:15:41.103            11.529               CapeTown           360.281
       149   02 Jun 2027 19:20:17.256   02 Jun 2027 19:21:09.815            52.559               CapeTown          1642.469
       150   02 Jun 2027 19:42:04.238   02 Jun 2027 19:46:48.010           283.772              Murmansk2          8867.875
       151   02 Jun 2027 19:47:02.298   02 Jun 2027 19:49:29.058           146.760              Murmansk1          4586.250
       152   02 Jun 2027 21:27:53.938   02 Jun 2027 21:30:58.242           184.304                Anadyr2          5759.500
       153   02 Jun 2027 21:30:59.040   02 Jun 2027 21:31:52.957            53.917               Magadan2          1684.906
       154   02 Jun 2027 21:31:56.361   02 Jun 2027 21:32:30.752            34.391               Magadan1          1074.719
       155   02 Jun 2027 21:32:49.578   02 Jun 2027 21:33:01.889            12.311                Anadyr2           384.719
       156   02 Jun 2027 21:33:26.779   02 Jun 2027 21:34:36.767            69.988               Magadan1          2187.125
       157   02 Jun 2027 21:38:20.185   02 Jun 2027 21:38:37.925            17.740               Magadan2           554.375
       158   02 Jun 2027 21:38:39.004   02 Jun 2027 21:38:43.044             4.040               Magadan2           126.250
       159   02 Jun 2027 21:40:04.086   02 Jun 2027 21:40:16.339            12.253               Magadan2           382.906
       160   02 Jun 2027 21:41:28.015   02 Jun 2027 21:41:32.963             4.948               Magadan2           154.625
       161   02 Jun 2027 21:41:49.253   02 Jun 2027 21:41:55.581             6.328               Magadan2           197.750
       162   02 Jun 2027 21:42:15.733   02 Jun 2027 21:42:45.931            30.198               Magadan2           943.688
       163   02 Jun 2027 22:24:41.326   02 Jun 2027 22:26:48.248           126.922            RioGallegos          3966.313
       164   02 Jun 2027 23:03:44.898   02 Jun 2027 23:05:03.843            78.945                Anadyr2          2467.031
       165   02 Jun 2027 23:05:09.936   02 Jun 2027 23:06:10.741            60.805                Anadyr1          1900.156
       166   02 Jun 2027 23:06:21.853   02 Jun 2027 23:08:20.714           118.861               Magadan2          3714.406
       167   02 Jun 2027 23:10:40.970   02 Jun 2027 23:11:12.842            31.872               Magadan2           996.000
       168   02 Jun 2027 23:11:27.387   02 Jun 2027 23:11:56.715            29.328                Irkutsk           916.500
       169   02 Jun 2027 23:13:21.243   02 Jun 2027 23:14:06.526            45.283               Magadan1          1415.094
       170   02 Jun 2027 23:16:12.028   02 Jun 2027 23:16:24.353            12.325                Irkutsk           385.156
       171   02 Jun 2027 23:26:22.864   02 Jun 2027 23:28:12.672           109.808                Sumatra          3431.500
       172   02 Jun 2027 23:31:52.258   02 Jun 2027 23:33:24.351            92.093                Sumatra          2877.906
       173   03 Jun 2027 00:39:05.728   03 Jun 2027 00:40:31.940            86.212                Anadyr1          2694.125
       174   03 Jun 2027 00:40:31.940   03 Jun 2027 00:40:51.378            19.438                Anadyr2           607.437
       175   03 Jun 2027 00:41:36.701   03 Jun 2027 00:43:11.398            94.697                Norilsk          2959.281
       176   03 Jun 2027 00:43:12.290   03 Jun 2027 00:43:15.743             3.453                Norilsk           107.906
       177   03 Jun 2027 00:44:07.503   03 Jun 2027 00:44:15.909             8.406               Magadan2           262.688
       178   03 Jun 2027 00:45:33.867   03 Jun 2027 00:46:58.609            84.742                Irkutsk          2648.188
       179   03 Jun 2027 00:48:17.471   03 Jun 2027 00:49:19.065            61.594                Novosib          1924.812
       180   03 Jun 2027 00:50:40.647   03 Jun 2027 00:50:53.084            12.437                Novosib           388.656
       181   03 Jun 2027 00:52:04.086   03 Jun 2027 00:52:19.369            15.283                Novosib           477.594
       182   03 Jun 2027 00:53:00.444   03 Jun 2027 00:54:12.951            72.507                Novosib          2265.844
       183   03 Jun 2027 00:59:22.015   03 Jun 2027 01:00:46.063            84.048                Sumatra          2626.500
       184   03 Jun 2027 01:33:36.299   03 Jun 2027 01:34:21.454            45.155            RioGallegos          1411.094
       185   03 Jun 2027 01:39:12.397   03 Jun 2027 01:39:16.778             4.381            RioGallegos           136.906
       186   03 Jun 2027 01:39:42.095   03 Jun 2027 01:39:56.914            14.819            RioGallegos           463.094
       187   03 Jun 2027 01:42:28.423   03 Jun 2027 01:42:34.278             5.855            RioGallegos           182.969
       188   03 Jun 2027 01:43:14.538   03 Jun 2027 01:44:02.034            47.496            RioGallegos          1484.250
       189   03 Jun 2027 02:13:19.053   03 Jun 2027 02:13:30.462            11.409                Anadyr2           356.531
       190   03 Jun 2027 02:14:13.901   03 Jun 2027 02:14:36.267            22.366                Anadyr2           698.937
       191   03 Jun 2027 02:15:47.854   03 Jun 2027 02:16:13.426            25.572                Anadyr1           799.125
       192   03 Jun 2027 02:17:37.516   03 Jun 2027 02:18:38.165            60.649                Norilsk          1895.281
       193   03 Jun 2027 02:18:51.422   03 Jun 2027 02:18:59.434             8.012                Norilsk           250.375
       194   03 Jun 2027 02:20:39.002   03 Jun 2027 02:20:49.882            10.880                Norilsk           340.000
       195   03 Jun 2027 02:20:59.289   03 Jun 2027 02:21:38.724            39.435              Murmansk2          1232.344
       196   03 Jun 2027 02:22:06.631   03 Jun 2027 02:23:15.743            69.112                Irkutsk          2159.750
       197   03 Jun 2027 02:24:08.877   03 Jun 2027 02:24:33.287            24.410                Novosib           762.813
       198   03 Jun 2027 02:26:26.671   03 Jun 2027 02:27:00.103            33.432                Irkutsk          1044.750
       199   03 Jun 2027 02:28:48.132   03 Jun 2027 02:29:34.829            46.697                  Delhi          1459.281
       200   03 Jun 2027 02:36:08.626   03 Jun 2027 02:37:20.177            71.551                  Delhi          2235.969
       201   03 Jun 2027 03:10:32.753   03 Jun 2027 03:11:30.067            57.314            RioGallegos          1791.062
       202   03 Jun 2027 03:13:11.264   03 Jun 2027 03:15:14.455           123.191            RioGallegos          3849.719
       203   03 Jun 2027 03:17:00.980   03 Jun 2027 03:17:46.293            45.313            RioGallegos          1416.031
       204   03 Jun 2027 04:03:05.237   03 Jun 2027 04:03:46.053            40.816              Murmansk1          1275.500
       205   03 Jun 2027 04:03:50.174   03 Jun 2027 04:04:52.980            62.806                 Moscow          1962.687
       206   03 Jun 2027 04:05:01.017   03 Jun 2027 04:05:29.426            28.409                 Moscow           887.781
       207   03 Jun 2027 04:05:38.092   03 Jun 2027 04:05:59.173            21.081                Novosib           658.781
       208   03 Jun 2027 04:06:00.617   03 Jun 2027 04:06:21.374            20.757              Murmansk2           648.656
       209   03 Jun 2027 04:09:25.003   03 Jun 2027 04:11:19.542           114.539                  Delhi          3579.344
       210   03 Jun 2027 05:39:21.231   03 Jun 2027 05:39:42.261            21.030                Novosib           657.187
       211   03 Jun 2027 05:39:53.789   03 Jun 2027 05:40:06.933            13.144              Murmansk1           410.750
       212   03 Jun 2027 05:40:28.655   03 Jun 2027 05:41:25.863            57.208              Murmansk1          1787.750
       213   03 Jun 2027 05:41:53.139   03 Jun 2027 05:42:37.381            44.242              Murmansk1          1382.563
       214   03 Jun 2027 05:43:04.129   03 Jun 2027 05:43:04.506             0.377                 Moscow            11.781
       215   03 Jun 2027 05:43:16.104   03 Jun 2027 05:43:47.150            31.046                 Moscow           970.188
       216   03 Jun 2027 05:45:20.212   03 Jun 2027 05:45:32.801            12.589                 Moscow           393.406
       217   03 Jun 2027 05:58:50.713   03 Jun 2027 06:01:35.865           165.152               CapeTown          5161.000
       218   03 Jun 2027 07:01:53.880   03 Jun 2027 07:02:36.922            43.042                Anadyr2          1345.062
       219   03 Jun 2027 07:02:42.477   03 Jun 2027 07:02:42.944             0.467                Anadyr2            14.594
       220   03 Jun 2027 07:03:10.593   03 Jun 2027 07:03:12.362             1.769               Magadan2            55.281
       221   03 Jun 2027 07:03:12.362   03 Jun 2027 07:03:20.500             8.138               Magadan1           254.312
       222   03 Jun 2027 07:03:32.278   03 Jun 2027 07:04:03.998            31.720               Magadan2           991.250
       223   03 Jun 2027 07:04:14.946   03 Jun 2027 07:04:38.477            23.531                Anadyr1           735.344
       224   03 Jun 2027 07:05:43.594   03 Jun 2027 07:06:07.733            24.139               Magadan1           754.344
       225   03 Jun 2027 07:07:04.253   03 Jun 2027 07:07:30.433            26.180                Anadyr1           818.125
       226   03 Jun 2027 07:39:31.810   03 Jun 2027 07:42:10.208           158.398               CapeTown          4949.937
       227   03 Jun 2027 08:37:42.778   03 Jun 2027 08:37:50.695             7.917                Anadyr1           247.406
       228   03 Jun 2027 08:37:58.295   03 Jun 2027 08:37:59.170             0.875               Magadan2            27.344
       229   03 Jun 2027 08:37:59.170   03 Jun 2027 08:38:20.253            21.083               Magadan1           658.844
       230   03 Jun 2027 08:38:26.312   03 Jun 2027 08:38:58.450            32.138                Anadyr1          1004.312
       231   03 Jun 2027 08:39:03.865   03 Jun 2027 08:39:46.102            42.237               Magadan2          1319.906
       232   03 Jun 2027 08:40:15.154   03 Jun 2027 08:40:17.280             2.126               Magadan1            66.437
       233   03 Jun 2027 08:40:32.632   03 Jun 2027 08:41:59.095            86.463                Anadyr2          2701.969
       234   03 Jun 2027 08:52:00.603   03 Jun 2027 08:52:15.119            14.516                 Moscow           453.625
       235   03 Jun 2027 09:29:19.926   03 Jun 2027 09:29:43.729            23.803            RioGallegos           743.844
       236   03 Jun 2027 10:09:05.736   03 Jun 2027 10:09:36.969            31.233               Magadan2           976.031
       237   03 Jun 2027 10:12:05.683   03 Jun 2027 10:12:29.227            23.544                Irkutsk           735.750
       238   03 Jun 2027 10:12:59.269   03 Jun 2027 10:13:34.765            35.496               Magadan1          1109.250
       239   03 Jun 2027 10:13:34.765   03 Jun 2027 10:16:07.393           152.628               Magadan2          4769.625
       240   03 Jun 2027 10:16:25.111   03 Jun 2027 10:16:52.590            27.479                Norilsk           858.719
       241   03 Jun 2027 10:17:00.127   03 Jun 2027 10:17:24.670            24.543                Norilsk           766.969
       242   03 Jun 2027 10:17:35.802   03 Jun 2027 10:17:56.224            20.422                Norilsk           638.187
       243   03 Jun 2027 10:18:04.775   03 Jun 2027 10:19:50.010           105.235               Magadan1          3288.594
       244   03 Jun 2027 10:59:27.219   03 Jun 2027 11:00:14.054            46.835            RioGallegos          1463.594
       245   03 Jun 2027 11:31:51.486   03 Jun 2027 11:33:49.683           118.197                Sumatra          3693.656
       246   03 Jun 2027 11:48:56.498   03 Jun 2027 11:50:56.664           120.166                Irkutsk          3755.187
       247   03 Jun 2027 11:51:00.090   03 Jun 2027 11:53:24.538           144.448               Magadan1          4514.000
       248   03 Jun 2027 11:53:43.209   03 Jun 2027 11:54:41.418            58.209                Norilsk          1819.031
       249   03 Jun 2027 11:54:52.276   03 Jun 2027 11:55:09.239            16.963              Murmansk1           530.094
       250   03 Jun 2027 11:55:09.239   03 Jun 2027 11:55:48.669            39.430              Murmansk2          1232.188
       251   03 Jun 2027 11:56:19.260   03 Jun 2027 11:56:28.398             9.138              Murmansk2           285.562
       252   03 Jun 2027 11:56:57.179   03 Jun 2027 11:57:09.377            12.198                Novosib           381.188
       253   03 Jun 2027 12:00:54.000   03 Jun 2027 12:01:09.161            15.161              Murmansk1           473.781
       254   03 Jun 2027 12:02:20.416   03 Jun 2027 12:02:34.936            14.520              Murmansk2           453.750
       255   03 Jun 2027 12:02:51.947   03 Jun 2027 12:03:01.545             9.598              Murmansk1           299.938
       256   03 Jun 2027 12:03:16.745   03 Jun 2027 12:03:37.249            20.504              Murmansk2           640.750
       257   03 Jun 2027 12:35:05.506   03 Jun 2027 12:36:22.350            76.844            RioGallegos          2401.375
       258   03 Jun 2027 12:40:17.516   03 Jun 2027 12:40:49.272            31.756            RioGallegos           992.375
       259   03 Jun 2027 12:42:58.124   03 Jun 2027 12:43:04.607             6.483            RioGallegos           202.594
       260   03 Jun 2027 13:07:32.654   03 Jun 2027 13:08:22.948            50.294                Sumatra          1571.687
       261   03 Jun 2027 13:09:58.367   03 Jun 2027 13:11:05.001            66.634                Sumatra          2082.313
       262   03 Jun 2027 13:14:14.513   03 Jun 2027 13:15:10.246            55.733                Sumatra          1741.656
       263   03 Jun 2027 13:20:08.353   03 Jun 2027 13:21:47.565            99.212                Irkutsk          3100.375
       264   03 Jun 2027 13:25:07.574   03 Jun 2027 13:25:15.126             7.552                Irkutsk           236.000
       265   03 Jun 2027 13:27:43.380   03 Jun 2027 13:30:05.877           142.497                Irkutsk          4453.031
       266   03 Jun 2027 14:14:07.923   03 Jun 2027 14:14:30.980            23.057            RioGallegos           720.531
       267   03 Jun 2027 14:50:00.022   03 Jun 2027 14:50:31.545            31.523                  Delhi           985.094
       268   03 Jun 2027 14:54:32.506   03 Jun 2027 14:54:56.906            24.400                  Delhi           762.500
       269   03 Jun 2027 14:57:40.854   03 Jun 2027 14:59:52.710           131.856                  Delhi          4120.500
       270   03 Jun 2027 15:01:23.566   03 Jun 2027 15:03:24.513           120.947                Novosib          3779.594
       271   03 Jun 2027 15:05:17.514   03 Jun 2027 15:08:16.391           178.877                Novosib          5589.906
       272   03 Jun 2027 16:33:57.303   03 Jun 2027 16:35:05.240            67.937                 Moscow          2123.031
       273   03 Jun 2027 16:37:27.742   03 Jun 2027 16:38:16.004            48.262              Murmansk1          1508.187
       274   03 Jun 2027 16:38:45.011   03 Jun 2027 16:39:31.126            46.115              Murmansk2          1441.094
       275   03 Jun 2027 16:42:31.555   03 Jun 2027 16:46:59.954           268.399                Norilsk          8387.469
       276   03 Jun 2027 18:12:03.912   03 Jun 2027 18:13:35.454            91.542                 Moscow          2860.687
       277   03 Jun 2027 18:14:54.095   03 Jun 2027 18:16:20.381            86.286              Murmansk1          2696.437
       278   03 Jun 2027 18:16:43.599   03 Jun 2027 18:18:03.283            79.684              Murmansk1          2490.125
       279   03 Jun 2027 18:33:28.557   03 Jun 2027 18:33:31.003             2.446                Anadyr1            76.437
       280   03 Jun 2027 18:33:34.688   03 Jun 2027 18:33:35.408             0.720                Anadyr1            22.500
       281   03 Jun 2027 18:37:16.316   03 Jun 2027 18:37:46.312            29.996                Anadyr1           937.375
       282   03 Jun 2027 18:38:01.221   03 Jun 2027 18:38:29.919            28.698                Anadyr1           896.812
       283   03 Jun 2027 19:23:37.831   03 Jun 2027 19:25:12.906            95.075               CapeTown          2971.094
       284   03 Jun 2027 19:27:54.725   03 Jun 2027 19:28:00.062             5.337               CapeTown           166.781
       285   03 Jun 2027 19:32:13.049   03 Jun 2027 19:32:55.542            42.493               CapeTown          1327.906
       286   03 Jun 2027 19:54:46.973   03 Jun 2027 19:57:10.908           143.935              Murmansk2          4497.969
       287   03 Jun 2027 19:57:29.975   03 Jun 2027 20:01:30.123           240.148              Murmansk1          7504.625
       288   03 Jun 2027 21:39:55.675   03 Jun 2027 21:44:28.647           272.972                Anadyr2          8530.375
       289   03 Jun 2027 21:44:37.068   03 Jun 2027 21:46:50.531           133.463               Magadan2          4170.719
       290   03 Jun 2027 21:47:18.213   03 Jun 2027 21:47:24.758             6.545               Magadan2           204.531
       291   03 Jun 2027 21:47:32.667   03 Jun 2027 21:48:00.532            27.865               Magadan2           870.781
       292   03 Jun 2027 21:53:03.215   03 Jun 2027 21:53:35.505            32.290               Magadan1          1009.062
       293   03 Jun 2027 22:35:45.886   03 Jun 2027 22:37:47.628           121.742            RioGallegos          3804.438
       294   03 Jun 2027 22:37:53.295   03 Jun 2027 22:37:58.174             4.879            RioGallegos           152.469
       295   03 Jun 2027 22:40:22.058   03 Jun 2027 22:40:49.247            27.189            RioGallegos           849.656
       296   03 Jun 2027 23:15:44.512   03 Jun 2027 23:17:31.201           106.689                Anadyr1          3334.031
       297   03 Jun 2027 23:17:50.113   03 Jun 2027 23:19:26.010            95.897                Norilsk          2996.781
       298   03 Jun 2027 23:19:50.770   03 Jun 2027 23:19:55.755             4.985               Magadan1           155.781
       299   03 Jun 2027 23:19:55.755   03 Jun 2027 23:20:23.154            27.399               Magadan2           856.219
       300   03 Jun 2027 23:20:28.509   03 Jun 2027 23:21:02.817            34.308               Magadan2          1072.125
       301   03 Jun 2027 23:22:18.593   03 Jun 2027 23:23:00.214            41.621               Magadan1          1300.656
       302   03 Jun 2027 23:23:02.972   03 Jun 2027 23:23:24.891            21.919                Irkutsk           684.969
       303   03 Jun 2027 23:25:08.539   03 Jun 2027 23:25:52.243            43.704                Irkutsk          1365.750
       304   03 Jun 2027 23:37:25.699   03 Jun 2027 23:38:05.699            40.000                Sumatra          1250.000
       305   03 Jun 2027 23:38:44.711   03 Jun 2027 23:39:22.154            37.443                Sumatra          1170.094
       306   03 Jun 2027 23:41:12.231   03 Jun 2027 23:41:47.480            35.249                Sumatra          1101.531
       307   03 Jun 2027 23:45:58.223   03 Jun 2027 23:46:05.882             7.659                Sumatra           239.344
       308   03 Jun 2027 23:46:26.306   03 Jun 2027 23:46:27.314             1.008                Sumatra            31.500
       309   04 Jun 2027 00:12:33.356   04 Jun 2027 00:13:25.753            52.397            RioGallegos          1637.406
       310   04 Jun 2027 00:16:41.034   04 Jun 2027 00:17:11.551            30.517            RioGallegos           953.656
       311   04 Jun 2027 00:21:00.877   04 Jun 2027 00:21:31.426            30.549            RioGallegos           954.656
       312   04 Jun 2027 00:50:58.874   04 Jun 2027 00:51:26.938            28.064                Anadyr2           877.000
       313   04 Jun 2027 00:51:57.513   04 Jun 2027 00:52:28.231            30.718                Anadyr2           959.938
       314   04 Jun 2027 00:52:50.877   04 Jun 2027 00:53:27.087            36.210                Anadyr1          1131.563
       315   04 Jun 2027 00:53:51.906   04 Jun 2027 00:54:28.927            37.021                Norilsk          1156.906
       316   04 Jun 2027 00:54:31.638   04 Jun 2027 00:55:35.206            63.568               Magadan1          1986.500
       317   04 Jun 2027 00:56:14.599   04 Jun 2027 00:57:16.277            61.678               Magadan2          1927.437
       318   04 Jun 2027 00:57:33.501   04 Jun 2027 00:58:35.014            61.513                Irkutsk          1922.281
       319   04 Jun 2027 00:59:36.585   04 Jun 2027 01:00:25.383            48.798                Novosib          1524.937
       320   04 Jun 2027 01:04:37.745   04 Jun 2027 01:05:02.630            24.885                Irkutsk           777.656
       321   04 Jun 2027 01:09:46.692   04 Jun 2027 01:10:09.483            22.791                  Delhi           712.219
       322   04 Jun 2027 01:11:31.907   04 Jun 2027 01:13:25.877           113.970                Sumatra          3561.563
       323   04 Jun 2027 01:53:45.419   04 Jun 2027 01:54:07.009            21.590            RioGallegos           674.687
       324   04 Jun 2027 01:54:59.694   04 Jun 2027 01:55:20.377            20.683            RioGallegos           646.344
       325   04 Jun 2027 01:57:23.486   04 Jun 2027 01:57:42.000            18.514            RioGallegos           578.563
       326   04 Jun 2027 02:25:10.920   04 Jun 2027 02:25:26.577            15.657                Anadyr2           489.281
       327   04 Jun 2027 02:26:36.311   04 Jun 2027 02:26:54.390            18.079                Anadyr2           564.969
       328   04 Jun 2027 02:27:04.775   04 Jun 2027 02:27:22.276            17.501                Anadyr2           546.906
       329   04 Jun 2027 02:29:07.849   04 Jun 2027 02:29:26.341            18.492                Anadyr1           577.875
       330   04 Jun 2027 02:29:39.806   04 Jun 2027 02:30:48.135            68.329                Norilsk          2135.281
       331   04 Jun 2027 02:31:00.243   04 Jun 2027 02:31:25.634            25.391                Norilsk           793.469
       332   04 Jun 2027 02:32:26.842   04 Jun 2027 02:33:18.669            51.827              Murmansk2          1619.594
       333   04 Jun 2027 02:33:27.109   04 Jun 2027 02:34:06.531            39.422                Novosib          1231.938
       334   04 Jun 2027 02:34:15.573   04 Jun 2027 02:35:06.134            50.561                Irkutsk          1580.031
       335   04 Jun 2027 02:38:28.620   04 Jun 2027 02:38:35.825             7.205                Irkutsk           225.156
       336   04 Jun 2027 02:39:36.647   04 Jun 2027 02:41:07.069            90.422                Irkutsk          2825.687
       337   04 Jun 2027 03:22:51.986   04 Jun 2027 03:23:47.786            55.800            RioGallegos          1743.750
       338   04 Jun 2027 03:24:12.042   04 Jun 2027 03:24:47.809            35.767            RioGallegos          1117.719
       339   04 Jun 2027 03:26:06.372   04 Jun 2027 03:28:08.987           122.615            RioGallegos          3831.719
       340   04 Jun 2027 04:14:11.418   04 Jun 2027 04:14:14.926             3.508                Norilsk           109.625
       341   04 Jun 2027 04:14:30.438   04 Jun 2027 04:14:54.425            23.987                Novosib           749.594
       342   04 Jun 2027 04:15:23.139   04 Jun 2027 04:15:43.890            20.751                Irkutsk           648.469
       343   04 Jun 2027 04:15:52.151   04 Jun 2027 04:16:14.730            22.579              Murmansk2           705.594
       344   04 Jun 2027 04:16:14.730   04 Jun 2027 04:17:04.007            49.277              Murmansk1          1539.906
       345   04 Jun 2027 04:17:16.329   04 Jun 2027 04:18:29.605            73.276                 Moscow          2289.875
       346   04 Jun 2027 05:51:52.246   04 Jun 2027 05:52:32.067            39.821                Novosib          1244.406
       347   04 Jun 2027 05:52:44.071   04 Jun 2027 05:52:44.122             0.051                 Moscow             1.594
       348   04 Jun 2027 05:53:15.786   04 Jun 2027 05:55:30.304           134.518              Murmansk1          4203.688
       349   04 Jun 2027 05:55:30.304   04 Jun 2027 05:55:54.761            24.457              Murmansk2           764.281
       350   04 Jun 2027 06:10:52.611   04 Jun 2027 06:11:11.876            19.265               CapeTown           602.031
       351   04 Jun 2027 06:11:29.946   04 Jun 2027 06:13:15.557           105.611               CapeTown          3300.344
       352   04 Jun 2027 07:13:47.105   04 Jun 2027 07:14:44.301            57.196                Anadyr1          1787.375
       353   04 Jun 2027 07:14:50.045   04 Jun 2027 07:15:05.082            15.037               Magadan2           469.906
       354   04 Jun 2027 07:15:08.298   04 Jun 2027 07:15:18.416            10.118                Anadyr2           316.187
       355   04 Jun 2027 07:15:25.921   04 Jun 2027 07:15:40.542            14.621               Magadan1           456.906
       356   04 Jun 2027 07:15:57.088   04 Jun 2027 07:16:13.484            16.396                Anadyr2           512.375
       357   04 Jun 2027 07:16:40.796   04 Jun 2027 07:17:02.387            21.591                Anadyr2           674.719
       358   04 Jun 2027 07:17:41.339   04 Jun 2027 07:17:54.710            13.371               Magadan2           417.844
       359   04 Jun 2027 07:18:28.355   04 Jun 2027 07:19:47.796            79.441                Anadyr1          2482.531
       360   04 Jun 2027 07:51:31.971   04 Jun 2027 07:54:18.789           166.818               CapeTown          5213.063
       361   04 Jun 2027 08:50:14.682   04 Jun 2027 08:52:32.871           138.189                Anadyr1          4318.406
       362   04 Jun 2027 08:52:50.337   04 Jun 2027 08:54:03.729            73.392               Magadan2          2293.500
       363   04 Jun 2027 08:55:15.285   04 Jun 2027 08:55:28.640            13.355                Anadyr1           417.344
       364   04 Jun 2027 09:03:24.400   04 Jun 2027 09:03:46.670            22.270                 Moscow           695.937
       365   04 Jun 2027 09:37:16.198   04 Jun 2027 09:38:17.411            61.213            RioGallegos          1912.906
       366   04 Jun 2027 10:20:35.710   04 Jun 2027 10:20:44.413             8.703               Magadan1           271.969
       367   04 Jun 2027 10:22:15.096   04 Jun 2027 10:22:38.739            23.643               Magadan2           738.844
       368   04 Jun 2027 10:22:38.739   04 Jun 2027 10:25:32.943           174.204               Magadan1          5443.875
       369   04 Jun 2027 10:25:45.539   04 Jun 2027 10:29:03.543           198.004               Magadan2          6187.625
       370   04 Jun 2027 10:29:12.730   04 Jun 2027 10:30:26.109            73.379                Anadyr1          2293.094
       371   04 Jun 2027 10:30:31.295   04 Jun 2027 10:30:58.082            26.787               Magadan2           837.094
       372   04 Jun 2027 10:31:03.472   04 Jun 2027 10:31:10.310             6.838                Norilsk           213.688
       373   04 Jun 2027 10:31:12.680   04 Jun 2027 10:31:32.067            19.387                Norilsk           605.844
       374   04 Jun 2027 10:31:34.958   04 Jun 2027 10:31:45.855            10.897                Norilsk           340.531
       375   04 Jun 2027 10:31:45.979   04 Jun 2027 10:31:55.642             9.663              Murmansk1           301.969
       376   04 Jun 2027 10:33:01.062   04 Jun 2027 10:33:16.656            15.594              Murmansk1           487.312
       377   04 Jun 2027 10:40:23.996   04 Jun 2027 10:40:35.595            11.599              Murmansk1           362.469
       378   04 Jun 2027 11:06:42.848   04 Jun 2027 11:07:47.077            64.229            RioGallegos          2007.156
       379   04 Jun 2027 11:43:04.092   04 Jun 2027 11:44:48.381           104.289                Sumatra          3259.031
       380   04 Jun 2027 12:07:21.799   04 Jun 2027 12:07:35.831            14.032                Novosib           438.500
       381   04 Jun 2027 12:08:27.907   04 Jun 2027 12:08:30.729             2.822              Murmansk2            88.188
       382   04 Jun 2027 12:08:58.061   04 Jun 2027 12:09:27.863            29.802                Norilsk           931.313
       383   04 Jun 2027 12:12:04.866   04 Jun 2027 12:12:07.092             2.226              Murmansk2            69.563
       384   04 Jun 2027 12:12:10.829   04 Jun 2027 12:12:15.093             4.264              Murmansk2           133.250
       385   04 Jun 2027 12:12:37.401   04 Jun 2027 12:12:48.791            11.390                Norilsk           355.937
       386   04 Jun 2027 12:13:04.579   04 Jun 2027 12:13:31.339            26.760              Murmansk1           836.250
       387   04 Jun 2027 12:47:33.977   04 Jun 2027 12:48:12.795            38.818            RioGallegos          1213.063
       388   04 Jun 2027 12:51:22.832   04 Jun 2027 12:51:57.687            34.855            RioGallegos          1089.219
       389   04 Jun 2027 12:53:13.154   04 Jun 2027 12:53:43.951            30.797            RioGallegos           962.406
       390   04 Jun 2027 13:17:39.248   04 Jun 2027 13:17:58.350            19.102                Sumatra           596.937
       391   04 Jun 2027 13:19:20.694   04 Jun 2027 13:20:12.388            51.694                Sumatra          1615.437
       392   04 Jun 2027 13:23:02.000   04 Jun 2027 13:23:08.024             6.024                Sumatra           188.250
       393   04 Jun 2027 13:24:41.751   04 Jun 2027 13:26:13.815            92.064                Sumatra          2877.000
       394   04 Jun 2027 13:33:00.560   04 Jun 2027 13:33:39.629            39.069                Irkutsk          1220.906
       395   04 Jun 2027 13:35:56.421   04 Jun 2027 13:37:38.179           101.758                Irkutsk          3179.938
       396   04 Jun 2027 13:48:23.815   04 Jun 2027 13:48:48.676            24.861                Norilsk           776.906
       397   04 Jun 2027 15:02:24.119   04 Jun 2027 15:04:11.849           107.730                  Delhi          3366.562
       398   04 Jun 2027 15:06:35.825   04 Jun 2027 15:07:00.451            24.626                  Delhi           769.562
       399   04 Jun 2027 15:07:34.973   04 Jun 2027 15:07:47.215            12.242                  Delhi           382.563
       400   04 Jun 2027 15:10:19.524   04 Jun 2027 15:12:23.523           123.999                  Delhi          3874.969
       401   04 Jun 2027 15:14:12.510   04 Jun 2027 15:15:33.863            81.353                Novosib          2542.281
       402   04 Jun 2027 15:18:46.484   04 Jun 2027 15:19:33.780            47.296                Norilsk          1478.000
       403   04 Jun 2027 15:22:36.928   04 Jun 2027 15:24:00.760            83.832                Norilsk          2619.750
       404   04 Jun 2027 16:46:02.980   04 Jun 2027 16:49:15.945           192.965                 Moscow          6030.156
       405   04 Jun 2027 16:55:26.524   04 Jun 2027 16:59:22.136           235.612                Norilsk          7362.875
       406   04 Jun 2027 16:59:36.912   04 Jun 2027 16:59:45.002             8.090                Norilsk           252.813
       407   04 Jun 2027 18:11:03.143   04 Jun 2027 18:11:31.442            28.299               CapeTown           884.344
       408   04 Jun 2027 18:24:43.224   04 Jun 2027 18:29:27.989           284.765                 Moscow          8898.906
       409   04 Jun 2027 18:36:35.645   04 Jun 2027 18:37:02.658            27.013              Murmansk1           844.156
       410   04 Jun 2027 18:43:57.390   04 Jun 2027 18:44:05.702             8.312                Anadyr2           259.750
       411   04 Jun 2027 18:44:27.700   04 Jun 2027 18:44:38.745            11.045                Anadyr2           345.156
       412   04 Jun 2027 19:35:50.892   04 Jun 2027 19:37:47.923           117.031               CapeTown          3657.219
       413   04 Jun 2027 20:07:34.565   04 Jun 2027 20:13:44.857           370.292              Murmansk1         11571.625
       414   04 Jun 2027 21:51:57.304   04 Jun 2027 21:55:44.431           227.127                Anadyr2          7097.719
       415   04 Jun 2027 21:55:57.600   04 Jun 2027 21:59:01.535           183.935               Magadan1          5747.969
       416   04 Jun 2027 21:59:05.687   04 Jun 2027 21:59:18.793            13.106               Magadan1           409.563
       417   04 Jun 2027 21:59:18.793   04 Jun 2027 21:59:25.049             6.256               Magadan2           195.500
       418   04 Jun 2027 22:47:13.475   04 Jun 2027 22:50:12.566           179.091            RioGallegos          5596.594
       419   04 Jun 2027 22:53:35.905   04 Jun 2027 22:54:05.438            29.533            RioGallegos           922.906
       420   04 Jun 2027 23:27:43.606   04 Jun 2027 23:28:52.458            68.852                Anadyr1          2151.625
       421   04 Jun 2027 23:28:54.766   04 Jun 2027 23:30:58.197           123.431                Anadyr2          3857.219
       422   04 Jun 2027 23:31:17.133   04 Jun 2027 23:31:47.567            30.434               Magadan1           951.062
       423   04 Jun 2027 23:32:51.426   04 Jun 2027 23:33:08.248            16.822                Norilsk           525.688
       424   04 Jun 2027 23:33:48.215   04 Jun 2027 23:34:28.234            40.019               Magadan2          1250.594
       425   04 Jun 2027 23:34:28.234   04 Jun 2027 23:35:15.859            47.625               Magadan1          1488.281
       426   04 Jun 2027 23:36:29.724   04 Jun 2027 23:37:47.033            77.309                Irkutsk          2415.906
       427   04 Jun 2027 23:48:45.812   04 Jun 2027 23:49:14.437            28.625                Sumatra           894.531
       428   04 Jun 2027 23:51:35.134   04 Jun 2027 23:52:13.844            38.710                Sumatra          1209.688
       429   04 Jun 2027 23:53:31.696   04 Jun 2027 23:55:01.294            89.598                Sumatra          2799.937
       430   05 Jun 2027 00:33:05.916   05 Jun 2027 00:33:23.937            18.021            RioGallegos           563.156
       431   05 Jun 2027 01:02:50.798   05 Jun 2027 01:03:02.402            11.604                Anadyr2           362.625
       432   05 Jun 2027 01:03:28.026   05 Jun 2027 01:04:50.780            82.754                Anadyr2          2586.063
       433   05 Jun 2027 01:05:15.495   05 Jun 2027 01:05:25.912            10.417                Anadyr2           325.531
       434   05 Jun 2027 01:05:40.931   05 Jun 2027 01:07:28.261           107.330                Norilsk          3354.063
       435   05 Jun 2027 01:09:34.132   05 Jun 2027 01:12:32.107           177.975                Irkutsk          5561.719
       436   05 Jun 2027 01:18:18.436   05 Jun 2027 01:18:47.628            29.192                Novosib           912.250
       437   05 Jun 2027 01:19:17.002   05 Jun 2027 01:21:08.508           111.506                  Delhi          3484.562
       438   05 Jun 2027 01:57:47.455   05 Jun 2027 01:58:35.394            47.939            RioGallegos          1498.094
       439   05 Jun 2027 02:01:49.992   05 Jun 2027 02:02:11.497            21.505            RioGallegos           672.031
       440   05 Jun 2027 02:03:00.261   05 Jun 2027 02:03:25.063            24.802            RioGallegos           775.062
       441   05 Jun 2027 02:09:18.214   05 Jun 2027 02:09:25.020             6.806            RioGallegos           212.687
       442   05 Jun 2027 02:38:36.692   05 Jun 2027 02:38:50.136            13.444                Anadyr2           420.125
       443   05 Jun 2027 02:38:50.136   05 Jun 2027 02:39:20.303            30.167                Anadyr1           942.719
       444   05 Jun 2027 02:41:42.000   05 Jun 2027 02:43:24.265           102.265                Norilsk          3195.781
       445   05 Jun 2027 02:44:18.088   05 Jun 2027 02:45:08.262            50.174              Murmansk1          1567.938
       446   05 Jun 2027 02:45:08.262   05 Jun 2027 02:45:30.399            22.137              Murmansk2           691.781
       447   05 Jun 2027 02:45:51.064   05 Jun 2027 02:47:10.272            79.208                Irkutsk          2475.250
       448   05 Jun 2027 02:52:28.723   05 Jun 2027 02:53:19.351            50.628                Irkutsk          1582.125
       449   05 Jun 2027 02:57:17.896   05 Jun 2027 02:59:20.291           122.395                  Delhi          3824.844
       450   05 Jun 2027 03:35:58.359   05 Jun 2027 03:36:20.689            22.330            RioGallegos           697.812
       451   05 Jun 2027 03:37:42.992   05 Jun 2027 03:38:43.400            60.408            RioGallegos          1887.750
       452   05 Jun 2027 03:38:46.285   05 Jun 2027 03:40:25.976            99.691            RioGallegos          3115.344
       453   05 Jun 2027 04:27:07.478   05 Jun 2027 04:27:21.991            14.513              Murmansk1           453.531
       454   05 Jun 2027 04:27:47.086   05 Jun 2027 04:28:05.892            18.806                Norilsk           587.688
       455   05 Jun 2027 04:28:34.855   05 Jun 2027 04:29:05.745            30.890              Murmansk1           965.312
       456   05 Jun 2027 04:29:08.379   05 Jun 2027 04:29:16.148             7.769                 Moscow           242.781
       457   05 Jun 2027 04:29:18.437   05 Jun 2027 04:29:23.434             4.997              Murmansk1           156.156
       458   05 Jun 2027 04:29:23.434   05 Jun 2027 04:30:09.851            46.417              Murmansk2          1450.531
       459   05 Jun 2027 04:31:48.047   05 Jun 2027 04:32:14.580            26.533                 Moscow           829.156
       460   05 Jun 2027 04:32:19.226   05 Jun 2027 04:33:27.192            67.966                  Delhi          2123.938
       461   05 Jun 2027 04:34:58.782   05 Jun 2027 04:35:42.915            44.133                  Delhi          1379.156
       462   05 Jun 2027 06:01:45.721   05 Jun 2027 06:02:09.630            23.909                Novosib           747.156
       463   05 Jun 2027 06:04:20.847   05 Jun 2027 06:05:04.976            44.129              Murmansk1          1379.031
       464   05 Jun 2027 06:05:22.431   05 Jun 2027 06:06:42.368            79.937                 Moscow          2498.031
       465   05 Jun 2027 06:22:59.707   05 Jun 2027 06:25:00.894           121.187               CapeTown          3787.094
       466   05 Jun 2027 07:25:37.708   05 Jun 2027 07:26:45.429            67.721                Anadyr1          2116.281
       467   05 Jun 2027 07:27:00.074   05 Jun 2027 07:27:13.168            13.094               Magadan2           409.188
       468   05 Jun 2027 07:27:37.423   05 Jun 2027 07:28:05.965            28.542                Anadyr1           891.938
       469   05 Jun 2027 07:28:14.831   05 Jun 2027 07:28:37.074            22.243                Anadyr2           695.094
       470   05 Jun 2027 07:32:53.732   05 Jun 2027 07:33:05.207            11.475              Murmansk1           358.594
       471   05 Jun 2027 07:34:53.335   05 Jun 2027 07:35:29.773            36.438              Murmansk2          1138.688
       472   05 Jun 2027 07:45:24.427   05 Jun 2027 07:45:38.454            14.027                 Moscow           438.344
       473   05 Jun 2027 08:57:18.234   05 Jun 2027 08:57:32.501            14.267               Magadan2           445.844
       474   05 Jun 2027 08:57:46.938   05 Jun 2027 08:58:06.028            19.090                Anadyr2           596.563
       475   05 Jun 2027 08:59:25.496   05 Jun 2027 09:00:41.436            75.940                Anadyr2          2373.125
       476   05 Jun 2027 09:02:19.212   05 Jun 2027 09:04:32.598           133.386                Anadyr1          4168.313
       477   05 Jun 2027 09:04:55.077   05 Jun 2027 09:06:48.254           113.177               Magadan2          3536.781
       478   05 Jun 2027 09:49:59.517   05 Jun 2027 09:50:09.047             9.530            RioGallegos           297.812
       479   05 Jun 2027 10:36:16.786   05 Jun 2027 10:37:38.347            81.561               Magadan2          2548.781
       480   05 Jun 2027 10:38:06.552   05 Jun 2027 10:43:02.113           295.561               Magadan2          9236.281
       481   05 Jun 2027 10:43:14.913   05 Jun 2027 10:43:41.216            26.303               Magadan2           821.969
       482   05 Jun 2027 10:45:17.476   05 Jun 2027 10:45:52.320            34.844              Murmansk1          1088.875
