uniorb/output/strategy_2/Drop/Drop_KinoSat_111708.txt

KinoSat_111708
-------------------------
    Access    *     Start Time (UTCG)     *     Stop Time (UTCG)  *   Duration (s)        *       Station  *  Data (Mbytes)
         1   01 Jun 2027 04:22:35.826   01 Jun 2027 04:22:47.586            11.760                 Moscow           367.500
         2   01 Jun 2027 04:23:09.819   01 Jun 2027 04:23:29.032            19.213              Murmansk2           600.406
         3   01 Jun 2027 04:23:34.826   01 Jun 2027 04:28:53.686           318.860                 Moscow          9964.375
         4   01 Jun 2027 04:42:01.141   01 Jun 2027 04:45:02.814           181.673               CapeTown          5677.281
         5   01 Jun 2027 05:58:11.129   01 Jun 2027 05:58:43.930            32.801              Murmansk2          1025.031
         6   01 Jun 2027 05:58:50.997   01 Jun 2027 05:58:53.332             2.335              Murmansk2            72.969
         7   01 Jun 2027 05:59:00.090   01 Jun 2027 06:00:42.363           102.273                 Moscow          3196.031
         8   01 Jun 2027 06:01:02.462   01 Jun 2027 06:02:15.418            72.956              Murmansk1          2279.875
         9   01 Jun 2027 07:22:04.552   01 Jun 2027 07:25:14.175           189.623                Anadyr2          5925.719
        10   01 Jun 2027 07:25:30.101   01 Jun 2027 07:26:36.813            66.712                Anadyr2          2084.750
        11   01 Jun 2027 08:57:59.700   01 Jun 2027 08:58:52.468            52.768                Irkutsk          1649.000
        12   01 Jun 2027 08:59:09.069   01 Jun 2027 08:59:58.120            49.051               Magadan2          1532.844
        13   01 Jun 2027 08:59:58.120   01 Jun 2027 09:00:24.227            26.107               Magadan1           815.844
        14   01 Jun 2027 09:00:32.452   01 Jun 2027 09:02:10.837            98.385                Anadyr2          3074.531
        15   01 Jun 2027 10:32:53.153   01 Jun 2027 10:33:56.325            63.172               Magadan1          1974.125
        16   01 Jun 2027 10:33:56.325   01 Jun 2027 10:37:30.150           213.825               Magadan2          6682.031
        17   01 Jun 2027 12:57:14.691   01 Jun 2027 13:00:33.250           198.559            RioGallegos          6204.969
        18   01 Jun 2027 13:31:06.010   01 Jun 2027 13:34:12.232           186.222                Sumatra          5819.437
        19   01 Jun 2027 13:45:04.238   01 Jun 2027 13:45:20.704            16.466                Irkutsk           514.563
        20   01 Jun 2027 15:10:14.755   01 Jun 2027 15:12:35.148           140.393                  Delhi          4387.281
        21   01 Jun 2027 15:15:17.561   01 Jun 2027 15:18:11.650           174.089                  Delhi          5440.281
        22   01 Jun 2027 15:22:43.624   01 Jun 2027 15:23:11.426            27.802                Novosib           868.812
        23   01 Jun 2027 15:25:10.607   01 Jun 2027 15:25:40.002            29.395                Novosib           918.594
        24   01 Jun 2027 17:17:36.829   01 Jun 2027 17:17:58.896            22.067                Anadyr2           689.594
        25   01 Jun 2027 18:11:33.550   01 Jun 2027 18:12:28.719            55.169               CapeTown          1724.031
        26   01 Jun 2027 18:13:22.593   01 Jun 2027 18:13:57.752            35.159               CapeTown          1098.719
        27   01 Jun 2027 18:14:36.609   01 Jun 2027 18:15:09.741            33.132               CapeTown          1035.375
        28   01 Jun 2027 18:33:11.285   01 Jun 2027 18:37:19.636           248.351                 Moscow          7760.969
        29   01 Jun 2027 18:57:25.720   01 Jun 2027 18:57:28.496             2.776                Anadyr2            86.750
        30   01 Jun 2027 19:44:02.117   01 Jun 2027 19:46:18.160           136.043               CapeTown          4251.344
        31   01 Jun 2027 19:48:47.136   01 Jun 2027 19:49:07.408            20.272               CapeTown           633.500
        32   01 Jun 2027 20:16:24.542   01 Jun 2027 20:18:48.551           144.009              Murmansk1          4500.281
        33   01 Jun 2027 20:28:14.771   01 Jun 2027 20:28:23.672             8.901               Magadan1           278.156
        34   01 Jun 2027 20:28:28.214   01 Jun 2027 20:29:09.064            40.850                Anadyr2          1276.563
        35   01 Jun 2027 20:29:52.656   01 Jun 2027 20:30:25.042            32.386               Magadan1          1012.063
        36   01 Jun 2027 20:31:50.118   01 Jun 2027 20:32:37.047            46.929               Magadan2          1466.531
        37   01 Jun 2027 20:34:22.687   01 Jun 2027 20:34:58.841            36.154                Anadyr2          1129.813
        38   01 Jun 2027 20:36:01.633   01 Jun 2027 20:36:07.036             5.403               Magadan1           168.844
        39   01 Jun 2027 21:58:01.741   01 Jun 2027 22:01:45.806           224.065                Anadyr2          7002.031
        40   01 Jun 2027 22:02:17.075   01 Jun 2027 22:02:28.802            11.727               Magadan2           366.469
        41   01 Jun 2027 22:02:42.429   01 Jun 2027 22:03:23.010            40.581                Norilsk          1268.156
        42   01 Jun 2027 22:04:31.063   01 Jun 2027 22:05:16.833            45.770                Anadyr2          1430.313
        43   01 Jun 2027 22:07:17.447   01 Jun 2027 22:07:40.226            22.779               Magadan2           711.844
        44   01 Jun 2027 22:08:01.222   01 Jun 2027 22:08:19.904            18.682               Magadan2           583.812
        45   01 Jun 2027 22:09:29.022   01 Jun 2027 22:09:59.832            30.810               Magadan1           962.812
        46   01 Jun 2027 22:10:43.174   01 Jun 2027 22:11:12.640            29.466               Magadan1           920.813
        47   01 Jun 2027 22:54:11.115   01 Jun 2027 22:54:21.005             9.890            RioGallegos           309.062
        48   01 Jun 2027 22:54:35.043   01 Jun 2027 22:55:24.927            49.884            RioGallegos          1558.875
        49   01 Jun 2027 22:58:26.301   01 Jun 2027 22:58:43.327            17.026            RioGallegos           532.063
        50   01 Jun 2027 22:59:24.592   01 Jun 2027 22:59:32.724             8.132            RioGallegos           254.125
        51   01 Jun 2027 23:00:30.771   01 Jun 2027 23:01:02.377            31.606            RioGallegos           987.687
        52   01 Jun 2027 23:01:41.417   01 Jun 2027 23:01:55.556            14.139            RioGallegos           441.844
        53   01 Jun 2027 23:03:04.014   01 Jun 2027 23:03:05.797             1.783            RioGallegos            55.719
        54   01 Jun 2027 23:33:39.332   01 Jun 2027 23:34:46.682            67.350                Anadyr1          2104.687
        55   01 Jun 2027 23:35:30.064   01 Jun 2027 23:35:48.988            18.924                Anadyr2           591.375
        56   01 Jun 2027 23:35:50.577   01 Jun 2027 23:37:31.206           100.629                Norilsk          3144.656
        57   01 Jun 2027 23:37:32.510   01 Jun 2027 23:37:36.372             3.862               Magadan2           120.688
        58   01 Jun 2027 23:37:40.298   01 Jun 2027 23:37:48.928             8.630               Magadan2           269.687
        59   01 Jun 2027 23:37:58.833   01 Jun 2027 23:38:21.600            22.767               Magadan2           711.469
        60   01 Jun 2027 23:38:59.589   01 Jun 2027 23:39:19.667            20.078               Magadan1           627.437
        61   01 Jun 2027 23:40:35.406   01 Jun 2027 23:41:23.200            47.794                Irkutsk          1493.562
        62   01 Jun 2027 23:43:16.544   01 Jun 2027 23:44:27.983            71.439                Novosib          2232.469
        63   01 Jun 2027 23:48:16.908   01 Jun 2027 23:49:05.145            48.237                Irkutsk          1507.406
        64   01 Jun 2027 23:57:56.049   01 Jun 2027 23:59:53.859           117.810                Sumatra          3681.562
        65   02 Jun 2027 00:35:39.761   02 Jun 2027 00:36:45.533            65.772            RioGallegos          2055.375
        66   02 Jun 2027 01:08:25.046   02 Jun 2027 01:10:03.998            98.952                Anadyr1          3092.250
        67   02 Jun 2027 01:10:42.517   02 Jun 2027 01:11:06.851            24.334                Anadyr1           760.438
        68   02 Jun 2027 01:11:48.195   02 Jun 2027 01:12:35.955            47.760                Norilsk          1492.500
        69   02 Jun 2027 01:13:00.628   02 Jun 2027 01:13:26.882            26.254                Norilsk           820.437
        70   02 Jun 2027 01:13:44.533   02 Jun 2027 01:13:50.174             5.641               Magadan2           176.281
        71   02 Jun 2027 01:15:40.865   02 Jun 2027 01:16:00.023            19.158                Irkutsk           598.687
        72   02 Jun 2027 01:16:34.669   02 Jun 2027 01:17:37.569            62.900                Irkutsk          1965.625
        73   02 Jun 2027 01:20:35.845   02 Jun 2027 01:21:13.149            37.304                Novosib          1165.750
        74   02 Jun 2027 01:23:12.696   02 Jun 2027 01:23:23.896            11.200                Novosib           350.000
        75   02 Jun 2027 01:24:27.559   02 Jun 2027 01:24:58.514            30.955                Novosib           967.344
        76   02 Jun 2027 01:28:25.997   02 Jun 2027 01:28:49.170            23.173                  Delhi           724.156
        77   02 Jun 2027 01:30:05.811   02 Jun 2027 01:30:28.924            23.113                  Delhi           722.281
        78   02 Jun 2027 01:31:13.563   02 Jun 2027 01:31:30.177            16.614                Sumatra           519.188
        79   02 Jun 2027 01:34:46.126   02 Jun 2027 01:35:07.012            20.886                  Delhi           652.688
        80   02 Jun 2027 01:37:05.109   02 Jun 2027 01:39:50.282           165.173                Sumatra          5161.656
        81   02 Jun 2027 02:43:01.697   02 Jun 2027 02:44:24.804            83.107                Anadyr1          2597.094
        82   02 Jun 2027 02:48:00.017   02 Jun 2027 02:48:25.327            25.310                Norilsk           790.938
        83   02 Jun 2027 02:50:08.869   02 Jun 2027 02:50:27.062            18.193              Murmansk2           568.531
        84   02 Jun 2027 02:51:05.386   02 Jun 2027 02:51:39.413            34.027              Murmansk2          1063.344
        85   02 Jun 2027 02:52:27.288   02 Jun 2027 02:53:04.426            37.138                Novosib          1160.563
        86   02 Jun 2027 02:54:24.873   02 Jun 2027 02:54:40.409            15.536                Irkutsk           485.500
        87   02 Jun 2027 02:57:00.518   02 Jun 2027 02:57:59.098            58.580                Irkutsk          1830.625
        88   02 Jun 2027 04:33:18.424   02 Jun 2027 04:33:38.379            19.955                Novosib           623.594
        89   02 Jun 2027 04:34:45.106   02 Jun 2027 04:37:58.979           193.873              Murmansk1          6058.531
        90   02 Jun 2027 04:38:32.707   02 Jun 2027 04:39:51.148            78.441                 Moscow          2451.281
        91   02 Jun 2027 04:53:40.137   02 Jun 2027 04:55:58.022           137.885               CapeTown          4308.906
        92   02 Jun 2027 04:56:25.032   02 Jun 2027 04:56:37.160            12.128               CapeTown           379.000
        93   02 Jun 2027 05:57:36.309   02 Jun 2027 05:59:24.903           108.594                Anadyr2          3393.562
        94   02 Jun 2027 06:09:00.798   02 Jun 2027 06:09:38.504            37.706              Murmansk2          1178.312
        95   02 Jun 2027 06:10:03.703   02 Jun 2027 06:10:33.275            29.572              Murmansk2           924.125
        96   02 Jun 2027 06:11:30.006   02 Jun 2027 06:11:34.269             4.263              Murmansk1           133.219
        97   02 Jun 2027 06:12:12.627   02 Jun 2027 06:12:37.486            24.859              Murmansk1           776.844
        98   02 Jun 2027 06:13:00.780   02 Jun 2027 06:13:24.359            23.579              Murmansk1           736.844
        99   02 Jun 2027 07:32:45.917   02 Jun 2027 07:35:08.176           142.259                Anadyr1          4445.594
       100   02 Jun 2027 07:35:08.176   02 Jun 2027 07:36:00.329            52.153                Anadyr2          1629.781
       101   02 Jun 2027 09:09:35.906   02 Jun 2027 09:09:55.586            19.680                Norilsk           615.000
       102   02 Jun 2027 09:10:07.384   02 Jun 2027 09:14:04.971           237.587                Anadyr2          7424.594
       103   02 Jun 2027 10:40:18.601   02 Jun 2027 10:41:05.110            46.509                Irkutsk          1453.406
       104   02 Jun 2027 10:42:41.971   02 Jun 2027 10:42:43.561             1.590                Novosib            49.687
       105   02 Jun 2027 10:42:58.831   02 Jun 2027 10:46:26.606           207.775               Magadan2          6492.969
       106   02 Jun 2027 10:46:46.389   02 Jun 2027 10:49:18.763           152.374               Magadan2          4761.688
       107   02 Jun 2027 10:49:34.955   02 Jun 2027 10:50:02.646            27.691                Norilsk           865.344
       108   02 Jun 2027 10:50:53.610   02 Jun 2027 10:51:02.421             8.811              Murmansk1           275.344
       109   02 Jun 2027 10:53:01.534   02 Jun 2027 10:53:07.942             6.408              Murmansk2           200.250
       110   02 Jun 2027 10:53:57.416   02 Jun 2027 10:54:38.824            41.408              Murmansk1          1294.000
       111   02 Jun 2027 11:24:40.433   02 Jun 2027 11:25:38.377            57.944            RioGallegos          1810.750
       112   02 Jun 2027 11:59:44.399   02 Jun 2027 12:00:25.334            40.935                Sumatra          1279.219
       113   02 Jun 2027 12:11:22.447   02 Jun 2027 12:12:15.557            53.110                  Delhi          1659.688
       114   02 Jun 2027 12:13:21.697   02 Jun 2027 12:15:02.929           101.232                Irkutsk          3163.500
       115   02 Jun 2027 12:18:01.002   02 Jun 2027 12:19:09.470            68.468                Norilsk          2139.625
       116   02 Jun 2027 12:26:57.204   02 Jun 2027 12:27:07.116             9.912              Murmansk2           309.750
       117   02 Jun 2027 12:31:34.123   02 Jun 2027 12:31:42.174             8.051              Murmansk1           251.594
       118   02 Jun 2027 13:03:17.488   02 Jun 2027 13:05:35.907           138.419            RioGallegos          4325.594
       119   02 Jun 2027 13:37:41.630   02 Jun 2027 13:40:22.645           161.015                Sumatra          5031.719
       120   02 Jun 2027 13:53:32.467   02 Jun 2027 13:57:06.423           213.956                Irkutsk          6686.125
       121   02 Jun 2027 15:23:34.573   02 Jun 2027 15:24:24.717            50.144                  Delhi          1567.000
       122   02 Jun 2027 15:27:21.811   02 Jun 2027 15:27:30.505             8.694                  Delhi           271.687
       123   02 Jun 2027 15:28:18.411   02 Jun 2027 15:29:05.767            47.356                 Moscow          1479.875
       124   02 Jun 2027 15:31:26.335   02 Jun 2027 15:31:55.189            28.854                 Moscow           901.688
       125   02 Jun 2027 15:31:58.297   02 Jun 2027 15:36:00.319           242.022                Novosib          7563.187
       126   02 Jun 2027 15:38:07.781   02 Jun 2027 15:38:25.831            18.050                Norilsk           564.062
       127   02 Jun 2027 15:42:35.141   02 Jun 2027 15:42:47.498            12.357                Norilsk           386.156
       128   02 Jun 2027 16:43:49.026   02 Jun 2027 16:44:17.579            28.553               CapeTown           892.281
       129   02 Jun 2027 16:50:25.959   02 Jun 2027 16:50:51.838            25.879               CapeTown           808.719
       130   02 Jun 2027 17:04:51.225   02 Jun 2027 17:05:24.209            32.984                 Moscow          1030.750
       131   02 Jun 2027 17:07:40.725   02 Jun 2027 17:09:19.710            98.985                 Moscow          3093.281
       132   02 Jun 2027 17:16:42.601   02 Jun 2027 17:16:46.629             4.028              Murmansk1           125.875
       133   02 Jun 2027 17:16:57.840   02 Jun 2027 17:17:36.446            38.606              Murmansk2          1206.437
       134   02 Jun 2027 17:22:54.635   02 Jun 2027 17:24:01.776            67.141                Anadyr1          2098.156
       135   02 Jun 2027 17:24:48.298   02 Jun 2027 17:25:49.655            61.357                Anadyr1          1917.406
       136   02 Jun 2027 18:17:35.676   02 Jun 2027 18:19:58.194           142.518               CapeTown          4453.688
       137   02 Jun 2027 18:46:57.053   02 Jun 2027 18:50:26.013           208.960              Murmansk2          6530.000
       138   02 Jun 2027 18:51:23.907   02 Jun 2027 18:52:15.869            51.962              Murmansk2          1623.813
       139   02 Jun 2027 19:02:27.727   02 Jun 2027 19:02:40.339            12.612               Magadan2           394.125
       140   02 Jun 2027 19:02:54.649   02 Jun 2027 19:03:16.008            21.359               Magadan2           667.469
       141   02 Jun 2027 19:03:39.591   02 Jun 2027 19:04:21.210            41.619               Magadan1          1300.594
       142   02 Jun 2027 19:55:23.235   02 Jun 2027 19:55:47.961            24.726               CapeTown           772.687
       143   02 Jun 2027 19:58:02.260   02 Jun 2027 19:59:09.087            66.827               CapeTown          2088.344
       144   02 Jun 2027 19:59:56.258   02 Jun 2027 20:00:20.739            24.481               CapeTown           765.031
       145   02 Jun 2027 20:34:08.175   02 Jun 2027 20:37:24.044           195.869                Anadyr1          6120.906
       146   02 Jun 2027 20:37:26.437   02 Jun 2027 20:38:58.454            92.017               Magadan1          2875.531
       147   02 Jun 2027 20:39:35.084   02 Jun 2027 20:40:03.729            28.645               Magadan1           895.156
       148   02 Jun 2027 22:10:02.583   02 Jun 2027 22:13:45.101           222.518                Anadyr1          6953.688
       149   02 Jun 2027 22:13:45.740   02 Jun 2027 22:15:49.802           124.062                Norilsk          3876.937
       150   02 Jun 2027 22:16:01.811   02 Jun 2027 22:16:15.347            13.536               Magadan1           423.000
       151   02 Jun 2027 22:16:57.358   02 Jun 2027 22:17:23.378            26.020               Magadan1           813.125
       152   02 Jun 2027 22:18:18.952   02 Jun 2027 22:19:11.796            52.844               Magadan1          1651.375
       153   02 Jun 2027 22:19:21.960   02 Jun 2027 22:20:00.393            38.433               Magadan2          1201.031
       154   02 Jun 2027 22:20:27.058   02 Jun 2027 22:21:01.714            34.656                Irkutsk          1083.000
       155   02 Jun 2027 23:04:19.427   02 Jun 2027 23:06:04.282           104.855            RioGallegos          3276.719
       156   02 Jun 2027 23:06:22.659   02 Jun 2027 23:06:27.549             4.890            RioGallegos           152.813
       157   02 Jun 2027 23:07:30.778   02 Jun 2027 23:07:31.974             1.196            RioGallegos            37.375
       158   02 Jun 2027 23:10:17.002   02 Jun 2027 23:10:27.083            10.081            RioGallegos           315.031
       159   02 Jun 2027 23:45:35.872   02 Jun 2027 23:48:02.723           146.851                Anadyr2          4589.094
       160   02 Jun 2027 23:48:17.499   02 Jun 2027 23:49:05.966            48.467                Norilsk          1514.594
       161   02 Jun 2027 23:49:08.575   02 Jun 2027 23:49:16.702             8.127               Magadan2           253.969
       162   02 Jun 2027 23:49:29.962   02 Jun 2027 23:49:50.847            20.885               Magadan1           652.656
       163   02 Jun 2027 23:50:00.815   02 Jun 2027 23:50:51.118            50.303               Magadan1          1571.969
       164   02 Jun 2027 23:51:58.171   02 Jun 2027 23:52:56.317            58.146                Irkutsk          1817.063
       165   02 Jun 2027 23:53:26.216   02 Jun 2027 23:54:32.244            66.028                Novosib          2063.375
       166   03 Jun 2027 00:00:05.331   03 Jun 2027 00:00:19.777            14.446                Novosib           451.438
       167   03 Jun 2027 00:05:40.322   03 Jun 2027 00:08:21.240           160.918                Sumatra          5028.688
       168   03 Jun 2027 00:41:08.746   03 Jun 2027 00:41:46.623            37.877            RioGallegos          1183.656
       169   03 Jun 2027 00:51:19.995   03 Jun 2027 00:51:29.379             9.384            RioGallegos           293.250
       170   03 Jun 2027 01:20:12.269   03 Jun 2027 01:20:49.943            37.674                Anadyr2          1177.312
       171   03 Jun 2027 01:20:49.943   03 Jun 2027 01:20:54.935             4.992                Anadyr1           156.000
       172   03 Jun 2027 01:20:58.289   03 Jun 2027 01:21:24.066            25.777                Anadyr2           805.531
       173   03 Jun 2027 01:22:05.340   03 Jun 2027 01:22:48.043            42.703                Anadyr2          1334.469
       174   03 Jun 2027 01:23:50.562   03 Jun 2027 01:25:33.390           102.828                Norilsk          3213.375
       175   03 Jun 2027 01:25:37.939   03 Jun 2027 01:26:06.647            28.708               Magadan2           897.125
       176   03 Jun 2027 01:27:44.425   03 Jun 2027 01:29:37.758           113.333                Irkutsk          3541.656
       177   03 Jun 2027 01:30:52.288   03 Jun 2027 01:31:20.683            28.395                Novosib           887.344
       178   03 Jun 2027 01:35:23.826   03 Jun 2027 01:36:00.093            36.267                  Delhi          1133.344
       179   03 Jun 2027 01:36:27.477   03 Jun 2027 01:36:50.000            22.523                  Delhi           703.844
       180   03 Jun 2027 01:41:40.373   03 Jun 2027 01:41:55.087            14.714                  Delhi           459.813
       181   03 Jun 2027 01:44:17.343   03 Jun 2027 01:46:16.641           119.298                Sumatra          3728.063
       182   03 Jun 2027 02:17:28.708   03 Jun 2027 02:17:48.456            19.748            RioGallegos           617.125
       183   03 Jun 2027 02:19:10.971   03 Jun 2027 02:19:43.899            32.928            RioGallegos          1029.000
       184   03 Jun 2027 02:53:39.480   03 Jun 2027 02:53:43.779             4.299                Anadyr1           134.344
       185   03 Jun 2027 02:56:15.020   03 Jun 2027 02:56:27.662            12.642                Anadyr1           395.063
       186   03 Jun 2027 02:57:56.605   03 Jun 2027 02:58:44.540            47.935                Anadyr1          1497.969
       187   03 Jun 2027 02:59:37.186   03 Jun 2027 02:59:43.681             6.495                Anadyr1           202.969
       188   03 Jun 2027 02:59:49.792   03 Jun 2027 03:00:36.664            46.872                Norilsk          1464.750
       189   03 Jun 2027 03:06:08.198   03 Jun 2027 03:06:49.283            41.085                Irkutsk          1283.906
       190   03 Jun 2027 03:07:06.422   03 Jun 2027 03:07:50.633            44.211                 Moscow          1381.594
       191   03 Jun 2027 03:07:53.687   03 Jun 2027 03:08:48.595            54.908                Irkutsk          1715.875
       192   03 Jun 2027 03:09:07.650   03 Jun 2027 03:09:52.591            44.941                 Moscow          1404.406
       193   03 Jun 2027 03:10:04.922   03 Jun 2027 03:11:05.185            60.263              Murmansk2          1883.219
       194   03 Jun 2027 03:11:28.078   03 Jun 2027 03:15:38.448           250.370                  Delhi          7824.063
       195   03 Jun 2027 04:45:50.309   03 Jun 2027 04:47:04.883            74.574              Murmansk1          2330.438
       196   03 Jun 2027 04:47:09.126   03 Jun 2027 04:48:14.028            64.902                 Moscow          2028.188
       197   03 Jun 2027 04:48:24.301   03 Jun 2027 04:50:37.567           133.266                 Moscow          4164.562
       198   03 Jun 2027 05:05:24.798   03 Jun 2027 05:07:15.006           110.208               CapeTown          3444.000
       199   03 Jun 2027 06:08:55.362   03 Jun 2027 06:10:11.740            76.378                Anadyr2          2386.812
       200   03 Jun 2027 06:11:24.447   03 Jun 2027 06:12:02.778            38.331                Anadyr1          1197.844
       201   03 Jun 2027 06:20:09.859   03 Jun 2027 06:20:26.577            16.718              Murmansk1           522.438
       202   03 Jun 2027 06:20:42.154   03 Jun 2027 06:21:14.999            32.845                Norilsk          1026.406
       203   03 Jun 2027 06:21:29.794   03 Jun 2027 06:21:31.003             1.209              Murmansk2            37.781
       204   03 Jun 2027 06:22:23.359   03 Jun 2027 06:22:28.459             5.100              Murmansk2           159.375
       205   03 Jun 2027 06:22:55.710   03 Jun 2027 06:23:22.940            27.230              Murmansk1           850.938
       206   03 Jun 2027 06:24:17.441   03 Jun 2027 06:24:44.417            26.976                 Moscow           843.000
       207   03 Jun 2027 06:42:15.810   03 Jun 2027 06:42:59.525            43.715               CapeTown          1366.094
       208   03 Jun 2027 06:46:08.482   03 Jun 2027 06:47:21.388            72.906               CapeTown          2278.312
       209   03 Jun 2027 07:42:33.970   03 Jun 2027 07:42:56.328            22.358                Anadyr1           698.687
       210   03 Jun 2027 07:43:01.616   03 Jun 2027 07:43:31.173            29.557                Anadyr1           923.656
       211   03 Jun 2027 07:44:27.113   03 Jun 2027 07:44:32.527             5.414               Magadan2           169.188
       212   03 Jun 2027 07:44:32.527   03 Jun 2027 07:44:59.495            26.968               Magadan1           842.750
       213   03 Jun 2027 07:45:21.125   03 Jun 2027 07:45:50.628            29.503                Anadyr1           921.969
       214   03 Jun 2027 07:46:06.350   03 Jun 2027 07:46:30.581            24.231               Magadan1           757.219
       215   03 Jun 2027 07:46:42.711   03 Jun 2027 07:47:11.190            28.479               Magadan1           889.969
       216   03 Jun 2027 07:47:19.541   03 Jun 2027 07:47:57.328            37.787               Magadan1          1180.844
       217   03 Jun 2027 07:48:57.092   03 Jun 2027 07:49:26.687            29.595                Anadyr2           924.844
       218   03 Jun 2027 07:49:45.274   03 Jun 2027 07:49:51.930             6.656               Magadan2           208.000
       219   03 Jun 2027 07:59:33.226   03 Jun 2027 08:00:51.088            77.862                 Moscow          2433.188
       220   03 Jun 2027 09:17:46.222   03 Jun 2027 09:18:12.640            26.418               Magadan1           825.563
       221   03 Jun 2027 09:18:38.953   03 Jun 2027 09:19:21.005            42.052               Magadan2          1314.125
       222   03 Jun 2027 09:19:43.592   03 Jun 2027 09:22:28.742           165.150                Anadyr2          5160.938
       223   03 Jun 2027 09:22:36.798   03 Jun 2027 09:24:33.091           116.293                Anadyr2          3634.156
       224   03 Jun 2027 09:25:36.584   03 Jun 2027 09:25:56.747            20.163                Anadyr2           630.094
       225   03 Jun 2027 10:03:47.148   03 Jun 2027 10:04:51.878            64.730            RioGallegos          2022.812
       226   03 Jun 2027 10:53:23.784   03 Jun 2027 10:58:01.420           277.636               Magadan1          8676.125
       227   03 Jun 2027 10:58:42.897   03 Jun 2027 10:58:57.355            14.458                Novosib           451.813
       228   03 Jun 2027 10:59:01.265   03 Jun 2027 10:59:26.189            24.924                Irkutsk           778.875
       229   03 Jun 2027 10:59:31.002   03 Jun 2027 10:59:37.974             6.972                Norilsk           217.875
       230   03 Jun 2027 10:59:52.012   03 Jun 2027 11:01:03.020            71.008               Magadan2          2219.000
       231   03 Jun 2027 11:01:11.713   03 Jun 2027 11:01:28.932            17.219                Irkutsk           538.094
       232   03 Jun 2027 11:01:35.184   03 Jun 2027 11:01:56.591            21.407                Norilsk           668.969
       233   03 Jun 2027 11:01:58.843   03 Jun 2027 11:02:46.883            48.040                Norilsk          1501.250
       234   03 Jun 2027 11:36:47.172   03 Jun 2027 11:37:32.959            45.787            RioGallegos          1430.844
       235   03 Jun 2027 11:37:49.534   03 Jun 2027 11:38:44.001            54.467            RioGallegos          1702.094
       236   03 Jun 2027 12:11:37.712   03 Jun 2027 12:12:11.404            33.692                Sumatra          1052.875
       237   03 Jun 2027 12:14:43.242   03 Jun 2027 12:14:48.211             4.969                Sumatra           155.281
       238   03 Jun 2027 12:25:36.083   03 Jun 2027 12:27:03.106            87.023                Irkutsk          2719.469
       239   03 Jun 2027 12:27:36.693   03 Jun 2027 12:27:58.372            21.679                Novosib           677.469
       240   03 Jun 2027 12:28:44.800   03 Jun 2027 12:30:08.619            83.819                Irkutsk          2619.344
       241   03 Jun 2027 12:31:08.944   03 Jun 2027 12:31:57.699            48.755                Norilsk          1523.594
       242   03 Jun 2027 13:16:08.638   03 Jun 2027 13:17:30.763            82.125            RioGallegos          2566.406
       243   03 Jun 2027 13:23:21.980   03 Jun 2027 13:23:51.405            29.425            RioGallegos           919.531
       244   03 Jun 2027 13:51:06.814   03 Jun 2027 13:54:48.481           221.667                Sumatra          6927.094
       245   03 Jun 2027 14:03:24.899   03 Jun 2027 14:03:54.231            29.332                Novosib           916.625
       246   03 Jun 2027 14:05:41.899   03 Jun 2027 14:06:05.115            23.216                Novosib           725.500
       247   03 Jun 2027 14:07:04.338   03 Jun 2027 14:09:48.039           163.701                Irkutsk          5115.656
       248   03 Jun 2027 15:40:14.260   03 Jun 2027 15:41:22.922            68.662                 Moscow          2145.687
       249   03 Jun 2027 15:41:54.790   03 Jun 2027 15:42:24.388            29.598                 Moscow           924.938
       250   03 Jun 2027 15:43:29.148   03 Jun 2027 15:43:56.844            27.696                 Moscow           865.500
       251   03 Jun 2027 15:44:39.282   03 Jun 2027 15:44:54.961            15.679              Murmansk2           489.969
       252   03 Jun 2027 15:45:01.983   03 Jun 2027 15:45:43.862            41.879              Murmansk2          1308.719
       253   03 Jun 2027 15:46:14.298   03 Jun 2027 15:47:22.235            67.937                Novosib          2123.031
       254   03 Jun 2027 15:48:45.541   03 Jun 2027 15:49:32.530            46.989                Norilsk          1468.406
       255   03 Jun 2027 15:50:02.071   03 Jun 2027 15:50:51.773            49.702                Norilsk          1553.188
       256   03 Jun 2027 15:51:53.220   03 Jun 2027 15:52:32.440            39.220                Norilsk          1225.625
       257   03 Jun 2027 16:55:10.893   03 Jun 2027 16:55:21.954            11.061               CapeTown           345.656
       258   03 Jun 2027 16:56:05.063   03 Jun 2027 16:57:54.887           109.824               CapeTown          3432.000
       259   03 Jun 2027 17:17:12.899   03 Jun 2027 17:17:13.785             0.886                 Moscow            27.688
       260   03 Jun 2027 17:20:28.951   03 Jun 2027 17:22:16.353           107.402              Murmansk2          3356.312
       261   03 Jun 2027 17:28:44.755   03 Jun 2027 17:29:30.603            45.848              Murmansk1          1432.750
       262   03 Jun 2027 17:35:24.836   03 Jun 2027 17:35:51.599            26.763                Anadyr1           836.344
       263   03 Jun 2027 17:36:03.427   03 Jun 2027 17:36:40.900            37.473                Anadyr1          1171.031
       264   03 Jun 2027 18:29:38.415   03 Jun 2027 18:31:48.180           129.765               CapeTown          4055.156
       265   03 Jun 2027 18:59:31.268   03 Jun 2027 19:00:09.908            38.640              Murmansk2          1207.500
       266   03 Jun 2027 19:00:49.939   03 Jun 2027 19:04:38.476           228.537              Murmansk1          7141.781
       267   03 Jun 2027 19:06:30.696   03 Jun 2027 19:06:50.461            19.765              Murmansk2           617.656
       268   03 Jun 2027 19:13:56.617   03 Jun 2027 19:16:06.212           129.595               Magadan2          4049.844
       269   03 Jun 2027 20:10:45.815   03 Jun 2027 20:11:38.161            52.346               CapeTown          1635.812
       270   03 Jun 2027 20:46:09.987   03 Jun 2027 20:49:27.646           197.659                Anadyr2          6176.844
       271   03 Jun 2027 20:49:34.762   03 Jun 2027 20:50:05.026            30.264               Magadan2           945.750
       272   03 Jun 2027 20:50:07.015   03 Jun 2027 20:51:33.109            86.094               Magadan1          2690.438
       273   03 Jun 2027 21:00:28.793   03 Jun 2027 21:00:43.891            15.098               Magadan1           471.813
       274   03 Jun 2027 22:22:03.108   03 Jun 2027 22:24:02.240           119.132                Anadyr2          3722.875
       275   03 Jun 2027 22:24:05.847   03 Jun 2027 22:25:44.618            98.771                Anadyr1          3086.594
       276   03 Jun 2027 22:25:47.660   03 Jun 2027 22:27:51.422           123.762                Norilsk          3867.562
       277   03 Jun 2027 22:27:53.567   03 Jun 2027 22:29:31.884            98.317               Magadan2          3072.406
       278   03 Jun 2027 22:30:16.434   03 Jun 2027 22:30:40.382            23.948                Irkutsk           748.375
       279   03 Jun 2027 22:31:14.776   03 Jun 2027 22:31:49.416            34.640                Irkutsk          1082.500
       280   03 Jun 2027 22:32:00.030   03 Jun 2027 22:32:14.228            14.198                Irkutsk           443.687
       281   03 Jun 2027 22:34:35.761   03 Jun 2027 22:35:22.539            46.778                Irkutsk          1461.813
       282   03 Jun 2027 22:47:22.885   03 Jun 2027 22:47:27.046             4.161                Sumatra           130.031
       283   03 Jun 2027 22:49:16.279   03 Jun 2027 22:49:38.614            22.335                Sumatra           697.969
       284   03 Jun 2027 23:16:11.982   03 Jun 2027 23:16:57.609            45.627            RioGallegos          1425.844
       285   03 Jun 2027 23:25:14.321   03 Jun 2027 23:25:41.886            27.565            RioGallegos           861.406
       286   03 Jun 2027 23:57:31.498   03 Jun 2027 23:59:47.260           135.762                Anadyr2          4242.562
       287   03 Jun 2027 23:59:53.022   04 Jun 2027 00:00:07.622            14.600                Norilsk           456.250
       288   04 Jun 2027 00:00:28.142   04 Jun 2027 00:00:55.378            27.236               Magadan2           851.125
       289   04 Jun 2027 00:00:57.287   04 Jun 2027 00:01:35.520            38.233                Norilsk          1194.781
       290   04 Jun 2027 00:01:52.520   04 Jun 2027 00:02:03.062            10.542               Magadan1           329.437
       291   04 Jun 2027 00:02:23.897   04 Jun 2027 00:02:56.133            32.236               Magadan1          1007.375
       292   04 Jun 2027 00:03:54.830   04 Jun 2027 00:04:17.610            22.780                Irkutsk           711.875
       293   04 Jun 2027 00:05:00.012   04 Jun 2027 00:05:27.983            27.971                Irkutsk           874.094
       294   04 Jun 2027 00:06:38.906   04 Jun 2027 00:07:29.366            50.460                Novosib          1576.875
       295   04 Jun 2027 00:08:01.883   04 Jun 2027 00:08:04.961             3.078                Novosib            96.187
       296   04 Jun 2027 00:08:30.039   04 Jun 2027 00:09:19.391            49.352                Novosib          1542.250
       297   04 Jun 2027 00:11:15.690   04 Jun 2027 00:11:36.756            21.066                Novosib           658.312
       298   04 Jun 2027 00:17:36.537   04 Jun 2027 00:18:40.906            64.369                Sumatra          2011.531
       299   04 Jun 2027 00:26:01.199   04 Jun 2027 00:26:23.150            21.951                Sumatra           685.969
       300   04 Jun 2027 00:51:49.244   04 Jun 2027 00:52:28.609            39.365            RioGallegos          1230.156
       301   04 Jun 2027 00:54:58.463   04 Jun 2027 00:55:41.596            43.133            RioGallegos          1347.906
       302   04 Jun 2027 01:02:33.608   04 Jun 2027 01:03:19.946            46.338            RioGallegos          1448.063
       303   04 Jun 2027 01:32:09.856   04 Jun 2027 01:32:50.157            40.301                Anadyr1          1259.406
       304   04 Jun 2027 01:34:06.426   04 Jun 2027 01:34:36.426            30.000                Anadyr1           937.500
       305   04 Jun 2027 01:35:52.920   04 Jun 2027 01:37:46.047           113.127                Norilsk          3535.219
       306   04 Jun 2027 01:39:43.347   04 Jun 2027 01:39:55.847            12.500              Murmansk1           390.625
       307   04 Jun 2027 01:40:31.300   04 Jun 2027 01:42:35.176           123.876                Novosib          3871.125
       308   04 Jun 2027 01:43:23.857   04 Jun 2027 01:44:28.836            64.979                Novosib          2030.594
       309   04 Jun 2027 01:48:04.013   04 Jun 2027 01:48:41.766            37.753                  Delhi          1179.781
       310   04 Jun 2027 01:55:12.515   04 Jun 2027 01:55:36.450            23.935                  Delhi           747.969
       311   04 Jun 2027 01:57:31.958   04 Jun 2027 01:58:49.296            77.338                  Delhi          2416.813
       312   04 Jun 2027 02:28:35.094   04 Jun 2027 02:28:43.633             8.539            RioGallegos           266.844
       313   04 Jun 2027 02:29:36.072   04 Jun 2027 02:30:29.558            53.486            RioGallegos          1671.437
       314   04 Jun 2027 02:32:00.268   04 Jun 2027 02:32:51.155            50.887            RioGallegos          1590.219
       315   04 Jun 2027 02:36:59.874   04 Jun 2027 02:37:23.625            23.751            RioGallegos           742.219
       316   04 Jun 2027 03:19:57.896   04 Jun 2027 03:21:05.285            67.389              Murmansk2          2105.906
       317   04 Jun 2027 03:21:10.922   04 Jun 2027 03:21:14.836             3.914                Irkutsk           122.312
       318   04 Jun 2027 03:21:26.430   04 Jun 2027 03:22:09.552            43.122                Norilsk          1347.563
       319   04 Jun 2027 03:22:16.278   04 Jun 2027 03:22:18.338             2.060              Murmansk2            64.375
       320   04 Jun 2027 03:22:18.338   04 Jun 2027 03:22:54.919            36.581              Murmansk1          1143.156
       321   04 Jun 2027 03:22:54.919   04 Jun 2027 03:23:01.209             6.290              Murmansk2           196.562
       322   04 Jun 2027 03:23:17.082   04 Jun 2027 03:24:01.385            44.303              Murmansk1          1384.469
       323   04 Jun 2027 03:24:14.876   04 Jun 2027 03:24:40.520            25.644                Norilsk           801.375
       324   04 Jun 2027 03:24:41.109   04 Jun 2027 03:25:54.939            73.830                 Moscow          2307.187
       325   04 Jun 2027 03:26:29.648   04 Jun 2027 03:27:22.464            52.816                 Moscow          1650.500
       326   04 Jun 2027 03:46:13.768   04 Jun 2027 03:46:39.078            25.310               CapeTown           790.938
       327   04 Jun 2027 04:38:55.045   04 Jun 2027 04:38:59.094             4.049                Anadyr2           126.531
       328   04 Jun 2027 04:41:12.647   04 Jun 2027 04:41:40.205            27.558                Anadyr2           861.187
       329   04 Jun 2027 04:57:17.374   04 Jun 2027 04:57:35.277            17.903              Murmansk2           559.469
       330   04 Jun 2027 04:57:40.844   04 Jun 2027 04:57:58.485            17.641                Norilsk           551.281
       331   04 Jun 2027 04:58:08.366   04 Jun 2027 04:58:32.796            24.430              Murmansk2           763.437
       332   04 Jun 2027 04:58:32.796   04 Jun 2027 04:58:46.632            13.836              Murmansk1           432.375
       333   04 Jun 2027 04:58:46.632   04 Jun 2027 04:58:52.858             6.226              Murmansk2           194.562
       334   04 Jun 2027 04:59:34.950   04 Jun 2027 05:00:49.590            74.640              Murmansk2          2332.500
       335   04 Jun 2027 05:01:04.100   04 Jun 2027 05:01:29.830            25.730              Murmansk2           804.062
       336   04 Jun 2027 05:01:29.830   04 Jun 2027 05:02:24.921            55.091              Murmansk1          1721.594
       337   04 Jun 2027 05:02:34.327   04 Jun 2027 05:02:42.956             8.629                 Moscow           269.656
       338   04 Jun 2027 05:05:24.576   04 Jun 2027 05:05:41.250            16.674                 Moscow           521.062
       339   04 Jun 2027 05:17:14.739   04 Jun 2027 05:19:39.149           144.410               CapeTown          4512.812
       340   04 Jun 2027 06:20:10.399   04 Jun 2027 06:20:57.006            46.607                Anadyr2          1456.469
       341   04 Jun 2027 06:21:33.049   04 Jun 2027 06:21:41.679             8.630               Magadan2           269.687
       342   04 Jun 2027 06:21:44.269   04 Jun 2027 06:22:01.874            17.605                Anadyr1           550.156
       343   04 Jun 2027 06:22:01.874   04 Jun 2027 06:22:31.308            29.434                Anadyr2           919.812
       344   04 Jun 2027 06:23:25.893   04 Jun 2027 06:23:55.260            29.367                Anadyr2           917.719
       345   04 Jun 2027 06:32:10.150   04 Jun 2027 06:32:23.971            13.821              Murmansk1           431.906
       346   04 Jun 2027 06:32:23.971   04 Jun 2027 06:32:57.504            33.533              Murmansk2          1047.906
       347   04 Jun 2027 06:33:10.530   04 Jun 2027 06:33:28.860            18.330                 Moscow           572.813
       348   04 Jun 2027 06:37:28.766   04 Jun 2027 06:37:33.560             4.794              Murmansk2           149.812
       349   04 Jun 2027 06:40:04.079   04 Jun 2027 06:40:15.049            10.970                 Moscow           342.812
       350   04 Jun 2027 06:54:55.761   04 Jun 2027 06:57:19.343           143.582               CapeTown          4486.938
       351   04 Jun 2027 07:54:38.888   04 Jun 2027 07:55:28.252            49.364               Magadan2          1542.625
       352   04 Jun 2027 07:56:10.189   04 Jun 2027 07:56:44.805            34.616                Anadyr2          1081.750
       353   04 Jun 2027 07:57:05.481   04 Jun 2027 07:57:47.731            42.250               Magadan1          1320.313
       354   04 Jun 2027 07:58:04.970   04 Jun 2027 07:58:24.853            19.883               Magadan2           621.344
       355   04 Jun 2027 07:58:33.441   04 Jun 2027 07:59:05.596            32.155               Magadan2          1004.844
       356   04 Jun 2027 07:59:07.635   04 Jun 2027 08:00:16.262            68.627               Magadan2          2144.594
       357   04 Jun 2027 08:41:34.842   04 Jun 2027 08:42:01.746            26.904            RioGallegos           840.750
       358   04 Jun 2027 08:47:26.837   04 Jun 2027 08:48:26.175            59.338            RioGallegos          1854.313
       359   04 Jun 2027 09:29:36.316   04 Jun 2027 09:30:35.134            58.818               Magadan2          1838.062
       360   04 Jun 2027 09:30:40.467   04 Jun 2027 09:32:15.236            94.769               Magadan1          2961.531
       361   04 Jun 2027 09:32:29.851   04 Jun 2027 09:34:59.967           150.116                Anadyr2          4691.125
       362   04 Jun 2027 09:35:14.226   04 Jun 2027 09:35:19.023             4.797                Norilsk           149.906
       363   04 Jun 2027 09:35:27.023   04 Jun 2027 09:35:44.081            17.058               Magadan2           533.063
       364   04 Jun 2027 09:35:44.081   04 Jun 2027 09:36:20.780            36.699               Magadan1          1146.844
       365   04 Jun 2027 09:36:32.632   04 Jun 2027 09:37:45.060            72.428                Anadyr2          2263.375
       366   04 Jun 2027 10:13:58.746   04 Jun 2027 10:14:28.232            29.486            RioGallegos           921.438
       367   04 Jun 2027 10:15:53.639   04 Jun 2027 10:16:43.331            49.692            RioGallegos          1552.875
       368   04 Jun 2027 10:51:58.253   04 Jun 2027 10:52:20.035            21.782                Sumatra           680.688
       369   04 Jun 2027 11:06:48.960   04 Jun 2027 11:07:31.236            42.276                Irkutsk          1321.125
       370   04 Jun 2027 11:07:35.914   04 Jun 2027 11:07:56.758            20.844                Irkutsk           651.375
       371   04 Jun 2027 11:08:03.438   04 Jun 2027 11:09:07.151            63.713                Norilsk          1991.031
       372   04 Jun 2027 11:09:16.228   04 Jun 2027 11:09:37.778            21.550                Irkutsk           673.438
       373   04 Jun 2027 11:09:39.851   04 Jun 2027 11:10:44.227            64.376               Magadan2          2011.750
       374   04 Jun 2027 11:10:44.227   04 Jun 2027 11:12:03.561            79.334               Magadan1          2479.188
       375   04 Jun 2027 11:12:12.216   04 Jun 2027 11:12:45.178            32.962              Murmansk2          1030.062
       376   04 Jun 2027 11:12:55.020   04 Jun 2027 11:13:00.112             5.092              Murmansk2           159.125
       377   04 Jun 2027 11:13:01.713   04 Jun 2027 11:13:43.308            41.595                Irkutsk          1299.844
       378   04 Jun 2027 11:13:46.317   04 Jun 2027 11:14:50.045            63.728              Murmansk2          1991.500
       379   04 Jun 2027 11:48:57.569   04 Jun 2027 11:49:25.446            27.877            RioGallegos           871.156
       380   04 Jun 2027 11:50:40.388   04 Jun 2027 11:51:55.465            75.077            RioGallegos          2346.156
       381   04 Jun 2027 12:23:36.767   04 Jun 2027 12:23:50.419            13.652                Sumatra           426.625
       382   04 Jun 2027 12:26:03.972   04 Jun 2027 12:26:21.455            17.483                Sumatra           546.344
       383   04 Jun 2027 12:36:44.845   04 Jun 2027 12:37:00.428            15.583                  Delhi           486.969
       384   04 Jun 2027 12:37:54.543   04 Jun 2027 12:39:06.570            72.027                Irkutsk          2250.844
       385   04 Jun 2027 12:39:43.018   04 Jun 2027 12:39:52.268             9.250                Novosib           289.063
       386   04 Jun 2027 12:42:12.602   04 Jun 2027 12:44:42.640           150.038                Norilsk          4688.688
       387   04 Jun 2027 13:29:14.999   04 Jun 2027 13:32:39.472           204.473            RioGallegos          6389.781
       388   04 Jun 2027 14:15:47.463   04 Jun 2027 14:16:42.423            54.960                Novosib          1717.500
       389   04 Jun 2027 14:17:34.661   04 Jun 2027 14:19:49.743           135.082                Novosib          4221.313
       390   04 Jun 2027 14:20:31.088   04 Jun 2027 14:21:26.091            55.003                Norilsk          1718.844
       391   04 Jun 2027 14:23:20.339   04 Jun 2027 14:24:22.190            61.851                Norilsk          1932.844
       392   04 Jun 2027 15:52:12.933   04 Jun 2027 15:53:18.087            65.154                 Moscow          2036.062
       393   04 Jun 2027 15:54:20.897   04 Jun 2027 15:55:31.412            70.515                 Moscow          2203.594
       394   04 Jun 2027 15:55:39.884   04 Jun 2027 15:56:42.051            62.167              Murmansk1          1942.719
       395   04 Jun 2027 15:56:42.051   04 Jun 2027 15:57:08.841            26.790              Murmansk2           837.188
       396   04 Jun 2027 15:59:46.020   04 Jun 2027 16:01:31.761           105.741                Norilsk          3304.406
       397   04 Jun 2027 16:03:15.461   04 Jun 2027 16:04:09.031            53.570                Norilsk          1674.062
       398   04 Jun 2027 16:04:59.027   04 Jun 2027 16:06:34.550            95.523                Norilsk          2985.094
       399   04 Jun 2027 17:29:38.957   04 Jun 2027 17:30:06.178            27.221                 Moscow           850.656
       400   04 Jun 2027 17:31:04.226   04 Jun 2027 17:33:20.002           135.776                 Moscow          4243.000
       401   04 Jun 2027 17:34:25.102   04 Jun 2027 17:34:43.289            18.187                 Moscow           568.344
       402   04 Jun 2027 17:41:04.740   04 Jun 2027 17:42:02.282            57.542              Murmansk1          1798.187
       403   04 Jun 2027 17:46:41.253   04 Jun 2027 17:47:24.876            43.623                Anadyr2          1363.219
       404   04 Jun 2027 17:51:11.657   04 Jun 2027 17:51:34.858            23.201                Anadyr1           725.031
       405   04 Jun 2027 17:52:26.150   04 Jun 2027 17:52:40.996            14.846                Anadyr2           463.937
       406   04 Jun 2027 18:41:43.942   04 Jun 2027 18:43:00.587            76.645               CapeTown          2395.156
       407   04 Jun 2027 18:49:38.695   04 Jun 2027 18:50:18.899            40.204               CapeTown          1256.375
       408   04 Jun 2027 19:12:08.757   04 Jun 2027 19:13:09.290            60.533              Murmansk1          1891.656
       409   04 Jun 2027 19:14:16.547   04 Jun 2027 19:17:00.214           163.667              Murmansk2          5114.594
       410   04 Jun 2027 19:17:27.412   04 Jun 2027 19:18:32.310            64.898              Murmansk1          2028.063
       411   04 Jun 2027 19:25:36.492   04 Jun 2027 19:26:43.068            66.576               Magadan1          2080.500
       412   04 Jun 2027 19:28:28.965   04 Jun 2027 19:28:50.679            21.714               Magadan2           678.563
       413   04 Jun 2027 19:31:51.147   04 Jun 2027 19:32:03.016            11.869               Magadan1           370.906
       414   04 Jun 2027 20:58:11.764   04 Jun 2027 20:59:48.624            96.860                Anadyr2          3026.875
       415   04 Jun 2027 21:00:07.394   04 Jun 2027 21:01:56.738           109.344                Anadyr1          3417.000
       416   04 Jun 2027 21:01:59.670   04 Jun 2027 21:05:22.635           202.965               Magadan1          6342.656
       417   04 Jun 2027 21:55:37.694   04 Jun 2027 21:57:15.086            97.392            RioGallegos          3043.500
       418   04 Jun 2027 22:34:03.267   04 Jun 2027 22:37:43.624           220.357                Anadyr1          6886.156
       419   04 Jun 2027 22:37:51.833   04 Jun 2027 22:39:32.279           100.446               Magadan2          3138.938
       420   04 Jun 2027 22:39:32.279   04 Jun 2027 22:39:46.509            14.230               Magadan1           444.687
       421   04 Jun 2027 22:41:28.314   04 Jun 2027 22:41:43.838            15.524                Irkutsk           485.125
       422   04 Jun 2027 22:42:26.652   04 Jun 2027 22:43:58.338            91.686                Irkutsk          2865.187
       423   04 Jun 2027 22:57:08.834   04 Jun 2027 22:58:40.442            91.608                Sumatra          2862.750
       424   04 Jun 2027 22:58:45.115   04 Jun 2027 22:58:46.922             1.807                Sumatra            56.469
       425   04 Jun 2027 23:03:31.731   04 Jun 2027 23:03:46.332            14.601                Sumatra           456.281
       426   04 Jun 2027 23:36:14.167   04 Jun 2027 23:36:40.621            26.454            RioGallegos           826.687
       427   05 Jun 2027 00:09:26.122   05 Jun 2027 00:12:11.711           165.589                Anadyr2          5174.656
       428   05 Jun 2027 00:12:23.787   05 Jun 2027 00:12:50.925            27.138                Norilsk           848.063
       429   05 Jun 2027 00:13:16.623   05 Jun 2027 00:13:48.256            31.633               Magadan2           988.531
       430   05 Jun 2027 00:13:58.149   05 Jun 2027 00:14:05.490             7.341               Magadan2           229.406
       431   05 Jun 2027 00:14:56.168   05 Jun 2027 00:15:27.816            31.648               Magadan2           989.000
       432   05 Jun 2027 00:15:52.842   05 Jun 2027 00:17:00.432            67.590                Irkutsk          2112.187
       433   05 Jun 2027 00:17:02.722   05 Jun 2027 00:18:42.537            99.815                Novosib          3119.219
       434   05 Jun 2027 00:29:38.422   05 Jun 2027 00:29:42.043             3.621                Sumatra           113.156
       435   05 Jun 2027 00:31:33.819   05 Jun 2027 00:32:10.406            36.587                Sumatra          1143.344
       436   05 Jun 2027 00:34:09.817   05 Jun 2027 00:34:26.121            16.304                Sumatra           509.500
       437   05 Jun 2027 00:36:05.292   05 Jun 2027 00:38:32.758           147.466                Sumatra          4608.313
       438   05 Jun 2027 01:15:51.079   05 Jun 2027 01:16:18.360            27.281            RioGallegos           852.531
       439   05 Jun 2027 01:44:04.321   05 Jun 2027 01:44:43.600            39.279                Anadyr1          1227.469
       440   05 Jun 2027 01:45:24.119   05 Jun 2027 01:45:49.478            25.359                Anadyr1           792.469
       441   05 Jun 2027 01:46:07.869   05 Jun 2027 01:46:17.961            10.092                Anadyr1           315.375
       442   05 Jun 2027 01:47:55.243   05 Jun 2027 01:49:37.395           102.152                Norilsk          3192.250
       443   05 Jun 2027 01:51:07.548   05 Jun 2027 01:52:43.445            95.897              Murmansk2          2996.781
       444   05 Jun 2027 01:52:53.799   05 Jun 2027 01:53:16.210            22.411                Novosib           700.344
       445   05 Jun 2027 01:53:26.061   05 Jun 2027 01:53:40.904            14.843                Irkutsk           463.844
       446   05 Jun 2027 01:54:53.243   05 Jun 2027 01:55:50.384            57.141                Novosib          1785.656
       447   05 Jun 2027 01:59:55.391   05 Jun 2027 02:01:18.735            83.344                  Delhi          2604.500
       448   05 Jun 2027 02:40:45.023   05 Jun 2027 02:41:29.130            44.107            RioGallegos          1378.344
       449   05 Jun 2027 02:42:02.651   05 Jun 2027 02:44:45.944           163.293            RioGallegos          5102.906
       450   05 Jun 2027 03:33:23.992   05 Jun 2027 03:33:59.139            35.147                Irkutsk          1098.344
       451   05 Jun 2027 03:34:06.609   05 Jun 2027 03:34:42.608            35.999              Murmansk1          1124.969
       452   05 Jun 2027 03:34:42.608   05 Jun 2027 03:34:47.270             4.662              Murmansk2           145.688
       453   05 Jun 2027 03:34:47.945   05 Jun 2027 03:34:54.572             6.627                Norilsk           207.094
       454   05 Jun 2027 03:34:54.661   05 Jun 2027 03:35:11.610            16.949                Irkutsk           529.656
       455   05 Jun 2027 03:35:11.661   05 Jun 2027 03:35:24.943            13.282                Norilsk           415.062
       456   05 Jun 2027 03:35:41.099   05 Jun 2027 03:35:46.126             5.027              Murmansk2           157.094
       457   05 Jun 2027 03:36:18.704   05 Jun 2027 03:36:30.037            11.333              Murmansk1           354.156
       458   05 Jun 2027 03:36:36.504   05 Jun 2027 03:37:01.600            25.096                Novosib           784.250
       459   05 Jun 2027 03:38:01.055   05 Jun 2027 03:38:15.077            14.022                 Moscow           438.188
       460   05 Jun 2027 05:09:21.798   05 Jun 2027 05:09:33.643            11.845              Murmansk1           370.156
       461   05 Jun 2027 05:10:24.358   05 Jun 2027 05:10:45.238            20.880              Murmansk1           652.500
       462   05 Jun 2027 05:10:45.238   05 Jun 2027 05:10:58.260            13.022              Murmansk2           406.937
       463   05 Jun 2027 05:11:05.859   05 Jun 2027 05:11:44.188            38.329                 Moscow          1197.781
       464   05 Jun 2027 05:11:52.007   05 Jun 2027 05:14:20.376           148.369              Murmansk1          4636.531
       465   05 Jun 2027 05:14:33.259   05 Jun 2027 05:14:38.631             5.372              Murmansk1           167.875
       466   05 Jun 2027 05:29:41.891   05 Jun 2027 05:30:01.165            19.274               CapeTown           602.312
       467   05 Jun 2027 06:32:15.507   05 Jun 2027 06:32:45.711            30.204                Anadyr1           943.875
       468   05 Jun 2027 06:32:48.178   05 Jun 2027 06:32:58.533            10.355                Anadyr1           323.594
       469   05 Jun 2027 06:33:31.213   05 Jun 2027 06:33:38.238             7.025               Magadan1           219.531
       470   05 Jun 2027 06:33:40.745   05 Jun 2027 06:34:07.483            26.738               Magadan1           835.562
       471   05 Jun 2027 06:34:09.024   05 Jun 2027 06:34:29.098            20.074               Magadan2           627.312
       472   05 Jun 2027 06:34:30.722   05 Jun 2027 06:35:00.024            29.302                Anadyr1           915.688
       473   05 Jun 2027 06:47:04.555   05 Jun 2027 06:47:32.048            27.493                 Moscow           859.156
       474   05 Jun 2027 07:07:49.696   05 Jun 2027 07:09:58.955           129.259               CapeTown          4039.344
       475   05 Jun 2027 08:08:04.197   05 Jun 2027 08:08:06.631             2.434               Magadan2            76.063
       476   05 Jun 2027 08:08:06.631   05 Jun 2027 08:08:35.931            29.300               Magadan1           915.625
       477   05 Jun 2027 08:08:43.212   05 Jun 2027 08:09:22.731            39.519                Anadyr2          1234.969
       478   05 Jun 2027 08:09:31.337   05 Jun 2027 08:10:54.024            82.687                Anadyr2          2583.969
       479   05 Jun 2027 08:11:06.456   05 Jun 2027 08:12:18.760            72.304               Magadan2          2259.500
       480   05 Jun 2027 08:52:49.977   05 Jun 2027 08:53:35.568            45.591            RioGallegos          1424.719
       481   05 Jun 2027 09:42:30.488   05 Jun 2027 09:42:45.485            14.997                Irkutsk           468.656
       482   05 Jun 2027 09:43:03.177   05 Jun 2027 09:43:45.213            42.036               Magadan2          1313.625
