uniorb/output/strategy_2/Drop/Drop_KinoSat_110303.txt

KinoSat_110303
-------------------------
    Access    *     Start Time (UTCG)     *     Stop Time (UTCG)  *   Duration (s)        *       Station  *  Data (Mbytes)
         1   01 Jun 2027 04:15:45.680   01 Jun 2027 04:16:12.013            26.333               Magadan2          3291.625
         2   01 Jun 2027 04:16:12.013   01 Jun 2027 04:16:19.874             7.861               Magadan1           982.625
         3   01 Jun 2027 04:16:22.093   01 Jun 2027 04:17:29.633            67.540                Irkutsk          3035.750
         4   01 Jun 2027 04:17:48.430   01 Jun 2027 04:19:06.945            78.515               Magadan2          9398.500
         5   01 Jun 2027 04:19:12.594   01 Jun 2027 04:19:39.658            27.064               Magadan1          2824.500
         6   01 Jun 2027 04:19:46.389   01 Jun 2027 04:20:21.165            34.776                Norilsk          3365.500
         7   01 Jun 2027 04:20:21.658   01 Jun 2027 04:21:58.761            97.103                Irkutsk           246.500
         8   01 Jun 2027 04:22:07.361   01 Jun 2027 04:22:42.073            34.712              Murmansk1          4300.000
         9   01 Jun 2027 04:22:50.694   01 Jun 2027 04:22:59.999             9.305                Irkutsk          1163.125
        10   01 Jun 2027 04:23:07.882   01 Jun 2027 04:23:24.999            17.117                Norilsk          2139.625
        11   01 Jun 2027 04:23:29.032   01 Jun 2027 04:23:38.704             9.672              Murmansk2          1007.750
        12   01 Jun 2027 05:52:25.979   01 Jun 2027 05:52:56.430            30.451                Norilsk          2464.500
        13   01 Jun 2027 05:52:58.081   01 Jun 2027 05:53:24.164            26.083                Novosib           825.500
        14   01 Jun 2027 05:53:35.044   01 Jun 2027 05:54:19.754            44.710                Norilsk          5440.000
        15   01 Jun 2027 05:54:24.318   01 Jun 2027 05:54:44.540            20.222                Norilsk          2282.000
        16   01 Jun 2027 05:54:48.749   01 Jun 2027 05:55:14.903            26.154              Murmansk1          2104.500
        17   01 Jun 2027 05:55:22.776   01 Jun 2027 05:55:54.552            31.776                Norilsk          3936.500
        18   01 Jun 2027 05:55:57.273   01 Jun 2027 05:56:24.379            27.106                Norilsk          1360.500
        19   01 Jun 2027 05:56:27.973   01 Jun 2027 05:57:11.795            43.822                Novosib          1797.000
        20   01 Jun 2027 05:57:23.424   01 Jun 2027 05:58:11.129            47.705              Murmansk2          5814.500
        21   01 Jun 2027 05:58:12.720   01 Jun 2027 05:58:14.394             1.674                Novosib           209.250
        22   01 Jun 2027 05:58:14.480   01 Jun 2027 05:58:51.742            37.262                 Moscow           604.750
        23   01 Jun 2027 05:58:53.332   01 Jun 2027 05:59:28.088            34.756              Murmansk2           795.000
        24   01 Jun 2027 07:30:30.049   01 Jun 2027 07:31:06.625            36.576                 Moscow          2634.500
        25   01 Jun 2027 07:31:25.452   01 Jun 2027 07:32:50.263            84.811                Novosib          9413.500
        26   01 Jun 2027 07:32:51.021   01 Jun 2027 07:32:55.089             4.068                Norilsk           379.000
        27   01 Jun 2027 07:32:57.753   01 Jun 2027 07:33:24.803            27.050              Murmansk1          1332.000
        28   01 Jun 2027 07:33:24.866   01 Jun 2027 07:33:39.679            14.813                Norilsk            31.500
        29   01 Jun 2027 07:34:14.224   01 Jun 2027 07:36:44.177           149.953              Murmansk1         17272.500
        30   01 Jun 2027 09:04:26.290   01 Jun 2027 09:04:40.260            13.970                 Moscow          1746.250
        31   01 Jun 2027 09:05:04.940   01 Jun 2027 09:07:34.060           149.120                 Moscow         16110.750
        32   01 Jun 2027 09:07:50.785   01 Jun 2027 09:09:07.873            77.088                 Moscow          8362.500
        33   01 Jun 2027 09:09:20.567   01 Jun 2027 09:10:09.623            49.056                 Moscow          6132.000
        34   01 Jun 2027 09:10:30.427   01 Jun 2027 09:12:07.443            97.016                Norilsk         10617.000
        35   02 Jun 2027 04:27:59.213   02 Jun 2027 04:29:37.168            97.955                Novosib         11503.000
        36   02 Jun 2027 04:29:40.609   02 Jun 2027 04:29:55.594            14.985               Magadan2          1720.500
        37   02 Jun 2027 04:30:10.643   02 Jun 2027 04:31:46.801            96.158                Irkutsk          7524.500
        38   02 Jun 2027 04:31:47.667   02 Jun 2027 04:32:16.477            28.810                Norilsk           433.000
        39   02 Jun 2027 04:32:19.721   02 Jun 2027 04:32:59.817            40.096               Magadan1          1622.000
        40   02 Jun 2027 04:33:10.242   02 Jun 2027 04:34:00.748            50.506                Norilsk          5212.500
        41   02 Jun 2027 04:34:12.361   02 Jun 2027 04:34:23.336            10.975                Norilsk          1371.875
        42   02 Jun 2027 04:34:36.610   02 Jun 2027 04:36:12.788            96.178                Norilsk         11071.625
        43   02 Jun 2027 06:04:46.168   02 Jun 2027 06:06:19.890            93.722                Norilsk          7769.000
        44   02 Jun 2027 06:06:21.599   02 Jun 2027 06:06:45.536            23.937                Norilsk           854.500
        45   02 Jun 2027 06:06:48.924   02 Jun 2027 06:07:03.317            14.393                Norilsk          1694.000
        46   02 Jun 2027 06:07:08.603   02 Jun 2027 06:07:36.884            28.281                Novosib          2643.000
        47   02 Jun 2027 06:07:41.001   02 Jun 2027 06:08:03.276            22.275              Murmansk1          2058.500
        48   02 Jun 2027 06:08:06.398   02 Jun 2027 06:08:24.658            18.260                Irkutsk          1561.000
        49   02 Jun 2027 06:08:28.656   02 Jun 2027 06:08:45.392            16.736                Norilsk          1999.000
        50   02 Jun 2027 06:08:59.427   02 Jun 2027 06:10:31.741            92.314                Irkutsk          7017.500
        51   02 Jun 2027 06:10:33.275   02 Jun 2027 06:10:41.055             7.780              Murmansk2           767.000
        52   02 Jun 2027 06:10:48.776   02 Jun 2027 06:11:22.334            33.558                Norilsk          3860.500
        53   02 Jun 2027 07:41:50.558   02 Jun 2027 07:43:00.338            69.780                Norilsk          6792.000
        54   02 Jun 2027 07:43:02.345   02 Jun 2027 07:43:36.288            33.943              Murmansk2          1003.500
        55   02 Jun 2027 07:43:40.059   02 Jun 2027 07:44:11.741            31.682                Novosib          1885.500
        56   02 Jun 2027 07:44:16.694   02 Jun 2027 07:45:24.649            67.955                Novosib          2476.500
        57   02 Jun 2027 07:45:26.694   02 Jun 2027 07:46:07.770            41.076              Murmansk2          1022.500
        58   02 Jun 2027 07:46:23.535   02 Jun 2027 07:47:32.038            68.503                Norilsk          7882.500
        59   02 Jun 2027 09:16:44.683   02 Jun 2027 09:17:13.123            28.440                 Moscow          3106.000
        60   02 Jun 2027 09:17:23.899   02 Jun 2027 09:18:12.320            48.421              Murmansk1          4284.000
        61   02 Jun 2027 09:18:19.238   02 Jun 2027 09:18:38.518            19.280                 Moscow           539.500
        62   02 Jun 2027 09:18:54.340   02 Jun 2027 09:19:59.770            65.430              Murmansk2          7911.000
        63   02 Jun 2027 09:20:04.780   02 Jun 2027 09:21:06.422            61.642                 Moscow          2505.000
        64   02 Jun 2027 09:21:09.610   02 Jun 2027 09:21:24.153            14.543              Murmansk1          1594.000
        65   02 Jun 2027 09:21:24.424   02 Jun 2027 09:21:46.951            22.527                Norilsk           135.500
        66   03 Jun 2027 03:01:28.282   03 Jun 2027 03:02:58.425            90.143               Magadan1         10176.000
        67   03 Jun 2027 03:03:23.236   03 Jun 2027 03:05:22.851           119.615               Magadan2         12405.500
        68   03 Jun 2027 03:05:31.429   03 Jun 2027 03:06:08.198            36.769                Irkutsk          4289.000
        69   03 Jun 2027 03:06:11.881   03 Jun 2027 03:06:28.580            16.699               Magadan1          1841.500
        70   03 Jun 2027 03:06:34.487   03 Jun 2027 03:07:18.248            43.761               Magadan2          2953.500
        71   03 Jun 2027 03:07:19.616   03 Jun 2027 03:07:41.913            22.297               Magadan1           684.000
        72   03 Jun 2027 03:07:49.329   03 Jun 2027 03:08:20.473            31.144               Magadan2          3708.000
        73   03 Jun 2027 03:08:25.058   03 Jun 2027 03:08:50.256            25.198                Novosib          2292.500
        74   03 Jun 2027 03:08:58.448   03 Jun 2027 03:09:53.296            54.848                Anadyr2          4096.000
        75   03 Jun 2027 03:09:54.800   03 Jun 2027 03:10:15.494            20.694               Magadan2           752.000
        76   03 Jun 2027 03:10:27.613   03 Jun 2027 03:10:43.395            15.782                Irkutsk          1972.750
        77   03 Jun 2027 03:10:45.928   03 Jun 2027 03:11:41.824            55.896                Novosib          5353.250
        78   03 Jun 2027 04:40:07.143   03 Jun 2027 04:40:18.459            11.316                Novosib          1414.500
        79   03 Jun 2027 04:40:19.078   03 Jun 2027 04:40:43.328            24.250                Norilsk          1502.500
        80   03 Jun 2027 04:41:27.058   03 Jun 2027 04:44:34.218           187.160                Norilsk         21865.000
        81   03 Jun 2027 04:44:34.477   03 Jun 2027 04:44:36.594             2.117              Murmansk1           129.500
        82   03 Jun 2027 04:44:41.494   03 Jun 2027 04:45:17.625            36.131              Murmansk2          2450.000
        83   03 Jun 2027 04:45:25.423   03 Jun 2027 04:46:04.804            39.381              Murmansk2          3899.000
        84   03 Jun 2027 04:46:18.514   03 Jun 2027 04:47:10.837            52.323                Norilsk          6540.375
        85   03 Jun 2027 04:47:12.337   03 Jun 2027 04:47:32.880            20.543              Murmansk2           314.625
        86   03 Jun 2027 06:17:08.456   03 Jun 2027 06:17:26.797            18.341                Norilsk          2292.625
        87   03 Jun 2027 06:18:05.519   03 Jun 2027 06:21:26.020           200.501                Irkutsk         22268.375
        88   03 Jun 2027 06:21:29.794   03 Jun 2027 06:21:55.291            25.497              Murmansk1          1147.000
        89   03 Jun 2027 06:22:04.479   03 Jun 2027 06:22:57.120            52.641                 Moscow          4594.000
        90   03 Jun 2027 07:53:57.697   03 Jun 2027 07:54:59.135            61.438                Novosib          4616.500
        91   03 Jun 2027 07:54:59.404   03 Jun 2027 07:55:36.925            37.521              Murmansk1           134.500
        92   03 Jun 2027 07:55:51.726   03 Jun 2027 07:56:56.175            64.449                Norilsk          7400.500
        93   03 Jun 2027 07:57:01.441   03 Jun 2027 07:57:08.270             6.829                 Moscow           853.625
        94   03 Jun 2027 07:57:16.306   03 Jun 2027 07:58:52.159            95.853                 Moscow          5797.375
        95   03 Jun 2027 09:31:58.429   03 Jun 2027 09:34:34.267           155.838              Murmansk2         16424.000
        96   04 Jun 2027 03:15:28.585   04 Jun 2027 03:16:09.620            41.035                Irkutsk          3907.000
        97   04 Jun 2027 03:16:14.473   04 Jun 2027 03:16:51.557            37.084               Magadan2          2426.500
        98   04 Jun 2027 03:17:07.915   04 Jun 2027 03:18:13.923            66.008                Irkutsk          8179.000
        99   04 Jun 2027 03:18:19.770   04 Jun 2027 03:18:47.903            28.133               Magadan1          2923.500
       100   04 Jun 2027 03:18:57.243   04 Jun 2027 03:19:43.382            46.139               Magadan2          4670.000
       101   04 Jun 2027 03:19:52.476   04 Jun 2027 03:21:10.922            78.446                Irkutsk          4547.000
       102   04 Jun 2027 03:21:14.836   04 Jun 2027 03:21:57.757            42.921                Irkutsk          1957.000
       103   04 Jun 2027 03:22:09.552   04 Jun 2027 03:22:56.022            46.470                Norilsk          5344.500
       104   04 Jun 2027 03:23:01.209   04 Jun 2027 03:23:17.082            15.873              Murmansk2           537.500
       105   04 Jun 2027 04:52:13.791   04 Jun 2027 04:52:37.600            23.809                Norilsk          2505.000
       106   04 Jun 2027 04:52:57.383   04 Jun 2027 04:53:20.195            22.812                Norilsk          2851.500
       107   04 Jun 2027 04:53:26.527   04 Jun 2027 04:54:43.974            77.447                Norilsk          9680.875
       108   04 Jun 2027 04:54:58.150   04 Jun 2027 04:55:54.543            56.393                Norilsk          7049.125
       109   04 Jun 2027 04:56:06.569   04 Jun 2027 04:56:08.922             2.353                Norilsk           294.125
       110   04 Jun 2027 04:56:13.119   04 Jun 2027 04:57:40.844            87.725                Norilsk          8381.375
       111   04 Jun 2027 04:57:52.646   04 Jun 2027 04:59:21.697            89.051                Novosib          5901.000
       112   04 Jun 2027 06:29:56.971   04 Jun 2027 06:30:26.089            29.118                Norilsk          3589.500
       113   04 Jun 2027 06:30:26.295   04 Jun 2027 06:31:05.454            39.159                 Moscow           103.000
       114   04 Jun 2027 06:31:05.825   04 Jun 2027 06:31:23.532            17.707                 Moscow           185.500
       115   04 Jun 2027 06:31:32.556   04 Jun 2027 06:32:22.398            49.842                Novosib          4512.000
       116   04 Jun 2027 06:32:23.971   04 Jun 2027 06:32:57.504            33.533              Murmansk1           786.500
       117   04 Jun 2027 06:32:59.682   04 Jun 2027 06:33:10.530            10.848                 Moscow          1089.000
       118   04 Jun 2027 06:33:16.356   04 Jun 2027 06:34:10.398            54.042                Irkutsk          2913.000
       119   04 Jun 2027 06:34:12.868   04 Jun 2027 06:34:41.853            28.985                Norilsk          1235.000
       120   04 Jun 2027 08:05:54.618   04 Jun 2027 08:06:05.815            11.197                 Moscow          1399.625
       121   04 Jun 2027 08:06:06.778   04 Jun 2027 08:06:55.184            48.406              Murmansk1           908.375
       122   04 Jun 2027 08:06:57.336   04 Jun 2027 08:07:23.355            26.019                Norilsk          1076.000
       123   04 Jun 2027 08:07:24.448   04 Jun 2027 08:07:37.242            12.794              Murmansk1           546.500
       124   04 Jun 2027 08:07:37.922   04 Jun 2027 08:07:44.775             6.853                Norilsk           340.000
       125   04 Jun 2027 08:07:54.501   04 Jun 2027 08:08:30.467            35.966                Novosib          4495.750
       126   04 Jun 2027 08:08:39.731   04 Jun 2027 08:09:57.029            77.298              Murmansk2          4999.250
       127   04 Jun 2027 08:10:01.643   04 Jun 2027 08:10:48.031            46.388                Novosib          2307.000
       128   05 Jun 2027 03:28:25.221   05 Jun 2027 03:28:58.642            33.421                Norilsk          1693.500
       129   05 Jun 2027 03:28:59.816   05 Jun 2027 03:29:42.508            42.692                Irkutsk           587.000
       130   05 Jun 2027 03:29:52.613   05 Jun 2027 03:30:14.266            21.653               Magadan1          2706.625
       131   05 Jun 2027 03:30:15.061   05 Jun 2027 03:30:41.981            26.920                Novosib          2743.375
       132   05 Jun 2027 03:30:44.041   05 Jun 2027 03:31:30.230            46.189                Novosib          1030.000
       133   05 Jun 2027 03:31:41.128   05 Jun 2027 03:32:51.088            69.960                Novosib          5449.000
       134   05 Jun 2027 03:32:59.271   05 Jun 2027 03:33:27.401            28.130                Norilsk          3516.250
       135   05 Jun 2027 03:33:30.841   05 Jun 2027 03:33:51.779            20.938                Novosib          2295.250
       136   05 Jun 2027 03:33:59.139   05 Jun 2027 03:34:29.032            29.893                Irkutsk          3680.000
       137   05 Jun 2027 03:34:29.857   05 Jun 2027 03:34:42.608            12.751              Murmansk2           412.500
       138   05 Jun 2027 03:34:47.270   05 Jun 2027 03:35:18.929            31.659              Murmansk2          2331.000
       139   05 Jun 2027 05:04:46.426   05 Jun 2027 05:05:09.229            22.803                Norilsk          1004.000
       140   05 Jun 2027 05:05:21.384   05 Jun 2027 05:06:27.316            65.932                Irkutsk          6077.500
       141   05 Jun 2027 05:06:28.048   05 Jun 2027 05:06:31.884             3.836                Norilsk           366.000
       142   05 Jun 2027 05:06:39.400   05 Jun 2027 05:07:23.050            43.650                Norilsk          3758.000
       143   05 Jun 2027 05:07:44.465   05 Jun 2027 05:09:27.067           102.602                Novosib         10707.500
       144   05 Jun 2027 05:09:33.643   05 Jun 2027 05:09:39.477             5.834              Murmansk1           729.250
       145   05 Jun 2027 05:09:50.718   05 Jun 2027 05:11:27.231            96.513                Novosib          8179.250
       146   05 Jun 2027 06:42:01.094   05 Jun 2027 06:42:16.364            15.270              Murmansk1           801.500
       147   05 Jun 2027 06:42:28.397   05 Jun 2027 06:44:01.438            93.041                Irkutsk          6016.500
       148   05 Jun 2027 06:44:09.012   05 Jun 2027 06:44:39.372            30.360                Norilsk          3787.000
       149   05 Jun 2027 06:44:47.567   05 Jun 2027 06:45:23.158            35.591                Novosib          4097.500
       150   05 Jun 2027 06:45:26.615   05 Jun 2027 06:46:02.770            36.155              Murmansk2          1728.500
       151   05 Jun 2027 06:46:05.134   05 Jun 2027 06:46:37.443            32.309                Norilsk          1182.000
       152   05 Jun 2027 06:46:41.498   05 Jun 2027 06:47:04.555            23.057                 Moscow            65.500
       153   05 Jun 2027 08:18:26.068   05 Jun 2027 08:18:49.425            23.357                Norilsk          2919.625
       154   05 Jun 2027 08:18:49.745   05 Jun 2027 08:19:30.447            40.702              Murmansk2          3080.875
       155   05 Jun 2027 08:19:37.191   05 Jun 2027 08:20:05.006            27.815              Murmansk1          3372.000
       156   05 Jun 2027 08:20:06.584   05 Jun 2027 08:20:14.626             8.042              Murmansk2           789.000
       157   05 Jun 2027 08:20:38.467   05 Jun 2027 08:22:18.746           100.279              Murmansk1         11920.500
       158   05 Jun 2027 08:22:27.917   05 Jun 2027 08:23:06.906            38.989                 Moscow          4585.500
       159   06 Jun 2027 03:40:05.981   06 Jun 2027 03:40:19.834            13.853               Magadan1          1183.000
       160   06 Jun 2027 03:40:41.790   06 Jun 2027 03:42:11.229            89.439               Magadan1         10978.000
       161   06 Jun 2027 03:42:13.649   06 Jun 2027 03:42:28.351            14.702               Magadan2          1210.000
       162   06 Jun 2027 03:43:00.196   06 Jun 2027 03:45:34.914           154.718                Novosib         15922.500
       163   06 Jun 2027 03:45:36.609   06 Jun 2027 03:46:00.402            23.793              Murmansk1           847.500
       164   06 Jun 2027 03:46:12.169   06 Jun 2027 03:47:04.704            52.535                Novosib          5883.500
       165   06 Jun 2027 03:47:17.302   06 Jun 2027 03:47:37.450            20.148                Novosib           666.500
       166   06 Jun 2027 05:16:23.261   06 Jun 2027 05:16:57.984            34.723                Norilsk          3512.000
       167   06 Jun 2027 05:17:00.417   06 Jun 2027 05:17:59.208            58.791                Irkutsk          1216.500
       168   06 Jun 2027 05:18:07.252   06 Jun 2027 05:18:33.833            26.581                Norilsk          3322.625
       169   06 Jun 2027 05:18:34.179   06 Jun 2027 05:18:57.652            23.473                Norilsk           872.375
       170   06 Jun 2027 05:19:10.719   06 Jun 2027 05:19:56.487            45.768                Novosib          5721.000
       171   06 Jun 2027 05:19:59.607   06 Jun 2027 05:20:38.026            38.419                Norilsk          2372.500
       172   06 Jun 2027 05:20:54.370   06 Jun 2027 05:21:18.615            24.245                Novosib          3030.625
       173   06 Jun 2027 05:21:23.630   06 Jun 2027 05:21:47.271            23.641                Norilsk          2955.125
       174   06 Jun 2027 05:22:03.283   06 Jun 2027 05:23:03.914            60.631                Irkutsk          7578.875
       175   06 Jun 2027 05:23:06.813   06 Jun 2027 05:23:33.333            26.520                Novosib          3315.000
       176   06 Jun 2027 05:23:39.200   06 Jun 2027 05:24:38.291            59.091              Murmansk2          1805.875
       177   06 Jun 2027 06:54:31.724   06 Jun 2027 06:54:43.965            12.241                 Moscow          1311.500
       178   06 Jun 2027 06:54:51.237   06 Jun 2027 06:55:28.124            36.887                Norilsk          3636.000
       179   06 Jun 2027 06:55:32.684   06 Jun 2027 06:56:06.663            33.979                 Moscow          2280.000
       180   06 Jun 2027 06:56:11.533   06 Jun 2027 06:56:48.968            37.435              Murmansk1          2435.000
       181   06 Jun 2027 06:56:54.856   06 Jun 2027 06:57:46.439            51.583                Novosib          2944.000
       182   06 Jun 2027 06:57:48.406   06 Jun 2027 06:58:09.455            21.049                Novosib           983.500
       183   06 Jun 2027 06:58:12.729   06 Jun 2027 06:59:03.541            50.812                 Moscow          1637.000
       184   06 Jun 2027 08:30:03.367   06 Jun 2027 08:31:12.748            69.381                 Moscow          3268.500
       185   06 Jun 2027 08:31:17.896   06 Jun 2027 08:32:22.266            64.370                Novosib          2574.000
       186   06 Jun 2027 08:32:37.623   06 Jun 2027 08:33:48.992            71.369              Murmansk1          7678.500
       187   06 Jun 2027 08:33:56.573   06 Jun 2027 08:34:30.831            34.258              Murmansk1          3790.500
       188   06 Jun 2027 08:34:31.282   06 Jun 2027 08:34:35.446             4.164                Norilsk           225.500
       189   06 Jun 2027 08:34:37.256   06 Jun 2027 08:34:50.701            13.445                Novosib           905.000
       190   06 Jun 2027 08:35:01.427   06 Jun 2027 08:35:49.636            48.209                 Moscow          5363.000
       191   07 Jun 2027 03:51:38.141   07 Jun 2027 03:52:02.123            23.982                Norilsk           599.500
       192   07 Jun 2027 03:52:02.396   07 Jun 2027 03:52:12.797            10.401               Magadan1           136.500
       193   07 Jun 2027 03:52:21.130   07 Jun 2027 03:53:01.101            39.971                Novosib          4166.500
       194   07 Jun 2027 03:53:01.546   07 Jun 2027 03:53:12.600            11.054                Norilsk           222.500
       195   07 Jun 2027 03:53:19.017   07 Jun 2027 03:53:58.290            39.273               Magadan1          3208.500
       196   07 Jun 2027 03:54:09.986   07 Jun 2027 03:55:22.228            72.242               Magadan1          5848.000
       197   07 Jun 2027 03:55:24.392   07 Jun 2027 03:56:02.641            38.249                Norilsk          1082.000
       198   07 Jun 2027 03:56:08.446   07 Jun 2027 03:56:57.961            49.515                Irkutsk          2902.500
       199   07 Jun 2027 03:57:15.239   07 Jun 2027 03:58:28.168            72.929               Magadan1          8639.000
       200   07 Jun 2027 03:58:28.652   07 Jun 2027 03:59:06.871            38.219                Novosib           242.000
       201   07 Jun 2027 03:59:20.463   07 Jun 2027 03:59:41.245            20.782                Norilsk          2027.500
       202   07 Jun 2027 05:28:42.592   07 Jun 2027 05:29:19.964            37.372                Irkutsk          2180.500
       203   07 Jun 2027 05:29:28.410   07 Jun 2027 05:30:31.034            62.624                Norilsk          4223.000
       204   07 Jun 2027 05:30:35.748   07 Jun 2027 05:30:57.890            22.142                Norilsk          2357.000
       205   07 Jun 2027 05:30:58.635   07 Jun 2027 05:31:27.947            29.312                Irkutsk           372.500
       206   07 Jun 2027 05:31:28.964   07 Jun 2027 05:31:52.113            23.149              Murmansk1           508.500
       207   07 Jun 2027 05:31:54.173   07 Jun 2027 05:32:05.403            11.230                Novosib          1030.000
       208   07 Jun 2027 05:32:06.438   07 Jun 2027 05:32:27.063            20.625              Murmansk2           517.500
       209   07 Jun 2027 05:32:28.963   07 Jun 2027 05:32:59.135            30.172                Norilsk           950.000
       210   07 Jun 2027 05:33:11.962   07 Jun 2027 05:34:19.954            67.992              Murmansk1          6413.500
       211   07 Jun 2027 05:34:21.576   07 Jun 2027 05:35:36.776            75.200                Novosib           811.000
       212   07 Jun 2027 07:06:49.193   07 Jun 2027 07:07:45.573            56.380                Norilsk          5433.000
       213   07 Jun 2027 07:07:50.333   07 Jun 2027 07:08:12.558            22.225              Murmansk1          2380.000
       214   07 Jun 2027 07:08:16.931   07 Jun 2027 07:08:36.207            19.276                Norilsk          2186.500
       215   07 Jun 2027 07:08:37.841   07 Jun 2027 07:09:10.201            32.360                Norilsk           817.000
       216   07 Jun 2027 07:09:11.637   07 Jun 2027 07:09:51.681            40.044                Norilsk           718.000
       217   07 Jun 2027 07:10:00.399   07 Jun 2027 07:11:03.949            63.550                Norilsk          4359.000
       218   07 Jun 2027 08:40:21.820   07 Jun 2027 08:42:38.851           137.031                 Moscow         15020.000
       219   07 Jun 2027 08:42:57.843   07 Jun 2027 08:45:18.230           140.387                 Moscow          9496.000
       220   07 Jun 2027 08:45:28.254   07 Jun 2027 08:46:59.977            91.723                 Moscow          5012.000
       221   07 Jun 2027 08:47:02.926   07 Jun 2027 08:47:16.375            13.449                Norilsk          1474.500
       222   07 Jun 2027 08:47:21.251   07 Jun 2027 08:48:31.598            70.347              Murmansk2          2438.000
       223   08 Jun 2027 04:03:50.774   08 Jun 2027 04:04:48.499            57.725                Norilsk          2249.500
       224   08 Jun 2027 04:04:58.823   08 Jun 2027 04:05:39.755            40.932                Novosib          5116.500
       225   08 Jun 2027 04:05:46.010   08 Jun 2027 04:06:26.119            40.109                Novosib          3173.000
       226   08 Jun 2027 04:06:37.595   08 Jun 2027 04:07:12.642            35.047                Norilsk          4380.875
       227   08 Jun 2027 04:07:13.869   08 Jun 2027 04:07:18.474             4.605                Norilsk           575.625
       228   08 Jun 2027 04:07:22.181   08 Jun 2027 04:07:50.220            28.039               Magadan1          3248.500
       229   08 Jun 2027 04:07:51.936   08 Jun 2027 04:08:25.915            33.979               Magadan2           858.000
       230   08 Jun 2027 04:08:31.158   08 Jun 2027 04:08:48.281            17.123                Novosib          2140.375
       231   08 Jun 2027 04:09:07.924   08 Jun 2027 04:10:31.763            83.839              Murmansk2         10302.625
       232   08 Jun 2027 04:10:39.658   08 Jun 2027 04:11:11.520            31.862                Irkutsk          3947.500
       233   08 Jun 2027 04:11:21.500   08 Jun 2027 04:11:29.584             8.084                Norilsk           214.500
       234   08 Jun 2027 05:40:54.672   08 Jun 2027 05:41:43.346            48.674                Irkutsk          5919.000
       235   08 Jun 2027 05:41:45.962   08 Jun 2027 05:42:19.240            33.278                Novosib          1308.000
       236   08 Jun 2027 05:42:31.313   08 Jun 2027 05:43:03.796            32.483                Irkutsk          4060.375
       237   08 Jun 2027 05:43:16.061   08 Jun 2027 05:44:25.920            69.859              Murmansk2          8108.625
       238   08 Jun 2027 05:44:27.058   08 Jun 2027 05:44:55.204            28.146                Norilsk           569.000
       239   08 Jun 2027 05:44:58.488   08 Jun 2027 05:45:09.386            10.898                 Moscow          1362.250
       240   08 Jun 2027 05:45:09.805   08 Jun 2027 05:45:38.611            28.806                Norilsk           489.250
       241   08 Jun 2027 05:45:41.476   08 Jun 2027 05:46:10.256            28.780              Murmansk1          1432.500
       242   08 Jun 2027 05:46:24.394   08 Jun 2027 05:47:48.096            83.702                 Moscow          7069.000
       243   08 Jun 2027 07:18:44.525   08 Jun 2027 07:18:54.784            10.259                Norilsk          1282.375
       244   08 Jun 2027 07:18:58.039   08 Jun 2027 07:19:33.921            35.882                 Moscow          4367.125
       245   08 Jun 2027 07:19:37.662   08 Jun 2027 07:19:53.830            16.168                Irkutsk          1870.500
       246   08 Jun 2027 07:19:57.948   08 Jun 2027 07:20:37.781            39.833                Novosib          2059.000
       247   08 Jun 2027 07:20:50.931   08 Jun 2027 07:21:45.968            55.037                Norilsk          6575.000
       248   08 Jun 2027 07:21:48.129   08 Jun 2027 07:22:36.042            47.913              Murmansk2          1080.500
       249   08 Jun 2027 07:22:45.201   08 Jun 2027 07:23:01.936            16.735                Norilsk           780.500
       250   08 Jun 2027 08:52:30.202   08 Jun 2027 08:54:12.545           102.343                 Moscow          9756.500
       251   08 Jun 2027 08:54:26.411   08 Jun 2027 08:55:57.788            91.377                 Moscow          6933.000
       252   08 Jun 2027 08:56:07.184   08 Jun 2027 08:56:41.590            34.406                Novosib          4300.750
       253   08 Jun 2027 08:57:02.687   08 Jun 2027 08:58:36.707            94.020                Norilsk         10945.750
       254   08 Jun 2027 08:58:44.787   08 Jun 2027 08:59:23.546            38.759                Norilsk          4040.000
       255   08 Jun 2027 08:59:25.346   08 Jun 2027 09:00:04.569            39.223                Norilsk           900.000
       256   09 Jun 2027 04:16:00.530   09 Jun 2027 04:16:34.692            34.162               Magadan1          4270.250
       257   09 Jun 2027 04:16:36.018   09 Jun 2027 04:17:43.475            67.457                Irkutsk          2552.250
       258   09 Jun 2027 04:17:50.400   09 Jun 2027 04:18:27.277            36.877                Novosib          3462.500
       259   09 Jun 2027 04:18:27.807   09 Jun 2027 04:19:18.296            50.489               Magadan2           265.000
       260   09 Jun 2027 04:19:21.573   09 Jun 2027 04:19:38.291            16.718               Magadan1          1638.500
       261   09 Jun 2027 04:19:50.780   09 Jun 2027 04:21:35.641           104.861                Novosib          6244.500
       262   09 Jun 2027 04:21:42.427   09 Jun 2027 04:22:22.029            39.602              Murmansk2          3393.000
       263   09 Jun 2027 04:22:25.975   09 Jun 2027 04:22:35.127             9.152                Norilsk          1144.000
       264   09 Jun 2027 04:22:43.570   09 Jun 2027 04:23:30.660            47.090                Norilsk          5050.500
       265   09 Jun 2027 05:52:41.353   09 Jun 2027 05:53:11.026            29.673                Norilsk          2772.000
       266   09 Jun 2027 05:53:12.591   09 Jun 2027 05:53:44.318            31.727                Novosib           782.500
       267   09 Jun 2027 05:53:50.136   09 Jun 2027 05:54:34.492            44.356                Norilsk          2909.000
       268   09 Jun 2027 05:54:39.349   09 Jun 2027 05:54:59.171            19.822                Norilsk          2428.500
       269   09 Jun 2027 05:55:03.279   09 Jun 2027 05:55:30.883            27.604              Murmansk1          2054.000
       270   09 Jun 2027 05:55:38.730   09 Jun 2027 05:56:09.224            30.494                Norilsk          3811.750
       271   09 Jun 2027 05:56:19.522   09 Jun 2027 05:58:08.953           109.431                Irkutsk          5260.750
       272   09 Jun 2027 05:58:26.803   09 Jun 2027 05:59:08.229            41.426              Murmansk1          5178.250
       273   09 Jun 2027 05:59:08.229   09 Jun 2027 05:59:45.405            37.176              Murmansk2          3746.750
       274   09 Jun 2027 07:30:45.202   09 Jun 2027 07:31:21.542            36.340              Murmansk2          2790.000
       275   09 Jun 2027 07:31:24.734   09 Jun 2027 07:32:27.627            62.893                 Moscow          1596.000
       276   09 Jun 2027 07:32:35.037   09 Jun 2027 07:33:09.457            34.420                 Moscow          3705.000
       277   09 Jun 2027 07:33:10.097   09 Jun 2027 07:33:40.916            30.819                Norilsk           320.000
       278   09 Jun 2027 07:33:42.896   09 Jun 2027 07:34:28.854            45.958              Murmansk1           990.000
       279   09 Jun 2027 07:34:41.949   09 Jun 2027 07:35:22.961            41.012                Novosib          5126.500
       280   09 Jun 2027 07:35:46.076   09 Jun 2027 07:36:02.533            16.457              Murmansk2          1421.000
       281   09 Jun 2027 09:04:41.022   09 Jun 2027 09:05:28.259            47.237                 Moscow          5643.000
       282   09 Jun 2027 09:05:31.795   09 Jun 2027 09:06:17.413            45.618              Murmansk2          1768.000
       283   09 Jun 2027 09:06:21.767   09 Jun 2027 09:07:47.416            85.649                 Moscow          2177.000
       284   09 Jun 2027 09:08:09.530   09 Jun 2027 09:09:35.243            85.713                 Moscow         10714.125
       285   09 Jun 2027 09:09:37.894   09 Jun 2027 09:09:52.528            14.634              Murmansk1          1668.375
       286   09 Jun 2027 09:09:52.611   09 Jun 2027 09:10:13.527            20.916              Murmansk2            41.500
       287   09 Jun 2027 09:10:24.716   09 Jun 2027 09:12:14.584           109.868                 Moscow          5594.500
       288   10 Jun 2027 04:27:56.168   10 Jun 2027 04:28:37.314            41.146                Irkutsk          2548.500
       289   10 Jun 2027 04:28:39.763   10 Jun 2027 04:29:05.329            25.566                Norilsk          1224.500
       290   10 Jun 2027 04:29:11.471   10 Jun 2027 04:29:55.290            43.819                Novosib          3071.000
       291   10 Jun 2027 04:30:01.706   10 Jun 2027 04:30:52.031            50.325               Magadan1          3208.000
       292   10 Jun 2027 04:30:58.578   10 Jun 2027 04:31:25.971            27.393                Irkutsk          3273.500
       293   10 Jun 2027 04:31:38.068   10 Jun 2027 04:32:31.140            53.072                Norilsk          6048.500
       294   10 Jun 2027 04:32:34.579   10 Jun 2027 04:33:13.876            39.297               Magadan1          1719.500
       295   10 Jun 2027 04:33:15.884   10 Jun 2027 04:33:33.385            17.501                Novosib          1004.000
       296   10 Jun 2027 04:33:44.444   10 Jun 2027 04:35:01.187            76.743              Murmansk1          5529.500
       297   10 Jun 2027 04:35:03.095   10 Jun 2027 04:35:30.464            27.369                Novosib           954.000
       298   10 Jun 2027 06:05:01.585   10 Jun 2027 06:05:13.013            11.428                Norilsk          1428.500
       299   10 Jun 2027 06:05:15.175   10 Jun 2027 06:06:17.932            62.757                Irkutsk          7719.500
       300   10 Jun 2027 06:06:29.365   10 Jun 2027 06:07:57.383            88.018                Irkutsk          5716.500
       301   10 Jun 2027 06:07:58.619   10 Jun 2027 06:08:17.901            19.282              Murmansk2           618.000
       302   10 Jun 2027 06:08:21.053   10 Jun 2027 06:08:40.379            19.326                Irkutsk          1576.000
       303   10 Jun 2027 06:08:44.408   10 Jun 2027 06:09:05.505            21.097              Murmansk2          2014.500
       304   10 Jun 2027 06:09:12.661   10 Jun 2027 06:09:53.234            40.573                Irkutsk          3578.000
       305   10 Jun 2027 06:10:07.881   10 Jun 2027 06:10:51.564            43.683                 Moscow          4493.500
       306   10 Jun 2027 06:10:55.944   10 Jun 2027 06:11:12.789            16.845              Murmansk2          2105.625
       307   10 Jun 2027 06:11:15.733   10 Jun 2027 06:11:47.311            31.578              Murmansk2            84.375
       308   10 Jun 2027 07:41:53.701   10 Jun 2027 07:42:08.268            14.567                 Moscow           898.500
       309   10 Jun 2027 07:42:21.794   10 Jun 2027 07:43:28.661            66.867                Novosib          6763.000
       310   10 Jun 2027 07:43:30.028   10 Jun 2027 07:44:05.773            35.745                 Moscow           683.500
       311   10 Jun 2027 07:44:14.735   10 Jun 2027 07:44:56.676            41.941                Norilsk          4481.000
       312   10 Jun 2027 07:44:57.640   10 Jun 2027 07:45:16.624            18.984                 Moscow           482.000
       313   10 Jun 2027 07:45:21.165   10 Jun 2027 07:45:57.652            36.487                 Moscow          2270.500
       314   10 Jun 2027 07:46:11.411   10 Jun 2027 07:47:04.355            52.944                 Moscow          6618.000
       315   10 Jun 2027 07:47:17.892   10 Jun 2027 07:47:25.387             7.495                Norilsk           261.500
       316   10 Jun 2027 09:16:59.352   10 Jun 2027 09:17:27.968            28.616                 Moscow          2943.000
       317   10 Jun 2027 09:17:38.697   10 Jun 2027 09:18:28.353            49.656              Murmansk1          4279.000
       318   10 Jun 2027 09:18:34.302   10 Jun 2027 09:18:50.999            16.697                 Moscow           704.000
       319   10 Jun 2027 09:19:08.908   10 Jun 2027 09:20:37.713            88.805              Murmansk1          8954.500
       320   10 Jun 2027 09:21:21.219   10 Jun 2027 09:21:38.020            16.801                 Moscow          2100.125
       321   10 Jun 2027 09:21:38.552   10 Jun 2027 09:24:47.063           188.511                Norilsk         19918.875
       322   11 Jun 2027 03:01:42.950   11 Jun 2027 03:03:13.178            90.228               Magadan1         10105.000
       323   11 Jun 2027 03:03:38.940   11 Jun 2027 03:05:37.483           118.543               Magadan1         12881.000
       324   11 Jun 2027 03:05:49.306   11 Jun 2027 03:06:38.967            49.661                Novosib          5911.500
       325   11 Jun 2027 03:06:42.172   11 Jun 2027 03:06:56.902            14.730                Norilsk          1602.500
       326   11 Jun 2027 03:07:03.143   11 Jun 2027 03:07:33.459            30.316                Norilsk          3120.500
       327   11 Jun 2027 03:07:34.569   11 Jun 2027 03:07:58.010            23.441               Magadan2           555.000
       328   11 Jun 2027 03:08:03.830   11 Jun 2027 03:08:35.364            31.534               Magadan1          2910.000
       329   11 Jun 2027 03:08:35.432   11 Jun 2027 03:08:58.039            22.607                Anadyr1            34.000
       330   11 Jun 2027 03:09:06.897   11 Jun 2027 03:09:47.731            40.834                Irkutsk          4429.000
       331   11 Jun 2027 03:09:55.486   11 Jun 2027 03:11:00.508            65.022                Novosib          3877.500
       332   11 Jun 2027 03:11:08.333   11 Jun 2027 03:11:49.572            41.239              Murmansk1          3912.500
       333   11 Jun 2027 04:40:24.899   11 Jun 2027 04:41:01.303            36.404                Novosib          3971.000
       334   11 Jun 2027 04:41:44.456   11 Jun 2027 04:44:27.075           162.619                Norilsk         20327.375
       335   11 Jun 2027 04:44:29.482   11 Jun 2027 04:45:33.960            64.478                Novosib          2452.625
       336   11 Jun 2027 04:45:40.009   11 Jun 2027 04:46:09.286            29.277              Murmansk1          3024.500
       337   11 Jun 2027 04:46:25.414   11 Jun 2027 04:47:50.213            84.799              Murmansk2          8064.000
       338   11 Jun 2027 06:17:23.917   11 Jun 2027 06:17:41.918            18.001                Norilsk          2250.125
       339   11 Jun 2027 06:18:19.996   11 Jun 2027 06:21:40.574           200.578                Irkutsk         22385.875
       340   11 Jun 2027 06:21:42.168   11 Jun 2027 06:21:45.540             3.372              Murmansk2           310.500
       341   11 Jun 2027 06:21:47.925   11 Jun 2027 06:22:10.878            22.953              Murmansk2          1192.500
       342   11 Jun 2027 06:22:18.946   11 Jun 2027 06:23:14.816            55.870                 Moscow          4034.000
       343   11 Jun 2027 07:54:12.051   11 Jun 2027 07:54:46.033            33.982                Novosib          4247.750
       344   11 Jun 2027 07:54:53.797   11 Jun 2027 07:55:54.391            60.594              Murmansk2          4073.750
       345   11 Jun 2027 07:56:06.918   11 Jun 2027 07:57:04.749            57.831                Norilsk          6263.500
       346   11 Jun 2027 07:57:11.196   11 Jun 2027 07:57:41.465            30.269                Norilsk          3223.500
       347   11 Jun 2027 07:57:53.595   11 Jun 2027 07:58:47.496            53.901                Norilsk          6065.000
       348   11 Jun 2027 09:32:13.163   11 Jun 2027 09:34:48.835           155.672              Murmansk2         16426.500
       349   12 Jun 2027 03:16:14.714   12 Jun 2027 03:18:36.301           141.587               Magadan1         14902.000
       350   12 Jun 2027 03:18:36.383   12 Jun 2027 03:18:47.191            10.808                Norilsk            41.000
       351   12 Jun 2027 03:18:47.894   12 Jun 2027 03:19:02.967            15.073               Magadan1           351.500
       352   12 Jun 2027 03:19:12.875   12 Jun 2027 03:19:59.496            46.621               Magadan2          4954.000
       353   12 Jun 2027 03:20:07.468   12 Jun 2027 03:21:25.338            77.870                Irkutsk          3986.000
       354   12 Jun 2027 03:21:33.800   12 Jun 2027 03:22:12.618            38.818                Irkutsk          4231.000
       355   12 Jun 2027 03:22:25.182   12 Jun 2027 03:23:05.608            40.426                Irkutsk          5053.250
       356   12 Jun 2027 03:23:09.446   12 Jun 2027 03:23:44.547            35.101              Murmansk1          2608.750
       357   12 Jun 2027 04:52:28.554   12 Jun 2027 04:52:54.744            26.190                Norilsk          1911.500
       358   12 Jun 2027 04:53:12.283   12 Jun 2027 04:53:36.357            24.074                Norilsk          3009.250
       359   12 Jun 2027 04:53:43.889   12 Jun 2027 04:55:00.273            76.384                Norilsk          9526.250
       360   12 Jun 2027 04:55:12.761   12 Jun 2027 04:56:09.451            56.690                Norilsk          6244.000
       361   12 Jun 2027 04:56:21.779   12 Jun 2027 04:57:31.970            70.191              Murmansk2          6164.000
       362   12 Jun 2027 04:57:37.448   12 Jun 2027 04:58:10.692            33.244                Novosib          2739.000
       363   12 Jun 2027 04:58:11.905   12 Jun 2027 04:58:17.991             6.086                Novosib           606.500
       364   12 Jun 2027 04:58:25.947   12 Jun 2027 04:58:45.385            19.438                Irkutsk          2429.750
       365   12 Jun 2027 04:58:48.805   12 Jun 2027 04:59:40.081            51.276                Novosib          3258.250
       366   12 Jun 2027 06:30:11.848   12 Jun 2027 06:30:41.447            29.599                Novosib          3338.500
       367   12 Jun 2027 06:30:42.612   12 Jun 2027 06:30:54.825            12.213                Norilsk           582.500
       368   12 Jun 2027 06:31:02.725   12 Jun 2027 06:31:53.308            50.583                Norilsk          3950.000
       369   12 Jun 2027 06:31:58.425   12 Jun 2027 06:32:23.704            25.279                Norilsk          2558.500
       370   12 Jun 2027 06:32:25.139   12 Jun 2027 06:32:38.644            13.505              Murmansk1           717.500
       371   12 Jun 2027 06:32:54.752   12 Jun 2027 06:33:26.386            31.634                Norilsk          3954.250
       372   12 Jun 2027 06:33:27.620   12 Jun 2027 06:33:28.113             0.493                Norilsk            61.625
       373   12 Jun 2027 06:33:30.320   12 Jun 2027 06:34:28.743            58.423                Norilsk          5758.625
       374   12 Jun 2027 06:34:28.970   12 Jun 2027 06:34:30.539             1.569              Murmansk2           113.500
       375   12 Jun 2027 06:34:32.241   12 Jun 2027 06:34:59.156            26.915                Norilsk           851.000
       376   12 Jun 2027 08:06:12.533   12 Jun 2027 08:06:44.564            32.031                 Moscow          3439.500
       377   12 Jun 2027 08:06:48.393   12 Jun 2027 08:07:12.447            24.054              Murmansk1          1914.500
       378   12 Jun 2027 08:07:13.006   12 Jun 2027 08:07:20.148             7.142                Norilsk           279.500
       379   12 Jun 2027 08:07:40.301   12 Jun 2027 08:09:12.122            91.821                Norilsk         10076.500
       380   12 Jun 2027 08:09:14.476   12 Jun 2027 08:09:29.553            15.077                Norilsk          1177.000
       381   12 Jun 2027 08:09:47.611   12 Jun 2027 08:11:03.414            75.803                Novosib          9029.000
       382   13 Jun 2027 03:28:40.301   13 Jun 2027 03:29:14.489            34.188                Norilsk          1923.500
       383   13 Jun 2027 03:29:15.312   13 Jun 2027 03:29:43.135            27.823                Novosib           411.500
       384   13 Jun 2027 03:29:47.869   13 Jun 2027 03:30:08.166            20.297               Magadan2          2367.000
       385   13 Jun 2027 03:30:10.110   13 Jun 2027 03:30:26.712            16.602                Irkutsk           972.000
       386   13 Jun 2027 03:30:30.975   13 Jun 2027 03:30:59.559            28.584               Magadan2          2131.500
       387   13 Jun 2027 03:31:08.436   13 Jun 2027 03:32:09.520            61.084                Irkutsk          4438.500
       388   13 Jun 2027 03:32:22.501   13 Jun 2027 03:33:20.181            57.680               Magadan1          6490.500
       389   13 Jun 2027 03:33:29.007   13 Jun 2027 03:34:06.103            37.096               Magadan2          4413.000
       390   13 Jun 2027 03:34:08.023   13 Jun 2027 03:34:46.372            38.349               Magadan1           960.000
       391   13 Jun 2027 03:34:47.202   13 Jun 2027 03:35:06.298            19.096                Norilsk           415.000
       392   13 Jun 2027 03:35:10.163   13 Jun 2027 03:35:34.702            24.539              Murmansk2          1932.500
       393   13 Jun 2027 05:05:01.316   13 Jun 2027 05:05:25.372            24.056                Norilsk           965.500
       394   13 Jun 2027 05:05:35.736   13 Jun 2027 05:06:18.902            43.166                Irkutsk          5182.000
       395   13 Jun 2027 05:06:29.318   13 Jun 2027 05:07:12.343            43.025                Norilsk          5208.000
       396   13 Jun 2027 05:07:40.996   13 Jun 2027 05:09:46.390           125.394                Norilsk         14326.500
       397   13 Jun 2027 05:09:54.458   13 Jun 2027 05:10:42.999            48.541              Murmansk2          4034.000
       398   13 Jun 2027 05:10:55.803   13 Jun 2027 05:11:54.404            58.601              Murmansk1          6402.000
       399   13 Jun 2027 06:42:15.651   13 Jun 2027 06:42:32.197            16.546              Murmansk2           842.500
       400   13 Jun 2027 06:42:32.422   13 Jun 2027 06:42:48.540            16.118                 Moscow           112.500
       401   13 Jun 2027 06:42:48.647   13 Jun 2027 06:43:26.540            37.893                 Moscow            53.500
       402   13 Jun 2027 06:43:28.456   13 Jun 2027 06:43:41.310            12.854              Murmansk2           958.000
       403   13 Jun 2027 06:43:43.389   13 Jun 2027 06:44:11.529            28.140                Novosib          1039.500
       404   13 Jun 2027 06:44:16.371   13 Jun 2027 06:44:45.869            29.498                Irkutsk          2421.000
       405   13 Jun 2027 06:45:01.330   13 Jun 2027 06:46:08.380            67.050                Novosib          7730.500
       406   13 Jun 2027 06:46:17.649   13 Jun 2027 06:47:06.875            49.226              Murmansk1          4634.500
       407   13 Jun 2027 08:18:41.210   13 Jun 2027 08:19:29.955            48.745                Norilsk          5792.500
       408   13 Jun 2027 08:19:40.671   13 Jun 2027 08:20:26.589            45.918                Novosib          5358.000
       409   13 Jun 2027 08:20:29.598   13 Jun 2027 08:20:53.073            23.475              Murmansk2          1504.500
       410   13 Jun 2027 08:21:13.264   13 Jun 2027 08:22:56.677           103.413                Norilsk         10095.500
       411   13 Jun 2027 08:22:58.369   13 Jun 2027 08:23:12.887            14.518                Norilsk           846.000
       412   13 Jun 2027 08:23:22.109   13 Jun 2027 08:23:27.830             5.721                 Moscow            45.500
