uniorb/output/strategy_2/Drop/Drop_KinoSat_110307.txt

KinoSat_110307
-------------------------
    Access    *     Start Time (UTCG)     *     Stop Time (UTCG)  *   Duration (s)        *       Station  *  Data (Mbytes)
         1   01 Jun 2027 03:38:04.186   01 Jun 2027 03:39:21.527            77.341               Magadan1          7274.000
         2   01 Jun 2027 03:39:22.055   01 Jun 2027 03:39:37.585            15.530               Magadan1           264.000
         3   01 Jun 2027 03:39:46.803   01 Jun 2027 03:39:57.736            10.933                Irkutsk          1366.625
         4   01 Jun 2027 03:39:58.252   01 Jun 2027 03:40:32.438            34.186                Norilsk          3500.375
         5   01 Jun 2027 03:40:41.920   01 Jun 2027 03:41:33.054            51.134                Norilsk          4741.000
         6   01 Jun 2027 03:41:34.700   01 Jun 2027 03:41:54.319            19.619               Magadan2           823.000
         7   01 Jun 2027 03:42:05.808   01 Jun 2027 03:43:29.396            83.588                Irkutsk          5744.500
         8   01 Jun 2027 03:43:35.423   01 Jun 2027 03:44:20.138            44.715                Novosib          3013.500
         9   01 Jun 2027 03:44:29.659   01 Jun 2027 03:45:10.244            40.585                Norilsk          4760.500
        10   01 Jun 2027 05:13:59.529   01 Jun 2027 05:15:25.687            86.158                Novosib          7043.500
        11   01 Jun 2027 05:15:27.486   01 Jun 2027 05:15:56.305            28.819                Irkutsk           899.500
        12   01 Jun 2027 05:15:56.334   01 Jun 2027 05:16:00.424             4.090                Norilsk            14.500
        13   01 Jun 2027 05:16:18.481   01 Jun 2027 05:17:28.023            69.542                Irkutsk          8692.750
        14   01 Jun 2027 05:17:29.082   01 Jun 2027 05:17:31.225             2.143                Norilsk           267.875
        15   01 Jun 2027 05:17:32.970   01 Jun 2027 05:17:35.254             2.284                Norilsk           285.500
        16   01 Jun 2027 05:17:41.177   01 Jun 2027 05:18:06.690            25.513                Norilsk          3189.125
        17   01 Jun 2027 05:18:19.524   01 Jun 2027 05:19:33.998            74.474                Irkutsk          7373.749
        18   01 Jun 2027 05:19:59.779   01 Jun 2027 05:22:08.146           128.367              Murmansk2         12890.500
        19   01 Jun 2027 06:51:49.504   01 Jun 2027 06:52:18.121            28.617                Norilsk          2838.000
        20   01 Jun 2027 06:52:19.401   01 Jun 2027 06:52:55.640            36.239                Norilsk           640.000
        21   01 Jun 2027 06:53:04.043   01 Jun 2027 06:53:43.244            39.201                 Moscow          4201.500
        22   01 Jun 2027 06:53:47.781   01 Jun 2027 06:54:16.124            28.343              Murmansk2          2268.500
        23   01 Jun 2027 06:54:27.682   01 Jun 2027 06:55:16.539            48.857                Novosib          5779.000
        24   01 Jun 2027 06:55:16.770   01 Jun 2027 06:55:25.861             9.091                Norilsk           115.500
        25   01 Jun 2027 06:55:27.535   01 Jun 2027 06:56:15.577            48.042              Murmansk1           837.000
        26   01 Jun 2027 08:27:41.231   01 Jun 2027 08:28:18.780            37.549                Novosib          2909.500
        27   01 Jun 2027 08:28:22.693   01 Jun 2027 08:28:30.790             8.097                Norilsk          1012.125
        28   01 Jun 2027 08:28:43.384   01 Jun 2027 08:29:42.082            58.698                 Moscow          7241.375
        29   01 Jun 2027 08:29:46.039   01 Jun 2027 08:30:23.261            37.222                Novosib          1978.500
        30   01 Jun 2027 08:30:26.266   01 Jun 2027 08:30:48.656            22.390                Norilsk          1502.500
        31   01 Jun 2027 08:30:59.844   01 Jun 2027 08:31:56.805            56.961                 Moscow          5594.000
        32   01 Jun 2027 08:31:57.257   01 Jun 2027 08:32:09.899            12.642                Norilsk           226.000
        33   01 Jun 2027 08:32:14.467   01 Jun 2027 08:33:01.004            46.537              Murmansk2          2284.000
        34   02 Jun 2027 03:49:21.752   02 Jun 2027 03:50:39.391            77.639                Novosib          8263.000
        35   02 Jun 2027 03:50:47.185   02 Jun 2027 03:51:24.382            37.197               Magadan2          3897.000
        36   02 Jun 2027 03:51:26.791   02 Jun 2027 03:51:38.352            11.561                Irkutsk          1204.500
        37   02 Jun 2027 03:51:49.483   02 Jun 2027 03:53:33.314           103.831                Irkutsk          5565.500
        38   02 Jun 2027 03:53:36.019   02 Jun 2027 03:54:04.252            28.233                Novosib          1352.500
        39   02 Jun 2027 03:54:07.881   02 Jun 2027 03:55:03.846            55.965                Novosib          1814.500
        40   02 Jun 2027 03:55:04.067   02 Jun 2027 03:55:22.503            18.436              Murmansk2           110.500
        41   02 Jun 2027 03:55:22.641   02 Jun 2027 03:55:31.776             9.135               Magadan2            69.000
        42   02 Jun 2027 03:55:48.822   02 Jun 2027 03:57:08.519            79.697              Murmansk2          8523.000
        43   02 Jun 2027 05:26:13.252   02 Jun 2027 05:27:39.736            86.484                Irkutsk          9124.000
        44   02 Jun 2027 05:27:57.824   02 Jun 2027 05:29:39.993           102.169                Irkutsk          9044.000
        45   02 Jun 2027 05:29:42.274   02 Jun 2027 05:29:54.504            12.230                Irkutsk          1140.500
        46   02 Jun 2027 05:29:57.499   02 Jun 2027 05:30:25.720            28.221                Norilsk          1497.500
        47   02 Jun 2027 05:30:26.042   02 Jun 2027 05:30:36.775            10.733              Murmansk2           161.000
        48   02 Jun 2027 05:30:40.928   02 Jun 2027 05:31:02.820            21.892              Murmansk2          2076.500
        49   02 Jun 2027 05:31:04.349   02 Jun 2027 05:31:49.276            44.927              Murmansk1           764.500
        50   02 Jun 2027 05:32:01.124   02 Jun 2027 05:33:34.727            93.603                 Moscow          5924.000
        51   02 Jun 2027 07:04:15.553   02 Jun 2027 07:04:19.835             4.282                Norilsk           535.250
        52   02 Jun 2027 07:04:27.864   02 Jun 2027 07:05:42.605            74.741                 Moscow          8055.250
        53   02 Jun 2027 07:05:45.823   02 Jun 2027 07:06:02.565            16.742                Norilsk          1609.000
        54   02 Jun 2027 07:06:04.361   02 Jun 2027 07:06:37.286            32.925                Norilsk           898.000
        55   02 Jun 2027 07:06:39.754   02 Jun 2027 07:07:19.317            39.563                Norilsk          1234.000
        56   02 Jun 2027 07:07:21.272   02 Jun 2027 07:08:12.059            50.787              Murmansk2           977.500
        57   02 Jun 2027 08:37:53.310   02 Jun 2027 08:39:59.541           126.231                 Moscow         14531.000
        58   02 Jun 2027 08:40:02.931   02 Jun 2027 08:40:35.247            32.316              Murmansk1          1695.000
        59   02 Jun 2027 08:40:36.751   02 Jun 2027 08:41:06.800            30.049                Novosib           752.000
        60   02 Jun 2027 08:41:10.224   02 Jun 2027 08:41:22.624            12.400                Norilsk          1550.000
        61   02 Jun 2027 08:41:25.707   02 Jun 2027 08:42:04.456            38.749              Murmansk2          1703.500
        62   02 Jun 2027 08:42:17.681   02 Jun 2027 08:43:06.255            48.574                Novosib          6071.750
        63   02 Jun 2027 08:43:07.821   02 Jun 2027 08:43:49.674            41.853                Novosib          1323.750
        64   02 Jun 2027 08:44:10.473   02 Jun 2027 08:44:43.296            32.823                Norilsk          3082.500
        65   02 Jun 2027 08:44:50.057   02 Jun 2027 08:45:24.478            34.421                 Moscow          3380.500
        66   03 Jun 2027 04:01:17.973   03 Jun 2027 04:02:24.929            66.956                Novosib          2489.000
        67   03 Jun 2027 04:02:36.193   03 Jun 2027 04:03:27.246            51.053               Magadan1          5632.000
        68   03 Jun 2027 04:03:27.404   03 Jun 2027 04:03:45.551            18.147                Irkutsk            79.000
        69   03 Jun 2027 04:03:47.261   03 Jun 2027 04:04:33.759            46.498               Magadan2           855.000
        70   03 Jun 2027 04:04:35.034   03 Jun 2027 04:04:50.973            15.939                Irkutsk           637.500
        71   03 Jun 2027 04:04:59.651   03 Jun 2027 04:06:09.490            69.839                Norilsk          4339.000
        72   03 Jun 2027 04:06:16.928   03 Jun 2027 04:06:20.472             3.544                Norilsk           443.000
        73   03 Jun 2027 04:06:22.809   03 Jun 2027 04:07:08.788            45.979                Novosib          4444.500
        74   03 Jun 2027 04:07:19.743   03 Jun 2027 04:08:18.816            59.073              Murmansk1          5477.500
        75   03 Jun 2027 04:08:31.504   03 Jun 2027 04:08:37.930             6.426                Irkutsk           803.250
        76   03 Jun 2027 04:08:47.277   03 Jun 2027 04:09:50.743            63.466                Novosib          5540.750
        77   03 Jun 2027 05:38:14.769   03 Jun 2027 05:38:52.655            37.886                Irkutsk          1890.000
        78   03 Jun 2027 05:38:54.291   03 Jun 2027 05:39:21.231            26.940                Novosib           818.000
        79   03 Jun 2027 05:39:23.230   03 Jun 2027 05:39:59.530            36.300                Norilsk           999.500
        80   03 Jun 2027 05:40:04.219   03 Jun 2027 05:40:25.502            21.283                Norilsk          2344.500
        81   03 Jun 2027 05:40:30.002   03 Jun 2027 05:41:04.177            34.175                Irkutsk          2250.000
        82   03 Jun 2027 05:41:06.071   03 Jun 2027 05:41:18.402            12.331                Norilsk           947.000
        83   03 Jun 2027 05:41:19.281   03 Jun 2027 05:41:25.863             6.582              Murmansk2           439.500
        84   03 Jun 2027 05:41:27.688   03 Jun 2027 05:41:48.910            21.222                Norilsk           912.500
        85   03 Jun 2027 05:41:49.127   03 Jun 2027 05:41:55.813             6.686                Irkutsk           108.500
        86   03 Jun 2027 05:42:13.390   03 Jun 2027 05:43:39.435            86.045              Murmansk2          8788.500
        87   03 Jun 2027 05:43:56.800   03 Jun 2027 05:45:10.800            74.000                Novosib          8682.500
        88   03 Jun 2027 07:16:11.049   03 Jun 2027 07:16:48.178            37.129                Norilsk          1883.000
        89   03 Jun 2027 07:17:08.803   03 Jun 2027 07:17:46.521            37.718                Irkutsk          4714.750
        90   03 Jun 2027 07:17:52.956   03 Jun 2027 07:19:13.451            80.495                Norilsk          8815.250
        91   03 Jun 2027 07:19:16.156   03 Jun 2027 07:20:04.801            48.645              Murmansk1          1352.500
        92   03 Jun 2027 07:20:06.542   03 Jun 2027 07:20:29.064            22.522                Norilsk           500.000
        93   03 Jun 2027 08:49:57.845   03 Jun 2027 08:52:00.603           122.758                 Moscow         15277.500
        94   03 Jun 2027 08:52:07.180   03 Jun 2027 08:52:34.999            27.819              Murmansk2          3288.500
        95   03 Jun 2027 08:53:00.443   03 Jun 2027 08:54:53.120           112.677              Murmansk1         12722.000
        96   03 Jun 2027 08:54:56.737   03 Jun 2027 08:55:15.374            18.637                 Moscow          1808.500
        97   03 Jun 2027 08:55:16.849   03 Jun 2027 08:55:34.305            17.456              Murmansk2           737.500
        98   03 Jun 2027 08:55:34.322   03 Jun 2027 08:55:52.142            17.820                 Moscow             8.500
        99   03 Jun 2027 08:55:52.370   03 Jun 2027 08:56:39.294            46.924              Murmansk1           114.000
       100   03 Jun 2027 08:56:40.851   03 Jun 2027 08:56:56.331            15.480              Murmansk2           778.500
       101   03 Jun 2027 08:57:16.905   03 Jun 2027 08:58:39.930            83.025                 Moscow          7585.000
       102   04 Jun 2027 04:13:32.484   04 Jun 2027 04:15:30.089           117.605               Magadan1          8807.000
       103   04 Jun 2027 04:15:31.308   04 Jun 2027 04:15:36.536             5.228               Magadan2           609.500
       104   04 Jun 2027 04:15:40.354   04 Jun 2027 04:16:01.515            21.161               Magadan1          1909.000
       105   04 Jun 2027 04:16:05.949   04 Jun 2027 04:16:32.804            26.855                Norilsk          2217.000
       106   04 Jun 2027 04:16:37.039   04 Jun 2027 04:17:01.408            24.369                Norilsk          2117.500
       107   04 Jun 2027 04:17:07.120   04 Jun 2027 04:17:47.292            40.172               Magadan2          2856.000
       108   04 Jun 2027 04:17:48.805   04 Jun 2027 04:19:03.490            74.685                Novosib           756.500
       109   04 Jun 2027 04:19:07.993   04 Jun 2027 04:19:27.540            19.547              Murmansk1          2251.500
       110   04 Jun 2027 04:19:31.452   04 Jun 2027 04:20:43.793            72.341                Novosib          1956.000
       111   04 Jun 2027 05:50:08.861   04 Jun 2027 05:50:42.022            33.161                Novosib          3889.000
       112   04 Jun 2027 05:50:50.773   04 Jun 2027 05:51:58.252            67.479                Irkutsk          4375.500
       113   04 Jun 2027 05:52:01.289   04 Jun 2027 05:52:26.221            24.932                Norilsk          1518.500
       114   04 Jun 2027 05:52:32.067   04 Jun 2027 05:53:19.628            47.561                Novosib          2923.000
       115   04 Jun 2027 05:53:21.460   04 Jun 2027 05:53:52.330            30.870              Murmansk2           916.000
       116   04 Jun 2027 05:53:59.202   04 Jun 2027 05:54:24.970            25.768                 Moscow          3221.000
       117   04 Jun 2027 05:54:32.619   04 Jun 2027 05:55:23.573            50.954                Norilsk          4039.500
       118   04 Jun 2027 05:55:30.304   04 Jun 2027 05:56:32.658            62.354              Murmansk1          3365.500
       119   04 Jun 2027 05:56:34.368   04 Jun 2027 05:56:53.981            19.613                 Moscow           855.000
       120   04 Jun 2027 07:28:14.205   04 Jun 2027 07:28:47.138            32.933              Murmansk2          4034.000
       121   04 Jun 2027 07:28:48.878   04 Jun 2027 07:29:48.874            59.996                 Moscow           870.000
       122   04 Jun 2027 07:29:55.195   04 Jun 2027 07:30:35.076            39.881                 Moscow          3160.500
       123   04 Jun 2027 07:30:37.043   04 Jun 2027 07:31:08.251            31.208                Norilsk           983.500
       124   04 Jun 2027 07:31:12.260   04 Jun 2027 07:31:57.457            45.197              Murmansk2          2004.500
       125   04 Jun 2027 07:32:06.947   04 Jun 2027 07:32:56.775            49.828                Novosib          4745.000
       126   04 Jun 2027 09:02:07.856   04 Jun 2027 09:03:24.400            76.544                 Moscow          6662.000
       127   04 Jun 2027 09:03:45.275   04 Jun 2027 09:05:10.843            85.568              Murmansk1         10437.500
       128   04 Jun 2027 09:05:17.245   04 Jun 2027 09:06:23.858            66.613                 Moscow          3201.000
       129   04 Jun 2027 09:06:30.867   04 Jun 2027 09:06:49.983            19.116                 Moscow          2389.500
       130   04 Jun 2027 09:07:01.826   04 Jun 2027 09:08:24.609            82.783                 Moscow          7036.500
       131   04 Jun 2027 09:08:32.029   04 Jun 2027 09:09:44.276            72.247              Murmansk1          3710.000
       132   05 Jun 2027 04:25:26.232   05 Jun 2027 04:26:27.787            61.555                Irkutsk          5293.500
       133   05 Jun 2027 04:26:31.742   05 Jun 2027 04:27:02.002            30.260                Norilsk          1977.500
       134   05 Jun 2027 04:27:10.154   05 Jun 2027 04:27:47.086            36.932                Norilsk          4076.000
       135   05 Jun 2027 04:27:52.646   05 Jun 2027 04:27:57.175             4.529                Irkutsk           566.125
       136   05 Jun 2027 04:28:05.892   05 Jun 2027 04:29:02.963            57.071                Norilsk          6572.375
       137   05 Jun 2027 04:29:05.887   05 Jun 2027 04:29:17.764            11.877                Novosib          1462.000
       138   05 Jun 2027 04:29:24.468   05 Jun 2027 04:29:55.637            31.169               Magadan1          3352.000
       139   05 Jun 2027 04:29:59.229   05 Jun 2027 04:30:42.372            43.143                Norilsk          1796.000
       140   05 Jun 2027 04:30:51.838   05 Jun 2027 04:32:22.607            90.769                Novosib          4733.000
       141   05 Jun 2027 04:32:26.184   05 Jun 2027 04:32:42.021            15.837                Irkutsk          1788.500
       142   05 Jun 2027 04:33:01.589   05 Jun 2027 04:33:13.447            11.858              Murmansk1           154.500
       143   05 Jun 2027 06:02:18.073   05 Jun 2027 06:03:44.239            86.166                Novosib          3904.500
       144   05 Jun 2027 06:03:56.985   05 Jun 2027 06:05:22.810            85.825                Irkutsk          6373.000
       145   05 Jun 2027 06:05:23.622   05 Jun 2027 06:05:47.671            24.049              Murmansk1           406.000
       146   05 Jun 2027 06:05:47.697   05 Jun 2027 06:06:03.261            15.564                Irkutsk            13.000
       147   05 Jun 2027 06:06:12.321   05 Jun 2027 06:07:07.043            54.722              Murmansk1          4530.000
       148   05 Jun 2027 06:07:10.382   05 Jun 2027 06:07:21.905            11.523              Murmansk2          1440.375
       149   05 Jun 2027 06:07:23.437   05 Jun 2027 06:08:15.125            51.688                Irkutsk           229.125
       150   05 Jun 2027 06:08:17.208   05 Jun 2027 06:08:39.639            22.431              Murmansk1          1041.500
       151   05 Jun 2027 07:39:36.343   05 Jun 2027 07:40:54.039            77.696                 Moscow          8727.000
       152   05 Jun 2027 07:40:59.244   05 Jun 2027 07:41:22.412            23.168                Novosib          2602.500
       153   05 Jun 2027 07:41:30.221   05 Jun 2027 07:42:12.281            42.060                Norilsk          3904.500
       154   05 Jun 2027 07:42:15.230   05 Jun 2027 07:42:42.420            27.190                 Moscow          1474.500
       155   05 Jun 2027 07:42:46.242   05 Jun 2027 07:43:03.702            17.460                Norilsk          1911.000
       156   05 Jun 2027 07:43:05.713   05 Jun 2027 07:43:20.583            14.870                Novosib          1005.500
       157   05 Jun 2027 07:43:20.610   05 Jun 2027 07:44:26.242            65.632                Norilsk            13.500
       158   05 Jun 2027 09:14:19.372   05 Jun 2027 09:15:06.385            47.013              Murmansk1          4924.500
       159   05 Jun 2027 09:15:15.408   05 Jun 2027 09:15:57.467            42.059                 Moscow          4511.500
       160   05 Jun 2027 09:16:12.497   05 Jun 2027 09:17:04.540            52.043              Murmansk2          5848.000
       161   05 Jun 2027 09:17:38.381   05 Jun 2027 09:20:24.160           165.779              Murmansk1         16920.500
       162   06 Jun 2027 03:00:26.676   06 Jun 2027 03:01:41.595            74.919               Magadan1          8127.500
       163   06 Jun 2027 03:01:43.062   06 Jun 2027 03:01:53.191            10.129               Magadan2           733.500
       164   06 Jun 2027 03:01:53.762   06 Jun 2027 03:01:56.170             2.408                Norilsk           285.500
       165   06 Jun 2027 03:02:08.410   06 Jun 2027 03:03:01.809            53.399                Irkutsk          6120.000
       166   06 Jun 2027 03:03:02.694   06 Jun 2027 03:03:14.632            11.938                Novosib           442.500
       167   06 Jun 2027 03:03:14.836   06 Jun 2027 03:03:26.877            12.041                Anadyr1           102.000
       168   06 Jun 2027 03:03:28.968   06 Jun 2027 03:03:40.605            11.637               Magadan1          1045.500
       169   06 Jun 2027 03:03:42.877   06 Jun 2027 03:03:59.065            16.188               Magadan1          1136.000
       170   06 Jun 2027 03:04:02.319   06 Jun 2027 03:04:35.154            32.835                Anadyr2          1627.000
       171   06 Jun 2027 03:04:38.008   06 Jun 2027 03:05:12.648            34.640                Anadyr1          1427.000
       172   06 Jun 2027 03:05:12.731   06 Jun 2027 03:05:24.775            12.044                Novosib            41.500
       173   06 Jun 2027 03:05:36.270   06 Jun 2027 03:06:27.617            51.347                Irkutsk          5747.500
       174   06 Jun 2027 03:06:32.739   06 Jun 2027 03:06:47.851            15.112                Novosib          1889.000
       175   06 Jun 2027 03:06:56.191   06 Jun 2027 03:07:41.916            45.725                Anadyr2          4842.000
       176   06 Jun 2027 03:07:44.664   06 Jun 2027 03:08:18.928            34.264              Murmansk2          1237.000
       177   06 Jun 2027 03:08:25.541   06 Jun 2027 03:08:57.166            31.625              Murmansk2          3306.500
       178   06 Jun 2027 04:37:48.580   06 Jun 2027 04:38:30.324            41.744                Novosib          3328.500
       179   06 Jun 2027 04:38:51.984   06 Jun 2027 04:40:07.435            75.451                Norilsk          9431.375
       180   06 Jun 2027 04:40:08.379   06 Jun 2027 04:41:15.902            67.523                Irkutsk          1870.625
       181   06 Jun 2027 04:41:16.746   06 Jun 2027 04:41:24.489             7.743                Novosib           422.000
       182   06 Jun 2027 04:41:25.016   06 Jun 2027 04:41:27.437             2.421               Magadan1           263.500
       183   06 Jun 2027 04:41:31.662   06 Jun 2027 04:41:55.036            23.374                Norilsk          2112.500
       184   06 Jun 2027 04:41:58.841   06 Jun 2027 04:42:31.343            32.502                Norilsk          1902.500
       185   06 Jun 2027 04:42:43.886   06 Jun 2027 04:43:00.916            17.030                Irkutsk          2128.750
       186   06 Jun 2027 04:43:08.957   06 Jun 2027 04:44:28.838            79.881              Murmansk2          8163.250
       187   06 Jun 2027 06:14:48.220   06 Jun 2027 06:16:18.047            89.827                Novosib          5089.500
       188   06 Jun 2027 06:16:22.438   06 Jun 2027 06:16:45.087            22.649                Norilsk          2195.500
       189   06 Jun 2027 06:16:46.394   06 Jun 2027 06:16:57.031            10.637                 Moscow           653.500
       190   06 Jun 2027 06:17:17.564   06 Jun 2027 06:18:57.310            99.746                Novosib         10266.500
       191   06 Jun 2027 06:18:57.415   06 Jun 2027 06:19:04.657             7.242                Norilsk            52.500
       192   06 Jun 2027 06:19:10.136   06 Jun 2027 06:19:46.228            36.092                Irkutsk          1403.500
       193   06 Jun 2027 06:19:57.070   06 Jun 2027 06:20:42.417            45.347                Novosib          5421.000
       194   06 Jun 2027 07:51:45.019   06 Jun 2027 07:52:43.755            58.736                Novosib          6553.500
       195   06 Jun 2027 07:52:59.740   06 Jun 2027 07:53:59.893            60.153                 Moscow          7519.125
       196   06 Jun 2027 07:54:04.358   06 Jun 2027 07:54:30.153            25.795                Norilsk          2705.875
       197   06 Jun 2027 07:54:38.028   06 Jun 2027 07:55:20.539            42.511                Norilsk          3937.500
       198   06 Jun 2027 07:55:29.062   06 Jun 2027 07:56:20.482            51.420                Novosib          4261.500
       199   06 Jun 2027 09:28:58.967   06 Jun 2027 09:30:42.470           103.503              Murmansk2          8478.000
       200   06 Jun 2027 09:30:56.692   06 Jun 2027 09:32:17.333            80.641              Murmansk1          7111.000
       201   07 Jun 2027 03:11:07.192   07 Jun 2027 03:11:38.370            31.178               Magadan2          3897.250
       202   07 Jun 2027 03:11:38.370   07 Jun 2027 03:12:02.888            24.518               Magadan1          1553.250
       203   07 Jun 2027 03:12:49.856   07 Jun 2027 03:12:53.636             3.780               Magadan2           387.500
       204   07 Jun 2027 03:13:01.049   07 Jun 2027 03:13:12.828            11.779                Irkutsk          1472.375
       205   07 Jun 2027 03:13:40.312   07 Jun 2027 03:16:03.838           143.526               Magadan1         15976.125
       206   07 Jun 2027 03:16:12.077   07 Jun 2027 03:16:55.372            43.295                Novosib          4119.500
       207   07 Jun 2027 03:16:59.511   07 Jun 2027 03:17:42.262            42.751                Norilsk          2069.500
       208   07 Jun 2027 03:17:48.471   07 Jun 2027 03:18:15.644            27.173               Magadan2          3104.500
       209   07 Jun 2027 03:18:21.176   07 Jun 2027 03:18:52.519            31.343                Norilsk          2766.000
       210   07 Jun 2027 03:18:56.915   07 Jun 2027 03:19:46.002            49.087                Irkutsk          2198.000
       211   07 Jun 2027 03:19:47.816   07 Jun 2027 03:20:31.325            43.509                Irkutsk           907.000
       212   07 Jun 2027 03:20:33.272   07 Jun 2027 03:20:44.126            10.854              Murmansk2           973.500
       213   07 Jun 2027 04:49:49.028   07 Jun 2027 04:49:56.702             7.674                Norilsk           585.500
       214   07 Jun 2027 04:49:57.334   07 Jun 2027 04:50:22.269            24.935                Novosib           316.000
       215   07 Jun 2027 04:50:41.498   07 Jun 2027 04:51:04.813            23.315                Norilsk          2914.375
       216   07 Jun 2027 04:51:23.622   07 Jun 2027 04:54:04.971           161.349                Novosib         16104.625
       217   07 Jun 2027 04:54:12.370   07 Jun 2027 04:55:00.761            48.391              Murmansk1          3699.500
       218   07 Jun 2027 04:55:03.468   07 Jun 2027 04:55:34.296            30.828                Novosib          1353.500
       219   07 Jun 2027 04:55:41.704   07 Jun 2027 04:55:56.573            14.869                Norilsk          1858.625
       220   07 Jun 2027 04:56:03.813   07 Jun 2027 04:56:46.807            42.994                Irkutsk          5374.250
       221   07 Jun 2027 04:56:57.440   07 Jun 2027 04:57:06.938             9.498                Norilsk            91.125
       222   07 Jun 2027 06:27:21.613   07 Jun 2027 06:28:08.486            46.873                 Moscow          4705.000
       223   07 Jun 2027 06:28:12.480   07 Jun 2027 06:28:36.319            23.839                Novosib          1997.000
       224   07 Jun 2027 06:28:41.601   07 Jun 2027 06:29:22.745            41.144              Murmansk2          2641.000
       225   07 Jun 2027 06:29:27.750   07 Jun 2027 06:29:52.066            24.316              Murmansk2          2502.500
       226   07 Jun 2027 06:29:59.305   07 Jun 2027 06:30:33.599            34.294                Irkutsk          3619.500
       227   07 Jun 2027 06:30:40.757   07 Jun 2027 06:31:14.863            34.106              Murmansk2          3579.000
       228   07 Jun 2027 06:31:19.698   07 Jun 2027 06:31:42.573            22.875                Novosib          1816.500
       229   07 Jun 2027 06:31:45.739   07 Jun 2027 06:33:13.709            87.970                Novosib          1583.000
       230   07 Jun 2027 08:03:35.667   07 Jun 2027 08:03:48.569            12.902                 Moscow           748.000
       231   07 Jun 2027 08:03:50.043   07 Jun 2027 08:03:56.130             6.087              Murmansk1           737.000
       232   07 Jun 2027 08:04:04.326   07 Jun 2027 08:04:29.121            24.795                Norilsk          3099.375
       233   07 Jun 2027 08:04:30.908   07 Jun 2027 08:04:52.455            21.547                Novosib          1892.125
       234   07 Jun 2027 08:05:08.257   07 Jun 2027 08:06:38.906            90.649                Norilsk          7901.000
       235   07 Jun 2027 08:06:39.530   07 Jun 2027 08:06:56.464            16.934                Norilsk           312.000
       236   07 Jun 2027 08:07:13.951   07 Jun 2027 08:08:28.961            75.010                Novosib          8743.500
       237   07 Jun 2027 09:42:06.390   07 Jun 2027 09:43:05.374            58.984              Murmansk1          7222.000
       238   08 Jun 2027 03:26:07.701   08 Jun 2027 03:27:04.274            56.573               Magadan1          2266.000
       239   08 Jun 2027 03:27:08.237   08 Jun 2027 03:27:34.277            26.040               Magadan2          1981.500
       240   08 Jun 2027 03:27:35.205   08 Jun 2027 03:27:49.717            14.512                Irkutsk           464.000
       241   08 Jun 2027 03:27:57.816   08 Jun 2027 03:28:33.187            35.371               Magadan2          4049.500
       242   08 Jun 2027 03:28:40.438   08 Jun 2027 03:29:35.822            55.384                Irkutsk          3625.500
       243   08 Jun 2027 03:29:39.578   08 Jun 2027 03:30:34.533            54.955                Novosib          1878.000
       244   08 Jun 2027 03:30:42.420   08 Jun 2027 03:31:33.391            50.971                Norilsk          3943.500
       245   08 Jun 2027 03:31:34.107   08 Jun 2027 03:32:06.325            32.218               Magadan2           358.000
       246   08 Jun 2027 03:32:07.599   08 Jun 2027 03:32:37.937            30.338                Irkutsk           637.000
       247   08 Jun 2027 03:32:38.574   08 Jun 2027 03:33:00.875            22.301              Murmansk2           318.500
       248   08 Jun 2027 05:02:41.129   08 Jun 2027 05:04:01.284            80.155                Novosib          9676.000
       249   08 Jun 2027 05:04:08.660   08 Jun 2027 05:05:34.457            85.797                Irkutsk          3688.000
       250   08 Jun 2027 05:05:39.017   08 Jun 2027 05:06:06.059            27.042              Murmansk1          2280.000
       251   08 Jun 2027 05:06:08.593   08 Jun 2027 05:06:31.784            23.191                Norilsk          1267.000
       252   08 Jun 2027 05:06:41.605   08 Jun 2027 05:08:04.795            83.190              Murmansk1          4910.500
       253   08 Jun 2027 05:08:09.364   08 Jun 2027 05:08:55.870            46.506                Norilsk          2284.500
       254   08 Jun 2027 06:39:45.099   08 Jun 2027 06:40:00.392            15.293              Murmansk1           221.500
       255   08 Jun 2027 06:40:08.812   08 Jun 2027 06:40:14.664             5.852                Norilsk           731.500
       256   08 Jun 2027 06:40:18.146   08 Jun 2027 06:40:45.066            26.920                Irkutsk          3365.000
       257   08 Jun 2027 06:40:51.173   08 Jun 2027 06:41:40.321            49.148                 Moscow          4908.000
       258   08 Jun 2027 06:41:42.388   08 Jun 2027 06:42:10.345            27.957                Irkutsk          1033.500
       259   08 Jun 2027 06:42:21.270   08 Jun 2027 06:43:10.344            49.074                Norilsk          5462.500
       260   08 Jun 2027 06:43:10.871   08 Jun 2027 06:43:31.602            20.731                Novosib           263.500
       261   08 Jun 2027 06:43:37.071   08 Jun 2027 06:44:13.080            36.009                Novosib          2734.500
       262   08 Jun 2027 06:44:18.270   08 Jun 2027 06:44:46.828            28.558                 Moscow          2177.000
       263   08 Jun 2027 08:16:02.025   08 Jun 2027 08:16:30.930            28.905                Norilsk          3589.000
       264   08 Jun 2027 08:16:33.801   08 Jun 2027 08:17:15.195            41.394              Murmansk1          1435.500
       265   08 Jun 2027 08:17:15.865   08 Jun 2027 08:17:45.944            30.079                 Moscow           335.000
       266   08 Jun 2027 08:17:46.717   08 Jun 2027 08:17:51.039             4.322              Murmansk1           386.500
       267   08 Jun 2027 08:17:58.528   08 Jun 2027 08:18:41.385            42.857              Murmansk2          3744.500
       268   08 Jun 2027 08:18:50.619   08 Jun 2027 08:19:05.959            15.340                Norilsk          1917.500
       269   08 Jun 2027 08:19:09.762   08 Jun 2027 08:19:56.003            46.241                Novosib          4601.000
       270   08 Jun 2027 08:20:03.152   08 Jun 2027 08:20:28.293            25.141              Murmansk2          3142.625
       271   08 Jun 2027 08:20:28.293   08 Jun 2027 08:20:41.565            13.272              Murmansk1           431.875
       272   09 Jun 2027 03:38:19.111   09 Jun 2027 03:39:37.083            77.972               Magadan1          7498.500
       273   09 Jun 2027 03:39:37.523   09 Jun 2027 03:39:54.399            16.876               Magadan1           220.000
       274   09 Jun 2027 03:39:59.762   09 Jun 2027 03:41:40.453           100.691                Irkutsk          2681.500
       275   09 Jun 2027 03:41:45.278   09 Jun 2027 03:42:09.201            23.923               Magadan2          2412.500
       276   09 Jun 2027 03:42:31.122   09 Jun 2027 03:43:17.168            46.046                Novosib          5755.750
       277   09 Jun 2027 03:43:18.932   09 Jun 2027 03:44:14.865            55.933              Murmansk1          6086.750
       278   09 Jun 2027 03:44:18.730   09 Jun 2027 03:44:23.544             4.814               Magadan2           601.750
       279   09 Jun 2027 03:44:27.188   09 Jun 2027 03:44:43.658            16.470                Irkutsk          2058.750
       280   09 Jun 2027 03:44:44.151   09 Jun 2027 03:45:01.454            17.303                Norilsk          1340.500
       281   09 Jun 2027 05:14:07.653   09 Jun 2027 05:14:42.706            35.053                Norilsk          3677.000
       282   09 Jun 2027 05:14:46.111   09 Jun 2027 05:15:42.226            56.115                Irkutsk          1702.500
       283   09 Jun 2027 05:15:44.000   09 Jun 2027 05:16:09.853            25.853                Novosib           887.000
       284   09 Jun 2027 05:16:10.966   09 Jun 2027 05:16:33.217            22.251                Irkutsk           556.500
       285   09 Jun 2027 05:16:39.492   09 Jun 2027 05:17:06.562            27.070                Norilsk          3137.500
       286   09 Jun 2027 05:17:26.258   09 Jun 2027 05:18:46.626            80.368              Murmansk1          9848.000
       287   09 Jun 2027 05:18:48.621   09 Jun 2027 05:19:17.777            29.156              Murmansk2           997.500
       288   09 Jun 2027 05:19:20.774   09 Jun 2027 05:20:14.268            53.494              Murmansk2          1498.500
       289   09 Jun 2027 05:20:19.115   09 Jun 2027 05:20:56.666            37.551              Murmansk1          2423.500
       290   09 Jun 2027 06:52:05.095   09 Jun 2027 06:52:11.741             6.646                Norilsk           830.750
       291   09 Jun 2027 06:52:14.892   09 Jun 2027 06:52:54.374            39.482                 Moscow          4143.250
       292   09 Jun 2027 06:52:59.440   09 Jun 2027 06:53:31.444            32.004              Murmansk1          2533.000
       293   09 Jun 2027 06:53:47.195   09 Jun 2027 06:54:54.615            67.420                Irkutsk          7875.500
       294   09 Jun 2027 06:54:55.758   09 Jun 2027 06:55:09.309            13.551              Murmansk2           571.500
       295   09 Jun 2027 06:55:09.405   09 Jun 2027 06:55:19.382             9.977              Murmansk1            48.000
       296   09 Jun 2027 06:55:25.469   09 Jun 2027 06:55:48.803            23.334                Novosib          2916.750
       297   09 Jun 2027 06:55:55.271   09 Jun 2027 06:56:51.206            55.935                 Moscow          3360.750
       298   09 Jun 2027 08:27:55.832   09 Jun 2027 08:28:34.457            38.625                Novosib          3005.000
       299   09 Jun 2027 08:28:38.391   09 Jun 2027 08:28:47.809             9.418                Norilsk          1177.250
       300   09 Jun 2027 08:28:57.818   09 Jun 2027 08:30:56.462           118.644                 Moscow          5794.250
       301   09 Jun 2027 08:31:03.477   09 Jun 2027 08:31:47.888            44.411                Norilsk          3507.500
       302   09 Jun 2027 08:31:54.250   09 Jun 2027 08:32:29.744            35.494              Murmansk2          3181.000
       303   09 Jun 2027 08:32:36.386   09 Jun 2027 08:33:30.686            54.300                 Moscow          3321.000
       304   10 Jun 2027 03:49:39.306   10 Jun 2027 03:50:56.399            77.093                Novosib          9636.625
       305   10 Jun 2027 03:51:01.929   10 Jun 2027 03:51:31.057            29.128               Magadan2          2780.875
       306   10 Jun 2027 03:51:34.238   10 Jun 2027 03:51:53.087            18.849                Irkutsk          1590.500
       307   10 Jun 2027 03:51:54.401   10 Jun 2027 03:52:17.163            22.762                Novosib           657.000
       308   10 Jun 2027 03:52:36.900   10 Jun 2027 03:53:15.805            38.905                Norilsk          4863.125
       309   10 Jun 2027 03:53:19.855   10 Jun 2027 03:54:11.316            51.461               Magadan2          6432.625
       310   10 Jun 2027 03:54:11.316   10 Jun 2027 03:54:19.127             7.811               Magadan1           597.750
       311   10 Jun 2027 03:54:19.471   10 Jun 2027 03:54:24.920             5.449                Novosib           172.000
       312   10 Jun 2027 03:54:30.235   10 Jun 2027 03:54:38.005             7.770                Norilsk           971.250
       313   10 Jun 2027 03:54:49.316   10 Jun 2027 03:56:35.625           106.309                Irkutsk          7341.750
       314   10 Jun 2027 03:56:36.661   10 Jun 2027 03:56:37.563             0.902                Norilsk           112.750
       315   10 Jun 2027 03:56:38.288   10 Jun 2027 03:56:48.563            10.275                Irkutsk           767.750
       316   10 Jun 2027 03:56:55.109   10 Jun 2027 03:57:14.853            19.744                Novosib          2206.500
       317   10 Jun 2027 05:26:14.556   10 Jun 2027 05:27:23.635            69.079                Novosib          2468.500
       318   10 Jun 2027 05:27:35.835   10 Jun 2027 05:28:39.392            63.557                Irkutsk          6100.000
       319   10 Jun 2027 05:28:39.669   10 Jun 2027 05:29:06.654            26.985                Norilsk           138.500
       320   10 Jun 2027 05:29:07.459   10 Jun 2027 05:29:54.898            47.439                Irkutsk           402.500
       321   10 Jun 2027 05:29:56.486   10 Jun 2027 05:30:09.039            12.553                Irkutsk           794.000
       322   10 Jun 2027 05:30:09.323   10 Jun 2027 05:30:40.668            31.345              Murmansk2           142.000
       323   10 Jun 2027 05:30:40.895   10 Jun 2027 05:30:53.955            13.060              Murmansk1           113.500
       324   10 Jun 2027 05:30:56.067   10 Jun 2027 05:31:22.446            26.379              Murmansk1          1056.000
       325   10 Jun 2027 05:31:25.479   10 Jun 2027 05:31:56.809            31.330                Norilsk          1516.500
       326   10 Jun 2027 05:32:03.774   10 Jun 2027 05:32:56.858            53.084              Murmansk2          3482.500
       327   10 Jun 2027 07:04:33.050   10 Jun 2027 07:05:27.273            54.223                Norilsk          6118.000
       328   10 Jun 2027 07:05:33.058   10 Jun 2027 07:06:01.246            28.188              Murmansk2          2892.500
       329   10 Jun 2027 07:06:15.846   10 Jun 2027 07:07:27.861            72.015                Novosib          7300.000
       330   10 Jun 2027 07:07:29.518   10 Jun 2027 07:07:48.633            19.115                 Moscow           828.500
       331   10 Jun 2027 07:07:55.766   10 Jun 2027 07:08:46.561            50.795                Norilsk          3566.500
       332   10 Jun 2027 08:38:08.981   10 Jun 2027 08:40:18.111           129.130                 Moscow         15145.500
       333   10 Jun 2027 08:40:19.933   10 Jun 2027 08:40:34.353            14.420              Murmansk1           911.000
       334   10 Jun 2027 08:40:40.751   10 Jun 2027 08:41:20.739            39.988                Novosib          3199.000
       335   10 Jun 2027 08:41:24.965   10 Jun 2027 08:42:42.763            77.798                Norilsk          2113.000
       336   10 Jun 2027 08:43:04.946   10 Jun 2027 08:44:42.672            97.726                 Moscow         11091.500
       337   10 Jun 2027 08:44:58.487   10 Jun 2027 08:46:29.277            90.790                Norilsk          7907.500
       338   11 Jun 2027 04:01:32.204   11 Jun 2027 04:01:45.075            12.871                Novosib          1608.875
       339   11 Jun 2027 04:01:46.770   11 Jun 2027 04:02:02.100            15.330               Magadan2          1544.625
       340   11 Jun 2027 04:02:04.791   11 Jun 2027 04:02:17.476            12.685               Magadan2          1345.500
       341   11 Jun 2027 04:02:31.651   11 Jun 2027 04:03:26.736            55.085                Norilsk          6885.625
       342   11 Jun 2027 04:03:28.404   11 Jun 2027 04:04:06.233            37.829                Novosib          1035.875
       343   11 Jun 2027 04:04:20.535   11 Jun 2027 04:05:43.377            82.842                Norilsk          7151.000
       344   11 Jun 2027 04:05:53.126   11 Jun 2027 04:06:15.973            22.847                Novosib          2855.875
       345   11 Jun 2027 04:06:24.133   11 Jun 2027 04:07:11.347            47.214                Norilsk          5901.750
       346   11 Jun 2027 04:07:12.543   11 Jun 2027 04:07:13.937             1.394               Magadan1           174.250
       347   11 Jun 2027 04:07:22.711   11 Jun 2027 04:08:15.477            52.766              Murmansk1          5007.625
       348   11 Jun 2027 04:08:27.094   11 Jun 2027 04:08:52.692            25.598                Irkutsk          3199.750
       349   11 Jun 2027 04:09:05.479   11 Jun 2027 04:09:22.000            16.521                Novosib          2065.125
       350   11 Jun 2027 04:09:27.253   11 Jun 2027 04:09:41.665            14.412              Murmansk1           618.625
       351   11 Jun 2027 05:38:41.954   11 Jun 2027 05:40:14.265            92.311                Norilsk          8205.000
       352   11 Jun 2027 05:40:19.250   11 Jun 2027 05:40:40.127            20.877                Norilsk          2492.500
       353   11 Jun 2027 05:40:44.712   11 Jun 2027 05:41:19.223            34.511                Irkutsk          2292.500
       354   11 Jun 2027 05:41:28.852   11 Jun 2027 05:43:11.038           102.186                Novosib          4814.500
       355   11 Jun 2027 05:43:19.869   11 Jun 2027 05:44:05.773            45.904                 Moscow          4415.500
       356   11 Jun 2027 05:44:16.642   11 Jun 2027 05:45:04.361            47.719              Murmansk2          5434.500
       357   11 Jun 2027 07:16:28.483   11 Jun 2027 07:17:03.774            35.291                Norilsk          3208.500
       358   11 Jun 2027 07:17:04.829   11 Jun 2027 07:17:55.521            50.692              Murmansk2           527.500
       359   11 Jun 2027 07:18:00.117   11 Jun 2027 07:18:19.809            19.692              Murmansk2          2298.000
       360   11 Jun 2027 07:18:30.097   11 Jun 2027 07:19:29.459            59.362                Norilsk          5144.000
       361   11 Jun 2027 07:19:30.906   11 Jun 2027 07:20:19.418            48.512              Murmansk2           723.500
       362   11 Jun 2027 07:20:21.820   11 Jun 2027 07:20:44.454            22.634                Norilsk           547.500
       363   11 Jun 2027 08:49:43.267   11 Jun 2027 08:50:12.776            29.509                 Moscow           447.500
       364   11 Jun 2027 08:50:20.633   11 Jun 2027 08:51:53.055            92.422                 Moscow          3928.500
       365   11 Jun 2027 08:52:08.841   11 Jun 2027 08:53:39.409            90.568                Novosib          7893.000
       366   11 Jun 2027 08:53:45.250   11 Jun 2027 08:54:44.365            59.115                Norilsk          2920.500
       367   11 Jun 2027 08:54:48.564   11 Jun 2027 08:55:32.721            44.157                Norilsk          2099.500
       368   11 Jun 2027 08:55:33.972   11 Jun 2027 08:55:50.135            16.163              Murmansk1           625.500
       369   11 Jun 2027 08:56:00.573   11 Jun 2027 08:56:21.074            20.501                Norilsk          2562.625
       370   11 Jun 2027 08:56:39.602   11 Jun 2027 08:58:16.576            96.974                 Moscow         11920.375
       371   12 Jun 2027 04:13:47.381   12 Jun 2027 04:15:45.633           118.252               Magadan1          8947.000
       372   12 Jun 2027 04:15:46.399   12 Jun 2027 04:15:53.563             7.164               Magadan1           383.000
       373   12 Jun 2027 04:15:54.894   12 Jun 2027 04:16:16.170            21.276               Magadan2           665.500
       374   12 Jun 2027 04:16:20.808   12 Jun 2027 04:17:12.547            51.739                Novosib          2319.000
       375   12 Jun 2027 04:17:19.472   12 Jun 2027 04:17:57.198            37.726                Norilsk          3462.500
       376   12 Jun 2027 04:18:03.037   12 Jun 2027 04:19:18.387            75.350                Novosib          2919.500
       377   12 Jun 2027 04:19:24.706   12 Jun 2027 04:19:36.061            11.355              Murmansk1          1419.375
       378   12 Jun 2027 04:19:36.061   12 Jun 2027 04:20:05.907            29.846              Murmansk2          1740.125
       379   12 Jun 2027 04:20:18.723   12 Jun 2027 04:21:04.407            45.684                Norilsk          5710.500
       380   12 Jun 2027 04:21:07.586   12 Jun 2027 04:21:28.785            21.199              Murmansk1           697.500
       381   12 Jun 2027 05:50:23.816   12 Jun 2027 05:50:56.524            32.708                Novosib          4038.500
       382   12 Jun 2027 05:51:00.184   12 Jun 2027 05:51:33.129            32.945                Norilsk          1830.000
       383   12 Jun 2027 05:52:10.832   12 Jun 2027 05:55:08.541           177.709                Novosib         18851.500
       384   12 Jun 2027 05:55:22.473   12 Jun 2027 05:56:50.739            88.266              Murmansk2          6966.000
       385   12 Jun 2027 05:56:51.973   12 Jun 2027 05:56:57.401             5.428                 Moscow           617.000
       386   12 Jun 2027 05:57:03.457   12 Jun 2027 05:57:12.054             8.597                Norilsk           649.500
       387   12 Jun 2027 07:28:28.897   12 Jun 2027 07:28:45.558            16.661              Murmansk1          2082.625
       388   12 Jun 2027 07:28:45.558   12 Jun 2027 07:29:04.765            19.207              Murmansk2          1882.875
       389   12 Jun 2027 07:29:06.982   12 Jun 2027 07:30:06.159            59.177                 Moscow          1108.500
       390   12 Jun 2027 07:30:10.349   12 Jun 2027 07:30:29.445            19.096                 Moscow          2095.000
       391   12 Jun 2027 07:30:33.867   12 Jun 2027 07:30:57.009            23.142              Murmansk2          2211.000
       392   12 Jun 2027 07:31:05.854   12 Jun 2027 07:32:45.288            99.434                 Moscow          4422.500
       393   12 Jun 2027 09:02:22.589   12 Jun 2027 09:02:59.984            37.395                 Moscow          4674.375
       394   12 Jun 2027 09:03:03.095   12 Jun 2027 09:03:38.786            35.691                 Moscow          3375.625
       395   12 Jun 2027 09:04:01.441   12 Jun 2027 09:05:38.919            97.478                 Moscow         11327.500
       396   12 Jun 2027 09:05:45.433   12 Jun 2027 09:06:27.308            41.875                 Moscow          3257.000
       397   12 Jun 2027 09:06:45.193   12 Jun 2027 09:08:04.203            79.010                 Moscow          8942.500
       398   12 Jun 2027 09:08:05.280   12 Jun 2027 09:08:27.856            22.576                Norilsk           538.500
       399   12 Jun 2027 09:08:39.335   12 Jun 2027 09:09:55.136            75.801                 Moscow          5739.500
       400   13 Jun 2027 04:25:40.455   13 Jun 2027 04:26:41.745            61.290                Irkutsk          5013.500
       401   13 Jun 2027 04:26:49.088   13 Jun 2027 04:27:27.588            38.500                Norilsk          3671.500
       402   13 Jun 2027 04:27:37.515   13 Jun 2027 04:28:40.150            62.635                Novosib          4963.500
       403   13 Jun 2027 04:28:46.508   13 Jun 2027 04:29:20.622            34.114                Novosib          3179.000
       404   13 Jun 2027 04:29:21.000   13 Jun 2027 04:29:44.095            23.095                Norilsk           189.000
       405   13 Jun 2027 04:29:49.916   13 Jun 2027 04:31:05.961            76.045                Novosib          2910.500
       406   13 Jun 2027 04:31:10.340   13 Jun 2027 04:31:19.018             8.678                Norilsk          1084.750
       407   13 Jun 2027 04:31:26.725   13 Jun 2027 04:32:43.154            76.429              Murmansk1          4958.250
       408   13 Jun 2027 04:32:57.064   13 Jun 2027 04:32:58.683             1.619                Irkutsk           202.375
       409   13 Jun 2027 04:33:05.785   13 Jun 2027 04:34:13.048            67.263                Norilsk          6669.125
       410   13 Jun 2027 06:02:33.082   13 Jun 2027 06:03:57.563            84.481                Novosib          3929.000
       411   13 Jun 2027 06:04:17.858   13 Jun 2027 06:05:40.603            82.745                Norilsk         10147.500
       412   13 Jun 2027 06:05:41.238   13 Jun 2027 06:06:02.300            21.062              Murmansk1           317.500
       413   13 Jun 2027 06:06:06.875   13 Jun 2027 06:06:26.977            20.102              Murmansk1          2287.500
       414   13 Jun 2027 06:06:29.183   13 Jun 2027 06:06:42.606            13.423                Norilsk          1103.000
       415   13 Jun 2027 06:06:48.247   13 Jun 2027 06:07:23.680            35.433              Murmansk2          2820.500
       416   13 Jun 2027 06:07:28.506   13 Jun 2027 06:08:03.161            34.655              Murmansk1          2413.000
       417   13 Jun 2027 06:08:07.000   13 Jun 2027 06:08:30.252            23.252                Norilsk          1919.500
       418   13 Jun 2027 06:08:31.859   13 Jun 2027 06:08:40.385             8.526              Murmansk1           803.500
       419   13 Jun 2027 06:08:49.732   13 Jun 2027 06:09:20.792            31.060                Norilsk          3882.500
       420   13 Jun 2027 06:09:27.013   13 Jun 2027 06:10:21.291            54.278                 Moscow           791.000
       421   13 Jun 2027 07:39:35.159   13 Jun 2027 07:39:53.247            18.088                 Moscow           788.000
       422   13 Jun 2027 07:40:12.833   13 Jun 2027 07:41:37.020            84.187                Novosib          9793.000
       423   13 Jun 2027 07:41:43.214   13 Jun 2027 07:42:21.270            38.056              Murmansk1          3097.000
       424   13 Jun 2027 07:42:24.030   13 Jun 2027 07:43:20.640            56.610                Novosib          1380.000
       425   13 Jun 2027 07:43:24.451   13 Jun 2027 07:44:05.496            41.045              Murmansk1          1905.500
       426   13 Jun 2027 07:44:23.441   13 Jun 2027 07:46:12.070           108.629              Murmansk2          8972.500
       427   13 Jun 2027 09:14:34.139   13 Jun 2027 09:15:21.182            47.043              Murmansk1          4619.000
       428   13 Jun 2027 09:15:29.671   13 Jun 2027 09:16:12.029            42.358                 Moscow          4244.500
       429   13 Jun 2027 09:16:28.018   13 Jun 2027 09:17:19.604            51.586              Murmansk2          6264.000
       430   13 Jun 2027 09:17:53.114   13 Jun 2027 09:20:38.707           165.593              Murmansk2         16755.000
