uniorb/output/strategy_2/Drop/Drop_KinoSat_110402.txt

KinoSat_110402
-------------------------
    Access    *     Start Time (UTCG)     *     Stop Time (UTCG)  *   Duration (s)        *       Station  *  Data (Mbytes)
         1   01 Jun 2027 04:21:08.546   01 Jun 2027 04:22:37.954            89.408                Norilsk         10670.500
         2   01 Jun 2027 04:22:41.414   01 Jun 2027 04:22:50.694             9.280                Irkutsk          1160.000
         3   01 Jun 2027 04:22:57.587   01 Jun 2027 04:23:19.911            22.324                Novosib          2790.500
         4   01 Jun 2027 04:23:24.999   01 Jun 2027 04:23:55.760            30.761                Norilsk          3770.000
         5   01 Jun 2027 04:23:56.277   01 Jun 2027 04:23:57.716             1.439                Novosib           179.875
         6   01 Jun 2027 04:23:58.120   01 Jun 2027 04:24:32.409            34.289                Irkutsk           280.625
         7   01 Jun 2027 04:24:34.394   01 Jun 2027 04:24:51.177            16.783                Novosib           992.500
         8   01 Jun 2027 04:24:55.429   01 Jun 2027 04:25:27.317            31.888               Magadan2          2126.000
         9   01 Jun 2027 04:25:44.063   01 Jun 2027 04:27:21.644            97.581               Magadan2          8373.000
        10   01 Jun 2027 04:27:39.347   01 Jun 2027 04:27:58.619            19.272                Norilsk          2409.000
        11   01 Jun 2027 04:27:59.436   01 Jun 2027 04:28:57.715            58.279              Murmansk1          6442.500
        12   01 Jun 2027 05:57:20.233   01 Jun 2027 05:58:17.314            57.081                Norilsk          6915.000
        13   01 Jun 2027 05:58:22.918   01 Jun 2027 05:59:21.899            58.981                Irkutsk          2802.000
        14   01 Jun 2027 05:59:22.845   01 Jun 2027 06:00:02.960            40.115                Irkutsk           473.000
        15   01 Jun 2027 06:00:15.253   01 Jun 2027 06:00:30.055            14.802                Novosib          1850.250
        16   01 Jun 2027 06:00:35.263   01 Jun 2027 06:02:38.798           123.535                Irkutsk          6900.250
        17   01 Jun 2027 06:02:41.693   01 Jun 2027 06:02:48.702             7.009              Murmansk2           876.125
        18   01 Jun 2027 06:02:48.702   01 Jun 2027 06:03:14.478            25.776              Murmansk1           571.375
        19   01 Jun 2027 06:03:24.584   01 Jun 2027 06:04:12.839            48.255              Murmansk1          5053.000
        20   01 Jun 2027 07:35:27.512   01 Jun 2027 07:36:02.591            35.079                Novosib          2781.000
        21   01 Jun 2027 07:36:09.878   01 Jun 2027 07:37:22.638            72.760                Irkutsk          3643.500
        22   01 Jun 2027 07:37:23.034   01 Jun 2027 07:37:47.359            24.325                Norilsk           198.000
        23   01 Jun 2027 07:37:48.861   01 Jun 2027 07:38:35.326            46.465                Novosib           751.000
        24   01 Jun 2027 07:38:38.429   01 Jun 2027 07:39:02.878            24.449              Murmansk2          1551.500
        25   01 Jun 2027 07:39:02.884   01 Jun 2027 07:39:58.051            55.167              Murmansk2             3.000
        26   01 Jun 2027 09:10:42.997   01 Jun 2027 09:10:55.543            12.546                 Moscow           227.500
        27   01 Jun 2027 09:10:56.335   01 Jun 2027 09:11:11.042            14.707                Novosib           396.000
        28   01 Jun 2027 09:11:44.515   01 Jun 2027 09:14:12.346           147.831                Novosib         16736.500
        29   01 Jun 2027 09:14:12.754   01 Jun 2027 09:14:59.604            46.850                Novosib           204.000
        30   01 Jun 2027 09:15:26.781   01 Jun 2027 09:16:30.901            64.120              Murmansk1          6169.500
        31   02 Jun 2027 03:00:04.636   02 Jun 2027 03:00:36.965            32.329                Anadyr1          2318.000
        32   02 Jun 2027 03:00:43.884   02 Jun 2027 03:01:13.768            29.884                Norilsk          3459.500
        33   02 Jun 2027 03:01:18.357   02 Jun 2027 03:01:45.651            27.294               Magadan1          2294.500
        34   02 Jun 2027 03:01:59.376   02 Jun 2027 03:02:54.910            55.534                Irkutsk          6862.500
        35   02 Jun 2027 04:32:23.096   02 Jun 2027 04:32:57.816            34.720                Norilsk          1325.000
        36   02 Jun 2027 04:32:59.817   02 Jun 2027 04:33:25.097            25.280               Magadan1          1000.500
        37   02 Jun 2027 04:33:38.379   02 Jun 2027 04:34:36.911            58.532                Novosib          6641.000
        38   02 Jun 2027 04:34:39.378   02 Jun 2027 04:35:15.359            35.981               Magadan1          1233.500
        39   02 Jun 2027 04:35:33.821   02 Jun 2027 04:36:56.017            82.196               Magadan2          9231.000
        40   02 Jun 2027 04:37:06.469   02 Jun 2027 04:39:25.934           139.465                Irkutsk          5226.000
        41   02 Jun 2027 04:39:44.458   02 Jun 2027 04:39:53.697             9.239                Irkutsk          1154.875
        42   02 Jun 2027 04:39:54.889   02 Jun 2027 04:41:05.694            70.805                Novosib          8541.126
        43   02 Jun 2027 06:09:38.285   02 Jun 2027 06:10:30.254            51.969                Norilsk          6039.000
        44   02 Jun 2027 06:10:31.741   02 Jun 2027 06:11:23.906            52.165                Irkutsk           743.500
        45   02 Jun 2027 06:11:46.404   02 Jun 2027 06:13:16.918            90.514                Novosib         11249.000
        46   02 Jun 2027 06:13:21.667   02 Jun 2027 06:13:52.186            30.519                Norilsk          2374.500
        47   02 Jun 2027 06:14:02.532   02 Jun 2027 06:14:45.816            43.284              Murmansk1          5173.000
        48   02 Jun 2027 06:14:46.155   02 Jun 2027 06:14:56.753            10.598                 Moscow           169.500
        49   02 Jun 2027 06:15:02.000   02 Jun 2027 06:15:45.272            43.272                Norilsk          2623.500
        50   02 Jun 2027 06:15:57.633   02 Jun 2027 06:16:01.570             3.937                Norilsk           492.125
        51   02 Jun 2027 06:16:07.140   02 Jun 2027 06:16:32.467            25.327              Murmansk1          1137.375
        52   02 Jun 2027 07:47:28.993   02 Jun 2027 07:47:53.165            24.172                 Moscow          2264.000
        53   02 Jun 2027 07:47:53.495   02 Jun 2027 07:48:54.467            60.972                Norilsk           165.000
        54   02 Jun 2027 07:48:59.093   02 Jun 2027 07:49:34.952            35.859                Norilsk          2313.000
        55   02 Jun 2027 07:49:37.874   02 Jun 2027 07:49:50.284            12.410                Norilsk          1461.000
        56   02 Jun 2027 07:49:53.596   02 Jun 2027 07:50:08.297            14.701                 Moscow          1656.000
        57   02 Jun 2027 07:50:31.776   02 Jun 2027 07:52:19.939           108.163                Norilsk         11739.500
        58   02 Jun 2027 09:21:06.422   02 Jun 2027 09:23:46.148           159.726                 Moscow         16556.500
        59   02 Jun 2027 09:23:46.639   02 Jun 2027 09:24:06.634            19.995                 Moscow           245.500
        60   02 Jun 2027 09:24:12.022   02 Jun 2027 09:24:38.625            26.603                Novosib          2694.000
        61   02 Jun 2027 09:24:43.253   02 Jun 2027 09:25:16.198            32.945              Murmansk1          2314.000
        62   02 Jun 2027 09:25:22.764   02 Jun 2027 09:26:13.773            51.009                Norilsk          3283.000
        63   02 Jun 2027 09:26:17.103   02 Jun 2027 09:26:43.803            26.700              Murmansk2          1665.000
        64   02 Jun 2027 09:26:53.503   02 Jun 2027 09:27:16.472            22.969                 Moscow          1848.500
        65   02 Jun 2027 09:27:19.604   02 Jun 2027 09:27:40.759            21.155                Norilsk          1566.000
        66   02 Jun 2027 09:27:45.387   02 Jun 2027 09:28:06.223            20.836                 Moscow          2314.000
        67   02 Jun 2027 09:28:16.251   02 Jun 2027 09:28:59.482            43.231                Norilsk          5014.000
        68   03 Jun 2027 03:07:18.248   03 Jun 2027 03:07:41.913            23.665               Magadan2          1322.500
        69   03 Jun 2027 03:07:49.329   03 Jun 2027 03:08:20.473            31.144               Magadan1          3708.000
        70   03 Jun 2027 03:08:27.922   03 Jun 2027 03:08:59.246            31.324               Magadan2          3724.500
        71   03 Jun 2027 03:09:12.378   03 Jun 2027 03:09:13.415             1.037                Anadyr1           116.000
        72   03 Jun 2027 03:09:30.518   03 Jun 2027 03:10:15.494            44.976               Magadan1          5452.000
        73   03 Jun 2027 03:10:16.209   03 Jun 2027 03:10:30.264            14.055                Anadyr2           357.500
        74   03 Jun 2027 03:10:43.395   03 Jun 2027 03:12:53.856           130.461                Irkutsk          6565.500
        75   03 Jun 2027 03:13:05.518   03 Jun 2027 03:13:54.823            49.305                Irkutsk          5831.000
        76   03 Jun 2027 03:14:00.086   03 Jun 2027 03:14:32.447            32.361               Magadan2          2631.500
        77   03 Jun 2027 03:15:12.888   03 Jun 2027 03:16:06.497            53.609                Norilsk           925.500
        78   03 Jun 2027 04:44:46.733   03 Jun 2027 04:45:09.051            22.318                Norilsk          2789.750
        79   03 Jun 2027 04:45:18.936   03 Jun 2027 04:46:18.881            59.945                Novosib          5678.750
        80   03 Jun 2027 04:46:32.508   03 Jun 2027 04:47:36.694            64.186               Magadan1          6813.500
        81   03 Jun 2027 04:47:38.291   03 Jun 2027 04:48:01.271            22.980                Norilsk           798.500
        82   03 Jun 2027 04:48:02.704   03 Jun 2027 04:48:16.951            14.247                Norilsk           716.500
        83   03 Jun 2027 04:48:19.432   03 Jun 2027 04:48:37.790            18.358                Novosib          1240.500
        84   03 Jun 2027 04:48:40.821   03 Jun 2027 04:49:01.625            20.804                Norilsk          1515.500
        85   03 Jun 2027 04:49:29.288   03 Jun 2027 04:51:16.518           107.230                Novosib         13403.750
        86   03 Jun 2027 04:51:19.906   03 Jun 2027 04:51:40.926            21.020              Murmansk1          2121.750
        87   03 Jun 2027 04:51:42.591   03 Jun 2027 04:51:58.248            15.657                Irkutsk           832.500
        88   03 Jun 2027 04:52:16.903   03 Jun 2027 04:52:49.253            32.350                Novosib           235.000
        89   03 Jun 2027 06:21:35.096   03 Jun 2027 06:22:22.569            47.473                Irkutsk          3725.500
        90   03 Jun 2027 06:22:25.159   03 Jun 2027 06:22:45.617            20.458                Norilsk          1295.000
        91   03 Jun 2027 06:23:06.431   03 Jun 2027 06:24:32.010            85.579                Novosib         10407.000
        92   03 Jun 2027 06:24:33.411   03 Jun 2027 06:24:59.557            26.146              Murmansk1           700.500
        93   03 Jun 2027 06:25:00.645   03 Jun 2027 06:25:06.920             6.275                Norilsk           544.000
        94   03 Jun 2027 06:25:07.114   03 Jun 2027 06:25:19.558            12.444                Irkutsk            97.000
        95   03 Jun 2027 06:25:20.994   03 Jun 2027 06:26:01.750            40.756                 Moscow           718.000
        96   03 Jun 2027 06:26:01.840   03 Jun 2027 06:26:03.441             1.601                 Moscow            45.000
        97   03 Jun 2027 06:26:05.589   03 Jun 2027 06:26:50.258            44.669                 Moscow          1074.000
        98   03 Jun 2027 06:26:52.910   03 Jun 2027 06:27:05.217            12.307              Murmansk1          1326.000
        99   03 Jun 2027 06:27:24.814   03 Jun 2027 06:27:43.500            18.686                Irkutsk          2335.750
       100   03 Jun 2027 06:27:46.257   03 Jun 2027 06:29:07.707            81.450                Novosib          8841.250
       101   03 Jun 2027 07:59:26.614   03 Jun 2027 07:59:46.743            20.129                Norilsk           966.000
       102   03 Jun 2027 07:59:55.340   03 Jun 2027 08:00:51.965            56.625                Norilsk          4298.500
       103   03 Jun 2027 08:01:00.361   03 Jun 2027 08:01:48.661            48.300                Norilsk          4198.000
       104   03 Jun 2027 08:01:52.903   03 Jun 2027 08:02:22.968            30.065                Norilsk          2121.000
       105   03 Jun 2027 08:02:27.574   03 Jun 2027 08:03:00.710            33.136              Murmansk1          2303.000
       106   03 Jun 2027 08:03:01.332   03 Jun 2027 08:03:26.721            25.389                 Moscow           311.000
       107   03 Jun 2027 09:33:03.970   03 Jun 2027 09:33:25.625            21.655                 Moscow          1799.000
       108   03 Jun 2027 09:33:33.352   03 Jun 2027 09:34:34.267            60.915              Murmansk1          3863.500
       109   03 Jun 2027 09:34:52.296   03 Jun 2027 09:37:03.702           131.406                 Moscow          9014.500
       110   03 Jun 2027 09:37:04.247   03 Jun 2027 09:37:26.583            22.336                 Moscow           272.500
       111   03 Jun 2027 09:37:36.718   03 Jun 2027 09:38:23.887            47.169              Murmansk2          5067.500
       112   03 Jun 2027 09:38:25.981   03 Jun 2027 09:39:00.139            34.158                 Moscow          1047.000
       113   03 Jun 2027 09:39:04.601   03 Jun 2027 09:39:23.874            19.273              Murmansk1          2231.000
       114   03 Jun 2027 09:39:28.814   03 Jun 2027 09:40:16.278            47.464                Norilsk          2470.000
       115   03 Jun 2027 09:40:18.305   03 Jun 2027 09:40:47.978            29.673                Norilsk          1013.500
       116   04 Jun 2027 03:18:47.903   04 Jun 2027 03:18:57.243             9.340               Magadan2          1167.500
       117   04 Jun 2027 03:18:57.243   04 Jun 2027 03:19:17.010            19.767               Magadan1           747.500
       118   04 Jun 2027 03:19:17.694   04 Jun 2027 03:19:52.476            34.782                Irkutsk           342.000
       119   04 Jun 2027 03:19:59.067   04 Jun 2027 03:20:35.483            36.416               Magadan1          3295.500
       120   04 Jun 2027 03:20:37.637   04 Jun 2027 03:20:53.726            16.089               Magadan2          1077.000
       121   04 Jun 2027 03:21:00.514   04 Jun 2027 03:22:16.355            75.841                Anadyr2          3394.000
       122   04 Jun 2027 03:22:29.840   04 Jun 2027 03:23:32.054            62.214                Anadyr1          6742.500
       123   04 Jun 2027 03:23:32.797   04 Jun 2027 03:23:42.557             9.760               Magadan1           371.500
       124   04 Jun 2027 03:23:44.334   04 Jun 2027 03:24:18.023            33.689               Magadan2           888.500
       125   04 Jun 2027 03:24:18.036   04 Jun 2027 03:24:30.075            12.039                Novosib             6.500
       126   04 Jun 2027 03:24:31.560   04 Jun 2027 03:25:20.619            49.059                Novosib           742.500
       127   04 Jun 2027 03:25:27.380   04 Jun 2027 03:26:00.423            33.043               Magadan1          3380.500
       128   04 Jun 2027 03:26:01.466   04 Jun 2027 03:26:30.020            28.554                Novosib           521.500
       129   04 Jun 2027 03:26:33.551   04 Jun 2027 03:26:55.699            22.148                Norilsk          1765.500
       130   04 Jun 2027 03:27:04.085   04 Jun 2027 03:27:08.143             4.058                Anadyr1           137.000
       131   04 Jun 2027 03:27:08.435   04 Jun 2027 03:27:24.520            16.085              Murmansk2           146.000
       132   04 Jun 2027 03:27:26.499   04 Jun 2027 03:27:49.477            22.978               Magadan2           989.500
       133   04 Jun 2027 04:56:51.905   04 Jun 2027 04:58:05.172            73.267               Magadan1          9101.000
       134   04 Jun 2027 04:58:12.018   04 Jun 2027 04:59:05.021            53.003                Irkutsk          3423.000
       135   04 Jun 2027 04:59:17.654   04 Jun 2027 05:00:27.135            69.481               Magadan1          6316.500
       136   04 Jun 2027 05:00:28.003   04 Jun 2027 05:00:38.587            10.584                Novosib           434.000
       137   04 Jun 2027 05:00:40.786   04 Jun 2027 05:01:12.087            31.301                Norilsk          1099.500
       138   04 Jun 2027 05:01:27.354   04 Jun 2027 05:02:34.168            66.814                Novosib          7633.500
       139   04 Jun 2027 05:02:42.641   04 Jun 2027 05:03:21.980            39.339              Murmansk1          4236.500
       140   04 Jun 2027 05:03:24.094   04 Jun 2027 05:04:37.588            73.494              Murmansk2          1057.000
       141   04 Jun 2027 06:33:23.181   04 Jun 2027 06:33:54.298            31.117                Novosib          2535.500
       142   04 Jun 2027 06:34:01.991   04 Jun 2027 06:35:21.531            79.540                Novosib          3846.500
       143   04 Jun 2027 06:35:23.278   04 Jun 2027 06:36:01.410            38.132                Irkutsk           873.500
       144   04 Jun 2027 06:36:09.690   04 Jun 2027 06:36:55.876            46.186                Novosib          4140.000
       145   04 Jun 2027 06:36:58.755   04 Jun 2027 06:37:28.766            30.011              Murmansk2          1439.500
       146   04 Jun 2027 06:37:30.652   04 Jun 2027 06:38:12.504            41.852                Novosib           943.000
       147   04 Jun 2027 06:38:14.343   04 Jun 2027 06:38:46.566            32.223                Novosib           919.500
       148   04 Jun 2027 06:38:52.763   04 Jun 2027 06:39:18.480            25.717              Murmansk1          3098.500
       149   04 Jun 2027 06:39:37.821   04 Jun 2027 06:40:46.790            68.969              Murmansk2          8621.125
       150   04 Jun 2027 06:40:46.790   04 Jun 2027 06:41:03.517            16.727              Murmansk1          1049.375
       151   04 Jun 2027 08:11:29.718   04 Jun 2027 08:12:56.513            86.795                 Moscow          1503.500
       152   04 Jun 2027 08:13:01.801   04 Jun 2027 08:13:14.994            13.193                Norilsk          1649.125
       153   04 Jun 2027 08:13:23.694   04 Jun 2027 08:14:07.754            44.060              Murmansk2          5344.875
       154   04 Jun 2027 08:14:09.488   04 Jun 2027 08:14:43.998            34.510                 Moscow           867.000
       155   04 Jun 2027 08:14:51.117   04 Jun 2027 08:15:40.256            49.139                Novosib          3559.500
       156   04 Jun 2027 09:45:27.360   04 Jun 2027 09:46:27.507            60.147                 Moscow          5013.000
       157   04 Jun 2027 09:46:28.779   04 Jun 2027 09:46:57.309            28.530              Murmansk1           636.000
       158   04 Jun 2027 09:47:00.130   04 Jun 2027 09:47:19.850            19.720                 Moscow          1410.500
       159   04 Jun 2027 09:47:26.089   04 Jun 2027 09:48:03.782            37.693                 Moscow          3119.500
       160   04 Jun 2027 09:48:15.789   04 Jun 2027 09:49:37.059            81.270              Murmansk1          6003.500
       161   04 Jun 2027 09:49:44.235   04 Jun 2027 09:50:02.177            17.942                 Moscow          2242.750
       162   04 Jun 2027 09:50:05.002   04 Jun 2027 09:50:32.398            27.396              Murmansk2          2757.750
       163   04 Jun 2027 09:50:32.886   04 Jun 2027 09:50:39.841             6.955              Murmansk2           244.000
       164   04 Jun 2027 09:50:41.864   04 Jun 2027 09:50:57.534            15.670                Norilsk          1011.500
       165   04 Jun 2027 09:51:06.104   04 Jun 2027 09:51:44.151            38.047                 Moscow          4285.000
       166   05 Jun 2027 03:31:45.333   05 Jun 2027 03:32:45.785            60.452               Magadan1          6396.500
       167   05 Jun 2027 03:32:51.668   05 Jun 2027 03:33:23.992            32.324                Irkutsk          2941.500
       168   05 Jun 2027 03:33:27.401   05 Jun 2027 03:34:02.018            34.617                Norilsk          1704.500
       169   05 Jun 2027 03:34:17.772   05 Jun 2027 03:35:23.625            65.853                Anadyr2          7877.000
       170   05 Jun 2027 03:35:24.943   05 Jun 2027 03:35:44.565            19.622                Norilsk           659.000
       171   05 Jun 2027 03:35:51.076   05 Jun 2027 03:36:38.653            47.577               Magadan2          3255.500
       172   05 Jun 2027 03:36:39.166   05 Jun 2027 03:36:43.283             4.117                Anadyr2           256.500
       173   05 Jun 2027 03:36:47.031   05 Jun 2027 03:37:17.551            30.520                Irkutsk          1874.000
       174   05 Jun 2027 03:37:20.817   05 Jun 2027 03:37:50.446            29.629                Norilsk          1633.000
       175   05 Jun 2027 03:37:53.804   05 Jun 2027 03:38:11.649            17.845               Magadan1          1679.000
       176   05 Jun 2027 03:38:12.141   05 Jun 2027 03:38:16.644             4.503                Anadyr2           246.000
       177   05 Jun 2027 03:38:19.830   05 Jun 2027 03:38:34.213            14.383                Novosib          1593.000
       178   05 Jun 2027 03:38:36.445   05 Jun 2027 03:38:57.342            20.897               Magadan2          1116.000
       179   05 Jun 2027 03:39:10.067   05 Jun 2027 03:39:25.775            15.708              Murmansk1          1963.500
       180   05 Jun 2027 03:39:25.775   05 Jun 2027 03:40:03.752            37.977              Murmansk2          1468.500
       181   05 Jun 2027 05:08:44.556   05 Jun 2027 05:09:25.198            40.642                Irkutsk          2100.000
       182   05 Jun 2027 05:09:31.860   05 Jun 2027 05:09:52.553            20.693                Norilsk          2586.625
       183   05 Jun 2027 05:09:55.039   05 Jun 2027 05:10:36.902            41.863               Magadan1          1987.375
       184   05 Jun 2027 05:10:46.163   05 Jun 2027 05:11:42.206            56.043               Magadan2          4630.500
       185   05 Jun 2027 05:11:43.760   05 Jun 2027 05:12:47.151            63.391                Irkutsk           777.000
       186   05 Jun 2027 05:13:09.441   05 Jun 2027 05:14:36.873            87.432                Novosib         10929.000
       187   05 Jun 2027 05:14:38.631   05 Jun 2027 05:15:15.262            36.631              Murmansk1          1095.000
       188   05 Jun 2027 05:15:19.330   05 Jun 2027 05:15:43.636            24.306              Murmansk1          2034.000
       189   05 Jun 2027 05:15:45.862   05 Jun 2027 05:16:25.042            39.180              Murmansk2          1113.000
       190   05 Jun 2027 06:45:53.178   05 Jun 2027 06:47:41.281           108.103                Novosib          4902.000
       191   05 Jun 2027 06:47:44.362   05 Jun 2027 06:48:23.745            39.383                 Moscow          1540.500
       192   05 Jun 2027 06:48:25.325   05 Jun 2027 06:48:58.866            33.541                Novosib           790.000
       193   05 Jun 2027 06:49:06.826   05 Jun 2027 06:50:04.020            57.194                Norilsk          3980.000
       194   05 Jun 2027 06:50:07.073   05 Jun 2027 06:50:10.425             3.352                 Moscow           419.000
       195   05 Jun 2027 06:50:13.897   05 Jun 2027 06:50:41.583            27.686                Novosib          2843.500
       196   05 Jun 2027 06:50:48.747   05 Jun 2027 06:51:19.357            30.610              Murmansk1          3582.000
       197   05 Jun 2027 06:51:22.882   05 Jun 2027 06:52:02.718            39.836                Novosib          1762.500
       198   05 Jun 2027 08:22:43.457   05 Jun 2027 08:22:57.059            13.602              Murmansk2          1415.500
       199   05 Jun 2027 08:22:57.649   05 Jun 2027 08:23:15.200            17.551                Novosib           295.000
       200   05 Jun 2027 08:23:19.068   05 Jun 2027 08:23:36.268            17.200                Norilsk          1934.000
       201   05 Jun 2027 08:23:38.971   05 Jun 2027 08:24:46.403            67.432                 Moscow          1351.500
       202   05 Jun 2027 08:24:46.496   05 Jun 2027 08:25:13.458            26.962                Novosib            46.500
       203   05 Jun 2027 08:25:13.646   05 Jun 2027 08:25:35.597            21.951                Novosib            94.000
       204   05 Jun 2027 08:25:36.844   05 Jun 2027 08:26:07.796            30.952                 Moscow           623.500
       205   05 Jun 2027 08:26:08.177   05 Jun 2027 08:26:21.712            13.535                Norilsk           190.500
       206   05 Jun 2027 08:26:23.945   05 Jun 2027 08:26:34.675            10.730                 Moscow          1116.500
       207   05 Jun 2027 08:26:35.153   05 Jun 2027 08:27:07.931            32.778                Norilsk           239.000
       208   05 Jun 2027 08:27:08.361   05 Jun 2027 08:27:12.180             3.819                Norilsk           215.000
       209   05 Jun 2027 08:27:29.505   05 Jun 2027 08:28:55.429            85.924              Murmansk1          8662.500
       210   05 Jun 2027 09:58:01.020   05 Jun 2027 09:59:14.182            73.162                 Moscow          8353.000
       211   05 Jun 2027 09:59:25.194   05 Jun 2027 09:59:45.996            20.802              Murmansk2           548.000
       212   05 Jun 2027 10:00:05.887   05 Jun 2027 10:01:37.671            91.784              Murmansk1          9945.500
       213   05 Jun 2027 10:01:57.062   05 Jun 2027 10:03:27.488            90.426              Murmansk2          9695.500
       214   06 Jun 2027 03:43:47.637   06 Jun 2027 03:43:59.961            12.324               Magadan2           308.500
       215   06 Jun 2027 03:44:01.887   06 Jun 2027 03:44:27.688            25.801               Magadan1           963.000
       216   06 Jun 2027 03:44:35.522   06 Jun 2027 03:45:50.091            74.569                Irkutsk          3917.000
       217   06 Jun 2027 03:45:51.647   06 Jun 2027 03:46:30.447            38.800               Magadan1           778.000
       218   06 Jun 2027 03:46:34.428   06 Jun 2027 03:46:39.243             4.815                Irkutsk           601.875
       219   06 Jun 2027 03:46:39.771   06 Jun 2027 03:47:09.090            29.319               Magadan2          1652.625
       220   06 Jun 2027 03:47:11.722   06 Jun 2027 03:47:43.666            31.944                Irkutsk          1316.000
       221   06 Jun 2027 03:47:44.156   06 Jun 2027 03:48:10.957            26.801                Novosib           245.000
       222   06 Jun 2027 03:48:23.462   06 Jun 2027 03:49:36.339            72.877               Magadan2          6252.500
       223   06 Jun 2027 03:49:38.907   06 Jun 2027 03:50:27.609            48.702                Norilsk          1284.000
       224   06 Jun 2027 03:50:29.315   06 Jun 2027 03:50:41.699            12.384                Anadyr2           853.000
       225   06 Jun 2027 03:50:50.572   06 Jun 2027 03:51:27.288            36.716              Murmansk2          4436.500
       226   06 Jun 2027 03:51:32.159   06 Jun 2027 03:51:59.735            27.576               Magadan2          2435.500
       227   06 Jun 2027 03:52:05.859   06 Jun 2027 03:52:16.345            10.486              Murmansk2          1232.000
       228   06 Jun 2027 05:21:18.615   06 Jun 2027 05:21:38.412            19.797                Novosib          2474.625
       229   06 Jun 2027 05:21:47.271   06 Jun 2027 05:23:07.499            80.228                Norilsk          7942.875
       230   06 Jun 2027 05:23:13.517   06 Jun 2027 05:24:03.709            50.192                Norilsk          3009.000
       231   06 Jun 2027 05:24:07.631   06 Jun 2027 05:24:46.903            39.272                Irkutsk          1961.000
       232   06 Jun 2027 05:24:48.802   06 Jun 2027 05:26:07.130            78.328                Novosib           949.500
       233   06 Jun 2027 05:26:14.638   06 Jun 2027 05:26:48.098            33.460              Murmansk2          3754.000
       234   06 Jun 2027 05:27:00.854   06 Jun 2027 05:28:01.042            60.188              Murmansk1          6378.000
       235   06 Jun 2027 06:58:07.749   06 Jun 2027 06:58:22.977            15.228                  Delhi          1903.500
       236   06 Jun 2027 06:59:03.541   06 Jun 2027 07:01:47.629           164.088                 Moscow         20511.000
       237   06 Jun 2027 07:01:49.582   06 Jun 2027 07:02:01.606            12.024                Norilsk          1026.000
       238   06 Jun 2027 07:02:14.004   06 Jun 2027 07:03:03.985            49.981                 Moscow          6199.000
       239   06 Jun 2027 07:03:05.586   06 Jun 2027 07:04:04.848            59.262                 Moscow           800.500
       240   06 Jun 2027 08:34:59.017   06 Jun 2027 08:36:28.879            89.862                Novosib          2619.000
       241   06 Jun 2027 08:36:34.038   06 Jun 2027 08:37:05.074            31.036                Norilsk          2579.500
       242   06 Jun 2027 08:37:09.080   06 Jun 2027 08:37:26.723            17.643                 Moscow          2003.000
       243   06 Jun 2027 08:37:28.927   06 Jun 2027 08:37:42.126            13.199              Murmansk1          1102.000
       244   06 Jun 2027 08:37:49.053   06 Jun 2027 08:38:47.990            58.937              Murmansk1          3463.500
       245   06 Jun 2027 08:39:05.465   06 Jun 2027 08:40:26.909            81.444                Norilsk          8737.500
       246   06 Jun 2027 10:12:37.538   06 Jun 2027 10:13:10.509            32.971                 Moscow          1236.500
       247   06 Jun 2027 10:13:38.505   06 Jun 2027 10:15:51.381           132.876              Murmansk1         13998.000
       248   07 Jun 2027 03:57:15.239   07 Jun 2027 03:57:52.764            37.525               Magadan2          4531.000
       249   07 Jun 2027 03:57:56.361   07 Jun 2027 03:58:28.168            31.807               Magadan2          1798.500
       250   07 Jun 2027 03:58:39.379   07 Jun 2027 03:59:40.094            60.715               Magadan2          5605.500
       251   07 Jun 2027 03:59:40.930   07 Jun 2027 03:59:53.581            12.651               Magadan2           418.000
       252   07 Jun 2027 03:59:53.955   07 Jun 2027 04:00:30.060            36.105                Irkutsk           187.000
       253   07 Jun 2027 04:00:40.816   07 Jun 2027 04:02:07.662            86.846                Irkutsk          5378.000
       254   07 Jun 2027 04:02:09.938   07 Jun 2027 04:02:44.308            34.370               Magadan1          1138.000
       255   07 Jun 2027 04:02:50.385   07 Jun 2027 04:03:35.019            44.634               Magadan2          3038.500
       256   07 Jun 2027 04:03:44.243   07 Jun 2027 04:03:54.546            10.303               Magadan2          1287.875
       257   07 Jun 2027 04:03:57.787   07 Jun 2027 04:04:55.913            58.126                Novosib          4944.625
       258   07 Jun 2027 05:33:16.251   07 Jun 2027 05:33:42.634            26.383                Norilsk           921.500
       259   07 Jun 2027 05:33:51.344   07 Jun 2027 05:34:21.576            30.232                Novosib          3779.000
       260   07 Jun 2027 05:34:49.766   07 Jun 2027 05:36:49.872           120.106                Irkutsk         14671.000
       261   07 Jun 2027 05:37:03.245   07 Jun 2027 05:38:10.229            66.984                Novosib          6686.500
       262   07 Jun 2027 05:38:11.766   07 Jun 2027 05:38:34.173            22.407                Norilsk           768.500
       263   07 Jun 2027 05:38:42.660   07 Jun 2027 05:39:03.720            21.060                Novosib          2632.500
       264   07 Jun 2027 05:39:19.909   07 Jun 2027 05:40:05.823            45.914                Irkutsk          5739.250
       265   07 Jun 2027 05:40:06.898   07 Jun 2027 05:40:32.815            25.917                Norilsk          3239.625
       266   07 Jun 2027 05:40:36.727   07 Jun 2027 05:41:04.881            28.154              Murmansk1           726.625
       267   07 Jun 2027 07:11:03.949   07 Jun 2027 07:11:11.952             8.003                Norilsk          1000.375
       268   07 Jun 2027 07:11:13.632   07 Jun 2027 07:12:03.473            49.841                Irkutsk          2499.625
       269   07 Jun 2027 07:12:05.662   07 Jun 2027 07:12:28.114            22.452              Murmansk1          1094.500
       270   07 Jun 2027 07:12:32.126   07 Jun 2027 07:13:11.413            39.287                Norilsk          2006.000
       271   07 Jun 2027 07:13:16.143   07 Jun 2027 07:14:27.699            71.556                Irkutsk          2365.000
       272   07 Jun 2027 07:14:35.272   07 Jun 2027 07:15:08.251            32.979              Murmansk2          3786.500
       273   07 Jun 2027 07:15:11.801   07 Jun 2027 07:16:00.937            49.136                 Moscow          1775.000
       274   07 Jun 2027 08:47:11.312   07 Jun 2027 08:48:02.283            50.971                 Moscow          3629.500
       275   07 Jun 2027 08:48:02.824   07 Jun 2027 08:48:46.795            43.971                Norilsk           270.500
       276   07 Jun 2027 08:48:50.417   07 Jun 2027 08:49:16.363            25.946                 Moscow          1811.000
       277   07 Jun 2027 08:49:17.418   07 Jun 2027 08:49:24.388             6.970              Murmansk2           527.500
       278   07 Jun 2027 08:49:24.715   07 Jun 2027 08:49:54.304            29.589                Norilsk           163.500
       279   07 Jun 2027 08:49:56.020   07 Jun 2027 08:50:49.959            53.939              Murmansk1           858.000
       280   07 Jun 2027 08:50:59.940   07 Jun 2027 08:52:03.021            63.081              Murmansk2          4990.500
       281   08 Jun 2027 04:09:25.331   08 Jun 2027 04:09:34.776             9.445               Magadan1           849.500
       282   08 Jun 2027 04:09:40.661   08 Jun 2027 04:10:33.274            52.613                Novosib          2942.500
       283   08 Jun 2027 04:10:39.812   08 Jun 2027 04:11:26.705            46.893               Magadan2          3269.000
       284   08 Jun 2027 04:11:35.277   08 Jun 2027 04:12:24.876            49.599                Novosib          4286.000
       285   08 Jun 2027 04:12:40.194   08 Jun 2027 04:13:03.163            22.969                Norilsk          2871.125
       286   08 Jun 2027 04:13:08.698   08 Jun 2027 04:13:16.367             7.669                Norilsk           958.625
       287   08 Jun 2027 04:13:39.933   08 Jun 2027 04:15:47.625           127.692               Magadan2         15961.500
       288   08 Jun 2027 04:15:51.311   08 Jun 2027 04:15:59.148             7.837                Irkutsk           979.625
       289   08 Jun 2027 04:16:06.370   08 Jun 2027 04:16:40.284            33.914                Norilsk          3566.125
       290   08 Jun 2027 05:46:04.655   08 Jun 2027 05:47:05.691            61.036                Norilsk          7629.500
       291   08 Jun 2027 05:47:10.886   08 Jun 2027 05:47:49.328            38.442                Norilsk          3970.500
       292   08 Jun 2027 05:47:59.237   08 Jun 2027 05:48:42.939            43.702                Novosib          4954.500
       293   08 Jun 2027 05:48:52.894   08 Jun 2027 05:49:37.812            44.918              Murmansk1          4977.500
       294   08 Jun 2027 05:49:52.803   08 Jun 2027 05:50:58.518            65.715                Irkutsk          7495.500
       295   08 Jun 2027 05:50:58.781   08 Jun 2027 05:51:01.794             3.013              Murmansk1           131.500
       296   08 Jun 2027 05:51:10.327   08 Jun 2027 05:52:01.538            51.211                Novosib          4266.500
       297   08 Jun 2027 07:23:05.554   08 Jun 2027 07:23:37.925            32.371              Murmansk2           856.500
       298   08 Jun 2027 07:23:46.848   08 Jun 2027 07:24:04.683            17.835                Norilsk          2229.375
       299   08 Jun 2027 07:24:15.380   08 Jun 2027 07:25:22.320            66.940              Murmansk1          7580.625
       300   08 Jun 2027 07:25:27.586   08 Jun 2027 07:26:00.592            33.006                Norilsk          2633.000
       301   08 Jun 2027 07:26:00.844   08 Jun 2027 07:26:34.029            33.185                Irkutsk           126.000
       302   08 Jun 2027 07:26:38.704   08 Jun 2027 07:27:00.145            21.441              Murmansk1          2337.500
       303   08 Jun 2027 07:27:07.748   08 Jun 2027 07:27:38.707            30.959                Norilsk          3801.500
       304   08 Jun 2027 07:27:48.989   08 Jun 2027 07:27:54.241             5.252                 Moscow           656.500
       305   08 Jun 2027 07:27:55.970   08 Jun 2027 07:28:30.961            34.991                Novosib           233.000
       306   08 Jun 2027 08:59:28.194   08 Jun 2027 09:00:24.779            56.585              Murmansk1          5698.000
       307   08 Jun 2027 09:00:30.882   08 Jun 2027 09:01:51.616            80.734                Novosib          3051.500
       308   08 Jun 2027 09:01:52.221   08 Jun 2027 09:03:07.464            75.243              Murmansk1           302.500
       309   08 Jun 2027 09:03:12.290   08 Jun 2027 09:03:41.517            29.227                Novosib          2413.000
       310   08 Jun 2027 09:03:52.106   08 Jun 2027 09:04:29.491            37.385                Norilsk          4673.125
       311   08 Jun 2027 09:04:31.224   08 Jun 2027 09:04:56.008            24.784              Murmansk1           621.375
       312   09 Jun 2027 04:21:11.026   09 Jun 2027 04:22:25.975            74.949                Norilsk          4833.000
       313   09 Jun 2027 04:22:35.127   09 Jun 2027 04:22:43.570             8.443                Norilsk          1055.375
       314   09 Jun 2027 04:22:52.644   09 Jun 2027 04:24:01.680            69.036               Magadan2          8057.625
       315   09 Jun 2027 04:24:12.341   09 Jun 2027 04:24:59.412            47.071                Norilsk          5330.500
       316   09 Jun 2027 04:25:00.810   09 Jun 2027 04:25:05.555             4.745                Norilsk           593.125
       317   09 Jun 2027 04:25:10.194   09 Jun 2027 04:25:43.784            33.590               Magadan2          2425.375
       318   09 Jun 2027 04:25:49.643   09 Jun 2027 04:26:21.952            32.309                Novosib          2929.500
       319   09 Jun 2027 04:26:26.329   09 Jun 2027 04:26:46.459            20.130              Murmansk2          2188.500
       320   09 Jun 2027 04:26:48.361   09 Jun 2027 04:27:28.460            40.099                Novosib           951.000
       321   09 Jun 2027 04:27:29.238   09 Jun 2027 04:27:32.824             3.586              Murmansk1           389.000
       322   09 Jun 2027 04:27:36.312   09 Jun 2027 04:27:38.434             2.122               Magadan2           265.250
       323   09 Jun 2027 04:27:54.822   09 Jun 2027 04:28:30.644            35.822                Norilsk          4477.750
       324   09 Jun 2027 04:28:31.464   09 Jun 2027 04:28:38.960             7.496                Novosib           937.000
       325   09 Jun 2027 04:28:43.159   09 Jun 2027 04:29:25.832            42.673              Murmansk2          4258.000
       326   09 Jun 2027 05:57:26.496   09 Jun 2027 05:58:28.167            61.671                Novosib          2800.000
       327   09 Jun 2027 05:58:33.649   09 Jun 2027 05:58:55.614            21.965                Norilsk          2741.000
       328   09 Jun 2027 05:58:57.462   09 Jun 2027 05:59:08.813            11.351                Norilsk           924.000
       329   09 Jun 2027 05:59:21.895   09 Jun 2027 06:00:18.947            57.052                Norilsk          6541.000
       330   09 Jun 2027 06:00:30.153   09 Jun 2027 06:00:44.786            14.633                Novosib          1829.125
       331   09 Jun 2027 06:00:53.423   09 Jun 2027 06:02:53.342           119.919                Irkutsk          8092.375
       332   09 Jun 2027 06:03:06.137   09 Jun 2027 06:04:28.852            82.715              Murmansk2          6397.500
       333   09 Jun 2027 07:35:44.119   09 Jun 2027 07:36:17.216            33.097                Novosib          3618.000
       334   09 Jun 2027 07:36:24.584   09 Jun 2027 07:37:37.362            72.778                Irkutsk          3684.000
       335   09 Jun 2027 07:37:37.785   09 Jun 2027 07:38:02.112            24.327                Norilsk           211.500
       336   09 Jun 2027 07:38:03.329   09 Jun 2027 07:38:50.163            46.834                Novosib           608.500
       337   09 Jun 2027 07:38:53.047   09 Jun 2027 07:39:17.932            24.885              Murmansk2          1442.000
       338   09 Jun 2027 07:39:26.296   09 Jun 2027 07:39:44.799            18.503                 Moscow          2312.875
       339   09 Jun 2027 07:40:08.274   09 Jun 2027 07:40:37.163            28.889                Novosib          1869.125
       340   09 Jun 2027 09:11:03.103   09 Jun 2027 09:12:01.277            58.174              Murmansk1          2813.000
       341   09 Jun 2027 09:12:03.640   09 Jun 2027 09:12:21.790            18.150                Novosib          1181.500
       342   09 Jun 2027 09:12:31.059   09 Jun 2027 09:13:22.850            51.791              Murmansk2          4634.500
       343   09 Jun 2027 09:13:33.604   09 Jun 2027 09:14:16.628            43.024                 Moscow          5377.000
       344   09 Jun 2027 09:14:26.757   09 Jun 2027 09:15:13.784            47.027              Murmansk1          5064.500
       345   09 Jun 2027 09:15:29.641   09 Jun 2027 09:15:43.564            13.923              Murmansk1           262.000
       346   09 Jun 2027 09:15:45.583   09 Jun 2027 09:16:05.009            19.426                Norilsk          1009.500
       347   09 Jun 2027 09:16:05.311   09 Jun 2027 09:16:20.258            14.947              Murmansk1           151.000
       348   09 Jun 2027 09:16:30.367   09 Jun 2027 09:17:00.174            29.807                Norilsk          3692.000
       349   10 Jun 2027 03:00:00.599   10 Jun 2027 03:00:07.901             7.302                Norilsk           299.500
       350   10 Jun 2027 03:00:09.725   10 Jun 2027 03:00:20.388            10.663                Anadyr2           912.000
       351   10 Jun 2027 03:00:34.291   10 Jun 2027 03:02:27.185           112.894                Anadyr1          6951.500
       352   10 Jun 2027 04:32:37.664   10 Jun 2027 04:33:13.754            36.090                Norilsk          1367.500
       353   10 Jun 2027 04:33:13.876   10 Jun 2027 04:33:39.962            26.086               Magadan1            61.000
       354   10 Jun 2027 04:33:49.832   10 Jun 2027 04:34:50.994            61.162                Irkutsk          4935.000
       355   10 Jun 2027 04:34:51.350   10 Jun 2027 04:35:03.095            11.745                Novosib           178.000
       356   10 Jun 2027 04:35:17.214   10 Jun 2027 04:36:31.728            74.514                Irkutsk          7059.500
       357   10 Jun 2027 04:36:32.365   10 Jun 2027 04:36:40.394             8.029                Irkutsk           318.500
       358   10 Jun 2027 04:36:43.262   10 Jun 2027 04:37:33.568            50.306               Magadan2          1434.000
       359   10 Jun 2027 04:37:44.695   10 Jun 2027 04:38:11.924            27.229                Novosib          3403.625
       360   10 Jun 2027 04:38:16.785   10 Jun 2027 04:38:58.134            41.349              Murmansk2          4590.375
       361   10 Jun 2027 04:39:03.968   10 Jun 2027 04:39:26.118            22.150               Magadan1          2768.750
       362   10 Jun 2027 04:39:33.757   10 Jun 2027 04:40:09.328            35.571                Novosib          3967.750
       363   10 Jun 2027 06:09:46.739   10 Jun 2027 06:10:22.179            35.440                Norilsk          2951.000
       364   10 Jun 2027 06:10:40.699   10 Jun 2027 06:12:05.199            84.500                Novosib          9260.000
       365   10 Jun 2027 06:12:12.076   10 Jun 2027 06:12:43.685            31.609                Norilsk          3438.500
       366   10 Jun 2027 06:12:46.070   10 Jun 2027 06:13:03.131            17.061                Novosib          1192.500
       367   10 Jun 2027 06:13:09.770   10 Jun 2027 06:13:37.321            27.551                Irkutsk          3319.500
       368   10 Jun 2027 06:13:37.825   10 Jun 2027 06:14:07.835            30.010                Norilsk           252.000
       369   10 Jun 2027 06:14:17.274   10 Jun 2027 06:15:00.664            43.390              Murmansk2          4719.500
       370   10 Jun 2027 06:15:03.600   10 Jun 2027 06:15:31.725            28.125                 Moscow          1468.000
       371   10 Jun 2027 06:15:32.983   10 Jun 2027 06:16:23.093            50.110              Murmansk1           629.000
       372   10 Jun 2027 07:47:41.443   10 Jun 2027 07:48:07.632            26.189                 Moscow          1184.500
       373   10 Jun 2027 07:48:08.160   10 Jun 2027 07:49:10.341            62.181                Norilsk           264.000
       374   10 Jun 2027 07:49:17.119   10 Jun 2027 07:49:46.595            29.476                Irkutsk          3389.000
       375   10 Jun 2027 07:49:49.725   10 Jun 2027 07:49:53.735             4.010                Norilsk           501.250
       376   10 Jun 2027 07:49:57.819   10 Jun 2027 07:51:02.915            65.096                Novosib          3105.750
       377   10 Jun 2027 07:51:05.572   10 Jun 2027 07:51:18.816            13.244              Murmansk2          1328.500
       378   10 Jun 2027 07:51:21.325   10 Jun 2027 07:51:32.627            11.302                 Moscow          1254.500
       379   10 Jun 2027 07:51:34.861   10 Jun 2027 07:52:01.831            26.970                 Moscow          1024.500
       380   10 Jun 2027 09:21:38.020   10 Jun 2027 09:25:16.068           218.048                 Moscow         25043.000
       381   10 Jun 2027 09:25:31.429   10 Jun 2027 09:26:58.380            86.951              Murmansk2          7680.500
       382   10 Jun 2027 09:26:59.047   10 Jun 2027 09:27:11.672            12.625                Norilsk           333.500
       383   10 Jun 2027 09:27:26.897   10 Jun 2027 09:29:54.369           147.472                 Moscow          7612.500
       384   11 Jun 2027 03:07:32.913   11 Jun 2027 03:07:58.010            25.097               Magadan1          1463.500
       385   11 Jun 2027 03:08:03.830   11 Jun 2027 03:08:35.364            31.534               Magadan2          2910.000
       386   11 Jun 2027 03:08:35.432   11 Jun 2027 03:08:58.039            22.607                Anadyr2            34.000
       387   11 Jun 2027 03:09:13.840   11 Jun 2027 03:10:30.001            76.161               Magadan2          7900.500
       388   11 Jun 2027 03:10:30.152   11 Jun 2027 03:10:31.151             0.999                Anadyr2            75.500
       389   11 Jun 2027 03:10:32.384   11 Jun 2027 03:10:53.643            21.259                Norilsk           616.500
       390   11 Jun 2027 03:11:09.369   11 Jun 2027 03:12:34.753            85.384                Norilsk          7863.000
       391   11 Jun 2027 03:12:49.002   11 Jun 2027 03:14:27.285            98.283                Anadyr1          7124.500
       392   11 Jun 2027 03:14:28.635   11 Jun 2027 03:14:51.588            22.953                Norilsk           675.000
       393   11 Jun 2027 03:15:26.229   11 Jun 2027 03:15:35.050             8.821               Magadan2           311.500
       394   11 Jun 2027 03:15:36.215   11 Jun 2027 03:15:52.499            16.284                Novosib           582.500
       395   11 Jun 2027 04:45:02.653   11 Jun 2027 04:45:26.094            23.441                Norilsk          2930.125
       396   11 Jun 2027 04:45:33.960   11 Jun 2027 04:46:33.358            59.398                Novosib          5066.875
       397   11 Jun 2027 04:46:38.947   11 Jun 2027 04:47:35.023            56.076                Novosib          2794.500
       398   11 Jun 2027 04:47:39.447   11 Jun 2027 04:48:16.959            37.512                Norilsk          2212.000
       399   11 Jun 2027 04:48:17.329   11 Jun 2027 04:48:31.573            14.244                Norilsk           185.000
       400   11 Jun 2027 04:48:34.165   11 Jun 2027 04:48:44.757            10.592                Novosib          1296.000
       401   11 Jun 2027 04:48:45.227   11 Jun 2027 04:48:55.521            10.294                Norilsk           235.000
       402   11 Jun 2027 04:48:59.717   11 Jun 2027 04:49:49.633            49.916               Magadan2          2098.000
       403   11 Jun 2027 04:49:56.290   11 Jun 2027 04:50:04.082             7.792                Norilsk           974.000
       404   11 Jun 2027 04:50:06.243   11 Jun 2027 04:50:29.625            23.382                Novosib          2922.750
       405   11 Jun 2027 04:50:30.269   11 Jun 2027 04:51:12.895            42.626                Norilsk           834.251
       406   11 Jun 2027 04:51:16.531   11 Jun 2027 04:51:36.932            20.401              Murmansk2          1818.000
       407   11 Jun 2027 04:51:39.704   11 Jun 2027 04:51:57.374            17.670                Irkutsk          1386.000
       408   11 Jun 2027 04:52:13.115   11 Jun 2027 04:52:47.426            34.311                Norilsk          4288.875
       409   11 Jun 2027 04:52:52.507   11 Jun 2027 04:53:37.336            44.829              Murmansk2          3581.625
       410   11 Jun 2027 06:21:50.288   11 Jun 2027 06:22:37.134            46.846                Irkutsk          4032.500
       411   11 Jun 2027 06:22:39.851   11 Jun 2027 06:23:02.980            23.129                Norilsk          1358.500
       412   11 Jun 2027 06:23:22.072   11 Jun 2027 06:23:59.770            37.698                Novosib          4712.250
       413   11 Jun 2027 06:24:13.025   11 Jun 2027 06:26:00.329           107.304                Norilsk         11461.250
       414   11 Jun 2027 06:26:03.240   11 Jun 2027 06:27:39.335            96.095                Irkutsk          1455.500
       415   11 Jun 2027 06:27:45.175   11 Jun 2027 06:28:17.727            32.552                 Moscow          2920.000
       416   11 Jun 2027 07:59:39.572   11 Jun 2027 07:59:48.427             8.855                 Moscow           128.000
       417   11 Jun 2027 07:59:51.726   11 Jun 2027 08:01:09.466            77.740                 Moscow          1649.500
       418   11 Jun 2027 08:01:15.222   11 Jun 2027 08:02:03.455            48.233                Norilsk          2878.000
       419   11 Jun 2027 08:02:09.489   11 Jun 2027 08:02:39.740            30.251                Norilsk          3017.000
       420   11 Jun 2027 08:02:42.225   11 Jun 2027 08:02:53.588            11.363              Murmansk1          1242.500
       421   11 Jun 2027 08:03:01.278   11 Jun 2027 08:04:27.473            86.195                Novosib          3845.000
       422   11 Jun 2027 09:33:18.749   11 Jun 2027 09:33:40.285            21.536                 Moscow          1837.000
       423   11 Jun 2027 09:33:48.014   11 Jun 2027 09:34:48.835            60.821              Murmansk1          3864.500
       424   11 Jun 2027 09:35:07.114   11 Jun 2027 09:37:16.728           129.614                 Moscow          9139.500
       425   11 Jun 2027 09:37:19.344   11 Jun 2027 09:37:51.366            32.022              Murmansk1          1308.000
       426   11 Jun 2027 09:37:56.406   11 Jun 2027 09:38:17.525            21.119                 Moscow          2520.000
       427   11 Jun 2027 09:38:27.435   11 Jun 2027 09:39:14.957            47.522                 Moscow          4955.000
       428   11 Jun 2027 09:39:21.278   11 Jun 2027 09:40:00.265            38.987              Murmansk2          3160.500
       429   11 Jun 2027 09:40:07.578   11 Jun 2027 09:41:01.650            54.072              Murmansk1          3656.500
       430   12 Jun 2027 03:19:02.967   12 Jun 2027 03:19:31.525            28.558               Magadan1          2211.500
       431   12 Jun 2027 03:19:33.367   12 Jun 2027 03:20:07.468            34.101                Irkutsk           921.000
       432   12 Jun 2027 03:20:10.815   12 Jun 2027 03:20:37.899            27.084               Magadan2          1673.500
       433   12 Jun 2027 03:20:50.208   12 Jun 2027 03:21:40.921            50.713               Magadan1          6154.500
       434   12 Jun 2027 03:21:41.847   12 Jun 2027 03:21:59.009            17.162               Magadan1           463.000
       435   12 Jun 2027 03:22:03.293   12 Jun 2027 03:23:09.613            66.320               Magadan2          2142.000
       436   12 Jun 2027 03:23:15.635   12 Jun 2027 03:23:49.161            33.526                Anadyr2          3011.000
       437   12 Jun 2027 03:23:52.894   12 Jun 2027 03:24:07.940            15.046                Novosib          1866.500
       438   12 Jun 2027 03:24:13.056   12 Jun 2027 03:24:56.017            42.961                Anadyr2          2558.000
       439   12 Jun 2027 03:24:57.467   12 Jun 2027 03:25:14.537            17.070                Norilsk           725.000
       440   12 Jun 2027 03:25:19.096   12 Jun 2027 03:25:52.628            33.532                Irkutsk          2279.500
       441   12 Jun 2027 03:26:05.459   12 Jun 2027 03:27:11.549            66.090               Magadan2          6415.500
       442   12 Jun 2027 03:27:21.287   12 Jun 2027 03:27:35.579            14.292                Anadyr1          1433.000
       443   12 Jun 2027 03:27:37.332   12 Jun 2027 03:27:42.591             5.259                Irkutsk           657.375
       444   12 Jun 2027 03:27:42.608   12 Jun 2027 03:27:50.671             8.063                Anadyr1           227.625
       445   12 Jun 2027 03:28:06.154   12 Jun 2027 03:28:20.895            14.741               Magadan2          1842.625
       446   12 Jun 2027 03:28:22.546   12 Jun 2027 03:29:06.361            43.815                Norilsk          3726.375
       447   12 Jun 2027 04:56:51.310   12 Jun 2027 04:57:13.130            21.820                Norilsk          1484.500
       448   12 Jun 2027 04:57:20.108   12 Jun 2027 04:57:53.193            33.085                Irkutsk          3489.000
       449   12 Jun 2027 04:57:55.365   12 Jun 2027 04:58:13.366            18.001                Norilsk          1086.000
       450   12 Jun 2027 04:58:17.991   12 Jun 2027 04:58:48.805            30.814                Novosib          2312.500
       451   12 Jun 2027 04:59:15.694   12 Jun 2027 05:01:52.658           156.964               Magadan2         13444.500
       452   12 Jun 2027 05:01:55.693   12 Jun 2027 05:02:40.471            44.778              Murmansk1          1517.500
       453   12 Jun 2027 05:02:45.398   12 Jun 2027 05:03:16.775            31.377              Murmansk1          2463.500
       454   12 Jun 2027 05:03:37.191   12 Jun 2027 05:05:18.209           101.018              Murmansk1         10208.000
       455   12 Jun 2027 06:33:44.189   12 Jun 2027 06:35:34.369           110.180                Novosib          5686.000
       456   12 Jun 2027 06:35:35.530   12 Jun 2027 06:35:56.330            20.800                Norilsk           580.500
       457   12 Jun 2027 06:35:56.973   12 Jun 2027 06:36:08.452            11.479                Novosib           321.500
       458   12 Jun 2027 06:36:13.922   12 Jun 2027 06:36:48.943            35.021                Norilsk          2735.000
       459   12 Jun 2027 06:36:55.053   12 Jun 2027 06:37:19.731            24.678              Murmansk1          3055.000
       460   12 Jun 2027 06:37:22.732   12 Jun 2027 06:37:46.397            23.665                 Moscow          1500.500
       461   12 Jun 2027 06:37:46.647   12 Jun 2027 06:37:48.149             1.502              Murmansk1           125.000
       462   12 Jun 2027 06:37:51.611   12 Jun 2027 06:38:49.619            58.008              Murmansk2          1731.000
       463   12 Jun 2027 06:39:09.862   12 Jun 2027 06:40:36.775            86.913              Murmansk1         10121.500
       464   12 Jun 2027 08:11:47.134   12 Jun 2027 08:12:26.949            39.815                Novosib          2863.000
       465   12 Jun 2027 08:12:37.148   12 Jun 2027 08:13:26.321            49.173                Novosib          5099.500
       466   12 Jun 2027 08:13:30.870   12 Jun 2027 08:13:59.911            29.041                Norilsk          2274.500
       467   12 Jun 2027 08:14:02.107   12 Jun 2027 08:14:14.285            12.178                Novosib          1098.000
       468   12 Jun 2027 08:14:18.375   12 Jun 2027 08:15:00.162            41.787                 Moscow          2045.000
       469   12 Jun 2027 08:15:05.837   12 Jun 2027 08:15:55.250            49.413                Novosib          2837.500
       470   12 Jun 2027 09:45:42.021   12 Jun 2027 09:46:41.367            59.346                 Moscow          4955.500
       471   12 Jun 2027 09:46:43.358   12 Jun 2027 09:47:12.263            28.905              Murmansk1           995.500
       472   12 Jun 2027 09:47:14.423   12 Jun 2027 09:47:16.445             2.022                 Moscow           252.750
       473   12 Jun 2027 09:47:35.658   12 Jun 2027 09:49:29.624           113.966                 Moscow         10433.750
       474   12 Jun 2027 09:49:51.710   12 Jun 2027 09:51:27.567            95.857              Murmansk1         11043.000
       475   12 Jun 2027 09:51:29.053   12 Jun 2027 09:51:46.269            17.216                Norilsk           743.000
       476   12 Jun 2027 09:51:50.273   12 Jun 2027 09:52:30.280            40.007                Norilsk          1350.000
       477   13 Jun 2027 03:32:01.465   13 Jun 2027 03:32:32.539            31.074               Magadan2          3884.250
       478   13 Jun 2027 03:32:40.307   13 Jun 2027 03:33:29.007            48.700               Magadan2          6087.500
       479   13 Jun 2027 03:33:29.007   13 Jun 2027 03:34:06.103            37.096               Magadan1          1280.750
       480   13 Jun 2027 03:34:08.023   13 Jun 2027 03:34:46.372            38.349               Magadan2           960.000
       481   13 Jun 2027 03:34:46.460   13 Jun 2027 03:35:06.694            20.234                Anadyr1            44.000
       482   13 Jun 2027 03:35:10.739   13 Jun 2027 03:35:27.585            16.846                Norilsk          2022.500
