uniorb/output/strategy_2/Drop/Drop_KinoSat_112001.txt

KinoSat_112001
-------------------------
    Access    *     Start Time (UTCG)     *     Stop Time (UTCG)  *   Duration (s)        *       Station  *  Data (Mbytes)
         1   01 Jun 2027 03:36:07.171   01 Jun 2027 03:36:31.282            24.111               Magadan1           753.469
         2   01 Jun 2027 03:39:30.062   01 Jun 2027 03:39:41.163            11.101                Irkutsk           346.906
         3   01 Jun 2027 03:39:55.263   01 Jun 2027 03:40:11.417            16.154              Murmansk1           504.812
         4   01 Jun 2027 03:40:11.417   01 Jun 2027 03:40:31.843            20.426              Murmansk2           638.313
         5   01 Jun 2027 03:40:32.438   01 Jun 2027 03:40:41.920             9.482                Norilsk           296.313
         6   01 Jun 2027 03:40:46.245   01 Jun 2027 03:41:02.103            15.858                Novosib           495.563
         7   01 Jun 2027 03:41:11.518   01 Jun 2027 03:42:13.844            62.326                Novosib          1947.687
         8   01 Jun 2027 03:42:22.379   01 Jun 2027 03:42:23.566             1.187                Norilsk            37.094
         9   01 Jun 2027 03:42:27.642   01 Jun 2027 03:42:38.130            10.488                Novosib           327.750
        10   01 Jun 2027 03:43:21.746   01 Jun 2027 03:44:16.417            54.671                Norilsk          1708.469
        11   01 Jun 2027 03:44:20.138   01 Jun 2027 03:44:42.004            21.866                Novosib           683.313
        12   01 Jun 2027 03:45:07.772   01 Jun 2027 03:46:10.198            62.426                Irkutsk          1950.812
        13   01 Jun 2027 03:51:57.381   01 Jun 2027 03:52:04.451             7.070                  Delhi           220.937
        14   01 Jun 2027 04:24:47.755   01 Jun 2027 04:30:25.803           338.048            RioGallegos         10564.000
        15   01 Jun 2027 05:13:23.623   01 Jun 2027 05:14:31.723            68.100                Irkutsk          2128.125
        16   01 Jun 2027 05:15:56.305   01 Jun 2027 05:16:18.481            22.176                Irkutsk           693.000
        17   01 Jun 2027 05:16:52.535   01 Jun 2027 05:17:14.955            22.420              Murmansk2           700.625
        18   01 Jun 2027 05:17:15.771   01 Jun 2027 05:17:17.172             1.401                Novosib            43.781
        19   01 Jun 2027 05:17:21.668   01 Jun 2027 05:18:53.103            91.435                Novosib          2857.344
        20   01 Jun 2027 05:19:02.696   01 Jun 2027 05:19:59.779            57.083              Murmansk2          1783.844
        21   01 Jun 2027 05:21:23.750   01 Jun 2027 05:26:03.111           279.361                  Delhi          8730.031
        22   01 Jun 2027 06:54:05.934   01 Jun 2027 06:54:37.276            31.342                 Moscow           979.438
        23   01 Jun 2027 06:54:41.199   01 Jun 2027 06:55:27.535            46.336              Murmansk2          1448.000
        24   01 Jun 2027 06:55:39.907   01 Jun 2027 06:56:33.404            53.497                 Moscow          1671.781
        25   01 Jun 2027 06:56:34.462   01 Jun 2027 06:57:01.579            27.117              Murmansk1           847.406
        26   01 Jun 2027 06:57:42.069   01 Jun 2027 06:58:09.929            27.860              Murmansk1           870.625
        27   01 Jun 2027 06:58:14.321   01 Jun 2027 06:58:17.544             3.223                 Moscow           100.719
        28   01 Jun 2027 06:58:24.838   01 Jun 2027 06:59:10.804            45.966                 Moscow          1436.437
        29   01 Jun 2027 06:59:40.294   01 Jun 2027 07:01:30.647           110.353                 Moscow          3448.531
        30   01 Jun 2027 07:12:35.217   01 Jun 2027 07:15:34.922           179.705               CapeTown          5615.781
        31   01 Jun 2027 08:16:53.151   01 Jun 2027 08:18:02.725            69.574               Magadan1          2174.188
        32   01 Jun 2027 08:18:30.170   01 Jun 2027 08:19:02.550            32.380                Anadyr2          1011.875
        33   01 Jun 2027 08:19:51.125   01 Jun 2027 08:20:03.534            12.409               Magadan2           387.781
        34   01 Jun 2027 09:47:15.939   01 Jun 2027 09:49:20.026           124.087                Anadyr1          3877.719
        35   01 Jun 2027 09:52:06.065   01 Jun 2027 09:55:34.944           208.879                Anadyr2          6527.469
        36   01 Jun 2027 09:55:34.944   01 Jun 2027 09:57:13.107            98.163                Anadyr1          3067.594
        37   01 Jun 2027 11:23:56.460   01 Jun 2027 11:25:59.786           123.326               Magadan1          3853.938
        38   01 Jun 2027 11:27:25.912   01 Jun 2027 11:30:30.509           184.597               Magadan2          5768.656
        39   01 Jun 2027 11:32:29.568   01 Jun 2027 11:33:21.865            52.297               Magadan2          1634.281
        40   01 Jun 2027 13:46:11.332   01 Jun 2027 13:56:32.441           621.109            RioGallegos         19409.656
        41   01 Jun 2027 14:24:30.739   01 Jun 2027 14:30:57.448           386.709                Sumatra         12084.656
        42   01 Jun 2027 14:39:49.706   01 Jun 2027 14:41:35.938           106.232                Irkutsk          3319.750
        43   01 Jun 2027 14:42:50.420   01 Jun 2027 14:44:35.837           105.417                Irkutsk          3294.281
        44   01 Jun 2027 16:08:11.887   01 Jun 2027 16:10:32.600           140.713                  Delhi          4397.281
        45   01 Jun 2027 16:14:28.600   01 Jun 2027 16:14:57.009            28.409                  Delhi           887.781
        46   01 Jun 2027 16:15:38.349   01 Jun 2027 16:21:58.429           380.080                Novosib         11877.500
        47   01 Jun 2027 18:00:12.095   01 Jun 2027 18:01:29.961            77.866                Norilsk          2433.312
        48   01 Jun 2027 19:28:42.026   01 Jun 2027 19:33:41.814           299.788                 Moscow          9368.375
        49   01 Jun 2027 19:38:41.849   01 Jun 2027 19:39:59.665            77.816              Murmansk1          2431.750
        50   01 Jun 2027 20:42:14.627   01 Jun 2027 20:42:39.220            24.593               CapeTown           768.531
        51   01 Jun 2027 20:45:53.585   01 Jun 2027 20:48:21.819           148.234               CapeTown          4632.313
        52   01 Jun 2027 21:09:47.689   01 Jun 2027 21:15:16.829           329.140              Murmansk2         10285.625
        53   02 Jun 2027 00:29:21.483   02 Jun 2027 00:30:02.334            40.851                Anadyr2          1276.594
        54   02 Jun 2027 00:31:26.364   02 Jun 2027 00:33:06.905           100.541                Norilsk          3141.906
        55   02 Jun 2027 00:34:09.222   02 Jun 2027 00:34:43.256            34.034               Magadan1          1063.562
        56   02 Jun 2027 00:35:06.570   02 Jun 2027 00:35:19.835            13.265               Magadan1           414.531
        57   02 Jun 2027 00:35:37.363   02 Jun 2027 00:36:25.189            47.826               Magadan1          1494.562
        58   02 Jun 2027 00:36:37.937   02 Jun 2027 00:37:17.810            39.873                Irkutsk          1246.031
        59   02 Jun 2027 00:41:36.629   02 Jun 2027 00:42:40.889            64.260                Irkutsk          2008.125
        60   02 Jun 2027 00:43:22.821   02 Jun 2027 00:44:19.376            56.555                Irkutsk          1767.344
        61   02 Jun 2027 00:46:23.359   02 Jun 2027 00:46:38.403            15.044                Irkutsk           470.125
        62   02 Jun 2027 00:50:03.788   02 Jun 2027 00:50:27.710            23.922                Sumatra           747.563
        63   02 Jun 2027 00:53:11.168   02 Jun 2027 00:53:57.903            46.735                Sumatra          1460.469
        64   02 Jun 2027 00:56:49.038   02 Jun 2027 00:56:54.963             5.925                Sumatra           185.156
        65   02 Jun 2027 00:58:36.637   02 Jun 2027 00:59:19.421            42.784                Sumatra          1337.000
        66   02 Jun 2027 01:00:01.053   02 Jun 2027 01:01:17.753            76.700                Sumatra          2396.875
        67   02 Jun 2027 01:32:54.358   02 Jun 2027 01:33:29.826            35.468            RioGallegos          1108.375
        68   02 Jun 2027 01:35:57.439   02 Jun 2027 01:36:09.475            12.036            RioGallegos           376.125
        69   02 Jun 2027 02:04:23.628   02 Jun 2027 02:05:18.662            55.034                Anadyr2          1719.813
        70   02 Jun 2027 02:05:52.082   02 Jun 2027 02:06:23.495            31.413                Anadyr1           981.656
        71   02 Jun 2027 02:07:20.492   02 Jun 2027 02:07:29.802             9.310                Anadyr1           290.937
        72   02 Jun 2027 02:07:37.001   02 Jun 2027 02:07:38.641             1.640                Anadyr1            51.250
        73   02 Jun 2027 02:08:01.813   02 Jun 2027 02:08:47.613            45.800               Magadan1          1431.250
        74   02 Jun 2027 02:08:56.957   02 Jun 2027 02:09:09.780            12.823                Norilsk           400.719
        75   02 Jun 2027 02:09:13.122   02 Jun 2027 02:09:24.858            11.736                Norilsk           366.750
        76   02 Jun 2027 02:10:41.059   02 Jun 2027 02:11:04.573            23.514                Norilsk           734.813
        77   02 Jun 2027 02:11:13.529   02 Jun 2027 02:13:43.034           149.505                Irkutsk          4672.031
        78   02 Jun 2027 02:19:37.954   02 Jun 2027 02:20:10.936            32.982                Irkutsk          1030.688
        79   02 Jun 2027 02:22:14.017   02 Jun 2027 02:22:47.209            33.192                Novosib          1037.250
        80   02 Jun 2027 02:25:42.316   02 Jun 2027 02:27:30.009           107.693                Sumatra          3365.406
        81   02 Jun 2027 02:29:50.721   02 Jun 2027 02:35:40.014           349.293                Sumatra         10915.406
        82   02 Jun 2027 03:51:03.851   02 Jun 2027 03:51:58.620            54.769              Murmansk1          1711.531
        83   02 Jun 2027 03:52:03.191   02 Jun 2027 03:52:37.656            34.465                Novosib          1077.031
        84   02 Jun 2027 03:52:48.921   02 Jun 2027 03:54:15.601            86.680                Norilsk          2708.750
        85   02 Jun 2027 03:54:20.837   02 Jun 2027 03:54:28.917             8.080                Norilsk           252.500
        86   02 Jun 2027 03:55:03.846   02 Jun 2027 03:55:17.391            13.545                Novosib           423.281
        87   02 Jun 2027 03:56:19.177   02 Jun 2027 03:56:43.690            24.513                Irkutsk           766.031
        88   02 Jun 2027 03:57:34.454   02 Jun 2027 03:58:30.184            55.730                  Delhi          1741.563
        89   02 Jun 2027 04:37:22.302   02 Jun 2027 04:41:19.976           237.674            RioGallegos          7427.313
        90   02 Jun 2027 05:26:48.265   02 Jun 2027 05:26:57.560             9.295                Norilsk           290.469
        91   02 Jun 2027 05:27:29.069   02 Jun 2027 05:27:57.871            28.802                Norilsk           900.063
        92   02 Jun 2027 05:28:02.298   02 Jun 2027 05:29:53.227           110.929                Novosib          3466.531
        93   02 Jun 2027 05:30:19.290   02 Jun 2027 05:31:44.236            84.946                Novosib          2654.562
        94   02 Jun 2027 05:33:24.343   02 Jun 2027 05:33:56.910            32.567                Novosib          1017.719
        95   02 Jun 2027 07:05:52.438   02 Jun 2027 07:06:10.334            17.896              Murmansk2           559.250
        96   02 Jun 2027 07:06:36.447   02 Jun 2027 07:07:21.272            44.825              Murmansk2          1400.781
        97   02 Jun 2027 07:07:31.782   02 Jun 2027 07:08:38.241            66.459                 Moscow          2076.844
        98   02 Jun 2027 07:09:33.801   02 Jun 2027 07:10:22.120            48.319              Murmansk2          1509.969
        99   02 Jun 2027 07:10:43.684   02 Jun 2027 07:11:20.189            36.505                 Moscow          1140.781
       100   02 Jun 2027 07:11:59.137   02 Jun 2027 07:13:27.458            88.321                 Moscow          2760.031
       101   02 Jun 2027 07:24:46.059   02 Jun 2027 07:26:34.551           108.492               CapeTown          3390.375
       102   02 Jun 2027 07:27:38.853   02 Jun 2027 07:29:33.611           114.758               CapeTown          3586.188
       103   02 Jun 2027 07:31:03.707   02 Jun 2027 07:34:32.965           209.258               CapeTown          6539.312
       104   02 Jun 2027 08:28:31.978   02 Jun 2027 08:30:25.562           113.584                Anadyr1          3549.500
       105   02 Jun 2027 08:31:12.501   02 Jun 2027 08:32:19.807            67.306                Anadyr2          2103.312
       106   02 Jun 2027 08:33:30.207   02 Jun 2027 08:34:13.266            43.059                Anadyr2          1345.594
       107   02 Jun 2027 08:43:25.351   02 Jun 2027 08:44:28.026            62.675                 Moscow          1958.594
       108   02 Jun 2027 09:59:45.346   02 Jun 2027 10:00:20.635            35.289                Anadyr2          1102.781
       109   02 Jun 2027 10:04:00.572   02 Jun 2027 10:07:28.611           208.039                Anadyr2          6501.219
       110   02 Jun 2027 10:08:38.967   02 Jun 2027 10:09:50.172            71.205               Magadan1          2225.156
       111   02 Jun 2027 11:35:02.288   02 Jun 2027 11:36:25.965            83.677               Magadan1          2614.906
       112   02 Jun 2027 11:38:57.924   02 Jun 2027 11:45:15.640           377.716               Magadan2         11803.625
       113   02 Jun 2027 13:11:57.151   02 Jun 2027 13:12:36.076            38.925                Irkutsk          1216.406
       114   02 Jun 2027 13:20:14.828   02 Jun 2027 13:20:35.286            20.458                Novosib           639.312
       115   02 Jun 2027 13:24:43.862   02 Jun 2027 13:24:44.946             1.084                Norilsk            33.875
       116   02 Jun 2027 13:25:51.332   02 Jun 2027 13:26:30.398            39.066                Norilsk          1220.813
       117   02 Jun 2027 13:57:42.766   02 Jun 2027 13:59:26.007           103.241            RioGallegos          3226.281
       118   02 Jun 2027 14:02:12.811   02 Jun 2027 14:03:19.049            66.238            RioGallegos          2069.938
       119   02 Jun 2027 14:07:27.575   02 Jun 2027 14:08:22.709            55.134            RioGallegos          1722.938
       120   02 Jun 2027 14:31:56.416   02 Jun 2027 14:38:01.778           365.362                Sumatra         11417.562
       121   02 Jun 2027 14:47:21.583   02 Jun 2027 14:53:56.957           395.374                Irkutsk         12355.438
       122   02 Jun 2027 16:17:03.867   02 Jun 2027 16:17:17.339            13.472                  Delhi           421.000
       123   02 Jun 2027 16:19:10.056   02 Jun 2027 16:24:45.353           335.297                  Delhi         10478.031
       124   02 Jun 2027 16:25:32.313   02 Jun 2027 16:26:23.481            51.168                Novosib          1599.000
       125   02 Jun 2027 16:27:02.108   02 Jun 2027 16:32:37.639           335.531                Novosib         10485.344
       126   02 Jun 2027 19:39:46.513   02 Jun 2027 19:46:51.968           425.455                 Moscow         13295.469
       127   02 Jun 2027 20:51:27.564   02 Jun 2027 20:52:01.275            33.711               CapeTown          1053.469
       128   02 Jun 2027 20:52:34.784   02 Jun 2027 20:55:27.111           172.327               CapeTown          5385.219
       129   02 Jun 2027 21:22:48.300   02 Jun 2027 21:26:59.666           251.366              Murmansk1          7855.187
       130   02 Jun 2027 23:06:55.846   02 Jun 2027 23:07:27.009            31.163                Anadyr2           973.844
       131   02 Jun 2027 23:07:53.564   02 Jun 2027 23:08:03.984            10.420                Anadyr1           325.625
       132   02 Jun 2027 23:08:20.714   02 Jun 2027 23:10:40.970           140.256               Magadan2          4383.000
       133   02 Jun 2027 23:14:06.526   02 Jun 2027 23:14:56.446            49.920               Magadan1          1560.000
       134   03 Jun 2027 00:00:17.973   03 Jun 2027 00:02:31.382           133.409            RioGallegos          4169.031
       135   03 Jun 2027 00:02:51.265   03 Jun 2027 00:03:09.881            18.616            RioGallegos           581.750
       136   03 Jun 2027 00:05:26.130   03 Jun 2027 00:05:42.225            16.095            RioGallegos           502.969
       137   03 Jun 2027 00:07:13.816   03 Jun 2027 00:07:18.316             4.500            RioGallegos           140.625
       138   03 Jun 2027 00:08:02.259   03 Jun 2027 00:08:27.306            25.047            RioGallegos           782.719
       139   03 Jun 2027 00:09:41.628   03 Jun 2027 00:10:04.516            22.888            RioGallegos           715.250
       140   03 Jun 2027 00:41:19.620   03 Jun 2027 00:42:16.753            57.133                Anadyr1          1785.406
       141   03 Jun 2027 00:42:31.083   03 Jun 2027 00:42:44.514            13.431                Anadyr1           419.719
       142   03 Jun 2027 00:43:03.411   03 Jun 2027 00:43:42.972            39.561                Anadyr2          1236.281
       143   03 Jun 2027 00:43:56.580   03 Jun 2027 00:46:05.779           129.199               Magadan1          4037.469
       144   03 Jun 2027 00:46:22.178   03 Jun 2027 00:46:35.062            12.884               Magadan2           402.625
       145   03 Jun 2027 00:47:46.004   03 Jun 2027 00:49:10.508            84.504                Irkutsk          2640.750
       146   03 Jun 2027 00:50:53.084   03 Jun 2027 00:51:25.148            32.064                Novosib          1002.000
       147   03 Jun 2027 00:52:36.906   03 Jun 2027 00:53:06.291            29.385                Irkutsk           918.281
       148   03 Jun 2027 00:56:48.466   03 Jun 2027 00:57:39.664            51.198                Irkutsk          1599.938
       149   03 Jun 2027 01:01:41.128   03 Jun 2027 01:02:25.970            44.842                Sumatra          1401.312
       150   03 Jun 2027 01:08:11.382   03 Jun 2027 01:08:47.492            36.110                Sumatra          1128.438
       151   03 Jun 2027 01:11:54.754   03 Jun 2027 01:13:36.380           101.626                Sumatra          3175.813
       152   03 Jun 2027 02:16:21.672   03 Jun 2027 02:16:40.693            19.021                Anadyr1           594.406
       153   03 Jun 2027 02:16:48.628   03 Jun 2027 02:17:25.119            36.491                Anadyr1          1140.344
       154   03 Jun 2027 02:18:33.670   03 Jun 2027 02:18:47.974            14.304                Anadyr1           447.000
       155   03 Jun 2027 02:19:19.785   03 Jun 2027 02:19:31.950            12.165                Anadyr2           380.156
       156   03 Jun 2027 02:20:04.873   03 Jun 2027 02:20:16.003            11.130               Magadan1           347.813
       157   03 Jun 2027 02:20:17.146   03 Jun 2027 02:21:36.347            79.201               Magadan2          2475.031
       158   03 Jun 2027 02:23:15.743   03 Jun 2027 02:25:38.125           142.382                Irkutsk          4449.438
       159   03 Jun 2027 02:29:39.855   03 Jun 2027 02:29:42.327             2.472                Irkutsk            77.250
       160   03 Jun 2027 02:30:00.193   03 Jun 2027 02:30:08.336             8.143                Irkutsk           254.469
       161   03 Jun 2027 02:31:00.634   03 Jun 2027 02:31:16.706            16.072                Irkutsk           502.250
       162   03 Jun 2027 02:31:54.678   03 Jun 2027 02:32:16.189            21.511                  Delhi           672.219
       163   03 Jun 2027 02:35:41.793   03 Jun 2027 02:36:08.626            26.833                  Delhi           838.531
       164   03 Jun 2027 02:38:13.179   03 Jun 2027 02:45:00.403           407.224                Sumatra         12725.750
       165   03 Jun 2027 04:03:05.237   03 Jun 2027 04:03:46.053            40.816              Murmansk2          1275.500
       166   03 Jun 2027 04:03:46.053   03 Jun 2027 04:05:07.101            81.048              Murmansk1          2532.750
       167   03 Jun 2027 04:05:12.559   03 Jun 2027 04:05:25.160            12.601                Novosib           393.781
       168   03 Jun 2027 04:05:29.426   03 Jun 2027 04:05:50.983            21.557                 Moscow           673.656
       169   03 Jun 2027 04:05:59.173   03 Jun 2027 04:06:22.809            23.636                Novosib           738.625
       170   03 Jun 2027 04:06:42.327   03 Jun 2027 04:07:47.182            64.855                 Moscow          2026.719
       171   03 Jun 2027 04:08:12.828   03 Jun 2027 04:08:31.504            18.676                Irkutsk           583.625
       172   03 Jun 2027 04:08:37.930   03 Jun 2027 04:09:34.064            56.134                Irkutsk          1754.188
       173   03 Jun 2027 04:10:13.346   03 Jun 2027 04:10:19.596             6.250                Novosib           195.313
       174   03 Jun 2027 04:11:19.542   03 Jun 2027 04:16:20.149           300.607                  Delhi          9393.969
       175   03 Jun 2027 05:40:28.655   03 Jun 2027 05:41:19.281            50.626              Murmansk2          1582.063
       176   03 Jun 2027 05:41:24.684   03 Jun 2027 05:42:56.384            91.700                Novosib          2865.625
       177   03 Jun 2027 05:43:04.506   03 Jun 2027 05:43:16.104            11.598                 Moscow           362.438
       178   03 Jun 2027 05:43:39.435   03 Jun 2027 05:44:00.909            21.474              Murmansk2           671.062
       179   03 Jun 2027 05:44:23.803   03 Jun 2027 05:45:21.458            57.655              Murmansk2          1801.719
       180   03 Jun 2027 05:45:32.801   03 Jun 2027 05:46:12.776            39.975                 Moscow          1249.219
       181   03 Jun 2027 05:46:24.649   03 Jun 2027 05:46:29.213             4.564                 Moscow           142.625
       182   03 Jun 2027 05:46:53.530   03 Jun 2027 05:47:25.734            32.204                 Moscow          1006.375
       183   03 Jun 2027 05:48:21.829   03 Jun 2027 05:48:47.588            25.759                 Moscow           804.969
       184   03 Jun 2027 06:01:35.865   03 Jun 2027 06:02:14.160            38.295               CapeTown          1196.719
       185   03 Jun 2027 06:02:46.698   03 Jun 2027 06:03:22.427            35.729               CapeTown          1116.531
       186   03 Jun 2027 06:05:07.446   03 Jun 2027 06:05:45.716            38.270               CapeTown          1195.937
       187   03 Jun 2027 06:12:33.676   03 Jun 2027 06:13:08.192            34.516               CapeTown          1078.625
       188   03 Jun 2027 07:15:52.225   03 Jun 2027 07:16:44.216            51.991                 Moscow          1624.719
       189   03 Jun 2027 07:16:47.071   03 Jun 2027 07:17:40.513            53.442              Murmansk1          1670.062
       190   03 Jun 2027 07:17:45.747   03 Jun 2027 07:18:03.428            17.681              Murmansk1           552.531
       191   03 Jun 2027 07:18:03.428   03 Jun 2027 07:18:30.715            27.287              Murmansk2           852.719
       192   03 Jun 2027 07:18:51.895   03 Jun 2027 07:19:05.612            13.717              Murmansk1           428.656
       193   03 Jun 2027 07:20:04.801   03 Jun 2027 07:20:29.169            24.368              Murmansk1           761.500
       194   03 Jun 2027 07:20:35.175   03 Jun 2027 07:20:43.593             8.418                 Moscow           263.062
       195   03 Jun 2027 07:22:18.315   03 Jun 2027 07:22:26.481             8.166              Murmansk2           255.188
       196   03 Jun 2027 07:37:02.772   03 Jun 2027 07:39:31.810           149.038               CapeTown          4657.437
       197   03 Jun 2027 07:45:05.154   03 Jun 2027 07:46:54.857           109.703               CapeTown          3428.219
       198   03 Jun 2027 08:39:46.102   03 Jun 2027 08:40:15.154            29.052               Magadan1           907.875
       199   03 Jun 2027 08:40:17.280   03 Jun 2027 08:40:48.148            30.868               Magadan2           964.625
       200   03 Jun 2027 08:41:59.095   03 Jun 2027 08:43:24.762            85.667                Anadyr2          2677.094
       201   03 Jun 2027 08:43:24.762   03 Jun 2027 08:44:19.203            54.441                Anadyr1          1701.281
       202   03 Jun 2027 10:12:18.419   03 Jun 2027 10:21:48.410           569.991                Anadyr2         17812.219
       203   03 Jun 2027 11:47:39.862   03 Jun 2027 11:53:29.257           349.395               Magadan2         10918.594
       204   03 Jun 2027 11:53:51.563   03 Jun 2027 11:57:07.155           195.592               Magadan1          6112.250
       205   03 Jun 2027 13:23:57.315   03 Jun 2027 13:25:07.574            70.259                Irkutsk          2195.594
       206   03 Jun 2027 13:30:05.877   03 Jun 2027 13:30:32.132            26.255                Irkutsk           820.469
       207   03 Jun 2027 13:35:12.232   03 Jun 2027 13:36:24.094            71.862                Norilsk          2245.688
       208   03 Jun 2027 14:10:17.551   03 Jun 2027 14:14:07.923           230.372            RioGallegos          7199.125
       209   03 Jun 2027 14:14:30.980   03 Jun 2027 14:16:19.570           108.590            RioGallegos          3393.438
       210   03 Jun 2027 14:44:33.183   03 Jun 2027 14:53:47.649           554.466                Sumatra         17327.063
       211   03 Jun 2027 15:00:54.090   03 Jun 2027 15:07:56.125           422.035                Irkutsk         13188.594
       212   03 Jun 2027 16:29:59.419   03 Jun 2027 16:37:43.759           464.340                  Delhi         14510.625
       213   03 Jun 2027 16:38:29.325   03 Jun 2027 16:45:15.113           405.788                Novosib         12680.875
       214   03 Jun 2027 19:52:56.804   03 Jun 2027 19:58:15.574           318.770                 Moscow          9961.563
       215   03 Jun 2027 21:03:18.740   03 Jun 2027 21:09:08.261           349.521               CapeTown         10922.531
       216   03 Jun 2027 21:36:09.698   03 Jun 2027 21:38:23.778           134.080              Murmansk1          4190.000
       217   04 Jun 2027 00:17:11.551   04 Jun 2027 00:17:40.605            29.054            RioGallegos           907.938
       218   04 Jun 2027 00:21:31.426   04 Jun 2027 00:22:17.814            46.388            RioGallegos          1449.625
       219   04 Jun 2027 00:53:17.016   04 Jun 2027 00:53:58.231            41.215                Anadyr2          1287.969
       220   04 Jun 2027 00:54:19.959   04 Jun 2027 00:54:21.175             1.216                Anadyr1            38.000
       221   04 Jun 2027 00:55:27.404   04 Jun 2027 00:55:57.742            30.338                Norilsk           948.062
       222   04 Jun 2027 00:55:59.886   04 Jun 2027 00:57:06.045            66.159               Magadan1          2067.469
       223   04 Jun 2027 00:57:56.855   04 Jun 2027 00:58:34.018            37.163               Magadan1          1161.344
       224   04 Jun 2027 00:59:10.325   04 Jun 2027 00:59:11.908             1.583                Norilsk            49.469
       225   04 Jun 2027 00:59:22.634   04 Jun 2027 00:59:59.336            36.702               Magadan2          1146.938
       226   04 Jun 2027 01:00:46.062   04 Jun 2027 01:01:26.864            40.802                Irkutsk          1275.063
       227   04 Jun 2027 01:01:35.179   04 Jun 2027 01:02:53.955            78.776                Novosib          2461.750
       228   04 Jun 2027 01:03:27.719   04 Jun 2027 01:03:53.805            26.086                Novosib           815.188
       229   04 Jun 2027 01:06:27.863   04 Jun 2027 01:06:55.414            27.551                Novosib           860.969
       230   04 Jun 2027 01:13:25.877   04 Jun 2027 01:14:18.438            52.561                Sumatra          1642.531
       231   04 Jun 2027 01:19:18.015   04 Jun 2027 01:20:14.870            56.855                Sumatra          1776.719
       232   04 Jun 2027 01:23:42.357   04 Jun 2027 01:25:50.349           127.992                Sumatra          3999.750
       233   04 Jun 2027 02:30:20.992   04 Jun 2027 02:30:24.726             3.734                Anadyr1           116.687
       234   04 Jun 2027 02:30:24.726   04 Jun 2027 02:30:45.316            20.590                Anadyr2           643.438
       235   04 Jun 2027 02:31:25.634   04 Jun 2027 02:32:30.745            65.111                Norilsk          2034.719
       236   04 Jun 2027 02:33:04.572   04 Jun 2027 02:33:30.625            26.053               Magadan1           814.156
       237   04 Jun 2027 02:35:18.763   04 Jun 2027 02:38:03.471           164.708                Irkutsk          5147.125
       238   04 Jun 2027 02:43:13.731   04 Jun 2027 02:43:38.723            24.992                  Delhi           781.000
       239   04 Jun 2027 02:47:33.839   04 Jun 2027 02:48:56.019            82.180                  Delhi          2568.125
       240   04 Jun 2027 02:50:57.296   04 Jun 2027 02:59:21.289           503.993                Sumatra         15749.781
       241   04 Jun 2027 04:14:54.425   04 Jun 2027 04:15:14.639            20.214                Novosib           631.687
       242   04 Jun 2027 04:15:51.793   04 Jun 2027 04:17:33.786           101.993                Irkutsk          3187.281
       243   04 Jun 2027 04:17:55.489   04 Jun 2027 04:18:37.937            42.448              Murmansk2          1326.500
       244   04 Jun 2027 04:21:34.284   04 Jun 2027 04:21:56.785            22.501                Novosib           703.156
       245   04 Jun 2027 04:23:13.574   04 Jun 2027 04:23:49.326            35.752                Novosib          1117.250
       246   04 Jun 2027 04:23:51.651   04 Jun 2027 04:29:29.764           338.113                  Delhi         10566.031
       247   04 Jun 2027 05:52:44.122   04 Jun 2027 05:53:59.202            75.080                 Moscow          2346.250
       248   04 Jun 2027 05:54:00.487   04 Jun 2027 05:55:30.304            89.817              Murmansk2          2806.781
       249   04 Jun 2027 05:55:54.761   04 Jun 2027 05:56:28.000            33.239              Murmansk2          1038.719
       250   04 Jun 2027 05:56:32.658   04 Jun 2027 05:56:37.700             5.042              Murmansk2           157.563
       251   04 Jun 2027 05:56:53.981   04 Jun 2027 05:58:27.712            93.731                 Moscow          2929.094
       252   04 Jun 2027 06:00:24.844   04 Jun 2027 06:01:21.063            56.219                 Moscow          1756.844
       253   04 Jun 2027 06:13:15.557   04 Jun 2027 06:14:04.972            49.415               CapeTown          1544.219
       254   04 Jun 2027 06:15:36.644   04 Jun 2027 06:15:56.083            19.439               CapeTown           607.469
       255   04 Jun 2027 06:19:48.671   04 Jun 2027 06:20:32.044            43.373               CapeTown          1355.406
       256   04 Jun 2027 07:17:02.387   04 Jun 2027 07:18:28.355            85.968                Anadyr1          2686.500
       257   04 Jun 2027 07:28:47.138   04 Jun 2027 07:29:41.843            54.705              Murmansk2          1709.531
       258   04 Jun 2027 07:30:18.436   04 Jun 2027 07:30:42.103            23.667              Murmansk2           739.594
       259   04 Jun 2027 07:30:54.719   04 Jun 2027 07:31:07.352            12.633                 Moscow           394.781
       260   04 Jun 2027 07:32:31.115   04 Jun 2027 07:32:31.754             0.639                 Moscow            19.969
       261   04 Jun 2027 07:33:57.543   04 Jun 2027 07:34:09.517            11.974                 Moscow           374.187
       262   04 Jun 2027 07:49:26.144   04 Jun 2027 07:51:31.971           125.827               CapeTown          3932.094
       263   04 Jun 2027 07:54:18.789   04 Jun 2027 07:54:59.089            40.300               CapeTown          1259.375
       264   04 Jun 2027 08:50:28.432   04 Jun 2027 08:52:32.871           124.439                Anadyr2          3888.719
       265   04 Jun 2027 08:53:52.334   04 Jun 2027 08:55:28.640            96.306                Anadyr2          3009.562
       266   04 Jun 2027 09:08:24.609   04 Jun 2027 09:09:45.037            80.428                 Moscow          2513.375
       267   04 Jun 2027 10:24:55.639   04 Jun 2027 10:33:42.519           526.880                Anadyr2         16465.000
       268   04 Jun 2027 12:00:18.481   04 Jun 2027 12:06:36.555           378.074               Magadan2         11814.812
       269   04 Jun 2027 12:06:43.223   04 Jun 2027 12:08:55.569           132.346               Magadan1          4135.812
       270   04 Jun 2027 14:25:15.107   04 Jun 2027 14:29:44.688           269.581            RioGallegos          8424.406
       271   04 Jun 2027 14:57:27.027   04 Jun 2027 15:04:49.087           442.060                Sumatra         13814.375
       272   04 Jun 2027 15:13:17.731   04 Jun 2027 15:19:21.576           363.845                Irkutsk         11370.156
       273   04 Jun 2027 16:43:24.348   04 Jun 2027 16:48:33.114           308.766                  Delhi          9648.937
       274   04 Jun 2027 16:51:44.803   04 Jun 2027 16:56:34.205           289.402                Novosib          9043.813
       275   04 Jun 2027 20:06:53.148   04 Jun 2027 20:08:56.339           123.191                 Moscow          3849.719
       276   04 Jun 2027 20:10:12.687   04 Jun 2027 20:12:04.463           111.776              Murmansk2          3493.000
       277   04 Jun 2027 20:13:44.857   04 Jun 2027 20:13:51.298             6.441              Murmansk1           201.281
       278   04 Jun 2027 21:15:06.903   04 Jun 2027 21:22:02.819           415.916               CapeTown         12997.375
       279   05 Jun 2027 00:23:55.454   05 Jun 2027 00:26:16.535           141.081            RioGallegos          4408.781
       280   05 Jun 2027 00:28:44.770   05 Jun 2027 00:29:13.707            28.937            RioGallegos           904.281
       281   05 Jun 2027 01:05:13.580   05 Jun 2027 01:06:09.507            55.927                Anadyr1          1747.719
       282   05 Jun 2027 01:07:05.253   05 Jun 2027 01:07:45.591            40.338                Anadyr2          1260.562
       283   05 Jun 2027 01:07:49.694   05 Jun 2027 01:09:29.445            99.751                Norilsk          3117.219
       284   05 Jun 2027 01:09:39.560   05 Jun 2027 01:09:45.613             6.053               Magadan1           189.156
       285   05 Jun 2027 01:09:55.858   05 Jun 2027 01:10:03.492             7.634               Magadan1           238.563
       286   05 Jun 2027 01:11:09.156   05 Jun 2027 01:11:13.819             4.663                Norilsk           145.719
       287   05 Jun 2027 01:11:18.316   05 Jun 2027 01:11:45.385            27.069               Magadan2           845.906
       288   05 Jun 2027 01:12:32.107   05 Jun 2027 01:13:23.203            51.096                Irkutsk          1596.750
       289   05 Jun 2027 01:13:45.519   05 Jun 2027 01:13:59.450            13.931                Irkutsk           435.344
       290   05 Jun 2027 01:14:13.415   05 Jun 2027 01:14:27.212            13.797                Irkutsk           431.156
       291   05 Jun 2027 01:14:30.061   05 Jun 2027 01:15:11.253            41.192                Novosib          1287.250
       292   05 Jun 2027 01:15:25.499   05 Jun 2027 01:15:38.963            13.464                Novosib           420.750
       293   05 Jun 2027 01:16:35.391   05 Jun 2027 01:18:22.196           106.805                Irkutsk          3337.656
       294   05 Jun 2027 01:25:17.026   05 Jun 2027 01:26:04.694            47.668                Sumatra          1489.625
       295   05 Jun 2027 01:28:18.020   05 Jun 2027 01:28:43.831            25.811                Sumatra           806.594
       296   05 Jun 2027 01:37:42.256   05 Jun 2027 01:37:56.982            14.726                Sumatra           460.188
       297   05 Jun 2027 01:59:40.121   05 Jun 2027 02:00:04.484            24.363            RioGallegos           761.344
       298   05 Jun 2027 02:02:11.497   05 Jun 2027 02:02:39.205            27.708            RioGallegos           865.875
       299   05 Jun 2027 02:08:14.343   05 Jun 2027 02:08:41.866            27.523            RioGallegos           860.094
       300   05 Jun 2027 02:11:25.890   05 Jun 2027 02:11:31.997             6.107            RioGallegos           190.844
       301   05 Jun 2027 02:39:49.014   05 Jun 2027 02:40:04.883            15.869                Anadyr1           495.906
       302   05 Jun 2027 02:40:43.429   05 Jun 2027 02:40:45.579             2.150                Anadyr1            67.187
       303   05 Jun 2027 02:42:09.644   05 Jun 2027 02:42:25.693            16.049                Anadyr1           501.531
       304   05 Jun 2027 02:42:41.554   05 Jun 2027 02:43:01.146            19.592                Anadyr1           612.250
       305   05 Jun 2027 02:43:28.136   05 Jun 2027 02:43:56.339            28.203                Norilsk           881.344
       306   05 Jun 2027 02:44:10.211   05 Jun 2027 02:44:22.605            12.394               Magadan1           387.313
       307   05 Jun 2027 02:44:32.187   05 Jun 2027 02:44:53.568            21.381               Magadan2           668.156
       308   05 Jun 2027 02:45:01.839   05 Jun 2027 02:45:30.756            28.917                Norilsk           903.656
       309   05 Jun 2027 02:47:22.575   05 Jun 2027 02:49:43.481           140.906                Irkutsk          4403.312
       310   05 Jun 2027 02:51:43.324   05 Jun 2027 02:52:28.723            45.399                Irkutsk          1418.719
       311   05 Jun 2027 02:55:59.322   05 Jun 2027 02:56:13.758            14.436                  Delhi           451.125
       312   05 Jun 2027 03:04:05.391   05 Jun 2027 03:10:07.995           362.604                Sumatra         11331.375
       313   05 Jun 2027 04:27:24.308   05 Jun 2027 04:27:47.643            23.335              Murmansk1           729.219
       314   05 Jun 2027 04:28:31.793   05 Jun 2027 04:29:01.231            29.438                 Moscow           919.937
       315   05 Jun 2027 04:29:02.963   05 Jun 2027 04:29:59.229            56.266                Norilsk          1758.313
       316   05 Jun 2027 04:30:09.851   05 Jun 2027 04:30:21.464            11.613              Murmansk1           362.906
       317   05 Jun 2027 04:30:21.464   05 Jun 2027 04:31:12.017            50.553              Murmansk2          1579.781
       318   05 Jun 2027 04:31:21.613   05 Jun 2027 04:32:26.184            64.571                Irkutsk          2017.844
       319   05 Jun 2027 04:33:27.192   05 Jun 2027 04:34:58.782            91.590                  Delhi          2862.187
       320   05 Jun 2027 04:35:42.915   05 Jun 2027 04:36:17.192            34.277                  Delhi          1071.156
       321   05 Jun 2027 06:03:44.239   05 Jun 2027 06:04:03.914            19.675                Novosib           614.844
       322   05 Jun 2027 06:04:44.893   05 Jun 2027 06:04:50.250             5.357                 Moscow           167.406
       323   05 Jun 2027 06:04:57.315   05 Jun 2027 06:05:04.976             7.661              Murmansk2           239.406
       324   05 Jun 2027 06:05:04.976   05 Jun 2027 06:05:23.622            18.646              Murmansk1           582.687
       325   05 Jun 2027 06:05:25.889   05 Jun 2027 06:05:33.675             7.786                Norilsk           243.312
       326   05 Jun 2027 06:05:38.942   05 Jun 2027 06:06:12.443            33.501                Norilsk          1046.906
       327   05 Jun 2027 06:06:17.568   05 Jun 2027 06:06:28.017            10.449                Norilsk           326.531
       328   05 Jun 2027 06:06:33.154   05 Jun 2027 06:07:07.043            33.889              Murmansk2          1059.031
       329   05 Jun 2027 06:07:30.852   05 Jun 2027 06:08:36.688            65.836                 Moscow          2057.375
       330   05 Jun 2027 06:08:39.639   05 Jun 2027 06:09:12.553            32.914              Murmansk1          1028.562
       331   05 Jun 2027 06:09:18.421   05 Jun 2027 06:09:53.532            35.111              Murmansk2          1097.219
       332   05 Jun 2027 06:11:37.753   05 Jun 2027 06:11:51.519            13.766                 Moscow           430.188
       333   05 Jun 2027 06:12:13.368   05 Jun 2027 06:12:28.369            15.001                 Moscow           468.781
       334   05 Jun 2027 06:25:00.894   05 Jun 2027 06:27:24.219           143.325               CapeTown          4478.906
       335   05 Jun 2027 07:28:11.166   05 Jun 2027 07:28:37.074            25.908                Anadyr1           809.625
       336   05 Jun 2027 07:28:42.650   05 Jun 2027 07:29:27.165            44.515                Anadyr2          1391.094
       337   05 Jun 2027 07:29:27.165   05 Jun 2027 07:30:28.653            61.488                Anadyr1          1921.500
       338   05 Jun 2027 07:40:05.405   05 Jun 2027 07:40:45.779            40.374              Murmansk1          1261.688
       339   05 Jun 2027 07:40:54.039   05 Jun 2027 07:41:40.380            46.341                 Moscow          1448.156
       340   05 Jun 2027 07:43:48.244   05 Jun 2027 07:44:31.130            42.886                 Moscow          1340.188
       341   05 Jun 2027 08:01:57.442   05 Jun 2027 08:08:08.019           370.577               CapeTown         11580.531
       342   05 Jun 2027 09:02:33.809   05 Jun 2027 09:02:54.159            20.350               Magadan1           635.937
       343   05 Jun 2027 09:03:32.588   05 Jun 2027 09:03:44.303            11.715               Magadan1           366.094
       344   05 Jun 2027 09:04:19.823   05 Jun 2027 09:04:55.077            35.254               Magadan2          1101.687
       345   05 Jun 2027 09:05:42.852   05 Jun 2027 09:07:45.039           122.187                Anadyr2          3818.344
       346   05 Jun 2027 10:36:16.786   05 Jun 2027 10:38:06.552           109.766               Magadan1          3430.187
       347   05 Jun 2027 10:38:22.189   05 Jun 2027 10:45:34.192           432.003                Anadyr1         13500.094
       348   05 Jun 2027 12:13:06.780   05 Jun 2027 12:20:39.434           452.654               Magadan1         14145.438
       349   05 Jun 2027 14:35:52.544   05 Jun 2027 14:43:26.451           453.907            RioGallegos         14184.594
       350   05 Jun 2027 15:11:00.646   05 Jun 2027 15:15:09.730           249.084                Sumatra          7783.875
       351   05 Jun 2027 15:26:55.332   05 Jun 2027 15:30:17.970           202.638                Irkutsk          6332.438
       352   05 Jun 2027 17:08:31.597   05 Jun 2027 17:08:33.382             1.785                Norilsk            55.781
       353   05 Jun 2027 18:36:53.150   05 Jun 2027 18:37:30.493            37.343                 Moscow          1166.969
       354   05 Jun 2027 18:38:46.887   05 Jun 2027 18:41:11.124           144.237                 Moscow          4507.406
       355   05 Jun 2027 18:44:30.867   05 Jun 2027 18:44:53.471            22.604              Murmansk2           706.375
       356   05 Jun 2027 18:48:59.195   05 Jun 2027 18:49:44.820            45.625              Murmansk1          1425.781
       357   05 Jun 2027 19:49:16.579   05 Jun 2027 19:51:36.912           140.333               CapeTown          4385.406
       358   05 Jun 2027 19:55:48.341   05 Jun 2027 19:56:44.329            55.988               CapeTown          1749.625
       359   05 Jun 2027 20:19:12.475   05 Jun 2027 20:20:28.785            76.310              Murmansk2          2384.688
       360   05 Jun 2027 20:20:42.330   05 Jun 2027 20:24:48.652           246.322              Murmansk1          7697.562
       361   05 Jun 2027 20:25:32.486   05 Jun 2027 20:27:58.265           145.779              Murmansk2          4555.594
       362   05 Jun 2027 21:28:07.735   05 Jun 2027 21:32:38.368           270.633               CapeTown          8457.281
       363   05 Jun 2027 22:10:26.432   05 Jun 2027 22:10:37.606            11.174               Magadan1           349.188
       364   05 Jun 2027 22:10:44.754   05 Jun 2027 22:10:51.190             6.436               Magadan2           201.125
       365   05 Jun 2027 22:11:19.997   05 Jun 2027 22:11:27.809             7.812               Magadan2           244.125
       366   05 Jun 2027 22:16:56.142   05 Jun 2027 22:17:39.924            43.782               Magadan2          1368.188
       367   05 Jun 2027 23:41:41.131   05 Jun 2027 23:45:31.601           230.470                Anadyr2          7202.188
       368   05 Jun 2027 23:45:34.294   05 Jun 2027 23:46:47.800            73.506                Norilsk          2297.063
       369   05 Jun 2027 23:46:56.176   05 Jun 2027 23:47:02.270             6.094               Magadan1           190.437
       370   05 Jun 2027 23:47:13.704   05 Jun 2027 23:47:24.358            10.654               Magadan2           332.938
       371   05 Jun 2027 23:47:32.490   05 Jun 2027 23:47:42.254             9.764               Magadan2           305.125
       372   05 Jun 2027 23:47:50.451   05 Jun 2027 23:48:38.437            47.986               Magadan2          1499.563
       373   05 Jun 2027 23:49:34.169   05 Jun 2027 23:49:41.766             7.597                Irkutsk           237.406
       374   05 Jun 2027 23:49:55.576   05 Jun 2027 23:50:45.766            50.190               Magadan2          1568.438
       375   05 Jun 2027 23:50:48.434   05 Jun 2027 23:51:44.181            55.747                Irkutsk          1742.094
       376   05 Jun 2027 23:54:47.266   05 Jun 2027 23:54:56.415             9.149                Irkutsk           285.906
       377   06 Jun 2027 00:06:32.276   06 Jun 2027 00:06:58.312            26.036                Sumatra           813.625
       378   06 Jun 2027 00:08:46.517   06 Jun 2027 00:09:42.964            56.447                Sumatra          1763.969
       379   06 Jun 2027 00:35:48.449   06 Jun 2027 00:37:46.512           118.063            RioGallegos          3689.469
       380   06 Jun 2027 00:38:03.159   06 Jun 2027 00:39:00.923            57.764            RioGallegos          1805.125
       381   06 Jun 2027 01:17:09.219   06 Jun 2027 01:17:22.838            13.619                Anadyr1           425.594
       382   06 Jun 2027 01:17:25.829   06 Jun 2027 01:18:00.510            34.681                Anadyr2          1083.781
       383   06 Jun 2027 01:18:37.629   06 Jun 2027 01:19:05.844            28.215                Anadyr1           881.719
       384   06 Jun 2027 01:19:30.269   06 Jun 2027 01:21:33.032           122.763                Norilsk          3836.344
       385   06 Jun 2027 01:21:33.993   06 Jun 2027 01:21:53.794            19.801               Magadan2           618.781
       386   06 Jun 2027 01:22:46.360   06 Jun 2027 01:23:20.322            33.962               Magadan2          1061.312
       387   06 Jun 2027 01:23:31.875   06 Jun 2027 01:25:26.603           114.728                Irkutsk          3585.250
       388   06 Jun 2027 01:26:35.289   06 Jun 2027 01:26:54.346            19.057                Novosib           595.531
       389   06 Jun 2027 01:30:35.402   06 Jun 2027 01:31:11.738            36.336                Irkutsk          1135.500
       390   06 Jun 2027 01:37:14.052   06 Jun 2027 01:39:56.781           162.729                Sumatra          5085.281
       391   06 Jun 2027 01:46:13.019   06 Jun 2027 01:46:49.940            36.921                Sumatra          1153.781
       392   06 Jun 2027 02:18:10.810   06 Jun 2027 02:18:12.180             1.370            RioGallegos            42.812
       393   06 Jun 2027 02:21:04.671   06 Jun 2027 02:22:43.704            99.033            RioGallegos          3094.781
       394   06 Jun 2027 02:55:30.633   06 Jun 2027 02:56:12.399            41.766                Norilsk          1305.188
       395   06 Jun 2027 02:56:28.612   06 Jun 2027 02:56:34.128             5.516                Norilsk           172.375
       396   06 Jun 2027 02:57:05.507   06 Jun 2027 02:57:32.398            26.891                Norilsk           840.344
       397   06 Jun 2027 02:59:10.265   06 Jun 2027 02:59:21.264            10.999              Murmansk2           343.719
       398   06 Jun 2027 02:59:22.655   06 Jun 2027 03:00:03.912            41.257                Novosib          1289.281
       399   06 Jun 2027 03:00:09.158   06 Jun 2027 03:00:51.422            42.264              Murmansk2          1320.750
       400   06 Jun 2027 03:01:09.896   06 Jun 2027 03:01:23.191            13.295               Magadan2           415.469
       401   06 Jun 2027 03:01:31.669   06 Jun 2027 03:01:52.346            20.677              Murmansk2           646.156
       402   06 Jun 2027 03:01:53.191   06 Jun 2027 03:02:40.070            46.879               Magadan2          1464.969
       403   06 Jun 2027 03:03:19.875   06 Jun 2027 03:03:35.927            16.052                Norilsk           501.625
       404   06 Jun 2027 03:04:10.222   06 Jun 2027 03:04:13.181             2.959                Norilsk            92.469
       405   06 Jun 2027 03:04:21.220   06 Jun 2027 03:05:12.731            51.511                Novosib          1609.719
       406   06 Jun 2027 03:05:24.775   06 Jun 2027 03:06:32.739            67.964                Novosib          2123.875
       407   06 Jun 2027 03:06:50.321   06 Jun 2027 03:09:07.942           137.621                  Delhi          4300.656
       408   06 Jun 2027 03:10:43.064   06 Jun 2027 03:10:49.880             6.816                Irkutsk           213.000
       409   06 Jun 2027 03:13:28.653   06 Jun 2027 03:13:47.506            18.853                  Delhi           589.156
       410   06 Jun 2027 03:48:10.767   06 Jun 2027 03:52:47.067           276.300            RioGallegos          8634.375
       411   06 Jun 2027 04:36:48.173   06 Jun 2027 04:37:13.717            25.544                Irkutsk           798.250
       412   06 Jun 2027 04:39:08.271   06 Jun 2027 04:39:10.688             2.417              Murmansk2            75.531
       413   06 Jun 2027 04:39:26.344   06 Jun 2027 04:39:58.023            31.679              Murmansk2           989.969
       414   06 Jun 2027 04:39:58.023   06 Jun 2027 04:40:40.390            42.367              Murmansk1          1323.969
       415   06 Jun 2027 04:40:40.986   06 Jun 2027 04:41:31.662            50.676                Norilsk          1583.625
       416   06 Jun 2027 04:41:50.138   06 Jun 2027 04:42:06.710            16.572                 Moscow           517.875
       417   06 Jun 2027 04:42:17.530   06 Jun 2027 04:43:43.154            85.624              Murmansk1          2675.750
       418   06 Jun 2027 04:43:48.437   06 Jun 2027 04:44:01.927            13.490                Norilsk           421.562
       419   06 Jun 2027 04:44:10.767   06 Jun 2027 04:44:59.073            48.306                Novosib          1509.562
       420   06 Jun 2027 04:45:09.622   06 Jun 2027 04:46:47.215            97.593                Novosib          3049.781
       421   06 Jun 2027 04:48:35.316   06 Jun 2027 04:49:04.872            29.556                  Delhi           923.625
       422   06 Jun 2027 04:53:05.795   06 Jun 2027 04:53:26.030            20.235                  Delhi           632.344
       423   06 Jun 2027 06:13:38.419   06 Jun 2027 06:13:50.781            12.362                Novosib           386.312
       424   06 Jun 2027 06:16:09.084   06 Jun 2027 06:16:22.438            13.354                Norilsk           417.312
       425   06 Jun 2027 06:16:32.459   06 Jun 2027 06:17:17.564            45.105                Novosib          1409.531
       426   06 Jun 2027 06:17:20.291   06 Jun 2027 06:18:31.991            71.700                 Moscow          2240.625
       427   06 Jun 2027 06:18:42.862   06 Jun 2027 06:19:14.257            31.395              Murmansk1           981.094
       428   06 Jun 2027 06:19:14.257   06 Jun 2027 06:19:39.289            25.032              Murmansk2           782.250
       429   06 Jun 2027 06:19:39.289   06 Jun 2027 06:20:07.143            27.854              Murmansk1           870.437
       430   06 Jun 2027 06:20:12.953   06 Jun 2027 06:20:38.282            25.329              Murmansk2           791.531
       431   06 Jun 2027 06:20:38.282   06 Jun 2027 06:22:06.588            88.306              Murmansk1          2759.562
       432   06 Jun 2027 06:22:27.464   06 Jun 2027 06:22:40.673            13.209                 Moscow           412.781
       433   06 Jun 2027 06:23:42.902   06 Jun 2027 06:23:47.383             4.481                 Moscow           140.031
       434   06 Jun 2027 06:36:51.510   06 Jun 2027 06:39:52.931           181.421               CapeTown          5669.406
       435   06 Jun 2027 07:39:44.087   06 Jun 2027 07:40:07.752            23.665                Anadyr2           739.531
       436   06 Jun 2027 07:40:10.209   06 Jun 2027 07:40:35.265            25.056                Anadyr1           783.000
       437   06 Jun 2027 07:40:44.410   06 Jun 2027 07:41:37.795            53.385                Anadyr2          1668.281
       438   06 Jun 2027 07:41:56.573   06 Jun 2027 07:42:41.345            44.772               Magadan2          1399.125
       439   06 Jun 2027 07:43:03.815   06 Jun 2027 07:43:34.679            30.864                Anadyr2           964.500
       440   06 Jun 2027 07:49:55.657   06 Jun 2027 07:50:02.405             6.748                 Moscow           210.875
       441   06 Jun 2027 07:51:53.487   06 Jun 2027 07:52:03.514            10.027                Norilsk           313.344
       442   06 Jun 2027 07:52:21.351   06 Jun 2027 07:52:43.057            21.706              Murmansk1           678.313
       443   06 Jun 2027 07:52:43.057   06 Jun 2027 07:53:19.812            36.755              Murmansk2          1148.594
       444   06 Jun 2027 07:57:20.797   06 Jun 2027 07:57:21.999             1.202                 Moscow            37.563
       445   06 Jun 2027 07:59:37.327   06 Jun 2027 07:59:41.460             4.133                 Moscow           129.156
       446   06 Jun 2027 07:59:51.092   06 Jun 2027 08:00:22.211            31.119                 Moscow           972.469
       447   06 Jun 2027 08:14:38.923   06 Jun 2027 08:22:14.878           455.955               CapeTown         14248.594
       448   06 Jun 2027 09:14:13.269   06 Jun 2027 09:15:15.385            62.116                Anadyr2          1941.125
       449   06 Jun 2027 09:15:51.740   06 Jun 2027 09:16:21.744            30.004               Magadan2           937.625
       450   06 Jun 2027 09:16:31.682   06 Jun 2027 09:17:29.257            57.575                Anadyr2          1799.219
       451   06 Jun 2027 09:17:29.257   06 Jun 2027 09:19:49.539           140.282                Anadyr1          4383.813
       452   06 Jun 2027 10:49:26.827   06 Jun 2027 10:52:01.290           154.463               Magadan2          4826.969
       453   06 Jun 2027 10:52:18.365   06 Jun 2027 10:55:33.326           194.961               Magadan2          6092.531
       454   06 Jun 2027 10:55:33.326   06 Jun 2027 10:55:37.878             4.552               Magadan1           142.250
       455   06 Jun 2027 10:55:54.833   06 Jun 2027 10:56:48.110            53.277                Norilsk          1664.906
       456   06 Jun 2027 10:56:53.378   06 Jun 2027 10:57:09.310            15.932              Murmansk1           497.875
       457   06 Jun 2027 10:57:14.220   06 Jun 2027 10:58:05.199            50.979                Norilsk          1593.094
       458   06 Jun 2027 11:33:02.495   06 Jun 2027 11:33:17.229            14.734            RioGallegos           460.438
       459   06 Jun 2027 11:33:52.971   06 Jun 2027 11:34:28.641            35.670            RioGallegos          1114.687
       460   06 Jun 2027 12:11:21.920   06 Jun 2027 12:12:22.831            60.911                Sumatra          1903.469
       461   06 Jun 2027 12:21:02.264   06 Jun 2027 12:23:16.228           133.964                Irkutsk          4186.375
       462   06 Jun 2027 12:25:54.893   06 Jun 2027 12:27:47.925           113.032                Norilsk          3532.250
       463   06 Jun 2027 12:27:48.735   06 Jun 2027 12:32:15.822           267.087               Magadan2          8346.469
       464   06 Jun 2027 13:45:25.685   06 Jun 2027 13:46:23.979            58.294                Sumatra          1821.688
       465   06 Jun 2027 13:57:34.591   06 Jun 2027 13:57:58.629            24.038                Irkutsk           751.187
       466   06 Jun 2027 13:59:45.408   06 Jun 2027 14:00:48.577            63.169                Novosib          1974.031
       467   06 Jun 2027 14:01:51.081   06 Jun 2027 14:02:31.234            40.153                Norilsk          1254.781
       468   06 Jun 2027 14:06:33.559   06 Jun 2027 14:07:27.072            53.513                Irkutsk          1672.281
       469   06 Jun 2027 14:49:01.348   06 Jun 2027 14:54:48.174           346.826            RioGallegos         10838.312
       470   06 Jun 2027 15:37:15.399   06 Jun 2027 15:39:57.035           161.636                Novosib          5051.125
       471   06 Jun 2027 17:11:50.645   06 Jun 2027 17:13:15.290            84.645                 Moscow          2645.156
       472   06 Jun 2027 17:14:09.446   06 Jun 2027 17:14:48.268            38.822                 Moscow          1213.188
       473   06 Jun 2027 17:19:27.993   06 Jun 2027 17:23:28.098           240.105                Norilsk          7503.281
       474   06 Jun 2027 17:23:58.008   06 Jun 2027 17:24:48.912            50.904                Norilsk          1590.750
       475   06 Jun 2027 18:49:19.876   06 Jun 2027 18:50:29.039            69.163                 Moscow          2161.344
       476   06 Jun 2027 18:52:25.693   06 Jun 2027 18:53:23.343            57.650              Murmansk1          1801.563
       477   06 Jun 2027 18:54:08.256   06 Jun 2027 18:54:44.668            36.412                 Moscow          1137.875
       478   06 Jun 2027 18:56:02.981   06 Jun 2027 18:56:30.132            27.151              Murmansk2           848.469
       479   06 Jun 2027 18:57:06.642   06 Jun 2027 18:57:08.107             1.465              Murmansk2            45.781
       480   06 Jun 2027 19:01:32.949   06 Jun 2027 19:02:15.196            42.247              Murmansk1          1320.219
       481   06 Jun 2027 19:12:56.336   06 Jun 2027 19:13:11.141            14.805                Anadyr2           462.656
       482   06 Jun 2027 20:01:22.630   06 Jun 2027 20:02:39.917            77.287               CapeTown          2415.219
