uniorb/output/strategy_2/Drop/Drop_KinoSat_111208.txt

KinoSat_111208
-------------------------
    Access    *     Start Time (UTCG)     *     Stop Time (UTCG)  *   Duration (s)        *       Station  *  Data (Mbytes)
         1   01 Jun 2027 03:03:51.478   01 Jun 2027 03:04:29.006            37.528                 Moscow          1172.750
         2   01 Jun 2027 03:04:52.878   01 Jun 2027 03:05:53.130            60.252                 Moscow          1882.875
         3   01 Jun 2027 03:06:21.741   01 Jun 2027 03:09:22.474           180.733              Murmansk1          5647.906
         4   01 Jun 2027 04:20:37.906   01 Jun 2027 04:22:16.414            98.508                Anadyr1          3078.375
         5   01 Jun 2027 04:22:37.746   01 Jun 2027 04:23:08.229            30.483               Magadan1           952.594
         6   01 Jun 2027 04:27:21.644   01 Jun 2027 04:28:29.907            68.263               Magadan2          2133.219
         7   01 Jun 2027 04:28:35.993   01 Jun 2027 04:28:54.657            18.664                Anadyr1           583.250
         8   01 Jun 2027 04:29:16.393   01 Jun 2027 04:29:35.410            19.017               Magadan1           594.281
         9   01 Jun 2027 06:03:07.016   01 Jun 2027 06:05:22.666           135.650               Magadan1          4239.063
        10   01 Jun 2027 06:06:04.117   01 Jun 2027 06:07:40.832            96.715                Anadyr2          3022.344
        11   01 Jun 2027 06:07:42.508   01 Jun 2027 06:08:06.545            24.037                Norilsk           751.156
        12   01 Jun 2027 07:38:29.263   01 Jun 2027 07:38:57.762            28.499               Magadan1           890.594
        13   01 Jun 2027 07:39:00.466   01 Jun 2027 07:39:54.459            53.993                Anadyr2          1687.281
        14   01 Jun 2027 07:40:12.831   01 Jun 2027 07:40:15.727             2.896                Irkutsk            90.500
        15   01 Jun 2027 07:40:26.866   01 Jun 2027 07:40:55.099            28.233                Irkutsk           882.281
        16   01 Jun 2027 07:41:03.075   01 Jun 2027 07:44:15.107           192.032                Anadyr1          6001.000
        17   01 Jun 2027 07:45:49.858   01 Jun 2027 07:46:39.836            49.978              Murmansk2          1561.813
        18   01 Jun 2027 07:47:14.586   01 Jun 2027 07:47:38.397            23.811                Norilsk           744.094
        19   01 Jun 2027 07:47:41.175   01 Jun 2027 07:48:27.445            46.270              Murmansk2          1445.938
        20   01 Jun 2027 08:20:01.971   01 Jun 2027 08:22:19.885           137.914            RioGallegos          4309.812
        21   01 Jun 2027 09:15:27.548   01 Jun 2027 09:18:37.631           190.083               Magadan1          5940.094
        22   01 Jun 2027 09:18:46.354   01 Jun 2027 09:18:59.941            13.587              Murmansk2           424.594
        23   01 Jun 2027 09:19:20.172   01 Jun 2027 09:21:27.157           126.985              Murmansk2          3968.281
        24   01 Jun 2027 09:21:27.267   01 Jun 2027 09:21:34.921             7.654                Norilsk           239.188
        25   01 Jun 2027 09:22:01.108   01 Jun 2027 09:22:14.249            13.141              Murmansk2           410.656
        26   01 Jun 2027 09:22:31.831   01 Jun 2027 09:22:33.625             1.794                Norilsk            56.062
        27   01 Jun 2027 09:22:57.838   01 Jun 2027 09:23:50.296            52.458                Norilsk          1639.312
        28   01 Jun 2027 09:55:55.020   01 Jun 2027 09:57:32.246            97.226            RioGallegos          3038.313
        29   01 Jun 2027 10:30:26.219   01 Jun 2027 10:32:55.051           148.832                Sumatra          4651.000
        30   01 Jun 2027 10:52:28.338   01 Jun 2027 10:54:20.677           112.339              Murmansk1          3510.594
        31   01 Jun 2027 10:54:28.323   01 Jun 2027 10:57:36.188           187.865              Murmansk1          5870.781
        32   01 Jun 2027 12:14:54.363   01 Jun 2027 12:15:27.237            32.874                  Delhi          1027.313
        33   01 Jun 2027 12:16:44.048   01 Jun 2027 12:17:35.759            51.711                  Delhi          1615.969
        34   01 Jun 2027 12:22:55.283   01 Jun 2027 12:24:18.904            83.621                Novosib          2613.156
        35   01 Jun 2027 12:25:03.696   01 Jun 2027 12:26:41.244            97.548                Novosib          3048.375
        36   01 Jun 2027 12:26:54.309   01 Jun 2027 12:28:39.677           105.368              Murmansk2          3292.750
        37   01 Jun 2027 13:59:00.147   01 Jun 2027 14:02:33.967           213.820                 Moscow          6681.875
        38   01 Jun 2027 14:02:57.571   01 Jun 2027 14:05:43.370           165.799              Murmansk1          5181.219
        39   01 Jun 2027 14:07:11.367   01 Jun 2027 14:08:18.225            66.858                Norilsk          2089.312
        40   01 Jun 2027 14:08:54.884   01 Jun 2027 14:09:26.926            32.042                Norilsk          1001.313
        41   01 Jun 2027 14:12:01.926   01 Jun 2027 14:12:04.202             2.276                Norilsk            71.125
        42   01 Jun 2027 15:13:15.344   01 Jun 2027 15:14:42.865            87.521               CapeTown          2735.031
        43   01 Jun 2027 15:36:49.949   01 Jun 2027 15:37:26.591            36.642                 Moscow          1145.062
        44   01 Jun 2027 15:39:47.844   01 Jun 2027 15:41:30.416           102.572              Murmansk1          3205.375
        45   01 Jun 2027 15:41:30.416   01 Jun 2027 15:42:06.479            36.063              Murmansk2          1126.969
        46   01 Jun 2027 15:43:43.880   01 Jun 2027 15:44:30.437            46.557              Murmansk1          1454.906
        47   01 Jun 2027 15:53:25.597   01 Jun 2027 15:53:56.359            30.762                Anadyr1           961.312
        48   01 Jun 2027 15:54:12.454   01 Jun 2027 15:55:17.402            64.948                Anadyr2          2029.625
        49   01 Jun 2027 16:48:36.191   01 Jun 2027 16:50:31.324           115.133               CapeTown          3597.906
        50   01 Jun 2027 17:19:29.162   01 Jun 2027 17:22:19.719           170.557              Murmansk2          5329.906
        51   01 Jun 2027 17:23:22.297   01 Jun 2027 17:23:52.378            30.081              Murmansk2           940.031
        52   01 Jun 2027 17:23:52.378   01 Jun 2027 17:25:18.001            85.623              Murmansk1          2675.719
        53   01 Jun 2027 17:32:12.896   01 Jun 2027 17:34:44.410           151.514               Magadan2          4734.812
        54   01 Jun 2027 19:04:59.036   01 Jun 2027 19:07:01.352           122.316                Anadyr2          3822.375
        55   01 Jun 2027 19:07:18.265   01 Jun 2027 19:09:34.120           135.855               Magadan2          4245.469
        56   01 Jun 2027 19:09:39.730   01 Jun 2027 19:10:59.877            80.147               Magadan1          2504.594
        57   01 Jun 2027 20:01:21.280   01 Jun 2027 20:03:46.560           145.280            RioGallegos          4540.000
        58   01 Jun 2027 20:40:48.356   01 Jun 2027 20:41:17.805            29.449                Anadyr1           920.281
        59   01 Jun 2027 20:42:08.851   01 Jun 2027 20:42:50.326            41.475                Anadyr1          1296.094
        60   01 Jun 2027 20:42:58.730   01 Jun 2027 20:44:56.538           117.808                Norilsk          3681.500
        61   01 Jun 2027 20:45:58.210   01 Jun 2027 20:46:02.055             3.845               Magadan2           120.156
        62   01 Jun 2027 20:46:07.380   01 Jun 2027 20:46:13.635             6.255               Magadan2           195.469
        63   01 Jun 2027 20:46:54.370   01 Jun 2027 20:47:16.191            21.821               Magadan2           681.906
        64   01 Jun 2027 20:47:57.111   01 Jun 2027 20:48:54.557            57.446                Irkutsk          1795.187
        65   01 Jun 2027 20:50:14.177   01 Jun 2027 20:51:07.144            52.967                Irkutsk          1655.219
        66   01 Jun 2027 21:03:00.513   01 Jun 2027 21:05:11.238           130.725                Sumatra          4085.156
        67   01 Jun 2027 22:16:05.730   01 Jun 2027 22:16:32.104            26.374                Anadyr1           824.188
        68   01 Jun 2027 22:17:05.169   01 Jun 2027 22:17:11.505             6.336                Anadyr1           198.000
        69   01 Jun 2027 22:17:43.353   01 Jun 2027 22:18:03.534            20.181                Anadyr2           630.656
        70   01 Jun 2027 22:18:28.370   01 Jun 2027 22:18:34.219             5.849                Anadyr2           182.781
        71   01 Jun 2027 22:18:43.254   01 Jun 2027 22:20:24.654           101.400                Norilsk          3168.750
        72   01 Jun 2027 22:20:48.476   01 Jun 2027 22:21:09.857            21.381               Magadan2           668.156
        73   01 Jun 2027 22:22:38.537   01 Jun 2027 22:23:57.329            78.792                Irkutsk          2462.250
        74   01 Jun 2027 22:26:35.390   01 Jun 2027 22:27:11.058            35.668                Novosib          1114.625
        75   01 Jun 2027 22:33:35.398   01 Jun 2027 22:35:08.961            93.563                  Delhi          2923.844
        76   01 Jun 2027 22:36:56.961   01 Jun 2027 22:38:06.058            69.097                  Delhi          2159.281
        77   01 Jun 2027 23:54:43.403   01 Jun 2027 23:55:00.959            17.556                Norilsk           548.625
        78   01 Jun 2027 23:55:17.929   01 Jun 2027 23:56:35.812            77.883               Magadan1          2433.844
        79   01 Jun 2027 23:57:43.118   01 Jun 2027 23:59:09.092            85.974              Murmansk2          2686.687
        80   01 Jun 2027 23:59:25.270   02 Jun 2027 00:01:07.125           101.855              Murmansk1          3182.969
        81   02 Jun 2027 00:02:04.421   02 Jun 2027 00:02:50.880            46.459              Murmansk2          1451.844
        82   02 Jun 2027 00:05:52.030   02 Jun 2027 00:06:01.074             9.044                  Delhi           282.625
        83   02 Jun 2027 00:09:02.128   02 Jun 2027 00:09:08.741             6.613                  Delhi           206.656
        84   02 Jun 2027 00:09:21.413   02 Jun 2027 00:09:45.121            23.708                  Delhi           740.875
        85   02 Jun 2027 00:10:00.937   02 Jun 2027 00:10:40.403            39.466                  Delhi          1233.312
        86   02 Jun 2027 01:23:32.577   02 Jun 2027 01:24:03.916            31.339                Anadyr1           979.344
        87   02 Jun 2027 01:24:23.473   02 Jun 2027 01:24:57.422            33.949                Anadyr1          1060.906
        88   02 Jun 2027 01:25:49.196   02 Jun 2027 01:26:30.584            41.388                Anadyr2          1293.375
        89   02 Jun 2027 01:29:36.729   02 Jun 2027 01:31:47.616           130.887               Magadan2          4090.219
        90   02 Jun 2027 01:31:47.616   02 Jun 2027 01:32:45.542            57.926               Magadan1          1810.188
        91   02 Jun 2027 01:32:54.111   02 Jun 2027 01:34:37.485           103.374              Murmansk2          3230.437
        92   02 Jun 2027 01:37:38.531   02 Jun 2027 01:38:16.618            38.087                 Moscow          1190.219
        93   02 Jun 2027 01:44:58.439   02 Jun 2027 01:45:56.289            57.850                  Delhi          1807.812
        94   02 Jun 2027 02:57:21.313   02 Jun 2027 02:58:52.237            90.924                Anadyr1          2841.375
        95   02 Jun 2027 02:58:54.055   02 Jun 2027 03:00:04.636            70.581                Anadyr2          2205.656
        96   02 Jun 2027 03:17:21.075   02 Jun 2027 03:17:47.834            26.759                Norilsk           836.219
        97   02 Jun 2027 03:18:25.182   02 Jun 2027 03:19:57.485            92.303              Murmansk1          2884.469
        98   02 Jun 2027 03:19:57.485   02 Jun 2027 03:20:02.190             4.705              Murmansk2           147.031
        99   02 Jun 2027 03:20:26.187   02 Jun 2027 03:20:35.040             8.853              Murmansk2           276.656
       100   02 Jun 2027 04:33:46.211   02 Jun 2027 04:34:09.894            23.683               Magadan2           740.094
       101   02 Jun 2027 04:39:27.809   02 Jun 2027 04:40:07.261            39.452               Magadan2          1232.875
       102   02 Jun 2027 04:40:07.761   02 Jun 2027 04:43:27.490           199.729                Anadyr1          6241.531
       103   02 Jun 2027 06:17:14.245   02 Jun 2027 06:17:40.200            25.955                Anadyr1           811.094
       104   02 Jun 2027 06:17:53.334   02 Jun 2027 06:19:26.332            92.998               Magadan1          2906.188
       105   02 Jun 2027 06:19:49.332   02 Jun 2027 06:21:22.060            92.728                Anadyr2          2897.750
       106   02 Jun 2027 06:21:57.069   02 Jun 2027 06:22:08.695            11.626              Murmansk1           363.312
       107   02 Jun 2027 07:50:23.151   02 Jun 2027 07:50:45.107            21.956               Magadan1           686.125
       108   02 Jun 2027 07:50:55.622   02 Jun 2027 07:51:42.278            46.656               Magadan1          1458.000
       109   02 Jun 2027 07:51:53.864   02 Jun 2027 07:54:01.440           127.576                Anadyr2          3986.750
       110   02 Jun 2027 07:54:01.440   02 Jun 2027 07:55:30.334            88.894                Anadyr1          2777.937
       111   02 Jun 2027 07:55:36.728   02 Jun 2027 07:55:48.613            11.885                Anadyr1           371.406
       112   02 Jun 2027 07:55:50.499   02 Jun 2027 07:57:22.242            91.743                Novosib          2866.969
       113   02 Jun 2027 09:08:34.070   02 Jun 2027 09:08:40.357             6.287                Sumatra           196.469
       114   02 Jun 2027 09:26:56.698   02 Jun 2027 09:27:19.604            22.906                Norilsk           715.813
       115   02 Jun 2027 09:27:40.759   02 Jun 2027 09:28:05.747            24.988                Norilsk           780.875
       116   02 Jun 2027 09:28:08.834   02 Jun 2027 09:29:32.556            83.722               Magadan2          2616.312
       117   02 Jun 2027 09:29:37.392   02 Jun 2027 09:30:36.795            59.403                Irkutsk          1856.344
       118   02 Jun 2027 09:30:49.326   02 Jun 2027 09:30:58.773             9.447              Murmansk1           295.219
       119   02 Jun 2027 09:31:04.366   02 Jun 2027 09:32:00.281            55.915                Novosib          1747.344
       120   02 Jun 2027 09:32:07.418   02 Jun 2027 09:32:32.994            25.576                Irkutsk           799.250
       121   02 Jun 2027 09:32:35.547   02 Jun 2027 09:33:17.730            42.183              Murmansk2          1318.219
       122   02 Jun 2027 09:33:28.565   02 Jun 2027 09:34:05.979            37.414                Norilsk          1169.188
       123   02 Jun 2027 10:08:12.393   02 Jun 2027 10:08:28.498            16.105            RioGallegos           503.281
       124   02 Jun 2027 10:09:06.342   02 Jun 2027 10:09:34.896            28.554            RioGallegos           892.313
       125   02 Jun 2027 10:12:51.338   02 Jun 2027 10:13:02.911            11.573            RioGallegos           361.656
       126   02 Jun 2027 10:42:35.319   02 Jun 2027 10:42:52.081            16.762                Sumatra           523.812
       127   02 Jun 2027 10:44:41.163   02 Jun 2027 10:45:23.502            42.339                Sumatra          1323.094
       128   02 Jun 2027 10:51:34.860   02 Jun 2027 10:52:03.957            29.097                  Delhi           909.281
       129   02 Jun 2027 11:03:22.085   02 Jun 2027 11:03:56.305            34.220                Norilsk          1069.375
       130   02 Jun 2027 11:04:15.159   02 Jun 2027 11:04:37.031            21.872                Norilsk           683.500
       131   02 Jun 2027 11:04:40.384   02 Jun 2027 11:05:40.679            60.295                 Moscow          1884.219
       132   02 Jun 2027 11:05:54.537   02 Jun 2027 11:06:17.633            23.096              Murmansk2           721.750
       133   02 Jun 2027 11:06:22.521   02 Jun 2027 11:06:39.644            17.123                 Moscow           535.094
       134   02 Jun 2027 11:06:46.616   02 Jun 2027 11:07:00.301            13.685              Murmansk2           427.656
       135   02 Jun 2027 11:07:07.494   02 Jun 2027 11:07:35.152            27.658              Murmansk1           864.312
       136   02 Jun 2027 11:07:35.450   02 Jun 2027 11:08:36.494            61.044                 Moscow          1907.625
       137   02 Jun 2027 12:27:13.947   02 Jun 2027 12:28:50.932            96.985                  Delhi          3030.781
       138   02 Jun 2027 12:31:36.264   02 Jun 2027 12:31:52.976            16.712                  Delhi           522.250
       139   02 Jun 2027 12:32:22.175   02 Jun 2027 12:32:26.799             4.624                  Delhi           144.500
       140   02 Jun 2027 12:35:26.151   02 Jun 2027 12:35:59.216            33.065                Novosib          1033.281
       141   02 Jun 2027 12:36:07.409   02 Jun 2027 12:37:05.734            58.325                 Moscow          1822.656
       142   02 Jun 2027 12:38:39.664   02 Jun 2027 12:39:51.888            72.224                Novosib          2257.000
       143   02 Jun 2027 12:40:02.445   02 Jun 2027 12:40:33.007            30.562                Norilsk           955.062
       144   02 Jun 2027 12:40:47.951   02 Jun 2027 12:41:26.029            38.078              Murmansk2          1189.938
       145   02 Jun 2027 14:11:03.910   02 Jun 2027 14:13:14.306           130.396                 Moscow          4074.875
       146   02 Jun 2027 14:14:19.829   02 Jun 2027 14:15:13.535            53.706                 Moscow          1678.313
       147   02 Jun 2027 14:16:00.843   02 Jun 2027 14:16:30.876            30.033              Murmansk1           938.531
       148   02 Jun 2027 14:16:35.968   02 Jun 2027 14:18:01.775            85.807              Murmansk2          2681.469
       149   02 Jun 2027 14:18:16.053   02 Jun 2027 14:18:35.598            19.545              Murmansk2           610.781
       150   02 Jun 2027 14:18:52.645   02 Jun 2027 14:19:51.779            59.134              Murmansk1          1847.937
       151   02 Jun 2027 14:20:02.637   02 Jun 2027 14:21:04.287            61.650                Norilsk          1926.563
       152   02 Jun 2027 14:21:44.449   02 Jun 2027 14:22:20.698            36.249                Norilsk          1132.781
       153   02 Jun 2027 15:25:00.181   02 Jun 2027 15:27:01.390           121.209               CapeTown          3787.781
       154   02 Jun 2027 15:28:27.338   02 Jun 2027 15:28:52.369            25.031               CapeTown           782.219
       155   02 Jun 2027 15:35:28.578   02 Jun 2027 15:36:31.522            62.944               CapeTown          1967.000
       156   02 Jun 2027 15:50:39.105   02 Jun 2027 15:51:09.260            30.155                 Moscow           942.344
       157   02 Jun 2027 15:52:08.591   02 Jun 2027 15:53:45.638            97.047              Murmansk1          3032.719
       158   02 Jun 2027 16:05:22.328   02 Jun 2027 16:07:52.330           150.002                Anadyr2          4687.562
       159   02 Jun 2027 16:11:00.503   02 Jun 2027 16:11:18.351            17.848                Anadyr2           557.750
       160   02 Jun 2027 17:00:46.771   02 Jun 2027 17:01:44.676            57.905               CapeTown          1809.531
       161   02 Jun 2027 17:32:13.883   02 Jun 2027 17:33:12.206            58.323              Murmansk2          1822.594
       162   02 Jun 2027 17:33:53.160   02 Jun 2027 17:35:19.934            86.774              Murmansk1          2711.688
       163   02 Jun 2027 17:35:54.498   02 Jun 2027 17:36:25.086            30.588              Murmansk1           955.875
       164   02 Jun 2027 17:41:04.668   02 Jun 2027 17:41:51.284            46.616                Anadyr2          1456.750
       165   02 Jun 2027 17:42:51.448   02 Jun 2027 17:43:10.118            18.670                Anadyr1           583.438
       166   02 Jun 2027 17:44:01.467   02 Jun 2027 17:47:28.604           207.137               Magadan1          6473.031
       167   02 Jun 2027 19:17:00.410   02 Jun 2027 19:19:02.985           122.575                Anadyr1          3830.469
       168   02 Jun 2027 19:19:18.116   02 Jun 2027 19:22:22.835           184.719               Magadan2          5772.469
       169   02 Jun 2027 19:23:43.686   02 Jun 2027 19:23:59.433            15.747               Magadan2           492.094
       170   02 Jun 2027 19:26:45.503   02 Jun 2027 19:27:09.456            23.953               Magadan2           748.531
       171   02 Jun 2027 20:12:37.514   02 Jun 2027 20:15:29.412           171.898            RioGallegos          5371.812
       172   02 Jun 2027 20:18:46.107   02 Jun 2027 20:19:47.665            61.558            RioGallegos          1923.688
       173   02 Jun 2027 20:53:14.772   02 Jun 2027 20:53:19.602             4.830                Anadyr1           150.938
       174   02 Jun 2027 20:54:56.224   02 Jun 2027 20:57:28.376           152.152                Norilsk          4754.750
       175   02 Jun 2027 20:57:58.560   02 Jun 2027 20:58:41.486            42.926                Norilsk          1341.437
       176   02 Jun 2027 20:59:38.775   02 Jun 2027 21:00:53.032            74.257                Irkutsk          2320.531
       177   02 Jun 2027 21:02:37.536   02 Jun 2027 21:02:58.225            20.689                Irkutsk           646.531
       178   02 Jun 2027 21:14:11.909   02 Jun 2027 21:16:50.013           158.104                Sumatra          4940.750
       179   02 Jun 2027 21:19:05.396   02 Jun 2027 21:20:16.597            71.201                Sumatra          2225.031
       180   02 Jun 2027 22:31:21.653   02 Jun 2027 22:32:29.777            68.124               Magadan1          2128.875
       181   02 Jun 2027 22:32:38.837   02 Jun 2027 22:32:50.436            11.599               Magadan1           362.469
       182   02 Jun 2027 22:32:59.744   02 Jun 2027 22:33:22.232            22.488               Magadan1           702.750
       183   02 Jun 2027 22:34:38.249   02 Jun 2027 22:35:47.086            68.837                Irkutsk          2151.156
       184   02 Jun 2027 22:35:49.338   02 Jun 2027 22:38:28.954           159.616                Novosib          4988.000
       185   02 Jun 2027 22:44:22.288   02 Jun 2027 22:45:09.162            46.874                  Delhi          1464.813
       186   03 Jun 2027 00:02:36.651   03 Jun 2027 00:03:06.547            29.896                Anadyr1           934.250
       187   03 Jun 2027 00:04:13.425   03 Jun 2027 00:04:40.666            27.241                Anadyr2           851.281
       188   03 Jun 2027 00:06:33.709   03 Jun 2027 00:06:54.775            21.066                Anadyr2           658.313
       189   03 Jun 2027 00:07:02.545   03 Jun 2027 00:07:24.950            22.405                Norilsk           700.156
       190   03 Jun 2027 00:07:30.484   03 Jun 2027 00:08:29.585            59.101               Magadan2          1846.906
       191   03 Jun 2027 00:08:29.585   03 Jun 2027 00:08:56.281            26.696               Magadan1           834.250
       192   03 Jun 2027 00:09:30.655   03 Jun 2027 00:13:02.629           211.974              Murmansk1          6624.188
       193   03 Jun 2027 00:17:52.103   03 Jun 2027 00:20:21.148           149.045                  Delhi          4657.656
       194   03 Jun 2027 01:05:20.227   03 Jun 2027 01:05:23.214             2.987            RioGallegos            93.344
       195   03 Jun 2027 01:35:14.738   03 Jun 2027 01:35:47.418            32.680                Anadyr2          1021.250
       196   03 Jun 2027 01:36:04.871   03 Jun 2027 01:36:58.754            53.883                Anadyr1          1683.844
       197   03 Jun 2027 01:37:57.957   03 Jun 2027 01:38:20.706            22.749                Anadyr1           710.906
       198   03 Jun 2027 01:41:09.467   03 Jun 2027 01:43:03.328           113.861               Magadan2          3558.156
       199   03 Jun 2027 01:44:42.385   03 Jun 2027 01:44:57.087            14.702               Magadan1           459.437
       200   03 Jun 2027 01:45:34.260   03 Jun 2027 01:46:27.098            52.838              Murmansk2          1651.187
       201   03 Jun 2027 01:46:41.331   03 Jun 2027 01:48:03.310            81.979                Novosib          2561.844
       202   03 Jun 2027 01:48:31.045   03 Jun 2027 01:48:48.425            17.380                Irkutsk           543.125
       203   03 Jun 2027 01:48:54.265   03 Jun 2027 01:49:00.964             6.699                 Moscow           209.344
       204   03 Jun 2027 01:51:52.713   03 Jun 2027 01:52:09.640            16.927                 Moscow           528.969
       205   03 Jun 2027 01:52:36.080   03 Jun 2027 01:53:20.022            43.942                 Moscow          1373.187
       206   03 Jun 2027 01:57:13.950   03 Jun 2027 01:57:23.098             9.148                  Delhi           285.875
       207   03 Jun 2027 02:00:22.613   03 Jun 2027 02:00:40.077            17.464                  Delhi           545.750
       208   03 Jun 2027 02:14:11.267   03 Jun 2027 02:15:21.997            70.730               CapeTown          2210.313
       209   03 Jun 2027 03:30:06.933   03 Jun 2027 03:33:40.046           213.113              Murmansk2          6659.781
       210   03 Jun 2027 04:51:30.409   03 Jun 2027 04:51:33.960             3.551               Magadan1           110.969
       211   03 Jun 2027 04:51:33.960   03 Jun 2027 04:52:16.087            42.127               Magadan2          1316.469
       212   03 Jun 2027 04:52:16.087   03 Jun 2027 04:53:44.002            87.915               Magadan1          2747.344
       213   03 Jun 2027 04:53:44.002   03 Jun 2027 04:54:52.496            68.494               Magadan2          2140.438
       214   03 Jun 2027 04:54:52.496   03 Jun 2027 04:55:22.270            29.774               Magadan1           930.437
       215   03 Jun 2027 04:55:22.501   03 Jun 2027 04:57:36.888           134.387                Anadyr1          4199.594
       216   03 Jun 2027 06:27:47.826   03 Jun 2027 06:28:06.542            18.716                Anadyr2           584.875
       217   03 Jun 2027 06:28:42.834   03 Jun 2027 06:28:43.949             1.115               Magadan1            34.844
       218   03 Jun 2027 06:28:54.608   03 Jun 2027 06:29:39.835            45.227                Anadyr1          1413.344
       219   03 Jun 2027 06:29:39.835   03 Jun 2027 06:30:07.760            27.925                Anadyr2           872.656
       220   03 Jun 2027 06:30:25.819   03 Jun 2027 06:30:42.861            17.042                Irkutsk           532.562
       221   03 Jun 2027 06:30:58.451   03 Jun 2027 06:31:50.467            52.016                Anadyr1          1625.500
       222   03 Jun 2027 06:32:32.816   03 Jun 2027 06:32:40.431             7.615                Anadyr2           237.969
       223   03 Jun 2027 06:32:53.265   03 Jun 2027 06:33:14.367            21.102               Magadan1           659.438
       224   03 Jun 2027 07:10:53.705   03 Jun 2027 07:11:45.933            52.228            RioGallegos          1632.125
       225   03 Jun 2027 08:01:33.855   03 Jun 2027 08:01:49.174            15.319               Magadan2           478.719
       226   03 Jun 2027 08:02:44.732   03 Jun 2027 08:03:04.939            20.207                Irkutsk           631.469
       227   03 Jun 2027 08:03:13.136   03 Jun 2027 08:03:15.936             2.800                Norilsk            87.500
       228   03 Jun 2027 08:03:25.502   03 Jun 2027 08:03:34.366             8.864                Norilsk           277.000
       229   03 Jun 2027 08:03:43.961   03 Jun 2027 08:04:18.937            34.976               Magadan2          1093.000
       230   03 Jun 2027 08:05:02.861   03 Jun 2027 08:06:02.288            59.427                Anadyr2          1857.094
       231   03 Jun 2027 08:06:03.813   03 Jun 2027 08:06:15.221            11.408               Magadan1           356.500
       232   03 Jun 2027 08:06:32.142   03 Jun 2027 08:06:48.395            16.253                Norilsk           507.906
       233   03 Jun 2027 08:07:06.497   03 Jun 2027 08:07:25.121            18.624                Novosib           582.000
       234   03 Jun 2027 08:07:26.619   03 Jun 2027 08:07:27.288             0.669               Magadan1            20.906
       235   03 Jun 2027 08:07:27.288   03 Jun 2027 08:07:48.213            20.925               Magadan2           653.906
       236   03 Jun 2027 08:07:51.653   03 Jun 2027 08:08:41.666            50.013                Irkutsk          1562.906
       237   03 Jun 2027 08:08:46.183   03 Jun 2027 08:09:31.529            45.346              Murmansk2          1417.063
       238   03 Jun 2027 08:12:33.620   03 Jun 2027 08:13:11.892            38.272              Murmansk1          1196.000
       239   03 Jun 2027 08:43:44.395   03 Jun 2027 08:44:41.122            56.727            RioGallegos          1772.719
       240   03 Jun 2027 09:19:53.133   03 Jun 2027 09:20:49.092            55.959                Sumatra          1748.719
       241   03 Jun 2027 09:38:28.591   03 Jun 2027 09:40:04.042            95.451                Novosib          2982.844
       242   03 Jun 2027 09:40:16.278   03 Jun 2027 09:40:18.305             2.027                Norilsk            63.344
       243   03 Jun 2027 09:40:29.436   03 Jun 2027 09:40:44.469            15.033                Irkutsk           469.781
       244   03 Jun 2027 09:40:45.730   03 Jun 2027 09:40:53.295             7.565                Novosib           236.406
       245   03 Jun 2027 09:41:08.693   03 Jun 2027 09:41:28.882            20.189                Irkutsk           630.906
       246   03 Jun 2027 09:41:39.755   03 Jun 2027 09:41:56.039            16.284                Irkutsk           508.875
       247   03 Jun 2027 09:41:59.715   03 Jun 2027 09:42:21.794            22.079              Murmansk2           689.969
       248   03 Jun 2027 09:42:23.175   03 Jun 2027 09:42:29.182             6.007                Norilsk           187.719
       249   03 Jun 2027 09:42:36.838   03 Jun 2027 09:42:58.016            21.178              Murmansk2           661.813
       250   03 Jun 2027 09:43:03.599   03 Jun 2027 09:43:57.434            53.835                Irkutsk          1682.344
       251   03 Jun 2027 09:44:04.326   03 Jun 2027 09:45:07.504            63.178              Murmansk2          1974.313
       252   03 Jun 2027 10:21:08.715   03 Jun 2027 10:21:20.611            11.896            RioGallegos           371.750
       253   03 Jun 2027 10:23:05.558   03 Jun 2027 10:23:48.440            42.882            RioGallegos          1340.062
       254   03 Jun 2027 10:54:50.819   03 Jun 2027 10:56:21.475            90.656                Sumatra          2833.000
       255   03 Jun 2027 11:15:50.377   03 Jun 2027 11:16:20.716            30.339                 Moscow           948.094
       256   03 Jun 2027 11:16:27.713   03 Jun 2027 11:17:02.940            35.227              Murmansk1          1100.844
       257   03 Jun 2027 11:17:05.307   03 Jun 2027 11:17:46.034            40.727                 Moscow          1272.719
       258   03 Jun 2027 11:17:47.911   03 Jun 2027 11:18:17.719            29.808                Norilsk           931.500
       259   03 Jun 2027 11:18:24.700   03 Jun 2027 11:18:32.189             7.489                Novosib           234.031
       260   03 Jun 2027 11:18:38.204   03 Jun 2027 11:19:14.496            36.292                Novosib          1134.125
       261   03 Jun 2027 11:19:25.040   03 Jun 2027 11:20:09.328            44.288              Murmansk2          1384.000
       262   03 Jun 2027 11:20:17.118   03 Jun 2027 11:20:39.485            22.367                Novosib           698.969
       263   03 Jun 2027 12:39:41.183   03 Jun 2027 12:43:16.901           215.718                  Delhi          6741.187
       264   03 Jun 2027 12:48:02.859   03 Jun 2027 12:48:17.039            14.180                Novosib           443.125
       265   03 Jun 2027 12:50:44.020   03 Jun 2027 12:52:04.174            80.154              Murmansk1          2504.812
       266   03 Jun 2027 12:52:04.174   03 Jun 2027 12:52:23.446            19.272              Murmansk2           602.250
       267   03 Jun 2027 12:53:32.105   03 Jun 2027 12:53:56.863            24.758                Norilsk           773.687
       268   03 Jun 2027 12:56:49.429   03 Jun 2027 12:58:03.936            74.507                Norilsk          2328.344
       269   03 Jun 2027 14:23:10.717   03 Jun 2027 14:25:09.668           118.951                 Moscow          3717.219
       270   03 Jun 2027 14:26:42.230   03 Jun 2027 14:28:52.841           130.611              Murmansk1          4081.594
       271   03 Jun 2027 14:28:52.841   03 Jun 2027 14:30:16.372            83.531              Murmansk2          2610.344
       272   03 Jun 2027 14:33:02.703   03 Jun 2027 14:34:22.890            80.187                Norilsk          2505.844
       273   03 Jun 2027 14:43:01.016   03 Jun 2027 14:43:39.567            38.551                Anadyr2          1204.719
       274   03 Jun 2027 14:44:15.542   03 Jun 2027 14:45:26.682            71.140                Anadyr2          2223.125
       275   03 Jun 2027 15:37:53.320   03 Jun 2027 15:38:51.048            57.728               CapeTown          1804.000
       276   03 Jun 2027 16:02:07.627   03 Jun 2027 16:02:41.040            33.413                 Moscow          1044.156
       277   03 Jun 2027 16:04:31.613   03 Jun 2027 16:05:21.770            50.157              Murmansk2          1567.406
       278   03 Jun 2027 16:06:10.319   03 Jun 2027 16:06:44.644            34.325              Murmansk2          1072.656
       279   03 Jun 2027 16:17:20.098   03 Jun 2027 16:20:57.008           216.910                Anadyr1          6778.438
       280   03 Jun 2027 17:13:26.814   03 Jun 2027 17:13:56.322            29.508               CapeTown           922.125
       281   03 Jun 2027 17:45:04.250   03 Jun 2027 17:49:36.129           271.879              Murmansk1          8496.219
       282   03 Jun 2027 17:53:05.916   03 Jun 2027 17:53:23.420            17.504                Anadyr1           547.000
       283   03 Jun 2027 17:55:28.992   03 Jun 2027 17:55:52.239            23.247                Anadyr1           726.469
       284   03 Jun 2027 17:55:52.958   03 Jun 2027 17:57:36.010           103.052               Magadan2          3220.375
       285   03 Jun 2027 19:29:01.651   03 Jun 2027 19:32:50.686           229.035                Anadyr1          7157.344
       286   03 Jun 2027 19:33:06.682   03 Jun 2027 19:35:02.444           115.762               Magadan1          3617.562
       287   03 Jun 2027 19:35:02.444   03 Jun 2027 19:35:46.106            43.662               Magadan2          1364.438
       288   03 Jun 2027 19:38:17.119   03 Jun 2027 19:38:27.825            10.706               Magadan1           334.563
       289   03 Jun 2027 20:24:09.521   03 Jun 2027 20:27:16.636           187.115            RioGallegos          5847.344
       290   03 Jun 2027 20:30:33.231   03 Jun 2027 20:30:51.031            17.800            RioGallegos           556.250
       291   03 Jun 2027 21:04:45.979   03 Jun 2027 21:05:21.347            35.368                Anadyr2          1105.250
       292   03 Jun 2027 21:06:54.852   03 Jun 2027 21:07:42.605            47.753                Norilsk          1492.281
       293   03 Jun 2027 21:08:18.387   03 Jun 2027 21:10:31.491           133.104               Magadan2          4159.500
       294   03 Jun 2027 21:11:25.207   03 Jun 2027 21:12:52.569            87.362                Irkutsk          2730.063
       295   03 Jun 2027 21:16:53.489   03 Jun 2027 21:16:57.134             3.645                Irkutsk           113.906
       296   03 Jun 2027 21:20:11.059   03 Jun 2027 21:20:47.245            36.186                Irkutsk          1130.812
       297   03 Jun 2027 21:25:37.169   03 Jun 2027 21:28:35.812           178.643                Sumatra          5582.594
       298   03 Jun 2027 21:32:12.641   03 Jun 2027 21:32:17.414             4.773                Sumatra           149.156
       299   03 Jun 2027 22:42:13.981   03 Jun 2027 22:42:26.364            12.383                Anadyr2           386.969
       300   03 Jun 2027 22:42:46.905   03 Jun 2027 22:43:53.996            67.091                Norilsk          2096.594
       301   03 Jun 2027 22:44:02.296   03 Jun 2027 22:44:59.592            57.296                Norilsk          1790.500
       302   03 Jun 2027 22:46:14.319   03 Jun 2027 22:46:38.883            24.564                Norilsk           767.625
       303   03 Jun 2027 22:46:58.787   03 Jun 2027 22:47:12.135            13.348                Irkutsk           417.125
       304   03 Jun 2027 22:47:27.113   03 Jun 2027 22:50:00.893           153.780                Novosib          4805.625
       305   03 Jun 2027 22:56:43.355   03 Jun 2027 22:57:50.756            67.401                  Delhi          2106.281
       306   03 Jun 2027 23:01:46.465   03 Jun 2027 23:01:48.341             1.876                  Delhi            58.625
       307   03 Jun 2027 23:02:58.472   03 Jun 2027 23:04:46.825           108.353                  Delhi          3386.031
       308   04 Jun 2027 00:18:30.146   04 Jun 2027 00:18:52.587            22.441                Anadyr1           701.281
       309   04 Jun 2027 00:19:14.289   04 Jun 2027 00:20:52.584            98.295               Magadan2          3071.719
       310   04 Jun 2027 00:21:03.580   04 Jun 2027 00:21:16.081            12.501               Magadan2           390.656
       311   04 Jun 2027 00:21:22.596   04 Jun 2027 00:24:59.698           217.102              Murmansk2          6784.437
       312   04 Jun 2027 00:26:27.995   04 Jun 2027 00:27:13.248            45.253              Murmansk2          1414.156
       313   04 Jun 2027 00:38:54.247   04 Jun 2027 00:38:55.971             1.724                  Delhi            53.875
       314   04 Jun 2027 00:39:34.980   04 Jun 2027 00:40:08.764            33.784                  Delhi          1055.750
       315   04 Jun 2027 01:12:31.645   04 Jun 2027 01:13:17.025            45.380            RioGallegos          1418.125
       316   04 Jun 2027 01:15:32.042   04 Jun 2027 01:16:12.544            40.502            RioGallegos          1265.688
       317   04 Jun 2027 01:46:57.599   04 Jun 2027 01:48:05.616            68.017                Anadyr1          2125.531
       318   04 Jun 2027 01:49:00.112   04 Jun 2027 01:49:41.040            40.928                Anadyr1          1279.000
       319   04 Jun 2027 01:49:51.217   04 Jun 2027 01:50:03.297            12.080                Anadyr2           377.500
       320   04 Jun 2027 01:52:39.806   04 Jun 2027 01:53:51.347            71.541               Magadan1          2235.656
       321   04 Jun 2027 01:54:39.531   04 Jun 2027 01:55:04.270            24.739                Norilsk           773.094
       322   04 Jun 2027 01:56:39.755   04 Jun 2027 01:56:58.305            18.550                Norilsk           579.687
       323   04 Jun 2027 01:57:48.592   04 Jun 2027 01:58:15.001            26.409              Murmansk1           825.281
       324   04 Jun 2027 01:58:46.723   04 Jun 2027 02:00:00.477            73.754                Novosib          2304.812
       325   04 Jun 2027 02:00:13.020   04 Jun 2027 02:01:28.471            75.451                Novosib          2357.844
       326   04 Jun 2027 02:25:35.556   04 Jun 2027 02:26:13.339            37.783               CapeTown          1180.719
       327   04 Jun 2027 02:27:02.025   04 Jun 2027 02:28:23.862            81.837               CapeTown          2557.406
       328   04 Jun 2027 03:43:05.200   04 Jun 2027 03:45:46.236           161.036              Murmansk1          5032.375
       329   04 Jun 2027 05:03:30.035   04 Jun 2027 05:04:12.573            42.538               Magadan2          1329.312
       330   04 Jun 2027 05:04:19.831   04 Jun 2027 05:05:25.314            65.483               Magadan2          2046.344
       331   04 Jun 2027 05:05:44.131   04 Jun 2027 05:08:10.219           146.088                Anadyr2          4565.250
       332   04 Jun 2027 05:09:33.527   04 Jun 2027 05:09:37.999             4.472                Anadyr1           139.750
       333   04 Jun 2027 06:39:27.937   04 Jun 2027 06:39:44.283            16.346               Magadan1           510.812
       334   04 Jun 2027 06:40:07.991   04 Jun 2027 06:40:11.064             3.073                Anadyr2            96.031
       335   04 Jun 2027 06:40:17.695   04 Jun 2027 06:41:07.690            49.995                Anadyr1          1562.344
       336   04 Jun 2027 06:41:12.667   04 Jun 2027 06:41:28.624            15.957               Magadan2           498.656
       337   04 Jun 2027 06:41:38.900   04 Jun 2027 06:42:40.817            61.917                Anadyr1          1934.906
       338   04 Jun 2027 06:44:37.306   04 Jun 2027 06:45:02.736            25.430                Anadyr2           794.687
       339   04 Jun 2027 07:21:57.765   04 Jun 2027 07:22:06.547             8.782            RioGallegos           274.438
       340   04 Jun 2027 07:22:23.323   04 Jun 2027 07:23:26.513            63.190            RioGallegos          1974.687
       341   04 Jun 2027 08:14:34.781   04 Jun 2027 08:14:37.608             2.827               Magadan1            88.344
       342   04 Jun 2027 08:15:41.352   04 Jun 2027 08:17:09.175            87.823               Magadan2          2744.469
       343   04 Jun 2027 08:17:36.387   04 Jun 2027 08:18:09.549            33.162                Irkutsk          1036.313
       344   04 Jun 2027 08:18:15.460   04 Jun 2027 08:19:27.516            72.056               Magadan2          2251.750
       345   04 Jun 2027 08:19:48.903   04 Jun 2027 08:20:15.806            26.903                Norilsk           840.719
       346   04 Jun 2027 08:20:21.580   04 Jun 2027 08:20:41.116            19.536               Magadan2           610.500
       347   04 Jun 2027 08:20:53.865   04 Jun 2027 08:21:19.394            25.529              Murmansk2           797.781
       348   04 Jun 2027 08:21:19.394   04 Jun 2027 08:22:16.771            57.377              Murmansk1          1793.031
       349   04 Jun 2027 08:55:40.402   04 Jun 2027 08:56:50.300            69.898            RioGallegos          2184.312
       350   04 Jun 2027 09:31:51.477   04 Jun 2027 09:32:55.266            63.789                Sumatra          1993.406
       351   04 Jun 2027 09:51:03.335   04 Jun 2027 09:52:15.594            72.259                Novosib          2258.094
       352   04 Jun 2027 09:52:30.415   04 Jun 2027 09:52:43.652            13.237                Irkutsk           413.656
       353   04 Jun 2027 09:52:43.843   04 Jun 2027 09:53:11.989            28.146                Novosib           879.563
       354   04 Jun 2027 09:53:13.543   04 Jun 2027 09:53:48.530            34.987                Norilsk          1093.344
       355   04 Jun 2027 09:54:00.162   04 Jun 2027 09:54:57.643            57.481              Murmansk2          1796.281
       356   04 Jun 2027 09:55:01.301   04 Jun 2027 09:55:13.628            12.327              Murmansk2           385.219
       357   04 Jun 2027 09:55:42.836   04 Jun 2027 09:56:15.348            32.512                Novosib          1016.000
       358   04 Jun 2027 09:56:17.831   04 Jun 2027 09:56:26.157             8.326                Novosib           260.187
       359   04 Jun 2027 09:56:29.782   04 Jun 2027 09:56:56.585            26.803              Murmansk1           837.594
       360   04 Jun 2027 10:02:08.331   04 Jun 2027 10:02:13.944             5.613              Murmansk2           175.406
       361   04 Jun 2027 10:33:01.180   04 Jun 2027 10:33:50.709            49.529            RioGallegos          1547.781
       362   04 Jun 2027 10:35:24.463   04 Jun 2027 10:35:45.015            20.552            RioGallegos           642.250
       363   04 Jun 2027 11:07:13.881   04 Jun 2027 11:08:31.463            77.582                Sumatra          2424.437
       364   04 Jun 2027 11:17:49.523   04 Jun 2027 11:17:54.176             4.653                  Delhi           145.406
       365   04 Jun 2027 11:28:13.308   04 Jun 2027 11:28:17.337             4.029              Murmansk1           125.906
       366   04 Jun 2027 11:28:17.337   04 Jun 2027 11:28:35.603            18.266              Murmansk2           570.812
       367   04 Jun 2027 11:28:39.184   04 Jun 2027 11:28:56.620            17.436                Norilsk           544.875
       368   04 Jun 2027 11:28:58.286   04 Jun 2027 11:29:02.039             3.753              Murmansk2           117.281
       369   04 Jun 2027 11:29:03.178   04 Jun 2027 11:30:00.454            57.276                Norilsk          1789.875
       370   04 Jun 2027 11:30:05.350   04 Jun 2027 11:30:19.773            14.423                Norilsk           450.719
       371   04 Jun 2027 11:30:28.527   04 Jun 2027 11:30:38.800            10.273                Norilsk           321.031
       372   04 Jun 2027 11:30:39.258   04 Jun 2027 11:30:50.898            11.640                Novosib           363.750
       373   04 Jun 2027 11:30:58.291   04 Jun 2027 11:31:06.756             8.465                Irkutsk           264.531
       374   04 Jun 2027 11:31:09.414   04 Jun 2027 11:31:28.792            19.378                Norilsk           605.563
       375   04 Jun 2027 11:31:39.601   04 Jun 2027 11:31:59.184            19.583              Murmansk2           611.969
       376   04 Jun 2027 11:31:59.184   04 Jun 2027 11:32:09.916            10.732              Murmansk1           335.375
       377   04 Jun 2027 11:32:10.956   04 Jun 2027 11:32:24.847            13.891                Norilsk           434.094
       378   04 Jun 2027 11:32:32.335   04 Jun 2027 11:33:24.284            51.949              Murmansk1          1623.406
       379   04 Jun 2027 12:52:18.055   04 Jun 2027 12:53:42.010            83.955                  Delhi          2623.594
       380   04 Jun 2027 12:54:54.791   04 Jun 2027 12:55:03.500             8.709                  Delhi           272.156
       381   04 Jun 2027 12:55:50.609   04 Jun 2027 12:57:09.489            78.880                  Delhi          2465.000
       382   04 Jun 2027 13:00:14.073   04 Jun 2027 13:00:22.603             8.530                 Moscow           266.563
       383   04 Jun 2027 13:00:36.742   04 Jun 2027 13:01:24.633            47.891                 Moscow          1496.594
       384   04 Jun 2027 13:02:33.052   04 Jun 2027 13:04:54.358           141.306                Novosib          4415.813
       385   04 Jun 2027 13:05:23.589   04 Jun 2027 13:05:43.902            20.313              Murmansk1           634.781
       386   04 Jun 2027 13:08:00.790   04 Jun 2027 13:08:24.994            24.204                Norilsk           756.375
       387   04 Jun 2027 14:35:20.702   04 Jun 2027 14:37:07.826           107.124                 Moscow          3347.625
       388   04 Jun 2027 14:38:19.417   04 Jun 2027 14:38:34.034            14.617                 Moscow           456.781
       389   04 Jun 2027 14:38:51.177   04 Jun 2027 14:42:45.194           234.017              Murmansk2          7313.031
       390   04 Jun 2027 14:46:01.546   04 Jun 2027 14:46:28.003            26.457              Murmansk2           826.781
       391   04 Jun 2027 14:48:01.577   04 Jun 2027 14:48:15.778            14.201                Norilsk           443.781
       392   04 Jun 2027 14:54:31.157   04 Jun 2027 14:55:34.849            63.692                Anadyr1          1990.375
       393   04 Jun 2027 14:56:32.012   04 Jun 2027 14:56:54.410            22.398                Anadyr2           699.938
       394   04 Jun 2027 14:57:26.642   04 Jun 2027 14:57:43.465            16.823                Anadyr2           525.719
       395   04 Jun 2027 14:59:25.779   04 Jun 2027 14:59:33.084             7.305                Anadyr1           228.281
       396   04 Jun 2027 15:48:42.542   04 Jun 2027 15:49:28.364            45.822               CapeTown          1431.938
       397   04 Jun 2027 15:51:14.143   04 Jun 2027 15:51:37.468            23.325               CapeTown           728.906
       398   04 Jun 2027 15:56:22.795   04 Jun 2027 15:56:28.149             5.354               CapeTown           167.312
       399   04 Jun 2027 16:14:59.045   04 Jun 2027 16:15:27.258            28.213                 Moscow           881.656
       400   04 Jun 2027 16:16:57.029   04 Jun 2027 16:17:38.422            41.393              Murmansk2          1293.531
       401   04 Jun 2027 16:17:49.176   04 Jun 2027 16:18:12.366            23.190              Murmansk2           724.688
       402   04 Jun 2027 16:19:27.800   04 Jun 2027 16:20:02.814            35.014              Murmansk2          1094.187
       403   04 Jun 2027 16:21:35.107   04 Jun 2027 16:21:58.148            23.041              Murmansk2           720.031
       404   04 Jun 2027 16:25:44.710   04 Jun 2027 16:25:47.983             3.273              Murmansk2           102.281
       405   04 Jun 2027 16:26:21.852   04 Jun 2027 16:27:23.786            61.934              Murmansk2          1935.438
       406   04 Jun 2027 16:29:18.689   04 Jun 2027 16:30:56.149            97.460                Anadyr1          3045.625
       407   04 Jun 2027 16:31:05.939   04 Jun 2027 16:31:31.287            25.348                Anadyr1           792.125
       408   04 Jun 2027 17:25:19.530   04 Jun 2027 17:26:02.534            43.004               CapeTown          1343.875
       409   04 Jun 2027 17:26:37.628   04 Jun 2027 17:27:17.467            39.839               CapeTown          1244.969
       410   04 Jun 2027 17:58:03.085   04 Jun 2027 18:01:35.628           212.543              Murmansk1          6641.969
       411   04 Jun 2027 18:01:35.628   04 Jun 2027 18:02:23.679            48.051              Murmansk2          1501.594
       412   04 Jun 2027 18:05:07.290   04 Jun 2027 18:05:40.920            33.630                Anadyr2          1050.938
       413   04 Jun 2027 18:07:46.606   04 Jun 2027 18:08:20.322            33.716               Magadan2          1053.625
       414   04 Jun 2027 18:08:43.301   04 Jun 2027 18:09:13.847            30.546               Magadan2           954.563
       415   04 Jun 2027 18:13:32.726   04 Jun 2027 18:13:48.035            15.309               Magadan1           478.406
       416   04 Jun 2027 18:15:37.732   04 Jun 2027 18:16:34.370            56.638               Magadan1          1769.937
       417   04 Jun 2027 19:41:02.731   04 Jun 2027 19:45:03.580           240.849                Anadyr1          7526.531
       418   04 Jun 2027 19:45:04.048   04 Jun 2027 19:45:29.964            25.916                Norilsk           809.875
       419   04 Jun 2027 19:45:42.006   04 Jun 2027 19:45:52.851            10.845                Norilsk           338.906
       420   04 Jun 2027 19:46:37.090   04 Jun 2027 19:47:49.874            72.784               Magadan1          2274.500
       421   04 Jun 2027 19:50:27.393   04 Jun 2027 19:50:35.102             7.709               Magadan1           240.906
       422   04 Jun 2027 19:51:29.642   04 Jun 2027 19:52:06.838            37.196               Magadan2          1162.375
       423   04 Jun 2027 20:35:49.720   04 Jun 2027 20:38:42.475           172.755            RioGallegos          5398.594
       424   04 Jun 2027 20:38:43.166   04 Jun 2027 20:39:07.059            23.893            RioGallegos           746.656
       425   04 Jun 2027 20:40:07.737   04 Jun 2027 20:40:25.344            17.607            RioGallegos           550.219
       426   04 Jun 2027 20:41:02.608   04 Jun 2027 20:41:07.292             4.684            RioGallegos           146.375
       427   04 Jun 2027 21:16:43.899   04 Jun 2027 21:17:25.373            41.474                Anadyr2          1296.062
       428   04 Jun 2027 21:18:54.335   04 Jun 2027 21:19:44.494            50.159                Norilsk          1567.469
       429   04 Jun 2027 21:20:01.795   04 Jun 2027 21:21:19.901            78.106               Magadan2          2440.812
       430   04 Jun 2027 21:21:19.901   04 Jun 2027 21:21:37.683            17.782               Magadan1           555.687
       431   04 Jun 2027 21:23:15.048   04 Jun 2027 21:24:53.055            98.007                Irkutsk          3062.719
       432   04 Jun 2027 21:25:26.465   04 Jun 2027 21:26:17.357            50.892                Irkutsk          1590.375
       433   04 Jun 2027 21:37:12.151   04 Jun 2027 21:37:50.511            38.360                Sumatra          1198.750
       434   04 Jun 2027 21:39:08.197   04 Jun 2027 21:40:27.768            79.571                Sumatra          2486.594
       435   04 Jun 2027 21:41:15.606   04 Jun 2027 21:42:17.734            62.128                Sumatra          1941.500
       436   04 Jun 2027 22:54:21.005   04 Jun 2027 22:54:34.995            13.990                Anadyr2           437.188
       437   04 Jun 2027 22:54:48.896   04 Jun 2027 22:55:17.133            28.237                Norilsk           882.406
       438   04 Jun 2027 22:55:26.876   04 Jun 2027 22:56:49.540            82.664               Magadan2          2583.250
       439   04 Jun 2027 22:57:11.441   04 Jun 2027 22:57:19.291             7.850               Magadan1           245.313
       440   04 Jun 2027 22:57:51.056   04 Jun 2027 22:58:23.363            32.307               Magadan1          1009.594
       441   04 Jun 2027 22:58:23.363   04 Jun 2027 22:58:29.378             6.015               Magadan2           187.969
       442   04 Jun 2027 22:58:38.132   04 Jun 2027 22:58:40.926             2.794                Norilsk            87.313
       443   04 Jun 2027 22:58:57.056   04 Jun 2027 22:59:12.544            15.488                Novosib           484.000
       444   04 Jun 2027 22:59:23.437   04 Jun 2027 22:59:56.618            33.181                Irkutsk          1036.906
       445   04 Jun 2027 22:59:58.763   04 Jun 2027 23:00:37.742            38.979                Novosib          1218.094
       446   04 Jun 2027 23:01:45.820   04 Jun 2027 23:02:08.051            22.231                Novosib           694.719
       447   04 Jun 2027 23:05:01.532   04 Jun 2027 23:05:27.950            26.418                Novosib           825.563
       448   04 Jun 2027 23:07:06.909   04 Jun 2027 23:08:09.352            62.443                  Delhi          1951.344
       449   04 Jun 2027 23:09:11.514   04 Jun 2027 23:10:09.905            58.391                  Delhi          1824.719
       450   04 Jun 2027 23:12:33.534   04 Jun 2027 23:13:45.173            71.639                  Delhi          2238.719
       451   05 Jun 2027 00:25:21.381   05 Jun 2027 00:25:31.985            10.604                Anadyr2           331.375
       452   05 Jun 2027 00:26:19.606   05 Jun 2027 00:27:46.979            87.373                Anadyr2          2730.406
       453   05 Jun 2027 00:30:48.886   05 Jun 2027 00:31:41.437            52.551                Norilsk          1642.219
       454   05 Jun 2027 00:32:10.412   05 Jun 2027 00:32:54.811            44.399               Magadan1          1387.469
       455   05 Jun 2027 00:33:17.245   05 Jun 2027 00:36:09.441           172.196              Murmansk2          5381.125
       456   05 Jun 2027 00:39:04.770   05 Jun 2027 00:39:10.361             5.591                 Moscow           174.719
       457   05 Jun 2027 00:39:21.752   05 Jun 2027 00:39:34.023            12.271                 Moscow           383.469
       458   05 Jun 2027 00:40:17.353   05 Jun 2027 00:40:54.392            37.039                 Moscow          1157.469
       459   05 Jun 2027 00:41:20.181   05 Jun 2027 00:41:21.373             1.192                 Moscow            37.250
       460   05 Jun 2027 00:42:51.152   05 Jun 2027 00:43:01.732            10.580                 Moscow           330.625
       461   05 Jun 2027 00:50:54.619   05 Jun 2027 00:51:27.604            32.985                  Delhi          1030.781
       462   05 Jun 2027 00:52:33.105   05 Jun 2027 00:53:35.244            62.139                  Delhi          1941.844
       463   05 Jun 2027 01:27:27.320   05 Jun 2027 01:27:45.269            17.949            RioGallegos           560.906
       464   05 Jun 2027 01:58:41.299   05 Jun 2027 02:00:06.097            84.798                Anadyr2          2649.937
       465   05 Jun 2027 02:01:23.315   05 Jun 2027 02:01:41.020            17.705                Anadyr1           553.281
       466   05 Jun 2027 02:04:08.625   05 Jun 2027 02:05:21.583            72.958               Magadan1          2279.937
       467   05 Jun 2027 02:05:42.380   05 Jun 2027 02:05:51.535             9.155               Magadan2           286.094
       468   05 Jun 2027 02:06:39.315   05 Jun 2027 02:06:53.699            14.384                Norilsk           449.500
       469   05 Jun 2027 02:08:01.169   05 Jun 2027 02:08:27.376            26.207               Magadan2           818.969
       470   05 Jun 2027 02:08:56.727   05 Jun 2027 02:09:52.136            55.409              Murmansk2          1731.531
       471   05 Jun 2027 02:10:52.691   05 Jun 2027 02:11:50.541            57.850                Novosib          1807.812
       472   05 Jun 2027 02:11:54.859   05 Jun 2027 02:12:41.055            46.196                Novosib          1443.625
       473   05 Jun 2027 02:19:47.754   05 Jun 2027 02:19:55.915             8.161                 Moscow           255.031
       474   05 Jun 2027 02:21:29.675   05 Jun 2027 02:21:56.099            26.424                 Moscow           825.750
       475   05 Jun 2027 02:37:07.290   05 Jun 2027 02:37:26.675            19.385               CapeTown           605.781
       476   05 Jun 2027 02:38:22.164   05 Jun 2027 02:38:34.574            12.410               CapeTown           387.812
       477   05 Jun 2027 02:43:01.027   05 Jun 2027 02:43:20.658            19.631               CapeTown           613.469
       478   05 Jun 2027 03:54:30.622   05 Jun 2027 03:56:52.169           141.547              Murmansk2          4423.344
       479   05 Jun 2027 03:56:52.169   05 Jun 2027 03:57:32.392            40.223              Murmansk1          1256.969
       480   05 Jun 2027 05:16:38.599   05 Jun 2027 05:18:36.048           117.449                Anadyr1          3670.281
       481   05 Jun 2027 05:18:37.788   05 Jun 2027 05:21:18.699           160.911               Magadan2          5028.469
       482   05 Jun 2027 06:52:09.253   05 Jun 2027 06:52:37.380            28.127                Anadyr2           878.969
