uniorb/output/strategy_2/Drop/Drop_KinoSat_111002.txt

KinoSat_111002
-------------------------
    Access    *     Start Time (UTCG)     *     Stop Time (UTCG)  *   Duration (s)        *       Station  *  Data (Mbytes)
         1   01 Jun 2027 03:57:19.541   01 Jun 2027 03:57:31.173            11.632                Anadyr2           363.500
         2   01 Jun 2027 03:57:50.818   01 Jun 2027 03:59:45.577           114.759                Anadyr1          3586.219
         3   01 Jun 2027 03:59:48.571   01 Jun 2027 04:00:07.273            18.702                Norilsk           584.438
         4   01 Jun 2027 04:00:14.362   01 Jun 2027 04:01:05.015            50.653               Magadan2          1582.906
         5   01 Jun 2027 04:01:05.015   01 Jun 2027 04:01:58.770            53.755               Magadan1          1679.844
         6   01 Jun 2027 04:01:58.770   01 Jun 2027 04:01:59.175             0.405               Magadan2            12.656
         7   01 Jun 2027 04:02:21.362   01 Jun 2027 04:02:27.996             6.634               Magadan2           207.312
         8   01 Jun 2027 04:09:08.102   01 Jun 2027 04:09:21.441            13.339                Norilsk           416.844
         9   01 Jun 2027 05:33:10.358   01 Jun 2027 05:33:12.766             2.408                Irkutsk            75.250
        10   01 Jun 2027 05:35:07.403   01 Jun 2027 05:35:56.655            49.252                Irkutsk          1539.125
        11   01 Jun 2027 05:36:33.096   01 Jun 2027 05:37:49.003            75.907                Anadyr2          2372.094
        12   01 Jun 2027 05:38:33.062   01 Jun 2027 05:38:34.203             1.141               Magadan2            35.656
        13   01 Jun 2027 07:05:27.386   01 Jun 2027 07:05:34.167             6.781                Irkutsk           211.906
        14   01 Jun 2027 07:08:47.744   01 Jun 2027 07:09:20.270            32.526               Magadan1          1016.438
        15   01 Jun 2027 07:09:41.351   01 Jun 2027 07:10:11.416            30.065                Novosib           939.531
        16   01 Jun 2027 07:10:26.195   01 Jun 2027 07:14:07.802           221.607               Magadan1          6925.219
        17   01 Jun 2027 07:14:21.725   01 Jun 2027 07:15:02.269            40.544                Novosib          1267.000
        18   01 Jun 2027 08:45:58.052   01 Jun 2027 08:46:17.370            19.318                Irkutsk           603.688
        19   01 Jun 2027 08:46:57.374   01 Jun 2027 08:47:05.811             8.437                Norilsk           263.656
        20   01 Jun 2027 08:47:21.176   01 Jun 2027 08:57:00.901           579.725              Murmansk2         18116.406
        21   01 Jun 2027 08:57:39.018   01 Jun 2027 08:57:58.474            19.456              Murmansk2           608.000
        22   01 Jun 2027 09:25:51.003   01 Jun 2027 09:27:18.887            87.884            RioGallegos          2746.375
        23   01 Jun 2027 09:29:48.715   01 Jun 2027 09:30:45.553            56.838            RioGallegos          1776.188
        24   01 Jun 2027 09:33:42.828   01 Jun 2027 09:33:51.883             9.055            RioGallegos           282.969
        25   01 Jun 2027 09:34:19.356   01 Jun 2027 09:35:03.667            44.311            RioGallegos          1384.719
        26   01 Jun 2027 09:35:45.850   01 Jun 2027 09:36:26.817            40.967            RioGallegos          1280.219
        27   01 Jun 2027 10:05:13.995   01 Jun 2027 10:07:54.531           160.536                Sumatra          5016.750
        28   01 Jun 2027 10:22:29.395   01 Jun 2027 10:23:06.153            36.758                Irkutsk          1148.687
        29   01 Jun 2027 10:23:50.913   01 Jun 2027 10:25:54.008           123.095                Novosib          3846.719
        30   01 Jun 2027 10:27:45.728   01 Jun 2027 10:27:53.247             7.519                 Moscow           234.969
        31   01 Jun 2027 11:44:56.824   01 Jun 2027 11:48:30.985           214.161                  Delhi          6692.531
        32   01 Jun 2027 11:59:15.618   01 Jun 2027 12:04:55.526           339.908              Murmansk1         10622.125
        33   01 Jun 2027 12:05:12.837   01 Jun 2027 12:07:09.366           116.529                Norilsk          3641.531
        34   01 Jun 2027 12:07:19.094   01 Jun 2027 12:08:03.765            44.671              Murmansk2          1395.969
        35   01 Jun 2027 12:08:16.181   01 Jun 2027 12:08:50.753            34.572              Murmansk1          1080.375
        36   01 Jun 2027 13:28:29.604   01 Jun 2027 13:37:14.975           525.371                 Moscow         16417.844
        37   01 Jun 2027 13:37:51.916   01 Jun 2027 13:38:15.409            23.493              Murmansk1           734.156
        38   01 Jun 2027 13:38:32.659   01 Jun 2027 13:40:51.402           138.743              Murmansk1          4335.719
        39   01 Jun 2027 13:40:51.993   01 Jun 2027 13:41:56.491            64.498              Murmansk2          2015.563
        40   01 Jun 2027 13:41:59.005   01 Jun 2027 13:42:14.564            15.559                Norilsk           486.219
        41   01 Jun 2027 13:42:49.118   01 Jun 2027 13:44:47.399           118.281              Murmansk2          3696.281
        42   01 Jun 2027 13:48:28.927   01 Jun 2027 13:49:26.087            57.160                Anadyr2          1786.250
        43   01 Jun 2027 13:49:26.087   01 Jun 2027 13:50:22.657            56.570                Anadyr1          1767.812
        44   01 Jun 2027 13:50:22.657   01 Jun 2027 13:52:10.635           107.978                Anadyr2          3374.313
        45   01 Jun 2027 14:49:37.109   01 Jun 2027 14:54:27.204           290.095               CapeTown          9065.469
        46   01 Jun 2027 15:15:09.506   01 Jun 2027 15:16:05.250            55.744                 Moscow          1742.000
        47   01 Jun 2027 15:18:47.012   01 Jun 2027 15:20:43.077           116.065              Murmansk1          3627.031
        48   01 Jun 2027 15:27:30.468   01 Jun 2027 15:33:42.038           371.570                Anadyr1         11611.563
        49   01 Jun 2027 16:53:04.584   01 Jun 2027 16:54:15.231            70.647              Murmansk2          2207.719
        50   01 Jun 2027 16:54:51.643   01 Jun 2027 16:55:04.433            12.790              Murmansk1           399.687
        51   01 Jun 2027 16:55:04.433   01 Jun 2027 16:56:01.116            56.683              Murmansk2          1771.344
        52   01 Jun 2027 17:03:47.660   01 Jun 2027 17:04:19.444            31.784               Magadan1           993.250
        53   01 Jun 2027 17:04:55.767   01 Jun 2027 17:05:37.744            41.977               Magadan1          1311.781
        54   01 Jun 2027 17:05:55.012   01 Jun 2027 17:11:26.644           331.632               Magadan1         10363.500
        55   01 Jun 2027 18:37:23.960   01 Jun 2027 18:37:33.098             9.138                Anadyr2           285.563
        56   01 Jun 2027 18:37:47.906   01 Jun 2027 18:38:14.515            26.609               Magadan2           831.531
        57   01 Jun 2027 18:38:14.515   01 Jun 2027 18:38:19.335             4.820               Magadan1           150.625
        58   01 Jun 2027 18:38:34.338   01 Jun 2027 18:38:38.051             3.713               Magadan1           116.031
        59   01 Jun 2027 18:38:45.744   01 Jun 2027 18:39:27.525            41.781                Anadyr2          1305.656
        60   01 Jun 2027 18:40:02.758   01 Jun 2027 18:40:22.830            20.072                Anadyr1           627.250
        61   01 Jun 2027 18:40:36.752   01 Jun 2027 18:40:49.060            12.308               Magadan1           384.625
        62   01 Jun 2027 18:40:55.528   01 Jun 2027 18:41:06.848            11.320                Anadyr2           353.750
        63   01 Jun 2027 18:41:06.848   01 Jun 2027 18:41:15.302             8.454                Anadyr1           264.188
        64   01 Jun 2027 18:41:22.456   01 Jun 2027 18:41:27.664             5.208                Anadyr1           162.750
        65   01 Jun 2027 18:41:27.664   01 Jun 2027 18:42:00.114            32.450                Anadyr2          1014.063
        66   01 Jun 2027 18:42:20.168   01 Jun 2027 18:43:01.567            41.399                Anadyr2          1293.719
        67   01 Jun 2027 18:43:01.567   01 Jun 2027 18:43:11.426             9.859                Anadyr1           308.094
        68   01 Jun 2027 18:43:37.878   01 Jun 2027 18:44:40.731            62.853                Anadyr1          1964.156
        69   01 Jun 2027 18:44:40.731   01 Jun 2027 18:44:45.475             4.744                Anadyr2           148.250
        70   01 Jun 2027 18:44:58.005   01 Jun 2027 18:45:47.822            49.817                Anadyr2          1556.781
        71   01 Jun 2027 18:45:47.822   01 Jun 2027 18:46:14.492            26.670                Anadyr1           833.438
        72   01 Jun 2027 18:47:12.767   01 Jun 2027 18:49:29.771           137.004               Magadan1          4281.375
        73   01 Jun 2027 19:32:44.780   01 Jun 2027 19:35:05.019           140.239            RioGallegos          4382.469
        74   01 Jun 2027 19:35:45.535   01 Jun 2027 19:36:36.592            51.057            RioGallegos          1595.531
        75   01 Jun 2027 20:16:29.716   01 Jun 2027 20:16:55.886            26.170                Norilsk           817.812
        76   01 Jun 2027 20:17:57.699   01 Jun 2027 20:18:14.547            16.848                Irkutsk           526.500
        77   01 Jun 2027 20:18:18.812   01 Jun 2027 20:19:10.196            51.384                Norilsk          1605.750
        78   01 Jun 2027 20:19:19.688   01 Jun 2027 20:20:30.363            70.675                Irkutsk          2208.594
        79   01 Jun 2027 20:22:13.505   01 Jun 2027 20:22:47.243            33.738               Magadan1          1054.312
        80   01 Jun 2027 20:23:02.125   01 Jun 2027 20:23:51.638            49.513                Irkutsk          1547.281
        81   01 Jun 2027 20:25:15.639   01 Jun 2027 20:26:09.377            53.738                Irkutsk          1679.312
        82   01 Jun 2027 20:26:33.395   01 Jun 2027 20:27:10.365            36.970                Irkutsk          1155.312
        83   01 Jun 2027 20:36:08.964   01 Jun 2027 20:37:50.506           101.542                Sumatra          3173.187
        84   01 Jun 2027 20:39:00.733   01 Jun 2027 20:40:14.384            73.651                Sumatra          2301.594
        85   01 Jun 2027 21:53:30.279   01 Jun 2027 21:55:01.904            91.625                Novosib          2863.281
        86   01 Jun 2027 21:56:30.381   01 Jun 2027 21:56:34.708             4.327                Irkutsk           135.219
        87   01 Jun 2027 21:56:47.674   01 Jun 2027 21:57:05.511            17.837               Magadan1           557.406
        88   01 Jun 2027 21:57:42.161   01 Jun 2027 21:59:07.946            85.785                Irkutsk          2680.781
        89   01 Jun 2027 22:01:29.372   01 Jun 2027 22:01:38.271             8.899                Irkutsk           278.094
        90   01 Jun 2027 22:01:45.921   01 Jun 2027 22:02:40.549            54.628                Irkutsk          1707.125
        91   01 Jun 2027 22:04:50.967   01 Jun 2027 22:04:52.221             1.254                Irkutsk            39.188
        92   01 Jun 2027 22:05:39.750   01 Jun 2027 22:07:25.724           105.974                  Delhi          3311.687
        93   01 Jun 2027 22:08:45.119   01 Jun 2027 22:10:08.311            83.192                  Delhi          2599.750
        94   01 Jun 2027 23:23:41.091   01 Jun 2027 23:24:25.327            44.236                Anadyr2          1382.375
        95   01 Jun 2027 23:24:38.912   01 Jun 2027 23:24:50.858            11.946                Norilsk           373.312
        96   01 Jun 2027 23:25:09.137   01 Jun 2027 23:25:37.573            28.436               Magadan1           888.625
        97   01 Jun 2027 23:26:44.400   01 Jun 2027 23:30:23.814           219.414              Murmansk1          6856.687
        98   01 Jun 2027 23:32:27.106   01 Jun 2027 23:33:17.141            50.035              Murmansk1          1563.594
        99   01 Jun 2027 23:43:36.575   01 Jun 2027 23:44:22.127            45.552                  Delhi          1423.500
       100   01 Jun 2027 23:44:39.581   01 Jun 2027 23:44:58.536            18.955                  Delhi           592.344
       101   01 Jun 2027 23:46:50.184   01 Jun 2027 23:47:51.404            61.220                  Delhi          1913.125
       102   02 Jun 2027 00:53:12.270   02 Jun 2027 00:53:40.410            28.140                Anadyr1           879.375
       103   02 Jun 2027 00:54:25.606   02 Jun 2027 00:54:49.011            23.405                Anadyr1           731.406
       104   02 Jun 2027 00:55:14.351   02 Jun 2027 00:55:33.318            18.967                Anadyr1           592.719
       105   02 Jun 2027 00:57:10.852   02 Jun 2027 00:57:34.286            23.434                Anadyr2           732.313
       106   02 Jun 2027 00:57:58.479   02 Jun 2027 00:58:20.371            21.892                Anadyr1           684.125
       107   02 Jun 2027 00:58:26.363   02 Jun 2027 00:59:08.131            41.768               Magadan2          1305.250
       108   02 Jun 2027 00:59:08.131   02 Jun 2027 00:59:18.708            10.577               Magadan1           330.531
       109   02 Jun 2027 00:59:26.672   02 Jun 2027 00:59:58.324            31.652               Magadan1           989.125
       110   02 Jun 2027 01:01:16.094   02 Jun 2027 01:01:48.453            32.359               Magadan1          1011.219
       111   02 Jun 2027 01:02:59.636   02 Jun 2027 01:03:22.061            22.425              Murmansk1           700.781
       112   02 Jun 2027 01:03:44.959   02 Jun 2027 01:04:04.131            19.172              Murmansk1           599.125
       113   02 Jun 2027 01:05:36.188   02 Jun 2027 01:05:43.536             7.348                Novosib           229.625
       114   02 Jun 2027 01:06:14.696   02 Jun 2027 01:07:23.358            68.662              Murmansk2          2145.687
       115   02 Jun 2027 01:08:46.655   02 Jun 2027 01:09:15.190            28.535              Murmansk1           891.719
       116   02 Jun 2027 01:11:38.091   02 Jun 2027 01:11:50.982            12.891              Murmansk1           402.844
       117   02 Jun 2027 01:12:30.047   02 Jun 2027 01:12:57.435            27.388                 Moscow           855.875
       118   02 Jun 2027 01:14:38.934   02 Jun 2027 01:14:53.273            14.339                Novosib           448.094
       119   02 Jun 2027 01:15:25.361   02 Jun 2027 01:15:43.439            18.078                 Moscow           564.938
       120   02 Jun 2027 01:16:57.911   02 Jun 2027 01:17:12.280            14.369                 Moscow           449.031
       121   02 Jun 2027 01:36:32.774   02 Jun 2027 01:37:19.916            47.142               CapeTown          1473.188
       122   02 Jun 2027 01:38:56.461   02 Jun 2027 01:40:10.654            74.193               CapeTown          2318.531
       123   02 Jun 2027 02:26:25.840   02 Jun 2027 02:26:47.259            21.419                Anadyr2           669.344
       124   02 Jun 2027 02:27:35.741   02 Jun 2027 02:27:55.491            19.750                Anadyr2           617.188
       125   02 Jun 2027 02:28:55.031   02 Jun 2027 02:29:05.143            10.112                Anadyr1           316.000
       126   02 Jun 2027 02:29:38.713   02 Jun 2027 02:30:00.861            22.148                Anadyr2           692.125
       127   02 Jun 2027 02:30:24.477   02 Jun 2027 02:30:54.755            30.278               Magadan2           946.187
       128   02 Jun 2027 02:31:11.565   02 Jun 2027 02:31:20.824             9.259               Magadan1           289.344
       129   02 Jun 2027 02:32:06.290   02 Jun 2027 02:32:13.765             7.475                Anadyr1           233.594
       130   02 Jun 2027 02:32:20.768   02 Jun 2027 02:32:24.067             3.299                Anadyr1           103.094
       131   02 Jun 2027 02:32:27.611   02 Jun 2027 02:32:55.600            27.989               Magadan2           874.656
       132   02 Jun 2027 02:34:59.273   02 Jun 2027 02:35:08.445             9.172                Anadyr1           286.625
       133   02 Jun 2027 02:35:25.298   02 Jun 2027 02:36:03.046            37.748               Magadan2          1179.625
       134   02 Jun 2027 02:37:30.473   02 Jun 2027 02:37:41.553            11.080                Norilsk           346.250
       135   02 Jun 2027 02:38:12.779   02 Jun 2027 02:38:27.961            15.182              Murmansk2           474.437
       136   02 Jun 2027 02:39:19.819   02 Jun 2027 02:40:06.572            46.753                Norilsk          1461.031
       137   02 Jun 2027 02:42:12.325   02 Jun 2027 02:42:28.506            16.181                Novosib           505.656
       138   02 Jun 2027 02:43:31.160   02 Jun 2027 02:43:53.138            21.978              Murmansk1           686.813
       139   02 Jun 2027 02:45:13.071   02 Jun 2027 02:45:25.696            12.625                Novosib           394.531
       140   02 Jun 2027 02:46:08.102   02 Jun 2027 02:46:54.609            46.507              Murmansk2          1453.344
       141   02 Jun 2027 02:49:36.339   02 Jun 2027 02:49:56.141            19.802              Murmansk1           618.812
       142   02 Jun 2027 02:51:46.153   02 Jun 2027 02:52:18.692            32.539                 Moscow          1016.844
       143   02 Jun 2027 03:11:56.333   02 Jun 2027 03:13:37.438           101.105               CapeTown          3159.531
       144   02 Jun 2027 04:09:08.282   02 Jun 2027 04:09:46.700            38.418                Anadyr2          1200.562
       145   02 Jun 2027 04:09:48.855   02 Jun 2027 04:11:03.810            74.955                Anadyr1          2342.344
       146   02 Jun 2027 04:11:23.547   02 Jun 2027 04:12:20.617            57.070               Magadan2          1783.438
       147   02 Jun 2027 04:12:20.617   02 Jun 2027 04:13:08.418            47.801               Magadan1          1493.781
       148   02 Jun 2027 04:13:49.031   02 Jun 2027 04:14:03.565            14.534               Magadan1           454.188
       149   02 Jun 2027 05:47:05.065   02 Jun 2027 05:47:06.107             1.042               Magadan1            32.562
       150   02 Jun 2027 05:47:21.116   02 Jun 2027 05:48:21.354            60.238               Magadan1          1882.437
       151   02 Jun 2027 07:22:54.213   02 Jun 2027 07:26:01.677           187.464               Magadan2          5858.250
       152   02 Jun 2027 07:26:07.772   02 Jun 2027 07:26:22.957            15.185                Novosib           474.531
       153   02 Jun 2027 07:26:41.916   02 Jun 2027 07:27:09.529            27.613                Novosib           862.906
       154   02 Jun 2027 08:58:10.884   02 Jun 2027 08:58:40.867            29.983                Irkutsk           936.969
       155   02 Jun 2027 08:58:43.601   02 Jun 2027 09:01:36.792           173.191                Irkutsk          5412.219
       156   02 Jun 2027 09:01:46.488   02 Jun 2027 09:02:22.051            35.563                Norilsk          1111.344
       157   02 Jun 2027 09:02:23.341   02 Jun 2027 09:02:55.156            31.815              Murmansk1           994.219
       158   02 Jun 2027 09:03:44.541   02 Jun 2027 09:04:02.201            17.660              Murmansk2           551.875
       159   02 Jun 2027 09:04:55.997   02 Jun 2027 09:05:31.510            35.513              Murmansk2          1109.781
       160   02 Jun 2027 09:38:17.089   02 Jun 2027 09:38:54.329            37.240            RioGallegos          1163.750
       161   02 Jun 2027 09:40:14.142   02 Jun 2027 09:40:35.336            21.194            RioGallegos           662.312
       162   02 Jun 2027 10:12:29.884   02 Jun 2027 10:13:39.887            70.003                Sumatra          2187.594
       163   02 Jun 2027 10:20:21.874   02 Jun 2027 10:20:53.404            31.530                  Delhi           985.313
       164   02 Jun 2027 10:33:37.685   02 Jun 2027 10:34:24.716            47.031                 Moscow          1469.719
       165   02 Jun 2027 10:34:46.220   02 Jun 2027 10:35:33.652            47.432              Murmansk2          1482.250
       166   02 Jun 2027 10:35:45.850   02 Jun 2027 10:35:52.194             6.344                Novosib           198.250
       167   02 Jun 2027 10:35:53.145   02 Jun 2027 10:36:07.746            14.601                Norilsk           456.281
       168   02 Jun 2027 10:36:18.707   02 Jun 2027 10:37:09.281            50.574                Irkutsk          1580.437
       169   02 Jun 2027 10:37:18.396   02 Jun 2027 10:37:25.374             6.978                Novosib           218.062
       170   02 Jun 2027 10:37:28.517   02 Jun 2027 10:37:39.388            10.871                Norilsk           339.719
       171   02 Jun 2027 10:37:42.644   02 Jun 2027 10:38:40.955            58.311              Murmansk1          1822.219
       172   02 Jun 2027 11:57:32.047   02 Jun 2027 12:00:14.451           162.404                  Delhi          5075.125
       173   02 Jun 2027 12:06:00.299   02 Jun 2027 12:06:15.769            15.470                Novosib           483.438
       174   02 Jun 2027 12:07:58.674   02 Jun 2027 12:08:15.992            17.318                Novosib           541.188
       175   02 Jun 2027 12:09:39.914   02 Jun 2027 12:09:44.893             4.979              Murmansk2           155.594
       176   02 Jun 2027 12:09:53.405   02 Jun 2027 12:10:39.128            45.723              Murmansk1          1428.844
       177   02 Jun 2027 12:13:11.102   02 Jun 2027 12:13:19.900             8.798              Murmansk1           274.938
       178   02 Jun 2027 12:13:59.114   02 Jun 2027 12:14:30.666            31.552                Novosib           986.000
       179   02 Jun 2027 12:16:46.484   02 Jun 2027 12:16:50.651             4.167              Murmansk1           130.219
       180   02 Jun 2027 12:16:58.654   02 Jun 2027 12:17:33.690            35.036              Murmansk1          1094.875
       181   02 Jun 2027 13:40:39.066   02 Jun 2027 13:42:16.479            97.413                 Moscow          3044.156
       182   02 Jun 2027 13:43:37.445   02 Jun 2027 13:44:10.713            33.268                 Moscow          1039.625
       183   02 Jun 2027 13:44:20.905   02 Jun 2027 13:47:22.588           181.683              Murmansk2          5677.594
       184   02 Jun 2027 13:48:02.234   02 Jun 2027 13:48:37.673            35.439              Murmansk2          1107.469
       185   02 Jun 2027 13:51:13.402   02 Jun 2027 13:51:29.640            16.238              Murmansk2           507.437
       186   02 Jun 2027 13:51:33.022   02 Jun 2027 13:53:00.776            87.754                Norilsk          2742.312
       187   02 Jun 2027 13:59:55.592   02 Jun 2027 14:02:48.998           173.406                Anadyr1          5418.937
       188   02 Jun 2027 14:04:41.084   02 Jun 2027 14:04:53.419            12.335                Anadyr1           385.469
       189   02 Jun 2027 15:03:34.197   02 Jun 2027 15:03:53.298            19.101               CapeTown           596.906
       190   02 Jun 2027 15:22:13.448   02 Jun 2027 15:22:39.340            25.892              Murmansk1           809.125
       191   02 Jun 2027 15:24:18.210   02 Jun 2027 15:25:01.039            42.829              Murmansk1          1338.406
       192   02 Jun 2027 15:29:07.468   02 Jun 2027 15:29:41.649            34.181              Murmansk1          1068.156
       193   02 Jun 2027 15:34:39.095   02 Jun 2027 15:37:11.007           151.912                Anadyr1          4747.250
       194   02 Jun 2027 15:41:01.889   02 Jun 2027 15:41:08.827             6.938                Anadyr1           216.812
       195   02 Jun 2027 15:45:53.125   02 Jun 2027 15:46:01.421             8.296                Anadyr1           259.250
       196   02 Jun 2027 16:37:01.710   02 Jun 2027 16:37:29.405            27.695               CapeTown           865.469
       197   02 Jun 2027 17:03:15.138   02 Jun 2027 17:06:40.721           205.583              Murmansk2          6424.469
       198   02 Jun 2027 17:10:27.068   02 Jun 2027 17:10:51.956            24.888                Anadyr2           777.750
       199   02 Jun 2027 17:11:09.407   02 Jun 2027 17:12:06.154            56.747                Anadyr1          1773.344
       200   02 Jun 2027 17:13:07.714   02 Jun 2027 17:13:56.260            48.546               Magadan2          1517.063
       201   02 Jun 2027 17:13:58.551   02 Jun 2027 17:14:21.292            22.741               Magadan1           710.656
       202   02 Jun 2027 17:14:31.167   02 Jun 2027 17:15:28.185            57.018               Magadan1          1781.813
       203   02 Jun 2027 17:19:02.467   02 Jun 2027 17:19:06.618             4.151               Magadan2           129.719
       204   02 Jun 2027 18:46:22.361   02 Jun 2027 18:48:13.698           111.337                Anadyr2          3479.281
       205   02 Jun 2027 18:48:39.149   02 Jun 2027 18:52:57.747           258.598               Magadan2          8081.188
       206   02 Jun 2027 18:58:56.887   02 Jun 2027 18:59:02.404             5.517               Magadan1           172.406
       207   02 Jun 2027 19:41:12.622   02 Jun 2027 19:43:54.280           161.658            RioGallegos          5051.813
       208   02 Jun 2027 19:44:26.677   02 Jun 2027 19:44:35.289             8.612            RioGallegos           269.125
       209   02 Jun 2027 19:44:47.286   02 Jun 2027 19:46:02.417            75.131            RioGallegos          2347.844
       210   02 Jun 2027 20:22:03.798   02 Jun 2027 20:22:33.569            29.771                Anadyr1           930.344
       211   02 Jun 2027 20:24:14.820   02 Jun 2027 20:26:21.733           126.913                Norilsk          3966.031
       212   02 Jun 2027 20:28:36.598   02 Jun 2027 20:31:52.568           195.970                Irkutsk          6124.063
       213   02 Jun 2027 20:42:35.263   02 Jun 2027 20:45:19.155           163.892                Sumatra          5121.625
       214   02 Jun 2027 22:00:45.893   02 Jun 2027 22:01:23.619            37.726               Magadan1          1178.937
       215   02 Jun 2027 22:01:51.858   02 Jun 2027 22:01:57.408             5.550                Norilsk           173.438
       216   02 Jun 2027 22:02:36.781   02 Jun 2027 22:03:01.156            24.375                Norilsk           761.719
       217   02 Jun 2027 22:03:03.024   02 Jun 2027 22:03:08.138             5.114               Magadan1           159.812
       218   02 Jun 2027 22:03:08.138   02 Jun 2027 22:03:13.633             5.495               Magadan2           171.719
       219   02 Jun 2027 22:03:24.249   02 Jun 2027 22:03:46.738            22.489                Norilsk           702.781
       220   02 Jun 2027 22:04:00.077   02 Jun 2027 22:04:06.211             6.134                Irkutsk           191.688
       221   02 Jun 2027 22:04:09.643   02 Jun 2027 22:04:46.289            36.646               Magadan2          1145.188
       222   02 Jun 2027 22:04:58.407   02 Jun 2027 22:05:22.927            24.520                Novosib           766.250
       223   02 Jun 2027 22:05:39.909   02 Jun 2027 22:05:55.285            15.376                Novosib           480.500
       224   02 Jun 2027 22:06:01.422   02 Jun 2027 22:06:03.870             2.448                Novosib            76.500
       225   02 Jun 2027 22:07:08.320   02 Jun 2027 22:08:06.105            57.785                Novosib          1805.781
       226   02 Jun 2027 22:12:30.979   02 Jun 2027 22:14:56.479           145.500                  Delhi          4546.875
       227   02 Jun 2027 23:31:23.665   02 Jun 2027 23:32:24.172            60.507                Anadyr2          1890.844
       228   02 Jun 2027 23:35:42.149   02 Jun 2027 23:35:54.485            12.336                Anadyr2           385.500
       229   02 Jun 2027 23:36:07.950   02 Jun 2027 23:36:21.219            13.269                Anadyr1           414.656
       230   02 Jun 2027 23:36:28.954   02 Jun 2027 23:38:33.930           124.976               Magadan1          3905.500
       231   02 Jun 2027 23:38:33.930   02 Jun 2027 23:38:59.234            25.304               Magadan2           790.750
       232   02 Jun 2027 23:39:39.254   02 Jun 2027 23:41:57.421           138.167              Murmansk2          4317.719
       233   02 Jun 2027 23:44:37.875   02 Jun 2027 23:44:53.577            15.702                 Moscow           490.688
       234   02 Jun 2027 23:46:30.223   02 Jun 2027 23:47:54.424            84.201                 Moscow          2631.281
       235   02 Jun 2027 23:57:20.437   02 Jun 2027 23:57:26.975             6.538                  Delhi           204.313
       236   03 Jun 2027 00:32:07.562   03 Jun 2027 00:32:14.058             6.496            RioGallegos           203.000
       237   03 Jun 2027 01:04:03.278   03 Jun 2027 01:05:05.691            62.413                Anadyr2          1950.406
       238   03 Jun 2027 01:05:39.337   03 Jun 2027 01:06:18.429            39.092                Anadyr2          1221.625
       239   03 Jun 2027 01:06:47.350   03 Jun 2027 01:07:14.914            27.564                Anadyr1           861.375
       240   03 Jun 2027 01:09:32.010   03 Jun 2027 01:11:29.206           117.196               Magadan1          3662.375
       241   03 Jun 2027 01:11:34.417   03 Jun 2027 01:12:00.959            26.542               Magadan1           829.437
       242   03 Jun 2027 01:14:16.735   03 Jun 2027 01:16:10.884           114.149              Murmansk1          3567.156
       243   03 Jun 2027 01:16:11.352   03 Jun 2027 01:17:03.438            52.086                Novosib          1627.687
       244   03 Jun 2027 01:19:58.619   03 Jun 2027 01:20:16.389            17.770                 Moscow           555.313
       245   03 Jun 2027 01:24:16.984   03 Jun 2027 01:24:31.220            14.236                 Moscow           444.875
       246   03 Jun 2027 01:28:53.336   03 Jun 2027 01:29:08.343            15.007                 Moscow           468.969
       247   03 Jun 2027 01:42:30.799   03 Jun 2027 01:43:06.054            35.255               CapeTown          1101.719
       248   03 Jun 2027 01:44:01.191   03 Jun 2027 01:44:20.048            18.857               CapeTown           589.281
       249   03 Jun 2027 01:47:06.096   03 Jun 2027 01:47:10.922             4.826               CapeTown           150.813
       250   03 Jun 2027 01:48:30.115   03 Jun 2027 01:49:06.338            36.223               CapeTown          1131.969
       251   03 Jun 2027 02:38:19.799   03 Jun 2027 02:39:35.430            75.631                Anadyr2          2363.469
       252   03 Jun 2027 02:39:56.827   03 Jun 2027 02:40:46.366            49.539                Anadyr2          1548.094
       253   03 Jun 2027 02:41:14.401   03 Jun 2027 02:42:21.640            67.239               Magadan2          2101.219
       254   03 Jun 2027 02:42:43.091   03 Jun 2027 02:42:56.282            13.191               Magadan2           412.219
       255   03 Jun 2027 02:47:26.025   03 Jun 2027 02:47:42.097            16.072                Norilsk           502.250
       256   03 Jun 2027 02:50:14.508   03 Jun 2027 02:50:21.801             7.293              Murmansk1           227.906
       257   03 Jun 2027 02:50:30.685   03 Jun 2027 02:52:19.005           108.320              Murmansk1          3385.000
       258   03 Jun 2027 02:53:27.314   03 Jun 2027 02:53:45.727            18.413                 Moscow           575.406
       259   03 Jun 2027 02:54:15.193   03 Jun 2027 02:54:32.185            16.992                 Moscow           531.000
       260   03 Jun 2027 03:19:00.431   03 Jun 2027 03:19:15.129            14.698               CapeTown           459.313
       261   03 Jun 2027 04:22:40.660   03 Jun 2027 04:23:02.973            22.313               Magadan2           697.281
       262   03 Jun 2027 04:23:05.125   03 Jun 2027 04:23:52.644            47.519                Anadyr2          1484.969
       263   03 Jun 2027 05:58:01.749   03 Jun 2027 05:58:24.873            23.124                Irkutsk           722.625
       264   03 Jun 2027 05:59:08.262   03 Jun 2027 06:00:31.421            83.159               Magadan2          2598.719
       265   03 Jun 2027 07:32:07.072   03 Jun 2027 07:33:15.137            68.065                Novosib          2127.031
       266   03 Jun 2027 07:33:34.719   03 Jun 2027 07:33:39.710             4.991                Irkutsk           155.969
       267   03 Jun 2027 07:33:40.768   03 Jun 2027 07:34:03.930            23.162               Magadan2           723.812
       268   03 Jun 2027 07:34:05.639   03 Jun 2027 07:35:01.871            56.232                Irkutsk          1757.250
       269   03 Jun 2027 07:35:22.245   03 Jun 2027 07:36:32.530            70.285               Magadan1          2196.406
       270   03 Jun 2027 07:36:40.891   03 Jun 2027 07:36:51.710            10.819              Murmansk1           338.094
       271   03 Jun 2027 07:36:51.710   03 Jun 2027 07:36:54.292             2.582              Murmansk2            80.688
       272   03 Jun 2027 07:36:56.422   03 Jun 2027 07:38:13.465            77.043                Irkutsk          2407.594
       273   03 Jun 2027 07:38:17.193   03 Jun 2027 07:38:19.582             2.389              Murmansk2            74.656
       274   03 Jun 2027 07:39:02.480   03 Jun 2027 07:39:21.813            19.333              Murmansk2           604.156
       275   03 Jun 2027 07:39:21.813   03 Jun 2027 07:39:34.414            12.601              Murmansk1           393.781
       276   03 Jun 2027 08:12:59.451   03 Jun 2027 08:13:19.502            20.051            RioGallegos           626.594
       277   03 Jun 2027 08:13:59.964   03 Jun 2027 08:14:19.742            19.778            RioGallegos           618.063
       278   03 Jun 2027 08:16:17.332   03 Jun 2027 08:16:21.958             4.626            RioGallegos           144.563
       279   03 Jun 2027 08:48:25.159   03 Jun 2027 08:49:24.547            59.388                Sumatra          1855.875
       280   03 Jun 2027 08:54:07.215   03 Jun 2027 08:54:53.920            46.705                Sumatra          1459.531
       281   03 Jun 2027 09:01:38.129   03 Jun 2027 09:02:25.374            47.245                  Delhi          1476.406
       282   03 Jun 2027 09:08:19.039   03 Jun 2027 09:08:45.936            26.897                Norilsk           840.531
       283   03 Jun 2027 09:08:50.379   03 Jun 2027 09:09:29.851            39.472                Irkutsk          1233.500
       284   03 Jun 2027 09:09:40.955   03 Jun 2027 09:09:50.873             9.918                Norilsk           309.938
       285   03 Jun 2027 09:10:00.253   03 Jun 2027 09:10:10.106             9.853                Irkutsk           307.906
       286   03 Jun 2027 09:10:15.233   03 Jun 2027 09:10:36.316            21.083                Novosib           658.844
       287   03 Jun 2027 09:10:49.343   03 Jun 2027 09:10:51.428             2.085                Norilsk            65.156
       288   03 Jun 2027 09:10:55.937   03 Jun 2027 09:11:11.203            15.266              Murmansk2           477.062
       289   03 Jun 2027 09:11:31.817   03 Jun 2027 09:11:32.468             0.651                Norilsk            20.344
       290   03 Jun 2027 09:11:47.684   03 Jun 2027 09:12:53.843            66.159                Novosib          2067.469
       291   03 Jun 2027 09:12:58.350   03 Jun 2027 09:13:06.695             8.345                Novosib           260.781
       292   03 Jun 2027 09:13:13.698   03 Jun 2027 09:14:08.031            54.333              Murmansk2          1697.906
       293   03 Jun 2027 09:50:48.892   03 Jun 2027 09:52:18.592            89.700            RioGallegos          2803.125
       294   03 Jun 2027 10:25:00.954   03 Jun 2027 10:25:04.191             3.237                Sumatra           101.156
       295   03 Jun 2027 10:25:16.900   03 Jun 2027 10:25:40.984            24.084                Sumatra           752.625
       296   03 Jun 2027 10:29:02.698   03 Jun 2027 10:29:55.995            53.297                Sumatra          1665.531
       297   03 Jun 2027 10:45:40.889   03 Jun 2027 10:46:23.925            43.036                Irkutsk          1344.875
       298   03 Jun 2027 10:46:28.309   03 Jun 2027 10:47:29.021            60.712                 Moscow          1897.250
       299   03 Jun 2027 10:47:31.551   03 Jun 2027 10:48:39.448            67.897                 Moscow          2121.781
       300   03 Jun 2027 10:48:44.748   03 Jun 2027 10:49:08.605            23.857              Murmansk2           745.531
       301   03 Jun 2027 10:49:11.791   03 Jun 2027 10:49:29.094            17.303                Novosib           540.719
       302   03 Jun 2027 10:49:30.384   03 Jun 2027 10:50:01.443            31.059              Murmansk2           970.594
       303   03 Jun 2027 10:56:16.929   03 Jun 2027 10:56:26.878             9.949              Murmansk1           310.906
       304   03 Jun 2027 12:10:20.019   03 Jun 2027 12:12:03.634           103.615                  Delhi          3237.969
       305   03 Jun 2027 12:12:55.430   03 Jun 2027 12:14:47.484           112.054                  Delhi          3501.688
       306   03 Jun 2027 12:18:02.075   03 Jun 2027 12:18:16.835            14.760                 Moscow           461.250
       307   03 Jun 2027 12:18:58.013   03 Jun 2027 12:19:31.823            33.810                 Moscow          1056.563
       308   03 Jun 2027 12:19:58.816   03 Jun 2027 12:21:27.529            88.713              Murmansk2          2772.281
       309   03 Jun 2027 12:27:57.344   03 Jun 2027 12:28:16.244            18.900              Murmansk1           590.625
       310   03 Jun 2027 12:31:22.359   03 Jun 2027 12:32:08.324            45.965              Murmansk1          1436.406
       311   03 Jun 2027 13:33:41.900   03 Jun 2027 13:35:18.935            97.035               CapeTown          3032.344
       312   03 Jun 2027 13:37:46.684   03 Jun 2027 13:38:17.295            30.611               CapeTown           956.594
       313   03 Jun 2027 13:52:51.856   03 Jun 2027 13:53:07.850            15.994                 Moscow           499.813
       314   03 Jun 2027 13:53:25.344   03 Jun 2027 13:53:46.056            20.712                 Moscow           647.250
       315   03 Jun 2027 13:54:12.182   03 Jun 2027 13:54:16.192             4.010                 Moscow           125.312
       316   03 Jun 2027 13:56:20.228   03 Jun 2027 13:59:15.035           174.807              Murmansk1          5462.719
       317   03 Jun 2027 14:03:14.930   03 Jun 2027 14:03:30.496            15.566              Murmansk1           486.438
       318   03 Jun 2027 14:11:36.013   03 Jun 2027 14:13:22.879           106.866                Anadyr2          3339.563
       319   03 Jun 2027 14:13:57.918   03 Jun 2027 14:15:04.453            66.535                Anadyr1          2079.219
       320   03 Jun 2027 14:16:41.974   03 Jun 2027 14:18:02.140            80.166                Anadyr2          2505.187
       321   03 Jun 2027 15:33:14.347   03 Jun 2027 15:33:52.679            38.332                 Moscow          1197.875
       322   03 Jun 2027 15:34:40.958   03 Jun 2027 15:34:57.091            16.133              Murmansk2           504.156
       323   03 Jun 2027 15:35:08.808   03 Jun 2027 15:35:27.478            18.670              Murmansk2           583.437
       324   03 Jun 2027 15:36:55.684   03 Jun 2027 15:37:02.547             6.863              Murmansk2           214.469
       325   03 Jun 2027 15:37:22.961   03 Jun 2027 15:39:01.348            98.387              Murmansk2          3074.594
       326   03 Jun 2027 15:46:38.153   03 Jun 2027 15:47:39.375            61.222                Anadyr2          1913.187
       327   03 Jun 2027 15:47:47.741   03 Jun 2027 15:48:07.034            19.293                Anadyr1           602.906
       328   03 Jun 2027 15:48:18.808   03 Jun 2027 15:48:34.284            15.476                Anadyr1           483.625
       329   03 Jun 2027 16:42:59.492   03 Jun 2027 16:43:06.001             6.509               CapeTown           203.406
       330   03 Jun 2027 16:43:08.953   03 Jun 2027 16:43:49.648            40.695               CapeTown          1271.719
       331   03 Jun 2027 17:16:28.887   03 Jun 2027 17:19:08.795           159.908              Murmansk2          4997.125
       332   03 Jun 2027 17:22:28.436   03 Jun 2027 17:25:06.992           158.556                Anadyr2          4954.875
       333   03 Jun 2027 17:25:22.672   03 Jun 2027 17:27:06.875           104.203               Magadan1          3256.344
       334   03 Jun 2027 18:58:23.167   03 Jun 2027 19:00:15.186           112.019                Anadyr1          3500.594
       335   03 Jun 2027 19:00:40.213   03 Jun 2027 19:03:59.852           199.639               Magadan2          6238.719
       336   03 Jun 2027 19:04:05.975   03 Jun 2027 19:04:47.623            41.648                Norilsk          1301.500
       337   03 Jun 2027 19:10:36.665   03 Jun 2027 19:10:47.400            10.735               Magadan1           335.469
       338   03 Jun 2027 19:10:47.400   03 Jun 2027 19:11:02.224            14.824               Magadan2           463.250
       339   03 Jun 2027 19:52:57.265   03 Jun 2027 19:56:28.227           210.962            RioGallegos          6592.563
       340   03 Jun 2027 20:36:22.389   03 Jun 2027 20:36:33.733            11.344                Norilsk           354.500
       341   03 Jun 2027 20:36:42.257   03 Jun 2027 20:38:32.542           110.285               Magadan2          3446.406
       342   03 Jun 2027 20:38:54.470   03 Jun 2027 20:39:54.419            59.949                Norilsk          1873.406
       343   03 Jun 2027 20:40:28.562   03 Jun 2027 20:41:29.487            60.925                Irkutsk          1903.906
       344   03 Jun 2027 20:42:50.981   03 Jun 2027 20:45:04.057           133.076                Novosib          4158.625
       345   03 Jun 2027 20:54:16.832   03 Jun 2027 20:55:16.995            60.163                Sumatra          1880.094
       346   03 Jun 2027 20:55:41.321   03 Jun 2027 20:56:45.394            64.073                Sumatra          2002.281
       347   03 Jun 2027 20:57:52.215   03 Jun 2027 20:57:53.944             1.729                Sumatra            54.031
       348   03 Jun 2027 20:58:23.209   03 Jun 2027 20:58:41.646            18.437                Sumatra           576.156
       349   03 Jun 2027 22:12:48.083   03 Jun 2027 22:14:07.354            79.271               Magadan2          2477.219
       350   03 Jun 2027 22:15:19.420   03 Jun 2027 22:15:30.507            11.087               Magadan2           346.469
       351   03 Jun 2027 22:15:32.954   03 Jun 2027 22:15:36.579             3.625                Norilsk           113.281
       352   03 Jun 2027 22:15:47.243   03 Jun 2027 22:15:56.992             9.749                Norilsk           304.656
       353   03 Jun 2027 22:16:02.199   03 Jun 2027 22:16:38.884            36.685                Irkutsk          1146.406
       354   03 Jun 2027 22:17:45.922   03 Jun 2027 22:19:48.509           122.587                Novosib          3830.844
       355   03 Jun 2027 22:24:07.594   03 Jun 2027 22:27:55.079           227.485                  Delhi          7108.906
       356   03 Jun 2027 23:48:10.082   03 Jun 2027 23:48:23.211            13.129                Norilsk           410.281
       357   03 Jun 2027 23:48:37.608   03 Jun 2027 23:49:59.342            81.734                Norilsk          2554.188
       358   03 Jun 2027 23:50:15.944   03 Jun 2027 23:50:27.749            11.805               Magadan2           368.906
       359   03 Jun 2027 23:50:34.639   03 Jun 2027 23:53:26.906           172.267              Murmansk1          5383.344
       360   03 Jun 2027 23:54:15.607   03 Jun 2027 23:54:29.806            14.199              Murmansk1           443.719
       361   03 Jun 2027 23:55:40.590   03 Jun 2027 23:56:26.895            46.305                 Moscow          1447.031
       362   03 Jun 2027 23:57:16.928   03 Jun 2027 23:57:44.960            28.032                 Moscow           876.000
       363   03 Jun 2027 23:58:41.224   03 Jun 2027 23:59:57.336            76.112                 Moscow          2378.500
       364   04 Jun 2027 01:15:47.792   04 Jun 2027 01:15:57.633             9.841                Anadyr1           307.531
       365   04 Jun 2027 01:17:38.744   04 Jun 2027 01:18:08.517            29.773                Anadyr1           930.406
       366   04 Jun 2027 01:18:30.292   04 Jun 2027 01:18:42.827            12.535                Anadyr2           391.719
       367   04 Jun 2027 01:18:48.219   04 Jun 2027 01:18:56.361             8.142                Anadyr2           254.438
       368   04 Jun 2027 01:19:19.879   04 Jun 2027 01:19:20.366             0.487                Anadyr1            15.219
       369   04 Jun 2027 01:20:44.510   04 Jun 2027 01:21:08.715            24.205                Anadyr1           756.406
       370   04 Jun 2027 01:21:42.525   04 Jun 2027 01:21:59.639            17.114                Anadyr2           534.812
       371   04 Jun 2027 01:22:15.206   04 Jun 2027 01:23:29.880            74.674               Magadan2          2333.563
       372   04 Jun 2027 01:23:31.495   04 Jun 2027 01:24:03.645            32.150               Magadan1          1004.688
       373   04 Jun 2027 01:24:48.992   04 Jun 2027 01:24:52.242             3.250               Magadan2           101.562
       374   04 Jun 2027 01:26:18.014   04 Jun 2027 01:26:54.584            36.570              Murmansk1          1142.813
       375   04 Jun 2027 01:26:59.491   04 Jun 2027 01:28:05.903            66.412              Murmansk2          2075.375
       376   04 Jun 2027 01:28:27.002   04 Jun 2027 01:28:41.626            14.624              Murmansk2           457.000
       377   04 Jun 2027 01:29:41.554   04 Jun 2027 01:30:17.876            36.322                 Moscow          1135.062
       378   04 Jun 2027 01:31:34.878   04 Jun 2027 01:31:50.823            15.945                 Moscow           498.281
       379   04 Jun 2027 01:35:14.922   04 Jun 2027 01:37:05.431           110.509                Novosib          3453.406
       380   04 Jun 2027 02:50:15.431   04 Jun 2027 02:52:38.529           143.098                Anadyr2          4471.812
       381   04 Jun 2027 02:52:38.955   04 Jun 2027 02:53:02.574            23.619                Anadyr1           738.094
       382   04 Jun 2027 02:53:11.543   04 Jun 2027 02:54:20.970            69.427               Magadan2          2169.594
       383   04 Jun 2027 02:59:34.283   04 Jun 2027 03:00:08.051            33.768                Norilsk          1055.250
       384   04 Jun 2027 03:11:38.780   04 Jun 2027 03:11:57.886            19.106              Murmansk1           597.062
       385   04 Jun 2027 03:30:00.773   04 Jun 2027 03:31:12.043            71.270               CapeTown          2227.187
       386   04 Jun 2027 04:26:22.661   04 Jun 2027 04:27:35.686            73.025               Magadan2          2282.031
       387   04 Jun 2027 04:28:32.713   04 Jun 2027 04:28:58.389            25.676               Magadan2           802.375
       388   04 Jun 2027 04:32:36.641   04 Jun 2027 04:33:43.807            67.166                Anadyr2          2098.937
       389   04 Jun 2027 04:33:45.079   04 Jun 2027 04:35:06.312            81.233                Anadyr1          2538.531
       390   04 Jun 2027 04:35:16.143   04 Jun 2027 04:35:17.856             1.713                Norilsk            53.531
       391   04 Jun 2027 04:35:25.561   04 Jun 2027 04:36:07.372            41.811                Anadyr1          1306.594
       392   04 Jun 2027 04:36:18.648   04 Jun 2027 04:37:30.911            72.263                Anadyr2          2258.219
       393   04 Jun 2027 04:38:31.964   04 Jun 2027 04:38:51.655            19.691                Anadyr1           615.344
       394   04 Jun 2027 04:40:59.323   04 Jun 2027 04:41:00.601             1.278                Norilsk            39.937
       395   04 Jun 2027 04:41:09.222   04 Jun 2027 04:41:27.011            17.789                Norilsk           555.906
       396   04 Jun 2027 06:09:43.634   04 Jun 2027 06:11:04.757            81.123                Irkutsk          2535.094
       397   04 Jun 2027 06:11:16.041   04 Jun 2027 06:12:35.342            79.301                Anadyr2          2478.156
       398   04 Jun 2027 06:12:35.342   04 Jun 2027 06:13:22.466            47.124                Anadyr1          1472.625
       399   04 Jun 2027 06:50:30.232   04 Jun 2027 06:51:44.686            74.454            RioGallegos          2326.688
       400   04 Jun 2027 07:43:30.188   04 Jun 2027 07:44:50.765            80.577               Magadan1          2518.031
       401   04 Jun 2027 07:45:10.054   04 Jun 2027 07:45:35.661            25.607                Irkutsk           800.219
       402   04 Jun 2027 07:45:50.339   04 Jun 2027 07:45:52.479             2.140                Norilsk            66.875
       403   04 Jun 2027 07:45:55.412   04 Jun 2027 07:46:08.557            13.145               Magadan1           410.781
       404   04 Jun 2027 07:46:11.864   04 Jun 2027 07:47:29.038            77.174                Irkutsk          2411.688
       405   04 Jun 2027 07:47:36.186   04 Jun 2027 07:47:37.964             1.778                Irkutsk            55.562
       406   04 Jun 2027 07:47:50.717   04 Jun 2027 07:47:54.164             3.447                Norilsk           107.719
       407   04 Jun 2027 07:47:58.719   04 Jun 2027 07:48:06.559             7.840                Novosib           245.000
       408   04 Jun 2027 07:48:19.913   04 Jun 2027 07:48:22.542             2.629                Irkutsk            82.156
       409   04 Jun 2027 07:48:26.210   04 Jun 2027 07:48:32.135             5.925                Norilsk           185.156
       410   04 Jun 2027 07:48:47.364   04 Jun 2027 07:49:16.124            28.760                Norilsk           898.750
       411   04 Jun 2027 07:49:19.516   04 Jun 2027 07:49:31.836            12.320                Novosib           385.000
       412   04 Jun 2027 07:49:32.572   04 Jun 2027 07:50:17.782            45.210              Murmansk1          1412.812
       413   04 Jun 2027 07:50:19.020   04 Jun 2027 07:50:56.319            37.299              Murmansk1          1165.594
       414   04 Jun 2027 08:25:01.490   04 Jun 2027 08:25:33.332            31.842            RioGallegos           995.063
       415   04 Jun 2027 08:26:07.177   04 Jun 2027 08:26:29.652            22.475            RioGallegos           702.344
       416   04 Jun 2027 08:33:13.967   04 Jun 2027 08:33:22.695             8.728            RioGallegos           272.750
       417   04 Jun 2027 09:00:10.151   04 Jun 2027 09:01:13.526            63.375                Sumatra          1980.469
       418   04 Jun 2027 09:02:23.825   04 Jun 2027 09:02:52.982            29.157                Sumatra           911.156
       419   04 Jun 2027 09:12:04.485   04 Jun 2027 09:13:46.547           102.062                  Delhi          3189.437
       420   04 Jun 2027 09:20:00.783   04 Jun 2027 09:20:27.830            27.047                Irkutsk           845.219
       421   04 Jun 2027 09:20:51.419   04 Jun 2027 09:22:03.962            72.543                Novosib          2266.969
       422   04 Jun 2027 09:22:25.116   04 Jun 2027 09:23:00.780            35.664                Novosib          1114.500
       423   04 Jun 2027 09:23:08.618   04 Jun 2027 09:23:20.014            11.396                Novosib           356.125
       424   04 Jun 2027 09:23:21.277   04 Jun 2027 09:23:25.186             3.909                Irkutsk           122.156
       425   04 Jun 2027 09:23:41.306   04 Jun 2027 09:24:10.092            28.786              Murmansk1           899.562
       426   04 Jun 2027 09:24:21.024   04 Jun 2027 09:24:26.018             4.994                Irkutsk           156.063
       427   04 Jun 2027 09:24:41.085   04 Jun 2027 09:24:53.089            12.004                Novosib           375.125
       428   04 Jun 2027 09:24:54.060   04 Jun 2027 09:26:10.764            76.704                Irkutsk          2397.000
       429   04 Jun 2027 10:05:32.954   04 Jun 2027 10:05:54.112            21.158            RioGallegos           661.187
       430   04 Jun 2027 10:37:45.545   04 Jun 2027 10:38:00.829            15.284                Sumatra           477.625
       431   04 Jun 2027 10:40:43.778   04 Jun 2027 10:42:19.698            95.920                Sumatra          2997.500
       432   04 Jun 2027 10:58:03.564   04 Jun 2027 10:58:17.439            13.875                Novosib           433.594
       433   04 Jun 2027 10:58:21.022   04 Jun 2027 10:58:37.199            16.177                Novosib           505.531
       434   04 Jun 2027 10:58:42.250   04 Jun 2027 10:58:56.419            14.169              Murmansk2           442.781
       435   04 Jun 2027 10:59:16.699   04 Jun 2027 10:59:31.061            14.362                Norilsk           448.813
       436   04 Jun 2027 10:59:32.473   04 Jun 2027 10:59:48.105            15.632                 Moscow           488.500
       437   04 Jun 2027 10:59:52.743   04 Jun 2027 10:59:58.277             5.534                Novosib           172.937
       438   04 Jun 2027 11:00:00.223   04 Jun 2027 11:00:34.118            33.895              Murmansk1          1059.219
       439   04 Jun 2027 11:00:34.722   04 Jun 2027 11:00:45.913            11.191              Murmansk1           349.719
       440   04 Jun 2027 11:00:53.883   04 Jun 2027 11:01:51.791            57.908                 Moscow          1809.625
       441   04 Jun 2027 12:23:29.262   04 Jun 2027 12:24:46.540            77.278                  Delhi          2414.938
       442   04 Jun 2027 12:27:02.371   04 Jun 2027 12:27:25.246            22.875                  Delhi           714.844
       443   04 Jun 2027 12:29:30.370   04 Jun 2027 12:30:17.147            46.777                 Moscow          1461.781
       444   04 Jun 2027 12:30:36.869   04 Jun 2027 12:31:46.961            70.092                 Moscow          2190.375
       445   04 Jun 2027 12:31:57.990   04 Jun 2027 12:34:32.834           154.844              Murmansk1          4838.875
       446   04 Jun 2027 13:44:28.577   04 Jun 2027 13:46:54.810           146.233               CapeTown          4569.781
       447   04 Jun 2027 13:50:18.338   04 Jun 2027 13:51:47.916            89.578               CapeTown          2799.312
       448   04 Jun 2027 14:08:32.505   04 Jun 2027 14:09:49.402            76.897              Murmansk1          2403.031
       449   04 Jun 2027 14:09:50.051   04 Jun 2027 14:10:45.282            55.231              Murmansk2          1725.969
       450   04 Jun 2027 14:12:29.257   04 Jun 2027 14:13:06.020            36.763              Murmansk1          1148.844
       451   04 Jun 2027 14:23:22.850   04 Jun 2027 14:25:22.231           119.381                Anadyr1          3730.656
       452   04 Jun 2027 14:25:43.310   04 Jun 2027 14:27:05.543            82.233                Anadyr2          2569.781
       453   04 Jun 2027 14:28:56.073   04 Jun 2027 14:29:33.465            37.392                Anadyr2          1168.500
       454   04 Jun 2027 15:47:11.143   04 Jun 2027 15:48:08.890            57.747              Murmansk2          1804.594
       455   04 Jun 2027 15:48:08.890   04 Jun 2027 15:48:27.221            18.331              Murmansk1           572.844
       456   04 Jun 2027 15:50:58.492   04 Jun 2027 15:51:21.268            22.776              Murmansk2           711.750
       457   04 Jun 2027 15:54:00.178   04 Jun 2027 15:54:40.706            40.528              Murmansk1          1266.500
       458   04 Jun 2027 15:58:37.763   04 Jun 2027 16:00:54.456           136.693                Anadyr1          4271.656
       459   04 Jun 2027 16:03:09.386   04 Jun 2027 16:03:44.469            35.083               Magadan1          1096.344
       460   04 Jun 2027 16:03:55.867   04 Jun 2027 16:05:50.812           114.945               Magadan2          3592.031
       461   04 Jun 2027 17:34:29.862   04 Jun 2027 17:37:07.553           157.691                Anadyr2          4927.844
       462   04 Jun 2027 17:37:08.760   04 Jun 2027 17:37:11.229             2.469                Anadyr1            77.156
       463   04 Jun 2027 17:37:18.909   04 Jun 2027 17:39:22.223           123.314               Magadan2          3853.562
       464   04 Jun 2027 17:43:01.914   04 Jun 2027 17:43:07.677             5.763               Magadan2           180.094
       465   04 Jun 2027 17:44:28.177   04 Jun 2027 17:44:44.816            16.639               Magadan1           519.969
       466   04 Jun 2027 17:48:05.419   04 Jun 2027 17:48:12.388             6.969               Magadan2           217.781
       467   04 Jun 2027 17:48:39.692   04 Jun 2027 17:48:43.676             3.984               Magadan2           124.500
       468   04 Jun 2027 19:10:23.730   04 Jun 2027 19:14:19.069           235.339                Anadyr2          7354.344
       469   04 Jun 2027 19:14:41.487   04 Jun 2027 19:15:58.217            76.730               Magadan1          2397.812
       470   04 Jun 2027 19:16:17.504   04 Jun 2027 19:16:47.973            30.469               Magadan1           952.156
       471   04 Jun 2027 19:18:36.812   04 Jun 2027 19:18:44.936             8.124               Magadan2           253.875
       472   04 Jun 2027 19:19:15.417   04 Jun 2027 19:19:24.259             8.842               Magadan1           276.312
       473   04 Jun 2027 19:19:46.238   04 Jun 2027 19:20:34.433            48.195               Magadan2          1506.094
       474   04 Jun 2027 19:21:11.985   04 Jun 2027 19:21:41.743            29.758                Irkutsk           929.938
       475   04 Jun 2027 20:04:45.770   04 Jun 2027 20:06:48.667           122.897            RioGallegos          3840.531
       476   04 Jun 2027 20:10:52.052   04 Jun 2027 20:10:52.139             0.087            RioGallegos             2.719
       477   04 Jun 2027 20:13:39.102   04 Jun 2027 20:14:06.725            27.623            RioGallegos           863.219
       478   04 Jun 2027 20:14:38.621   04 Jun 2027 20:15:28.670            50.049            RioGallegos          1564.031
       479   04 Jun 2027 20:48:15.208   04 Jun 2027 20:50:13.765           118.557                Norilsk          3704.906
       480   04 Jun 2027 20:52:22.633   04 Jun 2027 20:53:53.006            90.373                Irkutsk          2824.156
       481   04 Jun 2027 20:54:02.001   04 Jun 2027 20:55:42.701           100.700                Novosib          3146.875
       482   04 Jun 2027 20:56:23.615   04 Jun 2027 20:57:10.480            46.865                Novosib          1464.531
