uniorb/output/strategy_2/Drop/Drop_KinoSat_110910.txt

KinoSat_110910
-------------------------
    Access    *     Start Time (UTCG)     *     Stop Time (UTCG)  *   Duration (s)        *       Station  *  Data (Mbytes)
         1   01 Jun 2027 04:20:18.386   01 Jun 2027 04:21:16.483            58.097               Magadan1          1815.531
         2   01 Jun 2027 04:21:35.416   01 Jun 2027 04:23:08.229            92.813               Magadan2          2900.406
         3   01 Jun 2027 04:23:19.896   01 Jun 2027 04:24:55.429            95.533               Magadan2          2985.406
         4   01 Jun 2027 05:55:46.350   01 Jun 2027 05:55:46.571             0.221               Magadan1             6.906
         5   01 Jun 2027 05:55:46.571   01 Jun 2027 05:56:00.148            13.577               Magadan2           424.281
         6   01 Jun 2027 05:56:00.148   01 Jun 2027 05:57:38.171            98.023               Magadan1          3063.219
         7   01 Jun 2027 05:57:43.634   01 Jun 2027 05:58:12.483            28.849                Anadyr1           901.531
         8   01 Jun 2027 05:58:18.582   01 Jun 2027 05:58:55.931            37.349                Anadyr2          1167.156
         9   01 Jun 2027 05:59:14.963   01 Jun 2027 05:59:35.708            20.745               Magadan2           648.281
        10   01 Jun 2027 05:59:40.539   01 Jun 2027 05:59:45.078             4.539               Magadan1           141.844
        11   01 Jun 2027 05:59:49.449   01 Jun 2027 06:00:42.633            53.184                Anadyr1          1662.000
        12   01 Jun 2027 06:00:47.331   01 Jun 2027 06:01:00.087            12.756                Norilsk           398.625
        13   01 Jun 2027 06:01:05.156   01 Jun 2027 06:01:10.933             5.777                Norilsk           180.531
        14   01 Jun 2027 06:01:32.813   01 Jun 2027 06:02:00.378            27.565                Norilsk           861.406
        15   01 Jun 2027 06:03:05.936   01 Jun 2027 06:03:55.751            49.815                Norilsk          1556.719
        16   01 Jun 2027 06:37:09.118   01 Jun 2027 06:39:16.899           127.781            RioGallegos          3993.156
        17   01 Jun 2027 07:31:05.076   01 Jun 2027 07:32:00.602            55.526                Irkutsk          1735.188
        18   01 Jun 2027 07:33:42.946   01 Jun 2027 07:34:21.679            38.733               Magadan2          1210.406
        19   01 Jun 2027 07:34:26.488   01 Jun 2027 07:34:34.051             7.563                Novosib           236.344
        20   01 Jun 2027 07:34:40.405   01 Jun 2027 07:36:09.878            89.473                Irkutsk          2796.031
        21   01 Jun 2027 07:36:23.696   01 Jun 2027 07:36:26.853             3.157               Magadan1            98.656
        22   01 Jun 2027 07:36:44.177   01 Jun 2027 07:38:14.637            90.460              Murmansk1          2826.875
        23   01 Jun 2027 07:39:02.878   01 Jun 2027 07:39:02.884             0.006              Murmansk2             0.188
        24   01 Jun 2027 07:39:58.051   01 Jun 2027 07:40:37.021            38.970              Murmansk2          1217.812
        25   01 Jun 2027 08:12:13.705   01 Jun 2027 08:12:19.087             5.382            RioGallegos           168.187
        26   01 Jun 2027 08:13:06.179   01 Jun 2027 08:13:58.860            52.681            RioGallegos          1646.281
        27   01 Jun 2027 08:15:22.735   01 Jun 2027 08:15:54.272            31.537            RioGallegos           985.531
        28   01 Jun 2027 08:47:04.541   01 Jun 2027 08:47:59.115            54.574                Sumatra          1705.437
        29   01 Jun 2027 08:49:10.466   01 Jun 2027 08:49:51.595            41.129                Sumatra          1285.281
        30   01 Jun 2027 08:57:53.092   01 Jun 2027 08:58:17.795            24.703                  Delhi           771.969
        31   01 Jun 2027 09:09:25.369   01 Jun 2027 09:09:52.551            27.182                Irkutsk           849.437
        32   01 Jun 2027 09:09:58.172   01 Jun 2027 09:10:48.560            50.388              Murmansk2          1574.625
        33   01 Jun 2027 09:10:55.543   01 Jun 2027 09:13:42.003           166.460                 Moscow          5201.875
        34   01 Jun 2027 10:31:14.971   01 Jun 2027 10:31:37.671            22.700                  Delhi           709.375
        35   01 Jun 2027 10:47:09.439   01 Jun 2027 10:49:12.960           123.521                 Moscow          3860.031
        36   01 Jun 2027 10:52:15.006   01 Jun 2027 10:52:50.249            35.243              Murmansk2          1101.344
        37   01 Jun 2027 12:15:40.778   01 Jun 2027 12:16:47.281            66.503                 Moscow          2078.219
        38   01 Jun 2027 12:17:32.244   01 Jun 2027 12:19:44.724           132.480                 Moscow          4140.000
        39   01 Jun 2027 12:19:54.947   01 Jun 2027 12:20:57.832            62.885              Murmansk1          1965.156
        40   01 Jun 2027 12:20:59.841   01 Jun 2027 12:21:20.290            20.449              Murmansk2           639.031
        41   01 Jun 2027 12:22:25.140   01 Jun 2027 12:23:15.866            50.726              Murmansk2          1585.187
        42   01 Jun 2027 12:23:50.018   01 Jun 2027 12:24:07.950            17.932              Murmansk1           560.375
        43   01 Jun 2027 12:24:25.711   01 Jun 2027 12:24:42.600            16.889              Murmansk1           527.781
        44   01 Jun 2027 13:30:40.144   01 Jun 2027 13:33:41.606           181.462               CapeTown          5670.687
        45   01 Jun 2027 13:52:39.395   01 Jun 2027 13:53:20.713            41.318                 Moscow          1291.188
        46   01 Jun 2027 13:55:55.678   01 Jun 2027 13:56:52.268            56.590              Murmansk2          1768.437
        47   01 Jun 2027 13:57:01.699   01 Jun 2027 13:58:14.928            73.229              Murmansk1          2288.406
        48   01 Jun 2027 14:10:16.202   01 Jun 2027 14:13:29.648           193.446                Anadyr2          6045.187
        49   01 Jun 2027 15:08:47.948   01 Jun 2027 15:09:27.108            39.160               CapeTown          1223.750
        50   01 Jun 2027 15:34:58.827   01 Jun 2027 15:35:22.634            23.807              Murmansk1           743.969
        51   01 Jun 2027 15:36:00.638   01 Jun 2027 15:37:28.652            88.014              Murmansk2          2750.437
        52   01 Jun 2027 15:45:42.550   01 Jun 2027 15:47:32.216           109.666                Anadyr2          3427.063
        53   01 Jun 2027 15:49:27.841   01 Jun 2027 15:54:55.005           327.164               Magadan1         10223.875
        54   01 Jun 2027 17:22:58.160   01 Jun 2027 17:23:18.047            19.887                Anadyr1           621.469
        55   01 Jun 2027 17:24:00.534   01 Jun 2027 17:24:28.083            27.549               Magadan1           860.906
        56   01 Jun 2027 17:25:50.876   01 Jun 2027 17:26:08.176            17.300               Magadan1           540.625
        57   01 Jun 2027 17:28:18.520   01 Jun 2027 17:30:05.062           106.542               Magadan1          3329.438
        58   01 Jun 2027 18:57:28.496   01 Jun 2027 18:59:57.267           148.771                Anadyr2          4649.094
        59   01 Jun 2027 18:59:58.758   01 Jun 2027 19:03:38.242           219.484                Norilsk          6858.875
        60   01 Jun 2027 19:05:35.269   01 Jun 2027 19:07:51.563           136.294                Irkutsk          4259.187
        61   01 Jun 2027 19:22:58.412   01 Jun 2027 19:24:53.769           115.357                Sumatra          3604.906
        62   01 Jun 2027 20:35:53.202   01 Jun 2027 20:36:01.411             8.209                Norilsk           256.531
        63   01 Jun 2027 20:36:21.785   01 Jun 2027 20:36:34.295            12.510                Norilsk           390.937
        64   01 Jun 2027 20:38:56.173   01 Jun 2027 20:39:03.886             7.713               Magadan1           241.031
        65   01 Jun 2027 20:39:22.133   01 Jun 2027 20:41:10.715           108.582                Irkutsk          3393.188
        66   01 Jun 2027 20:41:14.236   01 Jun 2027 20:41:32.207            17.971                Novosib           561.594
        67   01 Jun 2027 20:42:14.473   01 Jun 2027 20:42:44.580            30.107                Novosib           940.844
        68   01 Jun 2027 20:43:52.364   01 Jun 2027 20:44:29.106            36.742                Novosib          1148.187
        69   01 Jun 2027 20:45:39.024   01 Jun 2027 20:46:18.392            39.368                Novosib          1230.250
        70   01 Jun 2027 20:46:54.363   01 Jun 2027 20:47:11.245            16.882                Novosib           527.562
        71   01 Jun 2027 21:00:58.760   01 Jun 2027 21:01:34.925            36.165                Sumatra          1130.156
        72   01 Jun 2027 21:02:38.173   01 Jun 2027 21:03:00.513            22.340                Sumatra           698.125
        73   01 Jun 2027 22:11:55.953   01 Jun 2027 22:13:03.180            67.227               Magadan2          2100.844
        74   01 Jun 2027 22:14:37.497   01 Jun 2027 22:14:55.483            17.986               Magadan1           562.062
        75   01 Jun 2027 22:15:12.419   01 Jun 2027 22:17:04.040           111.621                Novosib          3488.156
        76   01 Jun 2027 22:22:41.068   01 Jun 2027 22:24:05.134            84.066                  Delhi          2627.063
        77   01 Jun 2027 22:25:22.977   01 Jun 2027 22:26:32.885            69.908                  Delhi          2184.625
        78   01 Jun 2027 22:30:19.108   01 Jun 2027 22:32:10.078           110.970                  Delhi          3467.812
        79   01 Jun 2027 23:46:55.006   01 Jun 2027 23:47:46.286            51.280               Magadan2          1602.500
        80   01 Jun 2027 23:48:31.298   01 Jun 2027 23:49:19.406            48.108               Magadan2          1503.375
        81   01 Jun 2027 23:49:35.101   01 Jun 2027 23:51:37.806           122.705              Murmansk1          3834.531
        82   01 Jun 2027 23:51:51.063   01 Jun 2027 23:52:26.738            35.675              Murmansk2          1114.844
        83   01 Jun 2027 23:53:47.214   01 Jun 2027 23:55:05.174            77.960                 Moscow          2436.250
        84   01 Jun 2027 23:56:12.580   01 Jun 2027 23:58:05.895           113.315                 Moscow          3541.094
        85   02 Jun 2027 00:21:40.516   02 Jun 2027 00:22:41.063            60.547               CapeTown          1892.094
        86   02 Jun 2027 00:22:45.906   02 Jun 2027 00:22:52.549             6.643               CapeTown           207.594
        87   02 Jun 2027 00:24:42.264   02 Jun 2027 00:25:34.075            51.811               CapeTown          1619.094
        88   02 Jun 2027 01:18:51.595   02 Jun 2027 01:19:11.628            20.033               Magadan1           626.031
        89   02 Jun 2027 01:19:57.555   02 Jun 2027 01:20:10.263            12.708               Magadan1           397.125
        90   02 Jun 2027 01:20:12.300   02 Jun 2027 01:20:50.276            37.976               Magadan2          1186.750
        91   02 Jun 2027 01:25:26.169   02 Jun 2027 01:25:33.720             7.551              Murmansk2           235.969
        92   02 Jun 2027 01:26:28.580   02 Jun 2027 01:27:12.010            43.430              Murmansk1          1357.188
        93   02 Jun 2027 01:27:26.669   02 Jun 2027 01:27:42.855            16.186              Murmansk1           505.812
        94   02 Jun 2027 01:28:16.762   02 Jun 2027 01:28:35.329            18.567              Murmansk2           580.219
        95   02 Jun 2027 01:31:30.376   02 Jun 2027 01:31:40.904            10.528                 Moscow           329.000
        96   02 Jun 2027 01:32:17.208   02 Jun 2027 01:32:44.549            27.341                 Moscow           854.406
        97   02 Jun 2027 01:36:03.488   02 Jun 2027 01:36:20.675            17.187                 Moscow           537.094
        98   02 Jun 2027 01:37:02.458   02 Jun 2027 01:37:12.694            10.236                 Moscow           319.875
        99   02 Jun 2027 01:41:22.640   02 Jun 2027 01:41:28.825             6.185                 Moscow           193.281
       100   02 Jun 2027 01:54:07.104   02 Jun 2027 01:54:10.400             3.296               CapeTown           103.000
       101   02 Jun 2027 01:55:37.527   02 Jun 2027 01:55:43.068             5.541               CapeTown           173.156
       102   02 Jun 2027 01:55:58.622   02 Jun 2027 01:56:30.675            32.053               CapeTown          1001.656
       103   02 Jun 2027 02:02:27.599   02 Jun 2027 02:02:56.378            28.779               CapeTown           899.344
       104   02 Jun 2027 02:49:16.646   02 Jun 2027 02:50:56.517            99.871                Anadyr1          3120.969
       105   02 Jun 2027 02:51:00.987   02 Jun 2027 02:52:03.854            62.867               Magadan1          1964.594
       106   02 Jun 2027 02:53:23.714   02 Jun 2027 02:53:35.338            11.624               Magadan2           363.250
       107   02 Jun 2027 02:53:44.813   02 Jun 2027 02:53:52.528             7.715               Magadan2           241.094
       108   02 Jun 2027 02:55:41.090   02 Jun 2027 02:55:52.087            10.997               Magadan1           343.656
       109   02 Jun 2027 02:56:03.268   02 Jun 2027 02:56:17.848            14.580               Magadan2           455.625
       110   02 Jun 2027 02:57:06.480   02 Jun 2027 02:57:40.637            34.157               Magadan2          1067.406
       111   02 Jun 2027 04:32:19.721   02 Jun 2027 04:33:46.211            86.490               Magadan2          2702.812
       112   02 Jun 2027 04:33:48.777   02 Jun 2027 04:33:53.495             4.718               Magadan1           147.438
       113   02 Jun 2027 04:34:00.748   02 Jun 2027 04:34:12.361            11.613                Norilsk           362.906
       114   02 Jun 2027 04:34:17.776   02 Jun 2027 04:34:40.818            23.042                Anadyr1           720.062
       115   02 Jun 2027 04:35:15.359   02 Jun 2027 04:35:33.821            18.462               Magadan2           576.938
       116   02 Jun 2027 04:36:00.075   02 Jun 2027 04:36:24.088            24.013                Anadyr2           750.406
       117   02 Jun 2027 04:36:40.020   02 Jun 2027 04:37:49.767            69.747                Norilsk          2179.594
       118   02 Jun 2027 04:37:58.979   02 Jun 2027 04:38:30.177            31.198              Murmansk2           974.937
       119   02 Jun 2027 06:05:47.290   02 Jun 2027 06:06:32.467            45.177               Magadan2          1411.781
       120   02 Jun 2027 06:06:32.467   02 Jun 2027 06:06:43.960            11.493               Magadan1           359.156
       121   02 Jun 2027 06:06:57.116   02 Jun 2027 06:08:06.398            69.282                Irkutsk          2165.063
       122   02 Jun 2027 06:08:24.658   02 Jun 2027 06:08:59.427            34.769                Irkutsk          1086.531
       123   02 Jun 2027 06:09:38.516   02 Jun 2027 06:12:46.303           187.787                Anadyr1          5868.344
       124   02 Jun 2027 06:12:46.303   02 Jun 2027 06:13:08.086            21.783                Anadyr2           680.719
       125   02 Jun 2027 06:13:13.088   02 Jun 2027 06:13:21.667             8.579                Norilsk           268.094
       126   02 Jun 2027 06:13:24.359   02 Jun 2027 06:14:45.816            81.457              Murmansk2          2545.531
       127   02 Jun 2027 06:14:45.816   02 Jun 2027 06:14:51.572             5.756              Murmansk1           179.875
       128   02 Jun 2027 06:48:52.842   02 Jun 2027 06:51:27.330           154.488            RioGallegos          4827.750
       129   02 Jun 2027 07:31:04.346   02 Jun 2027 07:31:36.987            32.641                Sumatra          1020.031
       130   02 Jun 2027 07:44:02.183   02 Jun 2027 07:46:11.744           129.561                Irkutsk          4048.781
       131   02 Jun 2027 07:46:30.649   02 Jun 2027 07:47:20.341            49.692               Magadan1          1552.875
       132   02 Jun 2027 07:47:29.057   02 Jun 2027 07:47:55.029            25.972               Magadan1           811.625
       133   02 Jun 2027 07:48:07.754   02 Jun 2027 07:49:01.315            53.561                Irkutsk          1673.781
       134   02 Jun 2027 07:49:02.291   02 Jun 2027 07:49:31.530            29.239                Irkutsk           913.719
       135   02 Jun 2027 08:24:23.730   02 Jun 2027 08:24:52.663            28.933            RioGallegos           904.156
       136   02 Jun 2027 08:59:03.040   02 Jun 2027 08:59:05.149             2.109                Sumatra            65.906
       137   02 Jun 2027 09:09:10.086   02 Jun 2027 09:10:18.246            68.160                  Delhi          2130.000
       138   02 Jun 2027 09:20:35.673   02 Jun 2027 09:21:38.928            63.255                Irkutsk          1976.719
       139   02 Jun 2027 09:21:47.865   02 Jun 2027 09:21:48.886             1.021              Murmansk2            31.906
       140   02 Jun 2027 09:21:48.886   02 Jun 2027 09:23:04.015            75.129              Murmansk1          2347.781
       141   02 Jun 2027 09:23:12.680   02 Jun 2027 09:23:19.701             7.021                Irkutsk           219.406
       142   02 Jun 2027 09:23:42.926   02 Jun 2027 09:24:12.022            29.096                Novosib           909.250
       143   02 Jun 2027 09:24:24.195   02 Jun 2027 09:25:16.198            52.003              Murmansk2          1625.094
       144   02 Jun 2027 09:25:16.198   02 Jun 2027 09:26:17.103            60.905              Murmansk1          1903.281
       145   02 Jun 2027 09:27:16.472   02 Jun 2027 09:27:28.254            11.782                 Moscow           368.187
       146   02 Jun 2027 10:05:44.867   02 Jun 2027 10:05:52.868             8.001            RioGallegos           250.031
       147   02 Jun 2027 10:43:33.900   02 Jun 2027 10:44:30.362            56.462                  Delhi          1764.438
       148   02 Jun 2027 10:46:21.213   02 Jun 2027 10:47:58.156            96.943                  Delhi          3029.469
       149   02 Jun 2027 10:57:25.890   02 Jun 2027 10:57:29.996             4.106                Novosib           128.313
       150   02 Jun 2027 10:57:59.966   02 Jun 2027 10:58:37.636            37.670                 Moscow          1177.187
       151   02 Jun 2027 10:58:46.423   02 Jun 2027 10:59:09.369            22.946                Norilsk           717.062
       152   02 Jun 2027 10:59:11.461   02 Jun 2027 10:59:24.752            13.291              Murmansk2           415.344
       153   02 Jun 2027 10:59:24.752   02 Jun 2027 11:00:07.375            42.623              Murmansk1          1331.969
       154   02 Jun 2027 11:00:10.947   02 Jun 2027 11:01:02.283            51.336                 Moscow          1604.250
       155   02 Jun 2027 11:01:51.375   02 Jun 2027 11:02:36.523            45.148              Murmansk1          1410.875
       156   02 Jun 2027 12:27:39.177   02 Jun 2027 12:31:46.197           247.020                 Moscow          7719.375
       157   02 Jun 2027 12:31:59.249   02 Jun 2027 12:33:40.261           101.012              Murmansk1          3156.625
       158   02 Jun 2027 12:34:26.666   02 Jun 2027 12:34:29.562             2.896              Murmansk1            90.500
       159   02 Jun 2027 12:35:16.785   02 Jun 2027 12:35:35.389            18.604              Murmansk1           581.375
       160   02 Jun 2027 13:42:12.644   02 Jun 2027 13:45:18.243           185.599               CapeTown          5799.969
       161   02 Jun 2027 13:46:25.967   02 Jun 2027 13:47:09.645            43.678               CapeTown          1364.937
       162   02 Jun 2027 13:48:02.332   02 Jun 2027 13:48:52.727            50.395               CapeTown          1574.844
       163   02 Jun 2027 14:08:12.422   02 Jun 2027 14:09:00.612            48.190              Murmansk1          1505.938
       164   02 Jun 2027 14:09:01.584   02 Jun 2027 14:10:16.242            74.658              Murmansk2          2333.063
       165   02 Jun 2027 14:10:48.528   02 Jun 2027 14:11:21.072            32.544              Murmansk2          1017.000
       166   02 Jun 2027 14:22:09.978   02 Jun 2027 14:24:52.118           162.140                Anadyr1          5066.875
       167   02 Jun 2027 15:17:40.951   02 Jun 2027 15:18:56.961            76.010               CapeTown          2375.312
       168   02 Jun 2027 15:47:36.044   02 Jun 2027 15:49:53.875           137.831              Murmansk1          4307.219
       169   02 Jun 2027 15:57:43.027   02 Jun 2027 15:58:27.329            44.302                Anadyr1          1384.438
       170   02 Jun 2027 15:59:29.447   02 Jun 2027 15:59:31.709             2.262                Anadyr1            70.687
       171   02 Jun 2027 15:59:34.104   02 Jun 2027 15:59:57.885            23.781                Anadyr2           743.156
       172   02 Jun 2027 16:00:33.981   02 Jun 2027 16:00:39.857             5.876                Anadyr2           183.625
       173   02 Jun 2027 16:00:55.772   02 Jun 2027 16:01:46.751            50.979                Anadyr2          1593.094
       174   02 Jun 2027 16:01:55.460   02 Jun 2027 16:04:34.584           159.124               Magadan1          4972.625
       175   02 Jun 2027 16:04:49.959   02 Jun 2027 16:05:34.976            45.017               Magadan2          1406.781
       176   02 Jun 2027 16:06:57.238   02 Jun 2027 16:07:20.878            23.640               Magadan2           738.750
       177   02 Jun 2027 17:33:37.650   02 Jun 2027 17:35:29.895           112.245                Anadyr2          3507.656
       178   02 Jun 2027 17:35:59.029   02 Jun 2027 17:37:45.273           106.244               Magadan2          3320.125
       179   02 Jun 2027 17:43:03.322   02 Jun 2027 17:43:06.338             3.016               Magadan1            94.250
       180   02 Jun 2027 17:43:11.814   02 Jun 2027 17:43:17.826             6.012               Magadan1           187.875
       181   02 Jun 2027 17:43:32.275   02 Jun 2027 17:43:44.246            11.971               Magadan1           374.094
       182   02 Jun 2027 18:31:20.672   02 Jun 2027 18:32:51.745            91.073            RioGallegos          2846.031
       183   02 Jun 2027 19:09:28.276   02 Jun 2027 19:11:14.798           106.522                Anadyr1          3328.813
       184   02 Jun 2027 19:11:19.159   02 Jun 2027 19:11:42.302            23.143                Anadyr2           723.219
       185   02 Jun 2027 19:11:43.151   02 Jun 2027 19:15:36.613           233.462                Norilsk          7295.688
       186   02 Jun 2027 19:16:58.725   02 Jun 2027 19:20:06.850           188.125                Irkutsk          5878.906
       187   02 Jun 2027 19:21:20.371   02 Jun 2027 19:22:31.578            71.207                Irkutsk          2225.219
       188   02 Jun 2027 19:23:42.317   02 Jun 2027 19:23:50.149             7.832                Irkutsk           244.750
       189   02 Jun 2027 19:32:38.791   02 Jun 2027 19:34:18.680            99.889                Sumatra          3121.531
       190   02 Jun 2027 19:37:17.038   02 Jun 2027 19:38:49.852            92.814                Sumatra          2900.438
       191   02 Jun 2027 20:52:13.136   02 Jun 2027 20:53:35.020            81.884                Novosib          2558.875
       192   02 Jun 2027 20:56:33.417   02 Jun 2027 20:57:00.811            27.394                Novosib           856.062
       193   02 Jun 2027 20:58:22.947   02 Jun 2027 20:59:04.596            41.649                Novosib          1301.531
       194   02 Jun 2027 21:05:04.387   02 Jun 2027 21:05:14.706            10.319                Sumatra           322.469
       195   02 Jun 2027 21:09:41.373   02 Jun 2027 21:10:45.473            64.100                Sumatra          2003.125
       196   02 Jun 2027 22:23:56.522   02 Jun 2027 22:25:11.445            74.923               Magadan1          2341.344
       197   02 Jun 2027 22:26:42.117   02 Jun 2027 22:30:04.912           202.795              Murmansk2          6337.344
       198   02 Jun 2027 22:30:24.105   02 Jun 2027 22:30:36.321            12.216              Murmansk1           381.750
       199   02 Jun 2027 22:34:34.567   02 Jun 2027 22:35:41.884            67.317                  Delhi          2103.656
       200   02 Jun 2027 22:37:27.556   02 Jun 2027 22:37:28.414             0.858                  Delhi            26.812
       201   02 Jun 2027 22:42:45.066   02 Jun 2027 22:44:06.479            81.413                  Delhi          2544.156
       202   02 Jun 2027 23:52:27.266   02 Jun 2027 23:52:28.474             1.208                Anadyr1            37.750
       203   02 Jun 2027 23:58:28.079   02 Jun 2027 23:58:41.817            13.738                Anadyr2           429.313
       204   02 Jun 2027 23:59:00.492   03 Jun 2027 00:00:30.771            90.279               Magadan2          2821.219
       205   03 Jun 2027 00:01:34.531   03 Jun 2027 00:04:30.215           175.684              Murmansk2          5490.125
       206   03 Jun 2027 00:05:27.975   03 Jun 2027 00:06:33.737            65.762              Murmansk2          2055.062
       207   03 Jun 2027 00:07:08.375   03 Jun 2027 00:09:10.117           121.742                 Moscow          3804.438
       208   03 Jun 2027 00:32:23.274   03 Jun 2027 00:34:16.748           113.474               CapeTown          3546.062
       209   03 Jun 2027 00:39:03.617   03 Jun 2027 00:39:38.979            35.362               CapeTown          1105.063
       210   03 Jun 2027 01:30:20.366   03 Jun 2027 01:31:56.972            96.606               Magadan1          3018.938
       211   03 Jun 2027 01:35:40.271   03 Jun 2027 01:35:50.282            10.011               Magadan2           312.844
       212   03 Jun 2027 01:37:27.838   03 Jun 2027 01:37:30.679             2.841              Murmansk1            88.781
       213   03 Jun 2027 01:38:24.489   03 Jun 2027 01:39:08.933            44.444              Murmansk2          1388.875
       214   03 Jun 2027 01:39:30.554   03 Jun 2027 01:40:20.764            50.210              Murmansk1          1569.062
       215   03 Jun 2027 01:40:42.129   03 Jun 2027 01:42:24.084           101.955                 Moscow          3186.094
       216   03 Jun 2027 01:48:26.586   03 Jun 2027 01:48:54.265            27.679                 Moscow           864.969
       217   03 Jun 2027 02:04:35.964   03 Jun 2027 02:05:11.839            35.875               CapeTown          1121.094
       218   03 Jun 2027 02:13:15.591   03 Jun 2027 02:13:58.435            42.844               CapeTown          1338.875
       219   03 Jun 2027 03:01:18.210   03 Jun 2027 03:02:12.206            53.996                Anadyr1          1687.375
       220   03 Jun 2027 03:07:41.913   03 Jun 2027 03:07:49.329             7.416               Magadan2           231.750
       221   03 Jun 2027 03:08:19.404   03 Jun 2027 03:08:58.448            39.044                Anadyr1          1220.125
       222   03 Jun 2027 03:08:59.246   03 Jun 2027 03:09:30.518            31.272               Magadan1           977.250
       223   03 Jun 2027 03:09:32.351   03 Jun 2027 03:09:54.800            22.449               Magadan2           701.531
       224   03 Jun 2027 03:10:14.910   03 Jun 2027 03:12:43.943           149.033                Anadyr1          4657.281
       225   03 Jun 2027 04:46:08.238   03 Jun 2027 04:48:55.684           167.446                Anadyr2          5232.688
       226   03 Jun 2027 04:49:38.245   03 Jun 2027 04:50:02.609            24.364                Anadyr1           761.375
       227   03 Jun 2027 06:19:11.549   03 Jun 2027 06:19:38.027            26.478                Anadyr2           827.438
       228   03 Jun 2027 06:19:40.374   03 Jun 2027 06:19:50.920            10.546               Magadan2           329.562
       229   03 Jun 2027 06:19:51.976   03 Jun 2027 06:19:59.389             7.413               Magadan1           231.656
       230   03 Jun 2027 06:20:05.764   03 Jun 2027 06:20:32.043            26.279                Anadyr1           821.219
       231   03 Jun 2027 06:20:32.043   03 Jun 2027 06:20:59.713            27.670                Anadyr2           864.687
       232   03 Jun 2027 06:21:14.999   03 Jun 2027 06:21:19.843             4.844                Norilsk           151.375
       233   03 Jun 2027 06:21:26.020   03 Jun 2027 06:21:35.096             9.076                Irkutsk           283.625
       234   03 Jun 2027 06:21:42.302   03 Jun 2027 06:21:43.829             1.527               Magadan2            47.719
       235   03 Jun 2027 06:21:52.587   03 Jun 2027 06:22:37.309            44.722               Magadan2          1397.563
       236   03 Jun 2027 06:23:07.055   03 Jun 2027 06:23:22.173            15.118                Anadyr2           472.438
       237   03 Jun 2027 06:23:24.076   03 Jun 2027 06:24:13.072            48.996                Irkutsk          1531.125
       238   03 Jun 2027 06:24:17.276   03 Jun 2027 06:24:43.495            26.219                Norilsk           819.344
       239   03 Jun 2027 06:24:52.405   03 Jun 2027 06:25:02.881            10.476                Novosib           327.375
       240   03 Jun 2027 06:25:04.644   03 Jun 2027 06:25:32.610            27.966               Magadan1           873.938
       241   03 Jun 2027 06:25:37.877   03 Jun 2027 06:25:49.643            11.766              Murmansk1           367.688
       242   03 Jun 2027 06:26:39.691   03 Jun 2027 06:26:52.910            13.219              Murmansk1           413.094
       243   03 Jun 2027 06:26:58.650   03 Jun 2027 06:27:02.308             3.658                Norilsk           114.312
       244   03 Jun 2027 06:27:05.217   03 Jun 2027 06:28:00.323            55.106              Murmansk1          1722.063
       245   03 Jun 2027 07:00:39.776   03 Jun 2027 07:01:21.679            41.903            RioGallegos          1309.469
       246   03 Jun 2027 07:02:11.618   03 Jun 2027 07:03:25.711            74.093            RioGallegos          2315.406
       247   03 Jun 2027 07:38:01.266   03 Jun 2027 07:38:10.052             8.786                Sumatra           274.563
       248   03 Jun 2027 07:41:11.211   03 Jun 2027 07:41:35.506            24.295                Sumatra           759.219
       249   03 Jun 2027 07:45:40.463   03 Jun 2027 07:45:44.980             4.517                Sumatra           141.156
       250   03 Jun 2027 07:55:03.032   03 Jun 2027 07:55:39.721            36.689               Magadan2          1146.531
       251   03 Jun 2027 07:55:39.721   03 Jun 2027 07:56:02.640            22.919               Magadan1           716.219
       252   03 Jun 2027 07:56:07.115   03 Jun 2027 07:56:42.466            35.351               Magadan2          1104.719
       253   03 Jun 2027 07:57:11.345   03 Jun 2027 07:57:22.627            11.282                Irkutsk           352.562
       254   03 Jun 2027 07:57:30.004   03 Jun 2027 07:57:46.559            16.555                Irkutsk           517.344
       255   03 Jun 2027 07:57:51.846   03 Jun 2027 07:57:52.410             0.564               Magadan2            17.625
       256   03 Jun 2027 07:57:52.410   03 Jun 2027 07:58:35.735            43.325               Magadan1          1353.906
       257   03 Jun 2027 07:58:42.454   03 Jun 2027 07:59:16.021            33.567               Magadan1          1048.969
       258   03 Jun 2027 07:59:16.760   03 Jun 2027 07:59:24.940             8.180               Magadan1           255.625
       259   03 Jun 2027 07:59:39.360   03 Jun 2027 07:59:45.531             6.171                Novosib           192.844
       260   03 Jun 2027 07:59:46.743   03 Jun 2027 07:59:55.340             8.597                Norilsk           268.656
       261   03 Jun 2027 08:00:01.235   03 Jun 2027 08:00:06.364             5.129                Irkutsk           160.281
       262   03 Jun 2027 08:00:25.284   03 Jun 2027 08:00:34.028             8.744                Irkutsk           273.250
       263   03 Jun 2027 08:00:45.096   03 Jun 2027 08:01:33.959            48.863                Irkutsk          1526.969
       264   03 Jun 2027 08:01:59.458   03 Jun 2027 08:02:20.459            21.001              Murmansk2           656.281
       265   03 Jun 2027 08:36:37.589   03 Jun 2027 08:37:15.712            38.123            RioGallegos          1191.344
       266   03 Jun 2027 08:39:18.622   03 Jun 2027 08:39:19.320             0.698            RioGallegos            21.813
       267   03 Jun 2027 08:39:48.798   03 Jun 2027 08:40:23.107            34.309            RioGallegos          1072.156
       268   03 Jun 2027 09:14:09.879   03 Jun 2027 09:15:24.737            74.858                Sumatra          2339.312
       269   03 Jun 2027 09:20:36.635   03 Jun 2027 09:21:00.025            23.390                  Delhi           730.938
       270   03 Jun 2027 09:21:13.572   03 Jun 2027 09:21:47.742            34.170                  Delhi          1067.813
       271   03 Jun 2027 09:31:36.043   03 Jun 2027 09:31:51.591            15.548                Novosib           485.875
       272   03 Jun 2027 09:31:58.183   03 Jun 2027 09:32:46.631            48.448                Novosib          1514.000
       273   03 Jun 2027 09:33:05.826   03 Jun 2027 09:33:11.922             6.096              Murmansk1           190.500
       274   03 Jun 2027 09:33:21.320   03 Jun 2027 09:33:24.331             3.011                Irkutsk            94.094
       275   03 Jun 2027 09:33:25.625   03 Jun 2027 09:33:52.171            26.546                 Moscow           829.562
       276   03 Jun 2027 09:34:30.745   03 Jun 2027 09:35:01.168            30.423                Irkutsk           950.719
       277   03 Jun 2027 09:35:02.356   03 Jun 2027 09:35:10.677             8.321                Novosib           260.031
       278   03 Jun 2027 09:35:12.106   03 Jun 2027 09:35:51.113            39.007                Norilsk          1218.969
       279   03 Jun 2027 09:35:54.266   03 Jun 2027 09:36:31.743            37.477                Norilsk          1171.156
       280   03 Jun 2027 09:36:33.957   03 Jun 2027 09:36:54.847            20.890              Murmansk1           652.812
       281   03 Jun 2027 09:36:57.810   03 Jun 2027 09:36:59.621             1.811                Norilsk            56.594
       282   03 Jun 2027 09:37:09.484   03 Jun 2027 09:37:36.718            27.234              Murmansk2           851.062
       283   03 Jun 2027 09:38:02.818   03 Jun 2027 09:38:25.981            23.163                 Moscow           723.844
       284   03 Jun 2027 10:18:23.729   03 Jun 2027 10:18:56.720            32.991            RioGallegos          1030.969
       285   03 Jun 2027 10:19:05.356   03 Jun 2027 10:19:38.352            32.996            RioGallegos          1031.125
       286   03 Jun 2027 10:55:37.020   03 Jun 2027 10:55:51.439            14.419                  Delhi           450.594
       287   03 Jun 2027 10:55:52.834   03 Jun 2027 10:57:06.159            73.325                  Delhi          2291.406
       288   03 Jun 2027 11:08:20.334   03 Jun 2027 11:08:42.659            22.325              Murmansk2           697.656
       289   03 Jun 2027 11:08:51.782   03 Jun 2027 11:08:55.560             3.778                Novosib           118.063
       290   03 Jun 2027 11:09:02.416   03 Jun 2027 11:09:27.070            24.654                Novosib           770.438
       291   03 Jun 2027 11:09:34.385   03 Jun 2027 11:10:46.116            71.731                Novosib          2241.594
       292   03 Jun 2027 11:11:02.063   03 Jun 2027 11:11:11.498             9.435                Novosib           294.844
       293   03 Jun 2027 11:11:21.360   03 Jun 2027 11:12:24.774            63.414              Murmansk1          1981.687
       294   03 Jun 2027 11:12:36.530   03 Jun 2027 11:12:37.287             0.757              Murmansk2            23.656
       295   03 Jun 2027 11:12:49.237   03 Jun 2027 11:12:53.206             3.969                Novosib           124.031
       296   03 Jun 2027 11:13:06.386   03 Jun 2027 11:13:39.280            32.894                 Moscow          1027.937
       297   03 Jun 2027 11:16:20.716   03 Jun 2027 11:16:27.714             6.998                 Moscow           218.688
       298   03 Jun 2027 12:39:40.425   03 Jun 2027 12:42:58.952           198.527                 Moscow          6203.969
       299   03 Jun 2027 12:43:10.212   03 Jun 2027 12:46:24.442           194.230              Murmansk2          6069.688
       300   03 Jun 2027 12:48:46.436   03 Jun 2027 12:49:28.045            41.609              Murmansk1          1300.281
       301   03 Jun 2027 13:53:52.666   03 Jun 2027 13:56:20.455           147.789               CapeTown          4618.406
       302   03 Jun 2027 13:57:23.483   03 Jun 2027 13:58:12.642            49.159               CapeTown          1536.219
       303   03 Jun 2027 14:20:31.257   03 Jun 2027 14:21:10.743            39.486              Murmansk2          1233.938
       304   03 Jun 2027 14:21:13.802   03 Jun 2027 14:22:43.797            89.995              Murmansk1          2812.344
       305   03 Jun 2027 14:24:25.264   03 Jun 2027 14:25:06.104            40.840              Murmansk2          1276.250
       306   03 Jun 2027 14:34:05.446   03 Jun 2027 14:36:31.041           145.595                Anadyr1          4549.844
       307   03 Jun 2027 14:39:35.883   03 Jun 2027 14:39:48.564            12.681                Anadyr1           396.281
       308   03 Jun 2027 14:42:04.735   03 Jun 2027 14:43:01.016            56.281                Anadyr2          1758.781
       309   03 Jun 2027 15:29:30.725   03 Jun 2027 15:29:34.846             4.121               CapeTown           128.781
       310   03 Jun 2027 16:00:17.044   03 Jun 2027 16:01:09.724            52.680              Murmansk1          1646.250
       311   03 Jun 2027 16:01:42.117   03 Jun 2027 16:02:50.815            68.698              Murmansk1          2146.812
       312   03 Jun 2027 16:04:06.857   03 Jun 2027 16:04:41.483            34.626              Murmansk1          1082.063
       313   03 Jun 2027 16:09:43.772   03 Jun 2027 16:10:16.147            32.375                Anadyr1          1011.719
       314   03 Jun 2027 16:11:25.919   03 Jun 2027 16:11:30.705             4.786                Anadyr2           149.562
       315   03 Jun 2027 16:11:43.803   03 Jun 2027 16:12:41.102            57.299                Anadyr1          1790.594
       316   03 Jun 2027 16:12:51.414   03 Jun 2027 16:17:56.758           305.344               Magadan2          9542.000
       317   03 Jun 2027 17:45:38.972   03 Jun 2027 17:46:05.347            26.375                Anadyr1           824.219
       318   03 Jun 2027 17:46:05.347   03 Jun 2027 17:47:25.090            79.743                Anadyr2          2491.969
       319   03 Jun 2027 17:47:58.229   03 Jun 2027 17:49:53.944           115.715               Magadan1          3616.094
       320   03 Jun 2027 17:55:17.565   03 Jun 2027 17:55:52.958            35.393               Magadan2          1106.031
       321   03 Jun 2027 18:41:53.520   03 Jun 2027 18:44:31.554           158.034            RioGallegos          4938.562
       322   03 Jun 2027 19:21:27.636   03 Jun 2027 19:22:26.607            58.971                Anadyr2          1842.844
       323   03 Jun 2027 19:23:03.649   03 Jun 2027 19:23:15.685            12.036                Anadyr2           376.125
       324   03 Jun 2027 19:23:39.101   03 Jun 2027 19:25:49.655           130.554                Norilsk          4079.813
       325   03 Jun 2027 19:26:26.191   03 Jun 2027 19:27:06.205            40.014                Norilsk          1250.437
       326   03 Jun 2027 19:28:11.973   03 Jun 2027 19:28:52.440            40.467                Norilsk          1264.594
       327   03 Jun 2027 19:29:28.061   03 Jun 2027 19:30:28.780            60.719                Norilsk          1897.469
       328   03 Jun 2027 19:30:28.981   03 Jun 2027 19:31:56.429            87.448                Irkutsk          2732.750
       329   03 Jun 2027 19:33:06.759   03 Jun 2027 19:33:30.043            23.284                Irkutsk           727.625
       330   03 Jun 2027 19:34:38.359   03 Jun 2027 19:35:08.760            30.401                Irkutsk           950.031
       331   03 Jun 2027 19:43:31.211   03 Jun 2027 19:45:53.401           142.190                Sumatra          4443.438
       332   03 Jun 2027 19:47:48.424   03 Jun 2027 19:48:55.162            66.738                Sumatra          2085.562
       333   03 Jun 2027 19:50:20.456   03 Jun 2027 19:52:08.719           108.263                Sumatra          3383.219
       334   03 Jun 2027 21:04:42.944   03 Jun 2027 21:05:38.312            55.368                Novosib          1730.250
       335   03 Jun 2027 21:14:00.449   03 Jun 2027 21:15:48.632           108.183                  Delhi          3380.719
       336   03 Jun 2027 21:18:08.883   03 Jun 2027 21:19:05.982            57.099                  Delhi          1784.344
       337   03 Jun 2027 22:35:56.202   03 Jun 2027 22:36:30.493            34.291               Magadan2          1071.594
       338   03 Jun 2027 22:37:47.320   03 Jun 2027 22:39:04.139            76.819               Magadan1          2400.594
       339   03 Jun 2027 22:39:11.420   03 Jun 2027 22:40:46.874            95.454                Novosib          2982.938
       340   03 Jun 2027 22:41:29.664   03 Jun 2027 22:41:59.205            29.541              Murmansk2           923.156
       341   03 Jun 2027 22:42:38.472   03 Jun 2027 22:43:38.517            60.045              Murmansk1          1876.406
       342   03 Jun 2027 22:46:31.675   03 Jun 2027 22:46:37.251             5.576                  Delhi           174.250
       343   03 Jun 2027 22:53:34.402   03 Jun 2027 22:54:37.969            63.567                  Delhi          1986.469
       344   04 Jun 2027 00:04:08.956   04 Jun 2027 00:04:18.618             9.662                Anadyr2           301.937
       345   04 Jun 2027 00:06:51.550   04 Jun 2027 00:07:01.611            10.061                Anadyr2           314.406
       346   04 Jun 2027 00:08:58.316   04 Jun 2027 00:09:00.142             1.826                Anadyr1            57.063
       347   04 Jun 2027 00:09:48.384   04 Jun 2027 00:10:10.361            21.977                Anadyr1           686.781
       348   04 Jun 2027 00:10:53.785   04 Jun 2027 00:11:55.094            61.309               Magadan2          1915.906
       349   04 Jun 2027 00:12:18.241   04 Jun 2027 00:13:50.415            92.174               Magadan1          2880.438
       350   04 Jun 2027 00:14:08.590   04 Jun 2027 00:16:31.875           143.285              Murmansk1          4477.656
       351   04 Jun 2027 00:16:31.875   04 Jun 2027 00:17:37.769            65.894              Murmansk2          2059.187
       352   04 Jun 2027 00:17:47.438   04 Jun 2027 00:18:25.023            37.585                 Moscow          1174.531
       353   04 Jun 2027 00:19:29.172   04 Jun 2027 00:19:44.745            15.573                 Moscow           486.656
       354   04 Jun 2027 00:24:59.431   04 Jun 2027 00:25:05.663             6.232                 Moscow           194.750
       355   04 Jun 2027 00:26:15.039   04 Jun 2027 00:26:50.018            34.979                 Moscow          1093.094
       356   04 Jun 2027 00:44:40.201   04 Jun 2027 00:45:48.353            68.152               CapeTown          2129.750
       357   04 Jun 2027 00:46:51.144   04 Jun 2027 00:47:25.144            34.000               CapeTown          1062.500
       358   04 Jun 2027 00:48:35.855   04 Jun 2027 00:49:06.043            30.188               CapeTown           943.375
       359   04 Jun 2027 00:50:54.870   04 Jun 2027 00:51:09.225            14.355               CapeTown           448.594
       360   04 Jun 2027 01:41:49.981   04 Jun 2027 01:43:29.146            99.165               Magadan1          3098.906
       361   04 Jun 2027 01:47:14.167   04 Jun 2027 01:47:22.156             7.989                Norilsk           249.656
       362   04 Jun 2027 01:48:38.085   04 Jun 2027 01:48:41.724             3.639                Norilsk           113.719
       363   04 Jun 2027 01:48:51.305   04 Jun 2027 01:48:58.882             7.577                Norilsk           236.781
       364   04 Jun 2027 01:49:20.471   04 Jun 2027 01:49:45.491            25.020               Magadan2           781.875
       365   04 Jun 2027 01:50:19.190   04 Jun 2027 01:51:32.882            73.692              Murmansk1          2302.875
       366   04 Jun 2027 01:51:32.882   04 Jun 2027 01:51:55.530            22.648              Murmansk2           707.750
       367   04 Jun 2027 01:52:00.074   04 Jun 2027 01:52:25.582            25.508                Novosib           797.125
       368   04 Jun 2027 01:53:57.268   04 Jun 2027 01:54:16.135            18.867                 Moscow           589.594
       369   04 Jun 2027 01:56:21.689   04 Jun 2027 01:56:51.911            30.222                Novosib           944.438
       370   04 Jun 2027 02:03:16.323   04 Jun 2027 02:03:24.475             8.152                 Moscow           254.750
       371   04 Jun 2027 02:05:12.252   04 Jun 2027 02:05:30.302            18.050                 Moscow           564.063
       372   04 Jun 2027 02:16:35.558   04 Jun 2027 02:17:43.935            68.377               CapeTown          2136.781
       373   04 Jun 2027 02:25:22.547   04 Jun 2027 02:25:35.556            13.009               CapeTown           406.531
       374   04 Jun 2027 03:20:20.227   04 Jun 2027 03:21:00.514            40.287                Anadyr2          1258.969
       375   04 Jun 2027 03:21:26.239   04 Jun 2027 03:23:32.797           126.558               Magadan2          3954.938
       376   04 Jun 2027 03:23:40.028   04 Jun 2027 03:26:15.523           155.495                Anadyr1          4859.219
       377   04 Jun 2027 04:58:36.858   04 Jun 2027 05:00:02.698            85.840                Anadyr1          2682.500
       378   04 Jun 2027 05:00:27.135   04 Jun 2027 05:01:53.129            85.994               Magadan2          2687.313
       379   04 Jun 2027 06:29:47.517   04 Jun 2027 06:30:08.025            20.508                Irkutsk           640.875
       380   04 Jun 2027 06:31:11.130   04 Jun 2027 06:31:55.988            44.858                Irkutsk          1401.813
       381   04 Jun 2027 06:32:02.667   04 Jun 2027 06:32:22.939            20.272               Magadan1           633.500
       382   04 Jun 2027 06:32:22.939   04 Jun 2027 06:33:42.687            79.748               Magadan2          2492.125
       383   04 Jun 2027 06:33:54.298   04 Jun 2027 06:34:01.991             7.693                Novosib           240.406
       384   04 Jun 2027 06:34:10.398   04 Jun 2027 06:35:23.278            72.880                Irkutsk          2277.500
       385   04 Jun 2027 06:35:40.138   04 Jun 2027 06:35:54.798            14.660               Magadan2           458.125
       386   04 Jun 2027 06:35:59.266   04 Jun 2027 06:36:32.235            32.969                Norilsk          1030.281
       387   04 Jun 2027 06:36:36.230   04 Jun 2027 06:36:58.755            22.525              Murmansk2           703.906
       388   04 Jun 2027 06:37:00.390   04 Jun 2027 06:37:03.004             2.614                Norilsk            81.687
       389   04 Jun 2027 06:37:11.351   04 Jun 2027 06:37:37.786            26.435                Norilsk           826.094
       390   04 Jun 2027 06:38:12.504   04 Jun 2027 06:38:14.343             1.839                Novosib            57.469
       391   04 Jun 2027 06:38:33.325   04 Jun 2027 06:38:52.763            19.438              Murmansk1           607.437
       392   04 Jun 2027 06:39:18.480   04 Jun 2027 06:39:37.821            19.341              Murmansk1           604.406
       393   04 Jun 2027 06:40:21.727   04 Jun 2027 06:40:46.790            25.063              Murmansk1           783.219
       394   04 Jun 2027 07:12:29.887   04 Jun 2027 07:13:27.447            57.560            RioGallegos          1798.750
       395   04 Jun 2027 07:49:06.314   04 Jun 2027 07:50:20.657            74.343                Sumatra          2323.219
       396   04 Jun 2027 07:53:59.198   04 Jun 2027 07:55:25.960            86.762                Sumatra          2711.312
       397   04 Jun 2027 08:08:13.063   04 Jun 2027 08:08:57.103            44.040                Norilsk          1376.250
       398   04 Jun 2027 08:09:24.684   04 Jun 2027 08:09:33.767             9.083                Irkutsk           283.844
       399   04 Jun 2027 08:09:39.799   04 Jun 2027 08:09:44.339             4.540                Irkutsk           141.875
       400   04 Jun 2027 08:09:45.828   04 Jun 2027 08:10:01.643            15.815                Novosib           494.219
       401   04 Jun 2027 08:10:22.009   04 Jun 2027 08:10:42.885            20.876                Norilsk           652.375
       402   04 Jun 2027 08:10:48.031   04 Jun 2027 08:11:32.629            44.598                Novosib          1393.688
       403   04 Jun 2027 08:11:41.169   04 Jun 2027 08:11:57.223            16.054                Norilsk           501.688
       404   04 Jun 2027 08:11:59.069   04 Jun 2027 08:12:02.702             3.633                Irkutsk           113.531
       405   04 Jun 2027 08:12:10.805   04 Jun 2027 08:12:21.778            10.973                Novosib           342.906
       406   04 Jun 2027 08:12:30.997   04 Jun 2027 08:12:39.401             8.404                Irkutsk           262.625
       407   04 Jun 2027 08:12:45.004   04 Jun 2027 08:12:48.393             3.389              Murmansk2           105.906
       408   04 Jun 2027 08:12:48.393   04 Jun 2027 08:13:04.153            15.760              Murmansk1           492.500
       409   04 Jun 2027 08:13:07.996   04 Jun 2027 08:13:47.818            39.822                Novosib          1244.437
       410   04 Jun 2027 08:14:01.183   04 Jun 2027 08:14:51.117            49.934                Novosib          1560.438
       411   04 Jun 2027 08:48:55.589   04 Jun 2027 08:48:55.928             0.339            RioGallegos            10.594
       412   04 Jun 2027 08:53:33.265   04 Jun 2027 08:54:03.945            30.680            RioGallegos           958.750
       413   04 Jun 2027 09:23:17.101   04 Jun 2027 09:25:04.899           107.798                Sumatra          3368.688
       414   04 Jun 2027 09:32:10.802   04 Jun 2027 09:33:03.535            52.733                  Delhi          1647.906
       415   04 Jun 2027 09:43:37.185   04 Jun 2027 09:43:52.686            15.501                  Delhi           484.406
       416   04 Jun 2027 09:44:04.822   04 Jun 2027 09:44:13.927             9.105                Irkutsk           284.531
       417   04 Jun 2027 09:44:36.609   04 Jun 2027 09:44:49.191            12.582                 Moscow           393.187
       418   04 Jun 2027 09:44:52.411   04 Jun 2027 09:45:28.841            36.430                Novosib          1138.438
       419   04 Jun 2027 09:46:13.934   04 Jun 2027 09:46:28.779            14.845              Murmansk1           463.906
       420   04 Jun 2027 09:46:37.052   04 Jun 2027 09:47:04.470            27.418                Novosib           856.812
       421   04 Jun 2027 09:47:11.915   04 Jun 2027 09:47:22.347            10.432                Irkutsk           326.000
       422   04 Jun 2027 09:47:31.068   04 Jun 2027 09:48:15.789            44.721              Murmansk2          1397.531
       423   04 Jun 2027 09:48:23.443   04 Jun 2027 09:48:46.485            23.042              Murmansk2           720.062
       424   04 Jun 2027 09:48:48.022   04 Jun 2027 09:49:27.103            39.081                Novosib          1221.281
       425   04 Jun 2027 09:50:29.070   04 Jun 2027 09:51:06.104            37.034                 Moscow          1157.312
       426   04 Jun 2027 11:07:57.653   04 Jun 2027 11:09:43.676           106.023                  Delhi          3313.219
       427   04 Jun 2027 11:12:00.887   04 Jun 2027 11:12:59.275            58.388                  Delhi          1824.625
       428   04 Jun 2027 11:20:40.303   04 Jun 2027 11:21:12.682            32.379              Murmansk1          1011.844
       429   04 Jun 2027 11:21:13.692   04 Jun 2027 11:21:36.493            22.801              Murmansk2           712.531
       430   04 Jun 2027 11:21:37.668   04 Jun 2027 11:22:01.572            23.904                 Moscow           747.000
       431   04 Jun 2027 11:22:12.157   04 Jun 2027 11:22:18.754             6.597              Murmansk2           206.156
       432   04 Jun 2027 11:22:25.652   04 Jun 2027 11:22:34.927             9.275              Murmansk1           289.844
       433   04 Jun 2027 11:22:41.603   04 Jun 2027 11:23:05.893            24.290                Novosib           759.062
       434   04 Jun 2027 11:23:06.140   04 Jun 2027 11:23:44.744            38.604                 Moscow          1206.375
       435   04 Jun 2027 11:23:57.116   04 Jun 2027 11:24:23.607            26.491              Murmansk2           827.844
       436   04 Jun 2027 11:24:23.607   04 Jun 2027 11:24:35.397            11.790              Murmansk1           368.437
       437   04 Jun 2027 11:24:49.268   04 Jun 2027 11:24:59.163             9.895                Novosib           309.219
       438   04 Jun 2027 11:25:10.083   04 Jun 2027 11:25:17.843             7.760              Murmansk2           242.500
       439   04 Jun 2027 11:26:34.709   04 Jun 2027 11:26:38.346             3.637              Murmansk1           113.656
       440   04 Jun 2027 11:27:10.488   04 Jun 2027 11:27:37.936            27.448              Murmansk1           857.750
       441   04 Jun 2027 12:51:44.612   04 Jun 2027 12:55:36.700           232.088                 Moscow          7252.750
       442   04 Jun 2027 12:55:45.755   04 Jun 2027 12:56:50.627            64.872              Murmansk1          2027.250
       443   04 Jun 2027 12:57:07.929   04 Jun 2027 12:58:29.960            82.031              Murmansk2          2563.469
       444   04 Jun 2027 12:58:31.403   04 Jun 2027 12:59:06.844            35.441              Murmansk2          1107.531
       445   04 Jun 2027 13:12:44.838   04 Jun 2027 13:13:04.164            19.326                Anadyr2           603.937
       446   04 Jun 2027 13:13:52.284   04 Jun 2027 13:14:04.674            12.390                Anadyr2           387.188
       447   04 Jun 2027 14:05:38.178   04 Jun 2027 14:07:43.887           125.709               CapeTown          3928.406
       448   04 Jun 2027 14:08:31.705   04 Jun 2027 14:09:19.490            47.785               CapeTown          1493.281
       449   04 Jun 2027 14:32:52.281   04 Jun 2027 14:34:19.360            87.079              Murmansk2          2721.219
       450   04 Jun 2027 14:34:19.360   04 Jun 2027 14:34:27.103             7.743              Murmansk1           241.969
       451   04 Jun 2027 14:34:45.665   04 Jun 2027 14:34:48.685             3.020              Murmansk2            94.375
       452   04 Jun 2027 14:35:44.199   04 Jun 2027 14:36:09.116            24.917              Murmansk1           778.656
       453   04 Jun 2027 14:36:26.268   04 Jun 2027 14:37:00.195            33.927              Murmansk1          1060.219
       454   04 Jun 2027 14:38:31.806   04 Jun 2027 14:38:51.177            19.371              Murmansk2           605.344
       455   04 Jun 2027 14:46:02.210   04 Jun 2027 14:48:17.083           134.873                Anadyr2          4214.781
       456   04 Jun 2027 14:51:57.396   04 Jun 2027 14:52:35.539            38.143                Anadyr2          1191.969
       457   04 Jun 2027 14:53:47.819   04 Jun 2027 14:55:30.856           103.037                Anadyr2          3219.906
       458   04 Jun 2027 16:13:02.615   04 Jun 2027 16:13:21.843            19.228              Murmansk2           600.875
       459   04 Jun 2027 16:13:22.733   04 Jun 2027 16:14:03.396            40.663              Murmansk1          1270.719
       460   04 Jun 2027 16:16:08.841   04 Jun 2027 16:16:57.029            48.188              Murmansk2          1505.875
       461   04 Jun 2027 16:21:44.741   04 Jun 2027 16:23:31.915           107.174                Anadyr2          3349.188
       462   04 Jun 2027 16:24:40.342   04 Jun 2027 16:28:11.365           211.023               Magadan1          6594.469
       463   04 Jun 2027 17:57:40.198   04 Jun 2027 18:00:41.171           180.973                Anadyr2          5655.406
       464   04 Jun 2027 18:01:02.046   04 Jun 2027 18:01:10.729             8.683                Anadyr2           271.344
       465   04 Jun 2027 18:01:17.619   04 Jun 2027 18:03:21.324           123.705               Magadan1          3865.781
       466   04 Jun 2027 18:03:21.324   04 Jun 2027 18:03:31.604            10.280               Magadan2           321.250
       467   04 Jun 2027 18:53:12.936   04 Jun 2027 18:56:16.642           183.706            RioGallegos          5740.812
       468   04 Jun 2027 18:58:41.557   04 Jun 2027 18:59:58.151            76.594            RioGallegos          2393.562
       469   04 Jun 2027 19:00:29.828   04 Jun 2027 19:00:36.749             6.921            RioGallegos           216.281
       470   04 Jun 2027 19:35:05.293   04 Jun 2027 19:35:36.383            31.090                Anadyr2           971.562
       471   04 Jun 2027 19:35:36.589   04 Jun 2027 19:39:35.771           239.182                Norilsk          7474.438
       472   04 Jun 2027 19:40:16.665   04 Jun 2027 19:40:51.581            34.916                Irkutsk          1091.125
       473   04 Jun 2027 19:41:18.694   04 Jun 2027 19:41:48.762            30.068                Irkutsk           939.625
       474   04 Jun 2027 19:42:20.146   04 Jun 2027 19:42:56.423            36.277                Irkutsk          1133.656
       475   04 Jun 2027 19:43:54.464   04 Jun 2027 19:44:20.411            25.947                Irkutsk           810.844
       476   04 Jun 2027 19:54:45.332   04 Jun 2027 19:57:35.777           170.445                Sumatra          5326.406
       477   04 Jun 2027 20:00:08.065   04 Jun 2027 20:01:26.712            78.647                Sumatra          2457.719
       478   04 Jun 2027 21:15:18.094   04 Jun 2027 21:15:40.009            21.915                Irkutsk           684.844
       479   04 Jun 2027 21:15:49.536   04 Jun 2027 21:16:34.286            44.750                Novosib          1398.437
       480   04 Jun 2027 21:16:56.838   04 Jun 2027 21:17:22.687            25.849                Novosib           807.781
       481   04 Jun 2027 21:18:00.107   04 Jun 2027 21:19:00.800            60.693                Novosib          1896.656
       482   04 Jun 2027 21:24:54.100   04 Jun 2027 21:27:26.073           151.973                  Delhi          4749.156
