uniorb/output/strategy_2/Drop/Drop_KinoSat_111506.txt

KinoSat_111506
-------------------------
    Access    *     Start Time (UTCG)     *     Stop Time (UTCG)  *   Duration (s)        *       Station  *  Data (Mbytes)
         1   01 Jun 2027 03:11:15.142   01 Jun 2027 03:11:59.943            44.801                Norilsk          1400.031
         2   01 Jun 2027 03:12:10.684   01 Jun 2027 03:13:55.010           104.326              Murmansk1          3260.188
         3   01 Jun 2027 03:14:16.524   01 Jun 2027 03:14:18.820             2.296                 Moscow            71.750
         4   01 Jun 2027 03:14:21.643   01 Jun 2027 03:14:53.540            31.897              Murmansk1           996.781
         5   01 Jun 2027 03:14:53.540   01 Jun 2027 03:15:07.808            14.268              Murmansk2           445.875
         6   01 Jun 2027 03:15:21.896   01 Jun 2027 03:15:56.264            34.368                Novosib          1074.000
         7   01 Jun 2027 03:16:09.046   01 Jun 2027 03:17:12.644            63.598                Novosib          1987.437
         8   01 Jun 2027 04:29:46.529   01 Jun 2027 04:30:02.398            15.869                Anadyr2           495.906
         9   01 Jun 2027 04:48:18.692   01 Jun 2027 04:48:27.006             8.314                Novosib           259.813
        10   01 Jun 2027 04:50:05.742   01 Jun 2027 04:50:13.539             7.797              Murmansk2           243.656
        11   01 Jun 2027 04:50:13.539   01 Jun 2027 04:50:24.695            11.156              Murmansk1           348.625
        12   01 Jun 2027 04:50:41.264   01 Jun 2027 04:51:27.631            46.367                 Moscow          1448.969
        13   01 Jun 2027 04:51:29.991   01 Jun 2027 04:51:43.678            13.687              Murmansk2           427.719
        14   01 Jun 2027 04:51:56.027   01 Jun 2027 04:52:49.608            53.581              Murmansk1          1674.406
        15   01 Jun 2027 06:04:35.353   01 Jun 2027 06:05:40.088            64.735                Anadyr2          2022.969
        16   01 Jun 2027 06:11:11.103   01 Jun 2027 06:12:41.550            90.447               Magadan2          2826.469
        17   01 Jun 2027 06:13:01.737   01 Jun 2027 06:13:58.128            56.391               Magadan1          1762.219
        18   01 Jun 2027 06:13:58.128   01 Jun 2027 06:14:32.247            34.119               Magadan2          1066.219
        19   01 Jun 2027 07:49:16.204   01 Jun 2027 07:49:44.492            28.288               Magadan2           884.000
        20   01 Jun 2027 07:49:51.886   01 Jun 2027 07:49:57.850             5.964                Irkutsk           186.375
        21   01 Jun 2027 07:50:05.024   01 Jun 2027 07:53:05.277           180.253                Anadyr1          5632.906
        22   01 Jun 2027 07:57:14.540   01 Jun 2027 07:57:56.141            41.601                 Moscow          1300.031
        23   01 Jun 2027 09:23:22.257   01 Jun 2027 09:25:05.410           103.153               Magadan1          3223.531
        24   01 Jun 2027 09:25:34.290   01 Jun 2027 09:28:24.781           170.491               Magadan2          5327.844
        25   01 Jun 2027 10:03:27.971   01 Jun 2027 10:05:35.896           127.925            RioGallegos          3997.656
        26   01 Jun 2027 10:39:23.674   01 Jun 2027 10:40:07.399            43.725                Sumatra          1366.406
        27   01 Jun 2027 10:59:42.900   01 Jun 2027 11:00:05.741            22.841                Irkutsk           713.781
        28   01 Jun 2027 11:00:31.356   01 Jun 2027 11:00:53.188            21.832                Novosib           682.250
        29   01 Jun 2027 11:00:58.358   01 Jun 2027 11:01:27.762            29.404                Irkutsk           918.875
        30   01 Jun 2027 11:01:32.250   01 Jun 2027 11:02:11.152            38.902                Norilsk          1215.687
        31   01 Jun 2027 11:02:15.321   01 Jun 2027 11:02:44.592            29.271              Murmansk1           914.719
        32   01 Jun 2027 11:02:50.122   01 Jun 2027 11:03:47.594            57.472                Irkutsk          1796.000
        33   01 Jun 2027 11:03:52.635   01 Jun 2027 11:05:02.799            70.164              Murmansk1          2192.625
        34   01 Jun 2027 11:05:02.799   01 Jun 2027 11:05:11.760             8.961              Murmansk2           280.031
        35   01 Jun 2027 11:05:20.057   01 Jun 2027 11:05:29.215             9.158              Murmansk2           286.188
        36   01 Jun 2027 11:40:31.772   01 Jun 2027 11:40:58.107            26.335            RioGallegos           822.969
        37   01 Jun 2027 11:41:07.849   01 Jun 2027 11:41:33.509            25.660            RioGallegos           801.875
        38   01 Jun 2027 11:44:39.092   01 Jun 2027 11:45:29.853            50.761            RioGallegos          1586.281
        39   01 Jun 2027 12:14:46.592   01 Jun 2027 12:16:09.652            83.060                Sumatra          2595.625
        40   01 Jun 2027 12:22:52.959   01 Jun 2027 12:23:34.788            41.829                  Delhi          1307.156
        41   01 Jun 2027 12:29:23.242   01 Jun 2027 12:32:53.846           210.604                Novosib          6581.375
        42   01 Jun 2027 12:33:48.812   01 Jun 2027 12:34:17.576            28.764                Norilsk           898.875
        43   01 Jun 2027 12:36:04.350   01 Jun 2027 12:36:40.452            36.102                Norilsk          1128.188
        44   01 Jun 2027 13:59:42.878   01 Jun 2027 14:04:51.323           308.445                  Delhi          9638.906
        45   01 Jun 2027 14:08:07.691   01 Jun 2027 14:10:23.418           135.727                Novosib          4241.469
        46   01 Jun 2027 14:10:38.066   01 Jun 2027 14:12:32.284           114.218                Novosib          3569.312
        47   01 Jun 2027 15:43:00.735   01 Jun 2027 15:44:56.277           115.542                 Moscow          3610.687
        48   01 Jun 2027 15:46:31.904   01 Jun 2027 15:48:20.810           108.906              Murmansk1          3403.313
        49   01 Jun 2027 15:49:26.169   01 Jun 2027 15:49:35.090             8.921              Murmansk2           278.781
        50   01 Jun 2027 15:53:18.500   01 Jun 2027 15:54:31.569            73.069                Norilsk          2283.406
        51   01 Jun 2027 15:55:44.864   01 Jun 2027 15:56:30.283            45.419                Norilsk          1419.344
        52   01 Jun 2027 16:56:31.392   01 Jun 2027 16:58:18.777           107.385               CapeTown          3355.781
        53   01 Jun 2027 17:23:50.536   01 Jun 2027 17:27:01.131           190.595                 Moscow          5956.094
        54   01 Jun 2027 17:27:41.349   01 Jun 2027 17:29:16.703            95.354              Murmansk2          2979.813
        55   01 Jun 2027 18:32:55.402   01 Jun 2027 18:34:23.016            87.614               CapeTown          2737.937
        56   01 Jun 2027 18:36:28.110   01 Jun 2027 18:36:32.945             4.835               CapeTown           151.094
        57   01 Jun 2027 18:37:29.300   01 Jun 2027 18:37:37.424             8.124               CapeTown           253.875
        58   01 Jun 2027 19:05:14.311   01 Jun 2027 19:09:47.919           273.608              Murmansk2          8550.250
        59   01 Jun 2027 19:15:37.699   01 Jun 2027 19:16:12.592            34.893               Magadan1          1090.406
        60   01 Jun 2027 19:18:18.738   01 Jun 2027 19:18:30.939            12.201               Magadan2           381.281
        61   01 Jun 2027 19:18:49.273   01 Jun 2027 19:19:03.728            14.455               Magadan2           451.719
        62   01 Jun 2027 19:19:55.200   01 Jun 2027 19:20:52.961            57.761               Magadan2          1805.031
        63   01 Jun 2027 20:48:48.308   01 Jun 2027 20:52:48.970           240.662                Anadyr2          7520.687
        64   01 Jun 2027 20:53:06.550   01 Jun 2027 20:54:04.390            57.840                Anadyr2          1807.500
        65   01 Jun 2027 20:54:20.256   01 Jun 2027 20:54:48.787            28.531               Magadan1           891.594
        66   01 Jun 2027 20:55:30.941   01 Jun 2027 20:56:38.642            67.701               Magadan2          2115.656
        67   01 Jun 2027 20:57:23.687   01 Jun 2027 20:58:06.854            43.167               Magadan2          1348.969
        68   01 Jun 2027 21:43:44.289   01 Jun 2027 21:46:52.787           188.498            RioGallegos          5890.563
        69   01 Jun 2027 22:24:31.608   01 Jun 2027 22:26:22.236           110.628                Anadyr2          3457.125
        70   01 Jun 2027 22:26:39.353   01 Jun 2027 22:28:19.067            99.714                Norilsk          3116.062
        71   01 Jun 2027 22:28:36.598   01 Jun 2027 22:30:57.404           140.806               Magadan2          4400.187
        72   01 Jun 2027 22:31:05.250   01 Jun 2027 22:32:12.660            67.410                Irkutsk          2106.563
        73   01 Jun 2027 22:45:10.010   01 Jun 2027 22:46:40.087            90.077                Sumatra          2814.906
        74   01 Jun 2027 23:20:20.923   01 Jun 2027 23:20:52.587            31.664            RioGallegos           989.500
        75   01 Jun 2027 23:59:31.530   02 Jun 2027 00:00:40.811            69.281                Anadyr1          2165.031
        76   02 Jun 2027 00:02:01.801   02 Jun 2027 00:02:15.537            13.736                Anadyr2           429.250
        77   02 Jun 2027 00:02:33.288   02 Jun 2027 00:02:46.682            13.394                Norilsk           418.562
        78   02 Jun 2027 00:03:12.431   02 Jun 2027 00:04:51.648            99.217               Magadan2          3100.531
        79   02 Jun 2027 00:06:25.394   02 Jun 2027 00:07:48.294            82.900                Irkutsk          2590.625
        80   02 Jun 2027 00:08:02.431   02 Jun 2027 00:09:18.262            75.831                Novosib          2369.719
        81   02 Jun 2027 00:15:07.194   02 Jun 2027 00:16:01.690            54.496                  Delhi          1703.000
        82   02 Jun 2027 00:20:59.165   02 Jun 2027 00:22:19.428            80.263                Sumatra          2508.219
        83   02 Jun 2027 01:33:17.904   02 Jun 2027 01:35:58.307           160.403                Anadyr2          5012.594
        84   02 Jun 2027 01:38:33.824   02 Jun 2027 01:39:57.599            83.775                Norilsk          2617.969
        85   02 Jun 2027 01:40:11.772   02 Jun 2027 01:40:54.487            42.715               Magadan2          1334.844
        86   02 Jun 2027 01:41:04.231   02 Jun 2027 01:42:28.930            84.699              Murmansk1          2646.844
        87   02 Jun 2027 01:42:29.668   02 Jun 2027 01:43:44.477            74.809              Murmansk2          2337.781
        88   02 Jun 2027 01:43:50.495   02 Jun 2027 01:45:35.887           105.392                Irkutsk          3293.500
        89   02 Jun 2027 01:49:44.210   02 Jun 2027 01:51:12.508            88.298                  Delhi          2759.312
        90   02 Jun 2027 02:32:39.469   02 Jun 2027 02:33:18.716            39.247            RioGallegos          1226.469
        91   02 Jun 2027 02:35:51.965   02 Jun 2027 02:36:16.871            24.906            RioGallegos           778.312
        92   02 Jun 2027 03:23:44.882   02 Jun 2027 03:23:52.563             7.681              Murmansk2           240.031
        93   02 Jun 2027 03:23:53.825   02 Jun 2027 03:25:35.505           101.680              Murmansk2          3177.500
        94   02 Jun 2027 03:25:44.735   02 Jun 2027 03:26:11.589            26.854              Murmansk1           839.188
        95   02 Jun 2027 03:26:35.595   02 Jun 2027 03:27:03.812            28.217                Novosib           881.781
        96   02 Jun 2027 03:27:06.213   02 Jun 2027 03:27:42.613            36.400              Murmansk1          1137.500
        97   02 Jun 2027 03:31:13.597   02 Jun 2027 03:31:44.055            30.458                 Moscow           951.812
        98   02 Jun 2027 03:45:07.430   02 Jun 2027 03:45:50.077            42.647               CapeTown          1332.719
        99   02 Jun 2027 03:46:10.609   02 Jun 2027 03:46:20.419             9.810               CapeTown           306.563
       100   02 Jun 2027 03:52:17.632   02 Jun 2027 03:54:21.270           123.638               CapeTown          3863.687
       101   02 Jun 2027 05:00:05.260   02 Jun 2027 05:00:40.162            34.902                Norilsk          1090.688
       102   02 Jun 2027 05:01:57.990   02 Jun 2027 05:02:15.495            17.505              Murmansk1           547.031
       103   02 Jun 2027 05:02:15.918   02 Jun 2027 05:02:33.350            17.432                 Moscow           544.750
       104   02 Jun 2027 05:02:57.379   02 Jun 2027 05:04:18.591            81.212              Murmansk2          2537.875
       105   02 Jun 2027 05:04:41.075   02 Jun 2027 05:05:34.529            53.454              Murmansk2          1670.437
       106   02 Jun 2027 05:20:00.568   02 Jun 2027 05:21:40.223            99.655               CapeTown          3114.219
       107   02 Jun 2027 05:25:01.529   02 Jun 2027 05:25:05.207             3.678               CapeTown           114.938
       108   02 Jun 2027 05:26:16.222   02 Jun 2027 05:26:48.736            32.514               CapeTown          1016.063
       109   02 Jun 2027 06:22:29.377   02 Jun 2027 06:23:09.475            40.098               Magadan1          1253.063
       110   02 Jun 2027 06:23:14.478   02 Jun 2027 06:23:43.962            29.484               Magadan1           921.375
       111   02 Jun 2027 06:23:49.944   02 Jun 2027 06:24:23.582            33.638                Anadyr1          1051.188
       112   02 Jun 2027 06:25:01.793   02 Jun 2027 06:27:14.356           132.563                Anadyr2          4142.594
       113   02 Jun 2027 06:27:41.633   02 Jun 2027 06:28:09.797            28.164                Anadyr2           880.125
       114   02 Jun 2027 06:28:52.195   02 Jun 2027 06:29:02.935            10.740               Magadan2           335.625
       115   02 Jun 2027 08:01:17.953   02 Jun 2027 08:02:47.427            89.474               Magadan1          2796.063
       116   02 Jun 2027 08:03:36.399   02 Jun 2027 08:04:43.045            66.646                Anadyr1          2082.687
       117   02 Jun 2027 09:34:14.762   02 Jun 2027 09:35:23.629            68.867               Magadan1          2152.094
       118   02 Jun 2027 09:35:48.170   02 Jun 2027 09:36:38.901            50.731                Irkutsk          1585.344
       119   02 Jun 2027 09:36:43.434   02 Jun 2027 09:38:00.353            76.919                Irkutsk          2403.719
       120   02 Jun 2027 09:38:21.841   02 Jun 2027 09:38:31.960            10.119                Norilsk           316.219
       121   02 Jun 2027 09:38:42.527   02 Jun 2027 09:38:53.403            10.876                Irkutsk           339.875
       122   02 Jun 2027 09:39:11.189   02 Jun 2027 09:39:33.416            22.227              Murmansk1           694.594
       123   02 Jun 2027 09:39:36.659   02 Jun 2027 09:39:58.660            22.001              Murmansk1           687.531
       124   02 Jun 2027 09:40:13.595   02 Jun 2027 09:40:22.768             9.173              Murmansk1           286.656
       125   02 Jun 2027 09:40:24.061   02 Jun 2027 09:40:24.204             0.143               Magadan2             4.469
       126   02 Jun 2027 09:40:25.470   02 Jun 2027 09:40:47.607            22.137                Norilsk           691.781
       127   02 Jun 2027 09:41:17.091   02 Jun 2027 09:41:39.921            22.830              Murmansk1           713.438
       128   02 Jun 2027 09:47:52.926   02 Jun 2027 09:48:44.348            51.422              Murmansk2          1606.937
       129   02 Jun 2027 10:15:25.575   02 Jun 2027 10:15:31.304             5.729            RioGallegos           179.031
       130   02 Jun 2027 10:16:31.584   02 Jun 2027 10:17:17.365            45.781            RioGallegos          1430.656
       131   02 Jun 2027 10:50:58.487   02 Jun 2027 10:52:21.529            83.042                Sumatra          2595.063
       132   02 Jun 2027 11:10:46.868   02 Jun 2027 11:10:53.503             6.635                Irkutsk           207.344
       133   02 Jun 2027 11:10:59.132   02 Jun 2027 11:12:02.684            63.552                Norilsk          1986.000
       134   02 Jun 2027 11:12:09.631   02 Jun 2027 11:12:28.448            18.817                Irkutsk           588.031
       135   02 Jun 2027 11:12:33.531   02 Jun 2027 11:12:33.962             0.431                Norilsk            13.469
       136   02 Jun 2027 11:12:53.478   02 Jun 2027 11:13:16.822            23.344                Novosib           729.500
       137   02 Jun 2027 11:13:24.375   02 Jun 2027 11:13:51.254            26.879                Norilsk           839.969
       138   02 Jun 2027 11:14:04.208   02 Jun 2027 11:14:38.523            34.315              Murmansk1          1072.344
       139   02 Jun 2027 11:14:43.484   02 Jun 2027 11:14:47.853             4.369              Murmansk1           136.531
       140   02 Jun 2027 11:14:55.407   02 Jun 2027 11:15:36.161            40.754                Irkutsk          1273.563
       141   02 Jun 2027 11:15:50.052   02 Jun 2027 11:16:22.187            32.135              Murmansk1          1004.219
       142   02 Jun 2027 11:16:25.934   02 Jun 2027 11:16:50.147            24.213              Murmansk1           756.656
       143   02 Jun 2027 11:17:38.372   02 Jun 2027 11:17:52.574            14.202                Novosib           443.813
       144   02 Jun 2027 11:53:01.438   02 Jun 2027 11:53:45.338            43.900            RioGallegos          1371.875
       145   02 Jun 2027 11:54:04.954   02 Jun 2027 11:54:08.932             3.978            RioGallegos           124.313
       146   02 Jun 2027 11:55:22.574   02 Jun 2027 11:56:37.610            75.036            RioGallegos          2344.875
       147   02 Jun 2027 12:27:14.134   02 Jun 2027 12:27:32.703            18.569                Sumatra           580.281
       148   02 Jun 2027 12:36:22.496   02 Jun 2027 12:37:09.361            46.865                  Delhi          1464.531
       149   02 Jun 2027 12:41:32.295   02 Jun 2027 12:41:56.963            24.668                Novosib           770.875
       150   02 Jun 2027 12:42:13.062   02 Jun 2027 12:42:51.696            38.634                Novosib          1207.313
       151   02 Jun 2027 12:44:27.839   02 Jun 2027 12:45:29.276            61.437                Novosib          1919.906
       152   02 Jun 2027 12:45:31.055   02 Jun 2027 12:46:58.356            87.301                Norilsk          2728.156
       153   02 Jun 2027 14:12:25.603   02 Jun 2027 14:15:35.790           190.187                  Delhi          5943.344
       154   02 Jun 2027 14:19:50.563   02 Jun 2027 14:20:01.136            10.573                 Moscow           330.406
       155   02 Jun 2027 14:20:55.869   02 Jun 2027 14:24:32.378           216.509                Novosib          6765.906
       156   02 Jun 2027 14:27:41.628   02 Jun 2027 14:29:20.050            98.422                Norilsk          3075.687
       157   02 Jun 2027 15:36:56.718   02 Jun 2027 15:37:53.144            56.426               CapeTown          1763.313
       158   02 Jun 2027 15:55:12.385   02 Jun 2027 15:56:24.875            72.490                 Moscow          2265.312
       159   02 Jun 2027 15:58:41.798   02 Jun 2027 16:01:24.903           163.105              Murmansk2          5097.031
       160   02 Jun 2027 16:14:05.778   02 Jun 2027 16:14:54.907            49.129                Anadyr2          1535.281
       161   02 Jun 2027 16:15:17.302   02 Jun 2027 16:15:32.250            14.948                Anadyr1           467.125
       162   02 Jun 2027 16:15:51.034   02 Jun 2027 16:16:00.053             9.019                Anadyr1           281.844
       163   02 Jun 2027 16:17:19.145   02 Jun 2027 16:17:19.875             0.730                Anadyr2            22.813
       164   02 Jun 2027 16:20:00.079   02 Jun 2027 16:20:29.331            29.252                Anadyr2           914.125
       165   02 Jun 2027 17:08:26.182   02 Jun 2027 17:09:16.988            50.806               CapeTown          1587.688
       166   02 Jun 2027 17:11:18.963   02 Jun 2027 17:11:28.722             9.759               CapeTown           304.969
       167   02 Jun 2027 17:16:08.385   02 Jun 2027 17:16:44.049            35.664               CapeTown          1114.500
       168   02 Jun 2027 17:35:44.634   02 Jun 2027 17:38:02.374           137.740                 Moscow          4304.375
       169   02 Jun 2027 17:41:15.894   02 Jun 2027 17:41:38.038            22.144              Murmansk2           692.000
       170   02 Jun 2027 17:41:38.038   02 Jun 2027 17:41:57.399            19.361              Murmansk1           605.031
       171   02 Jun 2027 17:49:03.681   02 Jun 2027 17:50:40.078            96.397                Anadyr1          3012.406
       172   02 Jun 2027 17:55:52.825   02 Jun 2027 17:56:01.651             8.826                Anadyr1           275.813
       173   02 Jun 2027 17:56:09.191   02 Jun 2027 17:56:14.661             5.470                Anadyr1           170.938
       174   02 Jun 2027 18:45:16.856   02 Jun 2027 18:46:29.627            72.771               CapeTown          2274.094
       175   02 Jun 2027 18:47:39.102   02 Jun 2027 18:48:23.056            43.954               CapeTown          1373.562
       176   02 Jun 2027 19:18:18.687   02 Jun 2027 19:21:55.926           217.239              Murmansk1          6788.719
       177   02 Jun 2027 19:27:29.528   02 Jun 2027 19:30:13.431           163.903               Magadan2          5121.969
       178   02 Jun 2027 19:33:26.833   02 Jun 2027 19:33:31.419             4.586               Magadan2           143.313
       179   02 Jun 2027 19:33:48.167   02 Jun 2027 19:33:56.322             8.155               Magadan2           254.844
       180   02 Jun 2027 21:00:49.448   02 Jun 2027 21:04:31.892           222.444                Anadyr1          6951.375
       181   02 Jun 2027 21:04:40.477   02 Jun 2027 21:06:50.678           130.201               Magadan2          4068.781
       182   02 Jun 2027 21:07:09.120   02 Jun 2027 21:08:02.911            53.791               Magadan1          1680.969
       183   02 Jun 2027 21:10:05.591   02 Jun 2027 21:10:44.228            38.637               Magadan1          1207.406
       184   02 Jun 2027 21:55:27.443   02 Jun 2027 21:57:55.714           148.271            RioGallegos          4633.469
       185   02 Jun 2027 21:58:34.815   02 Jun 2027 21:58:44.278             9.463            RioGallegos           295.719
       186   02 Jun 2027 21:59:26.554   02 Jun 2027 21:59:41.988            15.434            RioGallegos           482.312
       187   02 Jun 2027 22:04:20.500   02 Jun 2027 22:04:51.573            31.073            RioGallegos           971.031
       188   02 Jun 2027 22:36:29.355   02 Jun 2027 22:36:52.031            22.676                Anadyr2           708.625
       189   02 Jun 2027 22:38:07.080   02 Jun 2027 22:38:22.613            15.533                Anadyr2           485.406
       190   02 Jun 2027 22:38:39.388   02 Jun 2027 22:40:20.937           101.549                Norilsk          3173.406
       191   02 Jun 2027 22:40:23.554   02 Jun 2027 22:40:37.153            13.599               Magadan2           424.969
       192   02 Jun 2027 22:40:43.899   02 Jun 2027 22:40:58.246            14.347               Magadan2           448.344
       193   02 Jun 2027 22:41:20.841   02 Jun 2027 22:41:49.599            28.758               Magadan2           898.688
       194   02 Jun 2027 22:42:54.938   02 Jun 2027 22:43:22.120            27.182               Magadan1           849.437
       195   02 Jun 2027 22:43:30.236   02 Jun 2027 22:44:06.735            36.499                Irkutsk          1140.594
       196   02 Jun 2027 22:44:54.037   02 Jun 2027 22:45:18.057            24.020                Irkutsk           750.625
       197   02 Jun 2027 22:45:44.446   02 Jun 2027 22:47:39.939           115.493                Novosib          3609.156
       198   02 Jun 2027 22:57:21.792   02 Jun 2027 22:58:17.688            55.896                Sumatra          1746.750
       199   02 Jun 2027 23:06:51.308   02 Jun 2027 23:08:25.315            94.007                Sumatra          2937.719
       200   03 Jun 2027 00:11:20.903   03 Jun 2027 00:11:32.711            11.808                Anadyr2           369.000
       201   03 Jun 2027 00:12:03.977   03 Jun 2027 00:12:40.367            36.390                Anadyr1          1137.188
       202   03 Jun 2027 00:14:02.050   03 Jun 2027 00:14:06.671             4.621                Anadyr2           144.406
       203   03 Jun 2027 00:14:35.483   03 Jun 2027 00:16:38.257           122.774                Norilsk          3836.687
       204   03 Jun 2027 00:16:40.408   03 Jun 2027 00:17:15.462            35.054               Magadan1          1095.438
       205   03 Jun 2027 00:18:27.493   03 Jun 2027 00:19:17.372            49.879                Irkutsk          1558.719
       206   03 Jun 2027 00:19:31.480   03 Jun 2027 00:20:44.920            73.440                Novosib          2295.000
       207   03 Jun 2027 00:25:58.904   03 Jun 2027 00:26:19.834            20.930                Novosib           654.063
       208   03 Jun 2027 00:26:40.972   03 Jun 2027 00:29:29.427           168.455                  Delhi          5264.219
       209   03 Jun 2027 01:10:57.833   03 Jun 2027 01:11:31.177            33.344            RioGallegos          1042.000
       210   03 Jun 2027 01:15:11.361   03 Jun 2027 01:16:11.750            60.389            RioGallegos          1887.156
       211   03 Jun 2027 01:44:59.296   03 Jun 2027 01:45:11.492            12.196                Anadyr2           381.125
       212   03 Jun 2027 01:45:40.019   03 Jun 2027 01:45:54.615            14.596                Anadyr1           456.125
       213   03 Jun 2027 01:46:34.366   03 Jun 2027 01:47:19.040            44.674                Anadyr2          1396.063
       214   03 Jun 2027 01:47:36.591   03 Jun 2027 01:47:52.832            16.241                Anadyr2           507.531
       215   03 Jun 2027 01:50:35.624   03 Jun 2027 01:52:12.542            96.918                Norilsk          3028.688
       216   03 Jun 2027 01:53:00.113   03 Jun 2027 01:54:29.761            89.648              Murmansk2          2801.500
       217   03 Jun 2027 01:55:02.652   03 Jun 2027 01:55:26.874            24.222                Novosib           756.937
       218   03 Jun 2027 01:57:55.373   03 Jun 2027 01:58:21.636            26.263                Irkutsk           820.719
       219   03 Jun 2027 01:58:29.062   03 Jun 2027 01:58:38.297             9.235                 Moscow           288.594
       220   03 Jun 2027 02:01:52.834   03 Jun 2027 02:02:35.905            43.071                  Delhi          1345.969
       221   03 Jun 2027 02:10:41.149   03 Jun 2027 02:11:05.343            24.194                  Delhi           756.062
       222   03 Jun 2027 03:19:50.541   03 Jun 2027 03:20:03.649            13.108                Anadyr1           409.625
       223   03 Jun 2027 03:28:21.309   03 Jun 2027 03:28:32.780            11.471               Magadan2           358.469
       224   03 Jun 2027 03:35:53.400   03 Jun 2027 03:35:59.215             5.815                Norilsk           181.719
       225   03 Jun 2027 03:37:32.769   03 Jun 2027 03:38:07.565            34.796                 Moscow          1087.375
       226   03 Jun 2027 03:38:10.544   03 Jun 2027 03:38:41.944            31.400                Norilsk           981.250
       227   03 Jun 2027 03:38:46.581   03 Jun 2027 03:39:29.310            42.729              Murmansk2          1335.281
       228   03 Jun 2027 03:39:36.389   03 Jun 2027 03:40:35.988            59.599              Murmansk1          1862.469
       229   03 Jun 2027 03:40:54.109   03 Jun 2027 03:44:20.279           206.170                 Moscow          6442.812
       230   03 Jun 2027 03:56:42.256   03 Jun 2027 04:02:12.647           330.391               CapeTown         10324.719
       231   03 Jun 2027 04:02:43.617   03 Jun 2027 04:03:16.823            33.206               CapeTown          1037.688
       232   03 Jun 2027 04:04:02.428   03 Jun 2027 04:04:57.458            55.030               CapeTown          1719.688
       233   03 Jun 2027 05:11:47.871   03 Jun 2027 05:12:11.676            23.805              Murmansk1           743.906
       234   03 Jun 2027 05:12:59.508   03 Jun 2027 05:13:47.812            48.304                 Moscow          1509.500
       235   03 Jun 2027 05:13:50.988   03 Jun 2027 05:14:00.428             9.440              Murmansk2           295.000
       236   03 Jun 2027 05:14:17.371   03 Jun 2027 05:14:19.529             2.158              Murmansk2            67.438
       237   03 Jun 2027 05:14:22.536   03 Jun 2027 05:14:28.862             6.326                 Moscow           197.687
       238   03 Jun 2027 05:15:20.503   03 Jun 2027 05:15:27.535             7.032              Murmansk1           219.750
       239   03 Jun 2027 05:15:49.754   03 Jun 2027 05:16:03.660            13.906              Murmansk1           434.562
       240   03 Jun 2027 05:16:31.642   03 Jun 2027 05:17:38.405            66.763              Murmansk1          2086.344
       241   03 Jun 2027 05:19:31.265   03 Jun 2027 05:20:20.749            49.484                 Moscow          1546.375
       242   03 Jun 2027 05:32:18.396   03 Jun 2027 05:32:39.218            20.822               CapeTown           650.687
       243   03 Jun 2027 05:33:45.791   03 Jun 2027 05:33:52.034             6.243               CapeTown           195.094
       244   03 Jun 2027 05:34:40.683   03 Jun 2027 05:36:39.885           119.202               CapeTown          3725.063
       245   03 Jun 2027 06:35:06.031   03 Jun 2027 06:35:16.079            10.048               Magadan2           314.000
       246   03 Jun 2027 06:35:16.079   03 Jun 2027 06:35:21.920             5.841               Magadan1           182.531
       247   03 Jun 2027 06:35:32.764   03 Jun 2027 06:36:56.696            83.932                Anadyr1          2622.875
       248   03 Jun 2027 06:37:02.435   03 Jun 2027 06:37:17.973            15.538               Magadan1           485.562
       249   03 Jun 2027 06:37:27.923   03 Jun 2027 06:37:35.587             7.664                Norilsk           239.500
       250   03 Jun 2027 06:37:40.469   03 Jun 2027 06:37:44.056             3.587                Anadyr2           112.094
       251   03 Jun 2027 06:38:33.444   03 Jun 2027 06:38:39.140             5.696                Anadyr2           178.000
       252   03 Jun 2027 06:38:49.109   03 Jun 2027 06:39:02.692            13.583               Magadan2           424.469
       253   03 Jun 2027 06:39:13.548   03 Jun 2027 06:40:13.976            60.428                Anadyr2          1888.375
       254   03 Jun 2027 06:44:18.688   03 Jun 2027 06:44:34.325            15.637                 Moscow           488.656
       255   03 Jun 2027 07:25:21.331   03 Jun 2027 07:25:25.144             3.813            RioGallegos           119.156
       256   03 Jun 2027 07:25:31.165   03 Jun 2027 07:25:37.057             5.892            RioGallegos           184.125
       257   03 Jun 2027 08:10:51.949   03 Jun 2027 08:12:41.143           109.194                Anadyr2          3412.313
       258   03 Jun 2027 08:12:55.640   03 Jun 2027 08:13:15.379            19.739                Anadyr1           616.844
       259   03 Jun 2027 08:13:19.358   03 Jun 2027 08:14:01.240            41.882               Magadan2          1308.813
       260   03 Jun 2027 08:14:16.792   03 Jun 2027 08:15:36.969            80.177                Anadyr2          2505.531
       261   03 Jun 2027 08:53:05.582   03 Jun 2027 08:53:15.380             9.798            RioGallegos           306.187
       262   03 Jun 2027 08:54:22.860   03 Jun 2027 08:54:34.897            12.037            RioGallegos           376.156
       263   03 Jun 2027 08:55:27.821   03 Jun 2027 08:55:44.186            16.365            RioGallegos           511.406
       264   03 Jun 2027 09:00:00.824   03 Jun 2027 09:00:20.013            19.189            RioGallegos           599.656
       265   03 Jun 2027 09:45:38.573   03 Jun 2027 09:45:43.676             5.103                Irkutsk           159.469
       266   03 Jun 2027 09:45:59.496   03 Jun 2027 09:47:24.580            85.084               Magadan2          2658.875
       267   03 Jun 2027 09:47:40.232   03 Jun 2027 09:47:55.989            15.757                Novosib           492.406
       268   03 Jun 2027 09:47:57.565   03 Jun 2027 09:48:25.653            28.088               Magadan1           877.750
       269   03 Jun 2027 09:48:29.413   03 Jun 2027 09:48:33.866             4.453               Magadan1           139.156
       270   03 Jun 2027 09:48:42.028   03 Jun 2027 09:48:46.755             4.727                Irkutsk           147.719
       271   03 Jun 2027 09:48:52.216   03 Jun 2027 09:51:11.631           139.415               Magadan1          4356.719
       272   03 Jun 2027 09:51:24.211   03 Jun 2027 09:51:46.030            21.819              Murmansk2           681.844
       273   03 Jun 2027 09:51:47.901   03 Jun 2027 09:52:23.091            35.190                Irkutsk          1099.688
       274   03 Jun 2027 09:52:32.214   03 Jun 2027 09:52:37.132             4.918              Murmansk2           153.687
       275   03 Jun 2027 09:52:43.525   03 Jun 2027 09:53:44.823            61.298                Norilsk          1915.563
       276   03 Jun 2027 10:27:26.473   03 Jun 2027 10:28:28.782            62.309            RioGallegos          1947.156
       277   03 Jun 2027 11:02:41.054   03 Jun 2027 11:04:42.912           121.858                Sumatra          3808.062
       278   03 Jun 2027 11:22:26.652   03 Jun 2027 11:22:56.469            29.817                Norilsk           931.781
       279   03 Jun 2027 11:22:58.554   03 Jun 2027 11:24:00.117            61.563                Irkutsk          1923.844
       280   03 Jun 2027 11:24:04.304   03 Jun 2027 11:24:08.203             3.899                Norilsk           121.844
       281   03 Jun 2027 11:24:27.590   03 Jun 2027 11:24:55.496            27.906                Novosib           872.062
       282   03 Jun 2027 11:24:56.158   03 Jun 2027 11:25:01.600             5.442                Irkutsk           170.063
       283   03 Jun 2027 11:25:14.920   03 Jun 2027 11:25:47.801            32.881              Murmansk1          1027.531
       284   03 Jun 2027 11:25:53.334   03 Jun 2027 11:26:13.197            19.863                Norilsk           620.719
       285   03 Jun 2027 11:26:26.486   03 Jun 2027 11:27:04.592            38.106                Novosib          1190.812
       286   03 Jun 2027 11:27:05.646   03 Jun 2027 11:27:32.038            26.392              Murmansk1           824.750
       287   03 Jun 2027 11:27:34.118   03 Jun 2027 11:28:30.873            56.755                Irkutsk          1773.594
       288   03 Jun 2027 12:05:37.504   03 Jun 2027 12:06:01.163            23.659            RioGallegos           739.344
       289   03 Jun 2027 12:06:43.661   03 Jun 2027 12:07:23.507            39.846            RioGallegos          1245.188
       290   03 Jun 2027 12:40:07.279   03 Jun 2027 12:40:27.678            20.399                Sumatra           637.469
       291   03 Jun 2027 12:45:10.008   03 Jun 2027 12:46:09.442            59.434                Sumatra          1857.312
       292   03 Jun 2027 12:53:44.661   03 Jun 2027 12:54:54.985            70.324                Novosib          2197.625
       293   03 Jun 2027 12:56:33.377   03 Jun 2027 12:56:34.124             0.747                Novosib            23.344
       294   03 Jun 2027 12:56:48.604   03 Jun 2027 12:59:05.503           136.899                Irkutsk          4278.094
       295   03 Jun 2027 13:03:22.891   03 Jun 2027 13:03:54.141            31.250                Norilsk           976.563
       296   03 Jun 2027 14:25:25.275   03 Jun 2027 14:26:32.400            67.125                  Delhi          2097.656
       297   03 Jun 2027 14:27:27.291   03 Jun 2027 14:29:41.719           134.428                  Delhi          4200.875
       298   03 Jun 2027 14:33:55.917   03 Jun 2027 14:36:31.605           155.688                Novosib          4865.250
       299   03 Jun 2027 14:36:49.949   03 Jun 2027 14:38:11.356            81.407                Norilsk          2543.969
       300   03 Jun 2027 14:40:52.232   03 Jun 2027 14:41:55.847            63.615                Norilsk          1987.969
       301   03 Jun 2027 15:47:15.330   03 Jun 2027 15:48:45.534            90.204               CapeTown          2818.875
       302   03 Jun 2027 15:53:33.140   03 Jun 2027 15:53:46.304            13.164               CapeTown           411.375
       303   03 Jun 2027 16:07:27.514   03 Jun 2027 16:08:27.755            60.241                 Moscow          1882.531
       304   03 Jun 2027 16:10:53.532   03 Jun 2027 16:11:37.533            44.001              Murmansk2          1375.031
       305   03 Jun 2027 16:13:22.680   03 Jun 2027 16:13:42.780            20.100              Murmansk1           628.125
       306   03 Jun 2027 16:25:51.254   03 Jun 2027 16:26:53.346            62.092                Anadyr1          1940.375
       307   03 Jun 2027 16:26:59.696   03 Jun 2027 16:28:25.726            86.030                Anadyr2          2688.438
       308   03 Jun 2027 16:28:32.437   03 Jun 2027 16:29:08.194            35.757                Anadyr2          1117.406
       309   03 Jun 2027 17:20:24.042   03 Jun 2027 17:21:04.550            40.508               CapeTown          1265.875
       310   03 Jun 2027 17:22:43.258   03 Jun 2027 17:22:49.756             6.498               CapeTown           203.062
       311   03 Jun 2027 17:23:55.806   03 Jun 2027 17:24:10.767            14.961               CapeTown           467.531
       312   03 Jun 2027 17:26:04.184   03 Jun 2027 17:26:21.796            17.612               CapeTown           550.375
       313   03 Jun 2027 17:33:04.427   03 Jun 2027 17:33:12.458             8.031               CapeTown           250.969
       314   03 Jun 2027 17:48:28.494   03 Jun 2027 17:52:05.534           217.040                 Moscow          6782.500
       315   03 Jun 2027 17:53:14.208   03 Jun 2027 17:53:40.243            26.035              Murmansk1           813.594
       316   03 Jun 2027 18:02:15.222   03 Jun 2027 18:02:41.430            26.208                Anadyr1           819.000
       317   03 Jun 2027 18:03:14.060   03 Jun 2027 18:03:19.022             4.962                Anadyr2           155.062
       318   03 Jun 2027 18:04:00.767   03 Jun 2027 18:04:05.326             4.559                Anadyr2           142.469
       319   03 Jun 2027 18:04:45.338   03 Jun 2027 18:04:49.872             4.534                Anadyr2           141.688
       320   03 Jun 2027 18:05:54.156   03 Jun 2027 18:08:13.589           139.433               Magadan2          4357.281
       321   03 Jun 2027 19:03:54.265   03 Jun 2027 19:04:15.453            21.188               CapeTown           662.125
       322   03 Jun 2027 19:32:00.200   03 Jun 2027 19:33:04.775            64.575              Murmansk2          2017.969
       323   03 Jun 2027 19:36:55.537   03 Jun 2027 19:38:36.959           101.422                Anadyr1          3169.438
       324   03 Jun 2027 19:38:41.762   03 Jun 2027 19:40:16.383            94.621                Anadyr2          2956.906
       325   03 Jun 2027 19:40:26.419   03 Jun 2027 19:41:52.090            85.671               Magadan1          2677.219
       326   03 Jun 2027 19:42:47.608   03 Jun 2027 19:42:59.127            11.519               Magadan1           359.969
       327   03 Jun 2027 19:44:10.549   03 Jun 2027 19:44:22.906            12.357               Magadan1           386.156
       328   03 Jun 2027 19:48:07.881   03 Jun 2027 19:48:12.947             5.066               Magadan1           158.312
       329   03 Jun 2027 19:49:07.612   03 Jun 2027 19:49:19.622            12.010               Magadan1           375.313
       330   03 Jun 2027 21:12:50.367   03 Jun 2027 21:14:56.958           126.591                Anadyr1          3955.969
       331   03 Jun 2027 21:15:03.431   03 Jun 2027 21:16:32.027            88.596                Anadyr2          2768.625
       332   03 Jun 2027 21:17:18.641   03 Jun 2027 21:19:58.431           159.790                Norilsk          4993.438
       333   03 Jun 2027 21:21:42.041   03 Jun 2027 21:22:26.920            44.879               Magadan1          1402.469
       334   03 Jun 2027 21:24:45.774   03 Jun 2027 21:25:12.683            26.909               Magadan1           840.906
       335   03 Jun 2027 21:25:55.976   03 Jun 2027 21:26:00.416             4.440               Magadan2           138.750
       336   03 Jun 2027 21:26:52.406   03 Jun 2027 21:27:28.068            35.662               Magadan1          1114.438
       337   03 Jun 2027 22:07:14.953   03 Jun 2027 22:09:23.153           128.200            RioGallegos          4006.250
       338   03 Jun 2027 22:09:59.601   03 Jun 2027 22:10:38.042            38.441            RioGallegos          1201.281
       339   03 Jun 2027 22:16:09.489   03 Jun 2027 22:16:41.685            32.196            RioGallegos          1006.125
       340   03 Jun 2027 22:48:26.355   03 Jun 2027 22:48:53.702            27.347                Anadyr2           854.594
       341   03 Jun 2027 22:50:39.979   03 Jun 2027 22:50:57.643            17.664                Norilsk           552.000
       342   03 Jun 2027 22:51:10.972   03 Jun 2027 22:52:35.289            84.317               Magadan1          2634.906
       343   03 Jun 2027 22:52:35.289   03 Jun 2027 22:52:39.947             4.658               Magadan2           145.563
       344   03 Jun 2027 22:53:05.127   03 Jun 2027 22:53:21.815            16.688               Magadan1           521.500
       345   03 Jun 2027 22:54:22.202   03 Jun 2027 22:54:29.130             6.928               Magadan2           216.500
       346   03 Jun 2027 22:54:31.439   03 Jun 2027 22:54:39.024             7.585               Magadan1           237.031
       347   03 Jun 2027 22:54:50.211   03 Jun 2027 22:55:39.661            49.450                Irkutsk          1545.312
       348   03 Jun 2027 22:56:05.629   03 Jun 2027 22:56:14.967             9.338                Norilsk           291.813
       349   03 Jun 2027 22:56:27.475   03 Jun 2027 22:56:52.490            25.015               Magadan1           781.719
       350   03 Jun 2027 22:56:52.662   03 Jun 2027 22:58:01.778            69.116                Novosib          2159.875
       351   03 Jun 2027 22:59:28.030   03 Jun 2027 22:59:45.165            17.135                Novosib           535.469
       352   03 Jun 2027 23:08:34.853   03 Jun 2027 23:11:20.708           165.855                Sumatra          5182.969
       353   04 Jun 2027 00:23:08.956   04 Jun 2027 00:23:50.264            41.308                Anadyr1          1290.875
       354   04 Jun 2027 00:23:50.264   04 Jun 2027 00:24:39.370            49.106                Anadyr2          1534.562
       355   04 Jun 2027 00:25:30.531   04 Jun 2027 00:25:45.050            14.519                Anadyr1           453.719
       356   04 Jun 2027 00:26:37.722   04 Jun 2027 00:26:43.842             6.120                Norilsk           191.250
       357   04 Jun 2027 00:27:17.479   04 Jun 2027 00:29:35.661           138.182               Magadan1          4318.188
       358   04 Jun 2027 00:30:30.396   04 Jun 2027 00:31:41.531            71.135                Irkutsk          2222.969
       359   04 Jun 2027 00:32:24.984   04 Jun 2027 00:32:56.819            31.835                Novosib           994.844
       360   04 Jun 2027 00:33:32.306   04 Jun 2027 00:33:42.283             9.977                Novosib           311.781
       361   04 Jun 2027 00:36:07.004   04 Jun 2027 00:36:35.627            28.623                Novosib           894.469
       362   04 Jun 2027 00:38:22.116   04 Jun 2027 00:38:51.103            28.987                  Delhi           905.844
       363   04 Jun 2027 00:40:15.536   04 Jun 2027 00:41:39.012            83.476                  Delhi          2608.625
       364   04 Jun 2027 01:18:59.919   04 Jun 2027 01:19:54.317            54.398            RioGallegos          1699.938
       365   04 Jun 2027 01:22:28.800   04 Jun 2027 01:22:30.426             1.626            RioGallegos            50.813
       366   04 Jun 2027 01:25:41.213   04 Jun 2027 01:25:48.209             6.996            RioGallegos           218.625
       367   04 Jun 2027 01:26:01.079   04 Jun 2027 01:26:23.037            21.958            RioGallegos           686.188
       368   04 Jun 2027 01:56:40.405   04 Jun 2027 01:57:40.560            60.155                Anadyr1          1879.844
       369   04 Jun 2027 01:57:40.560   04 Jun 2027 01:57:53.598            13.038                Anadyr2           407.438
       370   04 Jun 2027 01:58:35.718   04 Jun 2027 01:59:17.303            41.585                Anadyr1          1299.531
       371   04 Jun 2027 02:02:37.258   04 Jun 2027 02:04:13.819            96.561                Norilsk          3017.531
       372   04 Jun 2027 02:04:57.520   04 Jun 2027 02:06:30.897            93.377              Murmansk1          2918.031
       373   04 Jun 2027 02:06:31.237   04 Jun 2027 02:06:57.175            25.938              Murmansk2           810.562
       374   04 Jun 2027 02:07:13.135   04 Jun 2027 02:07:37.272            24.137                Novosib           754.281
       375   04 Jun 2027 02:10:21.097   04 Jun 2027 02:10:27.685             6.588                Irkutsk           205.875
       376   04 Jun 2027 02:11:32.355   04 Jun 2027 02:11:45.544            13.189                Novosib           412.156
       377   04 Jun 2027 02:13:35.980   04 Jun 2027 02:14:47.603            71.623                Irkutsk          2238.219
       378   04 Jun 2027 03:48:06.534   04 Jun 2027 03:48:14.316             7.782                Norilsk           243.187
       379   04 Jun 2027 03:49:22.179   04 Jun 2027 03:49:41.463            19.284              Murmansk2           602.625
       380   04 Jun 2027 03:49:58.207   04 Jun 2027 03:51:09.723            71.516              Murmansk1          2234.875
       381   04 Jun 2027 03:51:24.880   04 Jun 2027 03:52:52.444            87.564              Murmansk2          2736.375
       382   04 Jun 2027 03:53:37.772   04 Jun 2027 03:56:34.651           176.879                 Moscow          5527.469
       383   04 Jun 2027 04:08:23.118   04 Jun 2027 04:14:43.447           380.329               CapeTown         11885.281
       384   04 Jun 2027 04:15:25.612   04 Jun 2027 04:16:14.464            48.852               CapeTown          1526.625
       385   04 Jun 2027 04:19:43.828   04 Jun 2027 04:20:32.850            49.022               CapeTown          1531.938
       386   04 Jun 2027 05:11:12.990   04 Jun 2027 05:11:20.492             7.502               Magadan1           234.437
       387   04 Jun 2027 05:11:41.302   04 Jun 2027 05:12:12.622            31.320                Anadyr1           978.750
       388   04 Jun 2027 05:12:33.894   04 Jun 2027 05:12:40.917             7.023               Magadan1           219.469
       389   04 Jun 2027 05:13:09.174   04 Jun 2027 05:13:45.925            36.751               Magadan2          1148.469
       390   04 Jun 2027 05:13:47.323   04 Jun 2027 05:14:13.076            25.753                Anadyr2           804.781
       391   04 Jun 2027 05:15:22.253   04 Jun 2027 05:15:26.673             4.420                Anadyr2           138.125
       392   04 Jun 2027 05:16:19.031   04 Jun 2027 05:16:24.740             5.709                Anadyr2           178.406
       393   04 Jun 2027 05:16:24.740   04 Jun 2027 05:16:40.900            16.160                Anadyr1           505.000
       394   04 Jun 2027 05:17:16.205   04 Jun 2027 05:17:32.218            16.013                Anadyr1           500.406
       395   04 Jun 2027 05:23:47.872   04 Jun 2027 05:24:33.523            45.651              Murmansk1          1426.594
       396   04 Jun 2027 05:24:55.132   04 Jun 2027 05:25:11.483            16.351              Murmansk2           510.969
       397   04 Jun 2027 05:25:44.732   04 Jun 2027 05:25:47.780             3.048              Murmansk1            95.250
       398   04 Jun 2027 05:28:21.412   04 Jun 2027 05:29:40.719            79.307              Murmansk1          2478.344
       399   04 Jun 2027 05:49:06.245   04 Jun 2027 05:49:19.694            13.449               CapeTown           420.281
       400   04 Jun 2027 05:49:57.564   04 Jun 2027 05:50:01.534             3.970               CapeTown           124.063
       401   04 Jun 2027 05:50:47.261   04 Jun 2027 05:50:58.035            10.774               CapeTown           336.687
       402   04 Jun 2027 06:45:57.955   04 Jun 2027 06:46:41.961            44.006                Anadyr2          1375.187
       403   04 Jun 2027 06:47:01.294   04 Jun 2027 06:47:18.271            16.977               Magadan1           530.531
       404   04 Jun 2027 06:47:20.910   04 Jun 2027 06:48:27.966            67.056               Magadan2          2095.500
       405   04 Jun 2027 06:48:27.966   04 Jun 2027 06:49:01.981            34.015               Magadan1          1062.969
       406   04 Jun 2027 06:49:20.934   04 Jun 2027 06:49:52.515            31.581               Magadan2           986.906
       407   04 Jun 2027 06:50:03.386   04 Jun 2027 06:50:38.339            34.953               Magadan1          1092.281
       408   04 Jun 2027 06:50:38.339   04 Jun 2027 06:50:51.972            13.633               Magadan2           426.031
       409   04 Jun 2027 06:52:05.669   04 Jun 2027 06:52:20.223            14.554                Anadyr2           454.813
       410   04 Jun 2027 06:54:17.404   04 Jun 2027 06:54:44.236            26.832              Murmansk1           838.500
       411   04 Jun 2027 07:01:03.396   04 Jun 2027 07:01:29.734            26.338              Murmansk2           823.063
       412   04 Jun 2027 07:33:57.573   04 Jun 2027 07:34:03.780             6.207            RioGallegos           193.969
       413   04 Jun 2027 07:34:43.857   04 Jun 2027 07:35:33.779            49.922            RioGallegos          1560.063
       414   04 Jun 2027 08:21:04.419   04 Jun 2027 08:21:43.306            38.887                Anadyr1          1215.219
       415   04 Jun 2027 08:21:45.824   04 Jun 2027 08:22:40.560            54.736                Anadyr2          1710.500
       416   04 Jun 2027 08:23:06.324   04 Jun 2027 08:23:28.743            22.419               Magadan1           700.594
       417   04 Jun 2027 08:23:48.945   04 Jun 2027 08:25:12.889            83.944                Anadyr2          2623.250
       418   04 Jun 2027 08:25:20.366   04 Jun 2027 08:25:21.908             1.542               Magadan1            48.188
       419   04 Jun 2027 08:25:22.402   04 Jun 2027 08:26:25.910            63.508                Anadyr2          1984.625
       420   04 Jun 2027 08:26:33.292   04 Jun 2027 08:26:41.038             7.746               Magadan1           242.063
       421   04 Jun 2027 08:26:41.038   04 Jun 2027 08:26:43.402             2.364               Magadan2            73.875
       422   04 Jun 2027 08:27:09.323   04 Jun 2027 08:27:56.752            47.429                Irkutsk          1482.156
       423   04 Jun 2027 08:28:04.553   04 Jun 2027 08:28:39.724            35.171              Murmansk1          1099.094
       424   04 Jun 2027 09:04:43.791   04 Jun 2027 09:05:13.972            30.181            RioGallegos           943.156
       425   04 Jun 2027 09:12:19.644   04 Jun 2027 09:13:24.095            64.451            RioGallegos          2014.094
       426   04 Jun 2027 09:57:37.636   04 Jun 2027 09:59:25.035           107.399               Magadan1          3356.219
       427   04 Jun 2027 09:59:25.035   04 Jun 2027 10:00:31.041            66.006               Magadan2          2062.688
       428   04 Jun 2027 10:00:45.948   04 Jun 2027 10:01:36.356            50.408               Magadan2          1575.250
       429   04 Jun 2027 10:01:49.174   04 Jun 2027 10:01:55.411             6.237                Norilsk           194.906
       430   04 Jun 2027 10:01:55.808   04 Jun 2027 10:02:27.497            31.689                Irkutsk           990.281
       431   04 Jun 2027 10:02:30.326   04 Jun 2027 10:02:49.163            18.837                Norilsk           588.656
       432   04 Jun 2027 10:02:52.822   04 Jun 2027 10:03:33.279            40.457              Murmansk1          1264.281
       433   04 Jun 2027 10:03:35.691   04 Jun 2027 10:03:51.071            15.380              Murmansk1           480.625
       434   04 Jun 2027 10:03:51.071   04 Jun 2027 10:04:30.543            39.472              Murmansk2          1233.500
       435   04 Jun 2027 10:04:34.438   04 Jun 2027 10:05:08.999            34.561                Novosib          1080.031
       436   04 Jun 2027 10:05:49.455   04 Jun 2027 10:06:02.597            13.142              Murmansk2           410.688
       437   04 Jun 2027 10:39:30.770   04 Jun 2027 10:40:12.476            41.706            RioGallegos          1303.312
       438   04 Jun 2027 10:40:52.133   04 Jun 2027 10:41:43.994            51.861            RioGallegos          1620.656
       439   04 Jun 2027 11:15:09.453   04 Jun 2027 11:16:58.982           109.529                Sumatra          3422.781
       440   04 Jun 2027 11:34:37.771   04 Jun 2027 11:35:39.602            61.831                Novosib          1932.219
       441   04 Jun 2027 11:35:46.264   04 Jun 2027 11:35:51.066             4.802                Novosib           150.063
       442   04 Jun 2027 11:35:53.715   04 Jun 2027 11:37:01.862            68.147                Irkutsk          2129.594
       443   04 Jun 2027 11:37:11.344   04 Jun 2027 11:37:55.386            44.042                Norilsk          1376.312
       444   04 Jun 2027 11:38:00.876   04 Jun 2027 11:38:01.424             0.548                Irkutsk            17.125
       445   04 Jun 2027 11:38:04.231   04 Jun 2027 11:38:30.735            26.504                Novosib           828.250
       446   04 Jun 2027 11:38:31.760   04 Jun 2027 11:38:32.288             0.528              Murmansk2            16.500
       447   04 Jun 2027 11:38:38.415   04 Jun 2027 11:39:03.610            25.195                Irkutsk           787.344
       448   04 Jun 2027 11:39:05.789   04 Jun 2027 11:39:33.614            27.825              Murmansk2           869.531
       449   04 Jun 2027 11:39:35.281   04 Jun 2027 11:39:47.065            11.784                Irkutsk           368.250
       450   04 Jun 2027 11:39:55.126   04 Jun 2027 11:40:03.392             8.266                Norilsk           258.313
       451   04 Jun 2027 11:40:13.323   04 Jun 2027 11:40:48.099            34.776                Norilsk          1086.750
       452   04 Jun 2027 11:46:42.120   04 Jun 2027 11:46:44.348             2.228              Murmansk2            69.625
       453   04 Jun 2027 12:18:21.582   04 Jun 2027 12:18:47.026            25.444            RioGallegos           795.125
       454   04 Jun 2027 12:20:15.075   04 Jun 2027 12:22:42.352           147.277            RioGallegos          4602.406
       455   04 Jun 2027 12:57:23.420   04 Jun 2027 12:57:24.353             0.933                Sumatra            29.156
       456   04 Jun 2027 13:06:00.549   04 Jun 2027 13:07:29.087            88.538                Novosib          2766.813
       457   04 Jun 2027 13:08:46.759   04 Jun 2027 13:11:04.343           137.584                Irkutsk          4299.500
       458   04 Jun 2027 13:12:10.861   04 Jun 2027 13:12:48.108            37.247                Norilsk          1163.969
       459   04 Jun 2027 14:39:01.484   04 Jun 2027 14:41:44.353           162.869                  Delhi          5089.656
       460   04 Jun 2027 14:42:40.821   04 Jun 2027 14:42:44.402             3.581                  Delhi           111.906
       461   04 Jun 2027 14:44:10.539   04 Jun 2027 14:45:05.480            54.941                 Moscow          1716.906
       462   04 Jun 2027 14:46:24.589   04 Jun 2027 14:47:42.783            78.194              Murmansk1          2443.562
       463   04 Jun 2027 14:48:03.248   04 Jun 2027 14:48:03.965             0.717              Murmansk2            22.406
       464   04 Jun 2027 14:49:11.947   04 Jun 2027 14:50:40.910            88.963                Novosib          2780.094
       465   04 Jun 2027 14:52:08.667   04 Jun 2027 14:53:30.638            81.971                Norilsk          2561.594
       466   04 Jun 2027 15:58:24.280   04 Jun 2027 16:01:00.838           156.558               CapeTown          4892.438
       467   04 Jun 2027 16:20:30.087   04 Jun 2027 16:21:04.408            34.321                 Moscow          1072.531
       468   04 Jun 2027 16:23:07.177   04 Jun 2027 16:23:59.283            52.106              Murmansk1          1628.312
       469   04 Jun 2027 16:25:19.182   04 Jun 2027 16:25:44.710            25.528              Murmansk1           797.750
       470   04 Jun 2027 16:29:29.427   04 Jun 2027 16:29:43.186            13.759              Murmansk1           429.969
       471   04 Jun 2027 16:31:08.377   04 Jun 2027 16:31:35.189            26.812              Murmansk1           837.875
       472   04 Jun 2027 16:37:41.171   04 Jun 2027 16:38:52.471            71.300                Anadyr1          2228.125
       473   04 Jun 2027 16:39:35.952   04 Jun 2027 16:40:48.367            72.415                Anadyr2          2262.969
       474   04 Jun 2027 17:32:24.756   04 Jun 2027 17:34:49.798           145.042               CapeTown          4532.562
       475   04 Jun 2027 18:01:56.708   04 Jun 2027 18:02:23.132            26.424              Murmansk1           825.750
       476   04 Jun 2027 18:02:23.679   04 Jun 2027 18:05:11.359           167.680              Murmansk2          5240.000
       477   04 Jun 2027 18:05:42.388   04 Jun 2027 18:05:53.279            10.891              Murmansk2           340.344
       478   04 Jun 2027 18:07:29.761   04 Jun 2027 18:07:33.632             3.871              Murmansk1           120.969
       479   04 Jun 2027 18:13:41.958   04 Jun 2027 18:14:42.886            60.928                Anadyr2          1904.000
       480   04 Jun 2027 18:17:05.850   04 Jun 2027 18:17:17.176            11.326               Magadan2           353.938
       481   04 Jun 2027 18:18:05.666   04 Jun 2027 18:20:52.837           167.171               Magadan1          5224.094
       482   04 Jun 2027 19:48:57.233   04 Jun 2027 19:50:37.867           100.634                Anadyr1          3144.813
