uniorb/output/strategy_2/Drop/Drop_KinoSat_110507.txt

KinoSat_110507
-------------------------
    Access    *     Start Time (UTCG)     *     Stop Time (UTCG)  *   Duration (s)        *       Station  *  Data (Mbytes)
         1   01 Jun 2027 03:29:11.646   01 Jun 2027 03:29:44.832            33.186               Magadan1          2917.500
         2   01 Jun 2027 03:29:47.959   01 Jun 2027 03:30:09.600            21.641                Irkutsk          1563.500
         3   01 Jun 2027 03:30:10.100   01 Jun 2027 03:30:23.975            13.875               Magadan1           250.000
         4   01 Jun 2027 03:30:37.733   01 Jun 2027 03:31:37.272            59.539               Magadan2          6879.000
         5   01 Jun 2027 03:31:42.269   01 Jun 2027 03:32:10.499            28.230               Magadan1          2498.500
         6   01 Jun 2027 03:32:13.255   01 Jun 2027 03:32:33.684            20.429                Anadyr1          1378.000
         7   01 Jun 2027 03:32:37.358   01 Jun 2027 03:32:56.243            18.885                Anadyr2          1837.000
         8   01 Jun 2027 03:33:07.107   01 Jun 2027 03:34:23.562            76.455               Magadan2          5432.000
         9   01 Jun 2027 05:03:51.511   01 Jun 2027 05:04:01.753            10.242                Norilsk           915.000
        10   01 Jun 2027 05:04:03.458   01 Jun 2027 05:04:11.353             7.895               Magadan2           852.500
        11   01 Jun 2027 05:04:17.384   01 Jun 2027 05:04:43.594            26.210                Novosib          3015.500
        12   01 Jun 2027 05:05:01.159   01 Jun 2027 05:06:20.684            79.525                Norilsk          8782.500
        13   01 Jun 2027 05:06:24.368   01 Jun 2027 05:06:50.424            26.056                Norilsk          1842.000
        14   01 Jun 2027 05:07:14.068   01 Jun 2027 05:08:56.710           102.642                Norilsk         11822.000
        15   01 Jun 2027 05:09:13.991   01 Jun 2027 05:10:29.353            75.362               Magadan1          8640.500
        16   01 Jun 2027 05:10:34.074   01 Jun 2027 05:11:28.402            54.328              Murmansk1          2360.500
        17   01 Jun 2027 06:41:13.303   01 Jun 2027 06:43:36.704           143.401                Norilsk         17831.000
        18   01 Jun 2027 06:43:44.062   01 Jun 2027 06:44:03.227            19.165              Murmansk2          2395.625
        19   01 Jun 2027 06:44:03.227   01 Jun 2027 06:44:14.557            11.330              Murmansk1          1283.375
        20   01 Jun 2027 06:44:19.613   01 Jun 2027 06:44:40.665            21.052                Novosib          2528.000
        21   01 Jun 2027 06:44:43.313   01 Jun 2027 06:44:57.049            13.736                Irkutsk          1324.000
        22   01 Jun 2027 06:45:02.419   01 Jun 2027 06:45:44.827            42.408                Irkutsk          2685.000
        23   01 Jun 2027 06:45:45.287   01 Jun 2027 06:45:46.581             1.294                Novosib           161.750
        24   01 Jun 2027 06:45:55.331   01 Jun 2027 06:46:54.789            59.458              Murmansk2          4443.250
        25   01 Jun 2027 06:46:59.672   01 Jun 2027 06:47:26.271            26.599              Murmansk1          1925.000
        26   01 Jun 2027 08:19:04.481   01 Jun 2027 08:19:58.247            53.766                Norilsk          5887.000
        27   01 Jun 2027 08:19:59.075   01 Jun 2027 08:20:07.138             8.063              Murmansk1           414.000
        28   01 Jun 2027 08:20:23.483   01 Jun 2027 08:21:28.571            65.088                Novosib          8136.000
        29   01 Jun 2027 08:21:41.206   01 Jun 2027 08:22:35.190            53.984                Norilsk          6354.000
        30   01 Jun 2027 08:22:35.530   01 Jun 2027 08:22:49.429            13.899              Murmansk2           170.000
        31   01 Jun 2027 09:52:10.778   01 Jun 2027 09:52:20.070             9.292                 Moscow           427.000
        32   01 Jun 2027 09:52:47.768   01 Jun 2027 09:55:11.358           143.590                 Moscow         13849.000
        33   01 Jun 2027 09:55:22.276   01 Jun 2027 09:56:47.881            85.605                 Moscow          5459.000
        34   01 Jun 2027 09:56:49.520   01 Jun 2027 09:57:19.607            30.087                Novosib           819.500
        35   01 Jun 2027 09:57:21.199   01 Jun 2027 09:57:34.429            13.230                 Moscow           796.000
        36   01 Jun 2027 09:57:47.779   01 Jun 2027 09:57:53.670             5.891                 Moscow           736.375
        37   01 Jun 2027 09:57:58.490   01 Jun 2027 09:58:36.535            38.045                Novosib          4755.625
        38   01 Jun 2027 09:58:39.056   01 Jun 2027 09:59:12.803            33.747                 Moscow          3593.000
        39   01 Jun 2027 09:59:18.981   01 Jun 2027 09:59:48.548            29.567                Norilsk          3089.000
        40   01 Jun 2027 09:59:57.985   01 Jun 2027 10:00:40.523            42.538              Murmansk2          2159.500
        41   02 Jun 2027 03:39:02.429   02 Jun 2027 03:40:29.782            87.353                Anadyr2          1129.000
        42   02 Jun 2027 03:40:59.013   02 Jun 2027 03:42:02.084            63.071                Anadyr1          4427.500
        43   02 Jun 2027 03:42:02.808   02 Jun 2027 03:42:06.351             3.543               Magadan1           362.000
        44   02 Jun 2027 03:42:09.192   02 Jun 2027 03:43:52.169           102.977                Irkutsk          1420.500
        45   02 Jun 2027 03:43:52.587   02 Jun 2027 03:43:53.834             1.247               Magadan1           155.875
        46   02 Jun 2027 03:43:57.860   02 Jun 2027 03:44:22.635            24.775                Norilsk          2066.125
        47   02 Jun 2027 03:44:37.758   02 Jun 2027 03:46:11.512            93.754                Anadyr1          7561.500
        48   02 Jun 2027 05:16:01.385   02 Jun 2027 05:16:53.218            51.833                Irkutsk          1760.000
        49   02 Jun 2027 05:17:10.182   02 Jun 2027 05:18:22.108            71.926                Norilsk          8482.000
        50   02 Jun 2027 05:18:22.137   02 Jun 2027 05:18:45.266            23.129                Irkutsk            14.500
        51   02 Jun 2027 05:18:50.341   02 Jun 2027 05:19:14.481            24.140                Norilsk          2537.500
        52   02 Jun 2027 05:19:39.423   02 Jun 2027 05:21:45.737           126.314               Magadan1         12471.000
        53   02 Jun 2027 05:21:47.275   02 Jun 2027 05:22:07.311            20.036               Magadan2           769.000
        54   02 Jun 2027 05:22:21.757   02 Jun 2027 05:22:28.651             6.894               Magadan1           861.750
        55   02 Jun 2027 05:22:29.100   02 Jun 2027 05:23:30.532            61.432              Murmansk1          6585.750
        56   02 Jun 2027 06:53:01.708   02 Jun 2027 06:53:43.532            41.824                Irkutsk          2757.000
        57   02 Jun 2027 06:53:46.111   02 Jun 2027 06:54:13.934            27.823                Novosib          1289.500
        58   02 Jun 2027 06:54:15.278   02 Jun 2027 06:54:21.780             6.502                Norilsk           672.000
        59   02 Jun 2027 06:54:22.284   02 Jun 2027 06:54:26.383             4.099                Norilsk           252.000
        60   02 Jun 2027 06:54:43.921   02 Jun 2027 06:56:19.138            95.217                Norilsk          8769.000
        61   02 Jun 2027 06:56:20.455   02 Jun 2027 06:56:32.611            12.156                Norilsk           658.500
        62   02 Jun 2027 06:56:39.089   02 Jun 2027 06:57:13.550            34.461                Norilsk          3239.000
        63   02 Jun 2027 06:57:14.240   02 Jun 2027 06:57:32.638            18.398                 Moscow           345.000
        64   02 Jun 2027 06:57:38.978   02 Jun 2027 06:59:17.263            98.285                Novosib          3170.000
        65   02 Jun 2027 08:30:54.546   02 Jun 2027 08:31:26.184            31.638                Norilsk          1870.500
        66   02 Jun 2027 08:31:28.061   02 Jun 2027 08:31:46.919            18.858              Murmansk2           938.500
        67   02 Jun 2027 08:31:51.798   02 Jun 2027 08:32:34.640            42.842                Irkutsk          2439.500
        68   02 Jun 2027 08:32:56.859   02 Jun 2027 08:34:29.813            92.954                Novosib         11109.500
        69   02 Jun 2027 08:34:35.538   02 Jun 2027 08:34:46.412            10.874                Norilsk          1359.250
        70   02 Jun 2027 08:34:51.342   02 Jun 2027 08:36:20.858            89.516                Novosib          3391.250
        71   02 Jun 2027 10:04:32.505   02 Jun 2027 10:04:50.264            17.759                 Moscow          2219.875
        72   02 Jun 2027 10:04:58.297   02 Jun 2027 10:06:56.103           117.806              Murmansk2         13157.125
        73   02 Jun 2027 10:06:56.665   02 Jun 2027 10:07:04.813             8.148                Novosib           281.000
        74   02 Jun 2027 10:07:10.158   02 Jun 2027 10:07:39.976            29.818                 Moscow          2672.500
        75   02 Jun 2027 10:07:41.972   02 Jun 2027 10:07:59.943            17.971                Novosib           998.000
        76   02 Jun 2027 10:08:11.250   02 Jun 2027 10:09:11.469            60.219              Murmansk2          5653.500
        77   02 Jun 2027 10:09:15.744   02 Jun 2027 10:09:38.460            22.716              Murmansk2          2137.500
        78   02 Jun 2027 10:09:57.381   02 Jun 2027 10:11:22.822            85.441                 Moscow          9460.500
        79   02 Jun 2027 10:11:25.347   02 Jun 2027 10:11:48.729            23.382                Norilsk          1262.500
        80   02 Jun 2027 10:11:48.773   02 Jun 2027 10:11:57.453             8.680              Murmansk1            22.000
        81   03 Jun 2027 03:50:35.271   03 Jun 2027 03:51:54.174            78.903               Magadan2          5049.000
        82   03 Jun 2027 03:52:05.423   03 Jun 2027 03:52:59.863            54.440               Magadan2          5624.500
        83   03 Jun 2027 03:53:09.658   03 Jun 2027 03:54:18.455            68.797                Anadyr2          4897.500
        84   03 Jun 2027 03:54:18.597   03 Jun 2027 03:54:40.312            21.715                Anadyr2            71.000
        85   03 Jun 2027 03:54:59.295   03 Jun 2027 03:56:15.860            76.565                Anadyr1          9491.500
        86   03 Jun 2027 03:56:17.750   03 Jun 2027 03:56:39.789            22.039                Norilsk           945.000
        87   03 Jun 2027 03:56:44.995   03 Jun 2027 03:58:12.762            87.767                Anadyr1          2603.000
        88   03 Jun 2027 03:58:39.310   03 Jun 2027 03:59:14.571            35.261              Murmansk1          4109.000
        89   03 Jun 2027 05:28:04.048   03 Jun 2027 05:28:39.833            35.785               Magadan1          1324.000
        90   03 Jun 2027 05:28:44.150   03 Jun 2027 05:29:31.452            47.302                Novosib          2158.500
        91   03 Jun 2027 05:29:36.802   03 Jun 2027 05:30:00.370            23.568               Magadan2          2675.000
        92   03 Jun 2027 05:30:01.003   03 Jun 2027 05:30:19.166            18.163                Novosib           316.500
        93   03 Jun 2027 05:30:23.497   03 Jun 2027 05:30:39.135            15.638                Irkutsk          1954.750
        94   03 Jun 2027 05:30:50.579   03 Jun 2027 05:31:40.680            50.101                Norilsk          5932.750
        95   03 Jun 2027 05:31:44.329   03 Jun 2027 05:31:52.098             7.769                Novosib           971.125
        96   03 Jun 2027 05:31:53.030   03 Jun 2027 05:32:08.956            15.926                Norilsk          1319.375
        97   03 Jun 2027 05:32:12.632   03 Jun 2027 05:32:30.422            17.790               Magadan1          1838.000
        98   03 Jun 2027 05:32:36.836   03 Jun 2027 05:33:36.805            59.969               Magadan2          3207.000
        99   03 Jun 2027 05:33:45.996   03 Jun 2027 05:34:08.220            22.224               Magadan2          2778.000
       100   03 Jun 2027 05:34:12.704   03 Jun 2027 05:35:23.939            71.235              Murmansk1          4059.500
       101   03 Jun 2027 05:35:29.608   03 Jun 2027 05:36:17.610            48.002                Novosib           814.500
       102   03 Jun 2027 07:04:54.565   03 Jun 2027 07:05:40.323            45.758                Novosib          4502.000
       103   03 Jun 2027 07:05:41.719   03 Jun 2027 07:06:15.782            34.063                Novosib           698.000
       104   03 Jun 2027 07:06:18.454   03 Jun 2027 07:06:40.450            21.996                Norilsk          1336.000
       105   03 Jun 2027 07:06:56.000   03 Jun 2027 07:08:02.529            66.529                Irkutsk          7775.000
       106   03 Jun 2027 07:08:05.058   03 Jun 2027 07:08:16.539            11.481              Murmansk2          1264.500
       107   03 Jun 2027 07:08:17.292   03 Jun 2027 07:08:44.724            27.432                 Moscow           376.500
       108   03 Jun 2027 07:08:52.442   03 Jun 2027 07:10:02.128            69.686                Irkutsk          3859.000
       109   03 Jun 2027 07:10:11.070   03 Jun 2027 07:10:56.259            45.189                Norilsk          4471.000
       110   03 Jun 2027 07:11:05.056   03 Jun 2027 07:12:03.953            58.897                 Moscow          1490.500
       111   03 Jun 2027 08:42:51.852   03 Jun 2027 08:42:59.772             7.920                Novosib           827.500
       112   03 Jun 2027 08:43:10.110   03 Jun 2027 08:43:59.831            49.721              Murmansk1          5169.000
       113   03 Jun 2027 08:44:02.526   03 Jun 2027 08:44:29.850            27.324              Murmansk1          1347.500
       114   03 Jun 2027 08:44:39.997   03 Jun 2027 08:45:33.733            53.736                Novosib          5073.500
       115   03 Jun 2027 08:45:35.088   03 Jun 2027 08:45:44.448             9.360                 Moscow           677.500
       116   03 Jun 2027 08:45:44.830   03 Jun 2027 08:46:52.650            67.820                 Moscow           191.000
       117   03 Jun 2027 08:46:53.661   03 Jun 2027 08:48:03.377            69.716                Novosib           505.500
       118   03 Jun 2027 10:16:52.245   03 Jun 2027 10:18:04.606            72.361                 Moscow          8343.000
       119   03 Jun 2027 10:18:08.492   03 Jun 2027 10:18:53.256            44.764              Murmansk2          1943.000
       120   03 Jun 2027 10:19:00.695   03 Jun 2027 10:19:33.312            32.617                 Moscow          3719.500
       121   03 Jun 2027 10:19:56.125   03 Jun 2027 10:21:45.895           109.770              Murmansk2         11406.500
       122   03 Jun 2027 10:22:00.611   03 Jun 2027 10:23:09.034            68.423                 Moscow          7358.000
       123   03 Jun 2027 10:23:13.240   03 Jun 2027 10:23:40.303            27.063              Murmansk1          2103.000
       124   04 Jun 2027 04:01:57.863   04 Jun 2027 04:02:20.820            22.957               Magadan2          1063.000
       125   04 Jun 2027 04:02:21.273   04 Jun 2027 04:02:35.848            14.575               Magadan2           226.500
       126   04 Jun 2027 04:02:42.418   04 Jun 2027 04:02:58.949            16.531                Irkutsk          2066.375
       127   04 Jun 2027 04:02:59.907   04 Jun 2027 04:03:56.445            56.538               Magadan2          1697.625
       128   04 Jun 2027 04:04:11.793   04 Jun 2027 04:05:29.599            77.806               Magadan2          7674.000
       129   04 Jun 2027 04:05:35.140   04 Jun 2027 04:06:07.315            32.175                Norilsk          2770.500
       130   04 Jun 2027 04:06:11.488   04 Jun 2027 04:06:52.828            41.340               Magadan2          2086.500
       131   04 Jun 2027 04:07:04.420   04 Jun 2027 04:07:53.876            49.456                Norilsk          5796.000
       132   04 Jun 2027 04:07:57.162   04 Jun 2027 04:08:17.343            20.181                Anadyr1          1643.000
       133   04 Jun 2027 04:08:17.404   04 Jun 2027 04:08:24.199             6.795               Magadan2            30.500
       134   04 Jun 2027 04:08:33.811   04 Jun 2027 04:09:19.891            46.080                Norilsk          4806.000
       135   04 Jun 2027 04:09:27.339   04 Jun 2027 04:10:05.114            37.775               Magadan2          3724.000
       136   04 Jun 2027 04:10:13.876   04 Jun 2027 04:10:44.551            30.675                Anadyr1          2642.000
       137   04 Jun 2027 04:10:45.552   04 Jun 2027 04:11:16.197            30.645              Murmansk1           500.500
       138   04 Jun 2027 04:11:18.873   04 Jun 2027 04:11:30.491            11.618               Magadan1          1338.000
       139   04 Jun 2027 05:40:04.675   04 Jun 2027 05:40:27.018            22.343                Norilsk          2244.000
       140   04 Jun 2027 05:40:29.244   04 Jun 2027 05:41:03.650            34.406                Novosib          1113.000
       141   04 Jun 2027 05:41:04.943   04 Jun 2027 05:41:17.581            12.638               Magadan1           646.500
       142   04 Jun 2027 05:41:36.016   04 Jun 2027 05:42:23.993            47.977                Irkutsk          5997.125
       143   04 Jun 2027 05:42:25.348   04 Jun 2027 05:42:51.089            25.741                Norilsk          3217.625
       144   04 Jun 2027 05:42:56.445   04 Jun 2027 05:43:28.463            32.018                Irkutsk          3358.250
       145   04 Jun 2027 05:43:31.808   04 Jun 2027 05:44:13.878            42.070                Irkutsk          1672.500
       146   04 Jun 2027 05:44:18.100   04 Jun 2027 05:45:21.121            63.021                Novosib          2111.000
       147   04 Jun 2027 05:45:22.426   04 Jun 2027 05:46:00.153            37.727                Novosib           652.500
       148   04 Jun 2027 05:46:03.002   04 Jun 2027 05:46:25.343            22.341              Murmansk2          1424.500
       149   04 Jun 2027 05:46:25.486   04 Jun 2027 05:47:08.258            42.772                Novosib            71.500
       150   04 Jun 2027 05:47:12.542   04 Jun 2027 05:47:21.720             9.178                Norilsk          1147.250
       151   04 Jun 2027 05:47:34.738   04 Jun 2027 05:48:05.644            30.906              Murmansk1          3684.750
       152   04 Jun 2027 07:16:55.115   04 Jun 2027 07:17:10.224            15.109                Irkutsk           866.500
       153   04 Jun 2027 07:17:23.460   04 Jun 2027 07:18:54.442            90.982                Irkutsk          6618.000
       154   04 Jun 2027 07:18:59.016   04 Jun 2027 07:19:50.632            51.616                Novosib          2287.000
       155   04 Jun 2027 07:19:57.485   04 Jun 2027 07:21:01.188            63.703                Irkutsk          3426.500
       156   04 Jun 2027 07:21:02.481   04 Jun 2027 07:21:37.960            35.479                Norilsk           646.500
       157   04 Jun 2027 07:21:38.507   04 Jun 2027 07:22:16.582            38.075                Novosib           273.500
       158   04 Jun 2027 07:22:18.730   04 Jun 2027 07:23:08.775            50.045                Novosib          1074.000
       159   04 Jun 2027 07:23:10.517   04 Jun 2027 07:23:27.901            17.384                 Moscow           871.000
       160   04 Jun 2027 08:54:05.068   04 Jun 2027 08:54:19.096            14.028                 Moscow           870.000
       161   04 Jun 2027 08:54:36.337   04 Jun 2027 08:56:55.170           138.833                Norilsk          8620.500
       162   04 Jun 2027 08:56:57.754   04 Jun 2027 08:57:41.293            43.539                Norilsk          1292.000
       163   04 Jun 2027 08:57:41.791   04 Jun 2027 08:57:57.329            15.538              Murmansk2           249.000
       164   04 Jun 2027 08:57:58.363   04 Jun 2027 08:58:36.648            38.285                Novosib           517.000
       165   04 Jun 2027 08:58:50.098   04 Jun 2027 08:59:46.657            56.559                 Moscow          6725.000
       166   04 Jun 2027 10:28:53.672   04 Jun 2027 10:29:39.580            45.908                 Moscow          1680.000
       167   04 Jun 2027 10:30:04.048   04 Jun 2027 10:31:45.979           101.931              Murmansk2         11432.500
       168   04 Jun 2027 10:31:55.642   04 Jun 2027 10:33:01.062            65.420              Murmansk2          4831.500
       169   04 Jun 2027 10:33:13.710   04 Jun 2027 10:34:36.506            82.796                 Moscow          6324.000
       170   05 Jun 2027 04:15:00.808   05 Jun 2027 04:15:53.103            52.295               Magadan2          3014.000
       171   05 Jun 2027 04:15:54.718   05 Jun 2027 04:16:19.541            24.823               Magadan2           807.500
       172   05 Jun 2027 04:16:27.282   05 Jun 2027 04:17:06.512            39.230               Magadan2          3870.500
       173   05 Jun 2027 04:17:35.129   05 Jun 2027 04:19:53.807           138.678                Norilsk         14308.500
       174   05 Jun 2027 04:19:58.089   05 Jun 2027 04:20:29.338            31.249                Irkutsk          2141.000
       175   05 Jun 2027 04:20:36.481   05 Jun 2027 04:21:16.527            40.046                Norilsk          3571.500
       176   05 Jun 2027 04:21:23.900   05 Jun 2027 04:21:53.968            30.068               Magadan2          3686.500
       177   05 Jun 2027 04:22:14.795   05 Jun 2027 04:22:28.042            13.247                Anadyr1          1655.875
       178   05 Jun 2027 04:22:28.504   05 Jun 2027 04:23:27.183            58.679               Magadan1          7334.875
       179   05 Jun 2027 04:23:32.316   05 Jun 2027 04:24:04.052            31.736                Norilsk          2275.750
       180   05 Jun 2027 05:52:33.666   05 Jun 2027 05:53:42.589            68.923                Norilsk          5701.500
       181   05 Jun 2027 05:54:07.282   05 Jun 2027 05:55:54.403           107.121               Magadan1         12346.500
       182   05 Jun 2027 05:55:54.580   05 Jun 2027 05:56:12.807            18.227                Novosib            88.500
       183   05 Jun 2027 05:56:17.728   05 Jun 2027 05:57:19.146            61.418                Novosib          2460.500
       184   05 Jun 2027 05:57:27.707   05 Jun 2027 05:58:25.484            57.777                Norilsk          4280.500
       185   05 Jun 2027 05:58:28.701   05 Jun 2027 05:58:45.911            17.210                Irkutsk          1608.500
       186   05 Jun 2027 05:58:49.553   05 Jun 2027 05:59:22.644            33.091                Novosib          1821.000
       187   05 Jun 2027 07:29:23.068   05 Jun 2027 07:29:55.730            32.662                Norilsk           552.000
       188   05 Jun 2027 07:30:04.599   05 Jun 2027 07:30:49.327            44.728                Norilsk          4434.500
       189   05 Jun 2027 07:30:51.685   05 Jun 2027 07:31:12.460            20.775                Irkutsk          1179.000
       190   05 Jun 2027 07:31:12.739   05 Jun 2027 07:31:44.122            31.383              Murmansk2           139.500
       191   05 Jun 2027 07:31:46.080   05 Jun 2027 07:32:04.953            18.873                Norilsk           979.000
       192   05 Jun 2027 07:32:07.629   05 Jun 2027 07:32:19.423            11.794              Murmansk1          1338.000
       193   05 Jun 2027 07:32:27.496   05 Jun 2027 07:33:02.090            34.594                 Moscow          4036.500
       194   05 Jun 2027 07:33:02.592   05 Jun 2027 07:33:32.892            30.300                Norilsk           251.000
       195   05 Jun 2027 07:33:33.850   05 Jun 2027 07:34:21.540            47.690              Murmansk2           479.000
       196   05 Jun 2027 07:34:27.528   05 Jun 2027 07:34:53.335            25.807              Murmansk2          2994.000
       197   05 Jun 2027 07:35:01.587   05 Jun 2027 07:35:35.819            34.232                Novosib          4126.000
       198   05 Jun 2027 09:06:17.507   05 Jun 2027 09:06:33.132            15.625              Murmansk2           780.500
       199   05 Jun 2027 09:06:46.785   05 Jun 2027 09:08:02.621            75.836              Murmansk1          6826.500
       200   05 Jun 2027 09:08:05.799   05 Jun 2027 09:08:29.928            24.129              Murmansk2          1589.000
       201   05 Jun 2027 09:08:34.120   05 Jun 2027 09:08:55.931            21.811                Novosib          2096.000
       202   05 Jun 2027 09:08:56.915   05 Jun 2027 09:09:35.255            38.340                Norilsk           492.000
       203   05 Jun 2027 09:09:36.736   05 Jun 2027 09:10:13.776            37.040                Novosib           740.500
       204   05 Jun 2027 09:10:17.170   05 Jun 2027 09:10:50.365            33.195                 Moscow          1697.000
       205   05 Jun 2027 09:10:55.834   05 Jun 2027 09:11:15.775            19.941              Murmansk2          1089.000
       206   05 Jun 2027 10:43:33.704   05 Jun 2027 10:44:24.345            50.641              Murmansk1          4199.000
       207   05 Jun 2027 10:44:32.962   05 Jun 2027 10:45:17.476            44.514              Murmansk1          4308.500
       208   05 Jun 2027 10:45:18.669   05 Jun 2027 10:45:43.800            25.131                 Moscow           596.500
       209   05 Jun 2027 10:45:52.320   05 Jun 2027 10:46:42.246            49.926              Murmansk1          4260.000
       210   06 Jun 2027 04:25:51.838   06 Jun 2027 04:27:01.311            69.473               Magadan1          4362.000
       211   06 Jun 2027 04:27:42.476   06 Jun 2027 04:28:34.428            51.952                Irkutsk          4405.500
       212   06 Jun 2027 04:28:42.647   06 Jun 2027 04:29:07.526            24.879               Magadan1          3109.875
       213   06 Jun 2027 04:29:35.912   06 Jun 2027 04:31:29.050           113.138                Norilsk         14142.250
       214   06 Jun 2027 04:31:32.858   06 Jun 2027 04:32:09.919            37.061                Novosib          2954.375
       215   06 Jun 2027 04:32:14.907   06 Jun 2027 04:33:06.850            51.943               Magadan1          2494.000
       216   06 Jun 2027 04:33:25.902   06 Jun 2027 04:33:47.352            21.450                Novosib          2681.250
       217   06 Jun 2027 04:33:50.778   06 Jun 2027 04:35:22.636            91.858               Magadan2          8557.750
       218   06 Jun 2027 04:35:24.518   06 Jun 2027 04:35:39.564            15.046              Murmansk1            10.500
       219   06 Jun 2027 06:04:32.063   06 Jun 2027 06:04:53.876            21.813                Norilsk           207.500
       220   06 Jun 2027 06:05:04.465   06 Jun 2027 06:06:27.514            83.049                Norilsk          5294.500
       221   06 Jun 2027 06:06:28.968   06 Jun 2027 06:06:52.852            23.884                Norilsk           727.000
       222   06 Jun 2027 06:06:57.192   06 Jun 2027 06:07:20.105            22.913                Norilsk          2170.000
       223   06 Jun 2027 06:07:44.289   06 Jun 2027 06:10:33.480           169.191                Novosib         12092.000
       224   06 Jun 2027 06:10:38.161   06 Jun 2027 06:10:57.486            19.325                Norilsk          2340.500
       225   06 Jun 2027 06:11:04.970   06 Jun 2027 06:11:38.661            33.691              Murmansk2          3742.000
       226   06 Jun 2027 07:42:08.217   06 Jun 2027 07:43:58.556           110.339                 Moscow          9478.500
       227   06 Jun 2027 07:44:07.153   06 Jun 2027 07:44:49.309            42.156                Norilsk          4298.500
       228   06 Jun 2027 07:44:50.971   06 Jun 2027 07:45:34.778            43.807              Murmansk2           831.000
       229   06 Jun 2027 07:45:35.733   06 Jun 2027 07:46:15.091            39.358              Murmansk2           477.500
       230   06 Jun 2027 07:46:19.069   06 Jun 2027 07:46:40.099            21.030                Irkutsk          1989.000
       231   06 Jun 2027 09:18:20.336   06 Jun 2027 09:18:35.930            15.594              Murmansk1          1678.500
       232   06 Jun 2027 09:18:44.774   06 Jun 2027 09:20:14.275            89.501                 Moscow          4422.000
       233   06 Jun 2027 09:20:28.817   06 Jun 2027 09:21:13.822            45.005                 Moscow          5625.625
       234   06 Jun 2027 09:21:17.849   06 Jun 2027 09:21:55.371            37.522              Murmansk2          3658.875
       235   06 Jun 2027 09:21:56.577   06 Jun 2027 09:22:48.164            51.587              Murmansk2           603.000
       236   06 Jun 2027 09:22:58.305   06 Jun 2027 09:23:50.426            52.121                Novosib          5070.500
       237   06 Jun 2027 10:56:40.076   06 Jun 2027 10:57:07.078            27.002                 Moscow          3298.500
       238   06 Jun 2027 10:57:09.310   06 Jun 2027 10:57:18.508             9.198              Murmansk2          1116.000
       239   07 Jun 2027 03:05:41.959   07 Jun 2027 03:06:26.488            44.529                Anadyr1          2999.500
       240   07 Jun 2027 03:06:28.130   07 Jun 2027 03:07:00.428            32.298                Anadyr1           821.000
       241   07 Jun 2027 03:07:03.289   07 Jun 2027 03:07:37.953            34.664                Anadyr1          1430.500
       242   07 Jun 2027 03:07:42.063   07 Jun 2027 03:08:17.016            34.953                Norilsk          2055.000
       243   07 Jun 2027 03:08:27.232   07 Jun 2027 03:09:07.712            40.480                Norilsk          5060.000
       244   07 Jun 2027 03:09:19.621   07 Jun 2027 03:09:52.858            33.237               Magadan1          3519.500
       245   07 Jun 2027 04:41:01.227   07 Jun 2027 04:42:01.664            60.437               Magadan2          7313.500
       246   07 Jun 2027 04:42:06.254   07 Jun 2027 04:42:36.231            29.977               Magadan1          2295.000
       247   07 Jun 2027 04:42:52.178   07 Jun 2027 04:44:08.464            76.286               Magadan1          7973.500
       248   07 Jun 2027 04:44:19.740   07 Jun 2027 04:44:54.694            34.954                Norilsk          4369.250
       249   07 Jun 2027 04:45:14.868   07 Jun 2027 04:46:46.821            91.953                Irkutsk         11355.750
       250   07 Jun 2027 04:46:48.742   07 Jun 2027 04:47:16.543            27.801               Magadan2           960.500
       251   07 Jun 2027 04:47:16.820   07 Jun 2027 04:47:18.264             1.444                Norilsk           138.500
       252   07 Jun 2027 04:47:23.066   07 Jun 2027 04:47:46.524            23.458                Norilsk          2401.000
       253   07 Jun 2027 06:17:34.357   07 Jun 2027 06:19:51.000           136.643                Norilsk         14343.000
       254   07 Jun 2027 06:19:51.364   07 Jun 2027 06:20:09.994            18.630                Norilsk           182.000
       255   07 Jun 2027 06:20:24.175   07 Jun 2027 06:21:33.860            69.685              Murmansk1          7090.500
       256   07 Jun 2027 06:21:38.270   07 Jun 2027 06:22:03.086            24.816              Murmansk2          2205.000
       257   07 Jun 2027 06:22:15.670   07 Jun 2027 06:23:14.251            58.581                Novosib          6292.000
       258   07 Jun 2027 06:23:18.186   07 Jun 2027 06:23:56.373            38.187                Norilsk          1967.500
       259   07 Jun 2027 07:54:30.181   07 Jun 2027 07:55:08.093            37.912              Murmansk1           462.000
       260   07 Jun 2027 07:55:16.373   07 Jun 2027 07:56:02.625            46.252                Irkutsk          4140.000
       261   07 Jun 2027 07:56:10.346   07 Jun 2027 07:57:19.502            69.156                Irkutsk          3860.500
       262   07 Jun 2027 07:57:23.740   07 Jun 2027 07:58:01.191            37.451                 Moscow          2119.000
       263   07 Jun 2027 07:58:09.367   07 Jun 2027 07:58:42.418            33.051              Murmansk2          4088.000
       264   07 Jun 2027 07:58:44.749   07 Jun 2027 07:58:49.335             4.586                Novosib           573.250
       265   07 Jun 2027 07:58:50.917   07 Jun 2027 07:59:06.858            15.941                Norilsk          1383.250
       266   07 Jun 2027 09:30:44.693   07 Jun 2027 09:31:19.298            34.605                Norilsk          1511.000
       267   07 Jun 2027 09:31:23.447   07 Jun 2027 09:32:05.797            42.350              Murmansk2          2074.500
       268   07 Jun 2027 09:32:07.361   07 Jun 2027 09:32:56.704            49.343                Norilsk           782.000
       269   07 Jun 2027 09:33:00.653   07 Jun 2027 09:33:26.350            25.697                Norilsk          1974.500
       270   07 Jun 2027 09:33:31.414   07 Jun 2027 09:33:40.683             9.269              Murmansk2          1158.625
       271   07 Jun 2027 09:33:48.041   07 Jun 2027 09:34:41.554            53.513              Murmansk2          5052.375
       272   07 Jun 2027 09:34:51.808   07 Jun 2027 09:35:59.178            67.370                Norilsk          5127.000
       273   08 Jun 2027 03:17:41.804   08 Jun 2027 03:17:57.646            15.842               Magadan2          1980.250
       274   08 Jun 2027 03:17:57.646   08 Jun 2027 03:18:28.036            30.390               Magadan1           537.250
       275   08 Jun 2027 03:18:29.521   08 Jun 2027 03:18:58.808            29.287                Anadyr1           742.500
       276   08 Jun 2027 03:19:03.218   08 Jun 2027 03:19:36.807            33.589                Anadyr2          2205.000
       277   08 Jun 2027 03:19:39.561   08 Jun 2027 03:20:05.444            25.883                Norilsk          1377.000
       278   08 Jun 2027 03:20:14.287   08 Jun 2027 03:20:30.455            16.168               Magadan2          2021.000
       279   08 Jun 2027 03:20:42.846   08 Jun 2027 03:21:51.738            68.892               Magadan1          8596.000
       280   08 Jun 2027 04:53:17.090   08 Jun 2027 04:55:07.935           110.845               Magadan2         13758.000
       281   08 Jun 2027 04:55:15.265   08 Jun 2027 04:55:56.628            41.363               Magadan2          3665.000
       282   08 Jun 2027 04:56:01.997   08 Jun 2027 04:56:30.162            28.165                Norilsk          2684.500
       283   08 Jun 2027 04:56:33.527   08 Jun 2027 04:57:29.904            56.377                Novosib          1682.500
       284   08 Jun 2027 04:57:45.353   08 Jun 2027 04:59:12.379            87.026                Irkutsk          7724.500
       285   08 Jun 2027 04:59:19.942   08 Jun 2027 04:59:57.606            37.664                Norilsk          3781.500
       286   08 Jun 2027 06:28:46.210   08 Jun 2027 06:29:15.805            29.595                Novosib           742.000
       287   08 Jun 2027 06:29:31.132   08 Jun 2027 06:30:32.767            61.635                Norilsk          7663.500
       288   08 Jun 2027 06:30:34.243   08 Jun 2027 06:31:06.723            32.480                Novosib           738.000
       289   08 Jun 2027 06:31:09.426   08 Jun 2027 06:32:03.463            54.037                Irkutsk          1351.500
       290   08 Jun 2027 06:32:11.422   08 Jun 2027 06:32:49.491            38.069              Murmansk2          3979.500
       291   08 Jun 2027 06:33:01.577   08 Jun 2027 06:34:17.657            76.080                Irkutsk          6043.000
       292   08 Jun 2027 06:34:20.384   08 Jun 2027 06:35:30.578            70.194                Irkutsk          1363.500
       293   08 Jun 2027 08:06:46.317   08 Jun 2027 08:07:12.868            26.551                Irkutsk          1657.000
       294   08 Jun 2027 08:07:31.830   08 Jun 2027 08:09:04.616            92.786                Norilsk          9481.000
       295   08 Jun 2027 08:09:07.087   08 Jun 2027 08:09:21.484            14.397                Norilsk          1235.500
       296   08 Jun 2027 08:09:32.139   08 Jun 2027 08:10:04.502            32.363                Irkutsk          4045.375
       297   08 Jun 2027 08:10:09.037   08 Jun 2027 08:10:55.723            46.686                Novosib          3549.625
       298   08 Jun 2027 08:10:57.248   08 Jun 2027 08:11:08.203            10.955                Norilsk           762.500
       299   08 Jun 2027 09:42:40.399   08 Jun 2027 09:43:03.601            23.202                Novosib          2564.000
       300   08 Jun 2027 09:43:14.656   08 Jun 2027 09:44:50.574            95.918                Novosib          5527.500
       301   08 Jun 2027 09:44:53.133   08 Jun 2027 09:45:08.056            14.923              Murmansk1          1279.500
       302   08 Jun 2027 09:45:23.630   08 Jun 2027 09:46:41.337            77.707                Norilsk          7787.000
       303   08 Jun 2027 09:46:42.619   08 Jun 2027 09:47:09.344            26.725                Norilsk           641.000
       304   08 Jun 2027 09:47:10.078   08 Jun 2027 09:47:17.108             7.030                Norilsk           367.000
       305   08 Jun 2027 09:47:23.690   08 Jun 2027 09:47:52.339            28.649                Norilsk          3291.000
       306   09 Jun 2027 03:29:26.180   09 Jun 2027 03:30:00.390            34.210               Magadan1          2884.500
       307   09 Jun 2027 03:30:02.726   09 Jun 2027 03:30:17.461            14.735                Irkutsk          1168.000
       308   09 Jun 2027 03:30:22.620   09 Jun 2027 03:30:52.282            29.662               Magadan1          2579.500
       309   09 Jun 2027 03:30:57.778   09 Jun 2027 03:31:34.954            37.176                Anadyr2          2748.000
       310   09 Jun 2027 03:31:53.402   09 Jun 2027 03:32:25.194            31.792               Magadan2          3974.000
       311   09 Jun 2027 03:32:25.194   09 Jun 2027 03:32:32.866             7.672               Magadan1           959.000
       312   09 Jun 2027 03:32:36.118   09 Jun 2027 03:34:25.391           109.273                Anadyr2          5917.000
       313   09 Jun 2027 05:04:06.050   09 Jun 2027 05:04:16.531            10.481                Norilsk           875.000
       314   09 Jun 2027 05:04:21.165   09 Jun 2027 05:04:56.747            35.582               Magadan1          2317.000
       315   09 Jun 2027 05:05:17.300   09 Jun 2027 05:06:47.530            90.230                Norilsk         10276.500
       316   09 Jun 2027 05:06:53.077   09 Jun 2027 05:07:04.971            11.894                Irkutsk          1486.750
       317   09 Jun 2027 05:07:05.035   09 Jun 2027 05:07:32.022            26.987                Norilsk          1318.750
       318   09 Jun 2027 05:07:51.818   09 Jun 2027 05:09:34.528           102.710                Novosib          9898.000
       319   09 Jun 2027 05:09:36.386   09 Jun 2027 05:09:57.991            21.605                Novosib           929.000
       320   09 Jun 2027 05:09:59.447   09 Jun 2027 05:10:08.136             8.689               Magadan2           728.000
       321   09 Jun 2027 05:10:10.101   09 Jun 2027 05:11:36.447            86.346                Novosib           982.500
       322   09 Jun 2027 05:11:45.739   09 Jun 2027 05:11:59.483            13.744              Murmansk1           454.500
       323   09 Jun 2027 06:41:28.456   09 Jun 2027 06:44:17.300           168.844                Norilsk         17915.000
       324   09 Jun 2027 06:44:18.217   09 Jun 2027 06:44:29.237            11.020              Murmansk1           458.500
       325   09 Jun 2027 06:44:34.317   09 Jun 2027 06:44:54.455            20.138                Novosib          2517.250
       326   09 Jun 2027 06:44:57.725   09 Jun 2027 06:45:12.545            14.820                Irkutsk          1657.750
       327   09 Jun 2027 06:45:17.064   09 Jun 2027 06:46:01.369            44.305                Irkutsk          2259.500
       328   09 Jun 2027 06:46:01.641   09 Jun 2027 06:47:06.446            64.805                Irkutsk           136.000
       329   09 Jun 2027 06:47:09.379   09 Jun 2027 06:47:43.536            34.157              Murmansk2          1466.500
       330   09 Jun 2027 08:19:21.465   09 Jun 2027 08:21:05.751           104.286                Norilsk          7343.500
       331   09 Jun 2027 08:21:12.684   09 Jun 2027 08:21:43.468            30.784                Novosib          3466.500
       332   09 Jun 2027 08:21:50.747   09 Jun 2027 08:22:20.419            29.672                Norilsk          3639.500
       333   09 Jun 2027 08:22:24.965   09 Jun 2027 08:23:01.489            36.524                Novosib          2273.000
       334   09 Jun 2027 08:23:03.724   09 Jun 2027 08:23:14.506            10.782                 Moscow           398.500
       335   09 Jun 2027 09:52:26.694   09 Jun 2027 09:52:44.221            17.527                 Moscow          1197.000
       336   09 Jun 2027 09:53:02.420   09 Jun 2027 09:54:17.463            75.043                 Moscow          9099.500
       337   09 Jun 2027 09:54:29.285   09 Jun 2027 09:55:26.624            57.339                 Moscow          5911.000
       338   09 Jun 2027 09:55:36.748   09 Jun 2027 09:57:02.618            85.870                 Moscow          5062.000
       339   09 Jun 2027 09:57:04.554   09 Jun 2027 09:57:22.154            17.600                Norilsk           968.000
       340   09 Jun 2027 09:57:30.441   09 Jun 2027 09:58:31.785            61.344              Murmansk2          4143.500
       341   09 Jun 2027 09:58:37.465   09 Jun 2027 09:59:02.309            24.844              Murmansk2          2840.000
       342   09 Jun 2027 09:59:04.081   09 Jun 2027 09:59:09.503             5.422                Norilsk           527.500
       343   09 Jun 2027 09:59:21.638   09 Jun 2027 10:01:06.537           104.899                 Moscow          6067.500
       344   10 Jun 2027 03:39:17.546   10 Jun 2027 03:40:46.123            88.577                Anadyr2          1602.000
       345   10 Jun 2027 03:41:14.825   10 Jun 2027 03:42:17.192            62.367                Anadyr1          5122.000
       346   10 Jun 2027 03:42:19.646   10 Jun 2027 03:42:35.649            16.003               Magadan1          1227.000
       347   10 Jun 2027 03:42:46.322   10 Jun 2027 03:43:23.879            37.557                Norilsk          4694.625
       348   10 Jun 2027 03:43:29.118   10 Jun 2027 03:43:55.704            26.586               Magadan2          3261.375
       349   10 Jun 2027 03:44:07.296   10 Jun 2027 03:44:42.774            35.478                Irkutsk          4434.750
       350   10 Jun 2027 03:44:51.650   10 Jun 2027 03:45:43.803            52.153                Novosib          5799.250
       351   10 Jun 2027 03:45:57.042   10 Jun 2027 03:46:40.832            43.790                Irkutsk          5473.750
       352   10 Jun 2027 03:46:47.058   10 Jun 2027 03:47:16.733            29.675               Magadan1          1145.750
       353   10 Jun 2027 05:16:12.502   10 Jun 2027 05:16:31.756            19.254                Norilsk            22.500
       354   10 Jun 2027 05:16:39.628   10 Jun 2027 05:18:02.868            83.240                Novosib          3936.000
       355   10 Jun 2027 05:18:06.574   10 Jun 2027 05:18:36.799            30.225                Irkutsk          1853.000
       356   10 Jun 2027 05:18:44.585   10 Jun 2027 05:19:54.178            69.593               Magadan2          3893.000
       357   10 Jun 2027 05:19:56.594   10 Jun 2027 05:20:06.976            10.382                Norilsk          1208.000
       358   10 Jun 2027 05:20:10.471   10 Jun 2027 05:20:40.964            30.493                Irkutsk          1747.500
       359   10 Jun 2027 05:20:45.706   10 Jun 2027 05:21:10.920            25.214                Norilsk          2371.000
       360   10 Jun 2027 05:21:12.070   10 Jun 2027 05:21:25.711            13.641                Novosib           575.000
       361   10 Jun 2027 05:21:30.900   10 Jun 2027 05:21:54.725            23.825                Norilsk          2594.500
       362   10 Jun 2027 05:22:02.528   10 Jun 2027 05:22:36.809            34.281               Magadan2          3901.500
       363   10 Jun 2027 05:22:37.567   10 Jun 2027 05:22:47.597            10.030              Murmansk2           379.000
       364   10 Jun 2027 05:22:50.403   10 Jun 2027 05:23:31.312            40.909              Murmansk1          1403.000
       365   10 Jun 2027 05:23:42.575   10 Jun 2027 05:24:07.926            25.351                Novosib          2597.000
       366   10 Jun 2027 06:53:21.060   10 Jun 2027 06:55:11.150           110.090                Irkutsk          5231.500
       367   10 Jun 2027 06:55:30.594   10 Jun 2027 06:57:02.033            91.439                Novosib          9722.000
       368   10 Jun 2027 06:57:13.544   10 Jun 2027 06:58:24.282            70.738                Irkutsk          5755.500
       369   10 Jun 2027 06:58:40.967   10 Jun 2027 06:59:50.788            69.821                Norilsk          8342.500
       370   10 Jun 2027 08:31:11.574   10 Jun 2027 08:31:41.476            29.902                Norilsk          3014.500
       371   10 Jun 2027 08:31:48.134   10 Jun 2027 08:33:29.712           101.578                 Moscow          3329.000
       372   10 Jun 2027 08:33:30.813   10 Jun 2027 08:33:31.391             0.578                 Moscow            72.250
       373   10 Jun 2027 08:33:31.743   10 Jun 2027 08:33:45.878            14.135                Norilsk           654.250
       374   10 Jun 2027 08:33:46.293   10 Jun 2027 08:34:25.860            39.567                Novosib           207.500
       375   10 Jun 2027 08:34:29.933   10 Jun 2027 08:35:11.440            41.507                 Moscow          2036.500
       376   10 Jun 2027 10:04:52.675   10 Jun 2027 10:05:04.914            12.239                 Moscow          1529.875
       377   10 Jun 2027 10:05:12.928   10 Jun 2027 10:08:10.815           177.887              Murmansk2         16502.625
       378   10 Jun 2027 10:08:11.057   10 Jun 2027 10:08:27.669            16.612              Murmansk1           121.000
       379   10 Jun 2027 10:08:34.459   10 Jun 2027 10:09:26.964            52.505              Murmansk1          3395.000
       380   10 Jun 2027 10:09:30.469   10 Jun 2027 10:09:53.181            22.712              Murmansk1          1752.500
       381   10 Jun 2027 10:10:12.072   10 Jun 2027 10:11:37.785            85.713                 Moscow          9445.500
       382   10 Jun 2027 10:11:41.661   10 Jun 2027 10:12:03.361            21.700                Norilsk          1938.000
       383   10 Jun 2027 10:12:04.612   10 Jun 2027 10:12:12.143             7.531              Murmansk2           625.500
       384   11 Jun 2027 03:50:41.490   11 Jun 2027 03:50:50.444             8.954               Magadan2          1083.000
       385   11 Jun 2027 03:51:13.387   11 Jun 2027 03:52:45.582            92.195               Magadan2         11471.500
       386   11 Jun 2027 03:52:47.162   11 Jun 2027 03:52:59.955            12.793                Anadyr2           790.000
       387   11 Jun 2027 03:53:04.016   11 Jun 2027 03:53:14.847            10.831               Magadan1          1353.875
       388   11 Jun 2027 03:53:21.420   11 Jun 2027 03:53:51.802            30.382                Norilsk          3797.750
       389   11 Jun 2027 03:54:06.064   11 Jun 2027 03:55:29.549            83.485               Magadan1          7296.375
       390   11 Jun 2027 03:55:31.860   11 Jun 2027 03:55:42.016            10.156                Norilsk          1155.500
       391   11 Jun 2027 03:55:43.499   11 Jun 2027 03:55:58.848            15.349                Novosib           741.500
       392   11 Jun 2027 03:56:02.411   11 Jun 2027 03:56:39.943            37.532                Novosib          1781.500
       393   11 Jun 2027 03:56:42.675   11 Jun 2027 03:57:22.655            39.980               Magadan2          1366.000
       394   11 Jun 2027 03:57:29.299   11 Jun 2027 03:58:01.127            31.828               Magadan1          3322.000
       395   11 Jun 2027 03:58:04.004   11 Jun 2027 03:58:35.430            31.426               Magadan2          1438.500
       396   11 Jun 2027 03:58:47.975   11 Jun 2027 03:59:30.337            42.362              Murmansk1          1155.500
       397   11 Jun 2027 05:28:16.756   11 Jun 2027 05:28:27.871            11.115               Magadan2           778.000
       398   11 Jun 2027 05:28:31.142   11 Jun 2027 05:28:54.627            23.485                Norilsk          1635.500
       399   11 Jun 2027 05:28:59.245   11 Jun 2027 05:29:45.893            46.648                Novosib          2309.000
       400   11 Jun 2027 05:29:51.927   11 Jun 2027 05:30:17.492            25.565               Magadan2          3017.000
       401   11 Jun 2027 05:30:19.399   11 Jun 2027 05:30:33.252            13.853                Novosib           953.500
       402   11 Jun 2027 05:30:38.148   11 Jun 2027 05:30:57.995            19.847                Irkutsk          2448.000
       403   11 Jun 2027 05:31:05.201   11 Jun 2027 05:31:46.494            41.293                Norilsk          3603.000
       404   11 Jun 2027 05:31:55.419   11 Jun 2027 05:32:36.654            41.235                Norilsk          4462.500
       405   11 Jun 2027 05:32:45.785   11 Jun 2027 05:33:51.762            65.977               Magadan2          4565.500
       406   11 Jun 2027 05:33:58.988   11 Jun 2027 05:34:28.003            29.015                Novosib          3613.000
       407   11 Jun 2027 05:34:46.345   11 Jun 2027 05:36:32.768           106.423              Murmansk1          9171.000
       408   11 Jun 2027 07:05:09.783   11 Jun 2027 07:05:54.616            44.833                Novosib          4822.000
       409   11 Jun 2027 07:05:58.010   11 Jun 2027 07:06:31.152            33.142                Novosib          1697.000
       410   11 Jun 2027 07:06:34.598   11 Jun 2027 07:06:57.933            23.335                Norilsk          1723.000
       411   11 Jun 2027 07:07:10.279   11 Jun 2027 07:08:05.612            55.333                Novosib          6173.000
       412   11 Jun 2027 07:08:05.939   11 Jun 2027 07:08:17.432            11.493                Irkutsk           163.500
       413   11 Jun 2027 07:08:20.061   11 Jun 2027 07:08:51.121            31.060              Murmansk2          1314.500
       414   11 Jun 2027 07:08:59.486   11 Jun 2027 07:09:38.760            39.274                 Moscow          4182.500
       415   11 Jun 2027 07:09:44.652   11 Jun 2027 07:10:51.291            66.639              Murmansk2          2946.000
       416   11 Jun 2027 07:10:52.356   11 Jun 2027 07:11:16.566            24.210              Murmansk2           532.500
       417   11 Jun 2027 07:11:22.903   11 Jun 2027 07:12:18.492            55.589                 Moscow          3168.500
       418   11 Jun 2027 08:43:07.500   11 Jun 2027 08:43:29.048            21.548                Novosib          1312.500
       419   11 Jun 2027 08:43:37.655   11 Jun 2027 08:45:08.576            90.921                Norilsk          4303.500
       420   11 Jun 2027 08:45:15.136   11 Jun 2027 08:45:46.801            31.665                Norilsk          3280.000
       421   11 Jun 2027 08:45:48.604   11 Jun 2027 08:46:19.907            31.303                Novosib           901.500
       422   11 Jun 2027 08:46:25.966   11 Jun 2027 08:47:28.507            62.541              Murmansk1          3029.500
       423   11 Jun 2027 10:17:06.882   11 Jun 2027 10:18:21.095            74.213                 Moscow          8013.500
       424   11 Jun 2027 10:18:23.133   11 Jun 2027 10:19:08.405            45.272              Murmansk1          1019.000
       425   11 Jun 2027 10:19:15.234   11 Jun 2027 10:19:43.301            28.067                 Moscow          3414.500
       426   11 Jun 2027 10:19:44.736   11 Jun 2027 10:20:29.474            44.738                 Moscow           717.500
       427   11 Jun 2027 10:20:35.871   11 Jun 2027 10:21:21.430            45.559              Murmansk2          3198.500
       428   11 Jun 2027 10:21:23.162   11 Jun 2027 10:21:36.479            13.317                Norilsk           866.000
       429   11 Jun 2027 10:21:48.932   11 Jun 2027 10:23:06.632            77.700                 Moscow          6226.500
       430   11 Jun 2027 10:23:07.309   11 Jun 2027 10:23:15.727             8.418              Murmansk1           338.500
       431   11 Jun 2027 10:23:23.663   11 Jun 2027 10:23:57.751            34.088                 Moscow          3968.000
       432   12 Jun 2027 04:02:12.453   12 Jun 2027 04:02:36.689            24.236               Magadan2          1330.000
       433   12 Jun 2027 04:02:37.895   12 Jun 2027 04:02:50.487            12.592               Magadan2           603.000
       434   12 Jun 2027 04:02:57.219   12 Jun 2027 04:04:12.897            75.678               Magadan1          3366.000
       435   12 Jun 2027 04:04:26.638   12 Jun 2027 04:05:22.701            56.063               Magadan1          6870.500
       436   12 Jun 2027 04:05:24.068   12 Jun 2027 04:06:11.398            47.330                Irkutsk           683.500
       437   12 Jun 2027 04:06:18.528   12 Jun 2027 04:07:07.504            48.976               Magadan1          3565.000
       438   12 Jun 2027 04:07:20.861   12 Jun 2027 04:08:48.456            87.595                Norilsk          6678.500
       439   12 Jun 2027 04:08:52.225   12 Jun 2027 04:10:29.097            96.872                Anadyr1          1884.500
       440   12 Jun 2027 04:10:47.244   12 Jun 2027 04:11:06.077            18.833               Magadan1          2134.000
       441   12 Jun 2027 04:11:07.967   12 Jun 2027 04:11:34.544            26.577               Magadan1           945.000
       442   12 Jun 2027 04:11:42.457   12 Jun 2027 04:12:05.239            22.782                Novosib          2847.750
       443   12 Jun 2027 04:12:28.265   12 Jun 2027 04:12:47.495            19.230                Norilsk          1108.750
       444   12 Jun 2027 05:40:19.555   12 Jun 2027 05:40:30.806            11.251                Norilsk          1406.375
       445   12 Jun 2027 05:40:35.086   12 Jun 2027 05:41:02.373            27.287                Irkutsk          3028.625
       446   12 Jun 2027 05:41:20.461   12 Jun 2027 05:42:40.741            80.280               Magadan2          9044.000
       447   12 Jun 2027 05:42:49.974   12 Jun 2027 05:43:34.913            44.939               Magadan1          4616.500
       448   12 Jun 2027 05:43:42.757   12 Jun 2027 05:44:28.456            45.699                Irkutsk          3922.000
       449   12 Jun 2027 05:44:33.354   12 Jun 2027 05:45:35.439            62.085                Novosib          2449.000
       450   12 Jun 2027 05:45:46.078   12 Jun 2027 05:46:13.229            27.151                Norilsk          3393.875
       451   12 Jun 2027 05:46:17.513   12 Jun 2027 05:47:09.724            52.211              Murmansk1          4067.625
       452   12 Jun 2027 05:47:19.641   12 Jun 2027 05:47:27.405             7.764                Norilsk           970.500
       453   12 Jun 2027 05:47:27.540   12 Jun 2027 05:48:10.527            42.987              Murmansk1          4055.500
       454   12 Jun 2027 07:17:17.810   12 Jun 2027 07:17:51.430            33.620                Novosib          4202.500
       455   12 Jun 2027 07:18:03.637   12 Jun 2027 07:19:09.054            65.417                Irkutsk          6665.500
       456   12 Jun 2027 07:19:13.665   12 Jun 2027 07:20:05.262            51.597                Novosib          2305.500
       457   12 Jun 2027 07:20:11.079   12 Jun 2027 07:21:15.967            64.888                Irkutsk          2908.500
       458   12 Jun 2027 07:21:20.363   12 Jun 2027 07:21:46.813            26.450                 Moscow          2198.000
       459   12 Jun 2027 07:21:49.942   12 Jun 2027 07:22:43.352            53.410              Murmansk1          1564.500
       460   12 Jun 2027 07:22:48.021   12 Jun 2027 07:23:06.966            18.945              Murmansk2          2334.500
       461   12 Jun 2027 07:23:09.631   12 Jun 2027 07:23:24.915            15.284                Norilsk          1332.500
       462   12 Jun 2027 07:23:25.974   12 Jun 2027 07:24:03.341            37.367                Novosib           529.500
       463   12 Jun 2027 08:54:20.023   12 Jun 2027 08:54:33.716            13.693                 Moscow          1037.500
       464   12 Jun 2027 08:54:35.361   12 Jun 2027 08:55:01.894            26.533              Murmansk2           822.500
       465   12 Jun 2027 08:55:04.071   12 Jun 2027 08:55:35.016            30.945                Norilsk          1088.500
       466   12 Jun 2027 08:55:37.651   12 Jun 2027 08:55:56.959            19.308              Murmansk2          1317.500
       467   12 Jun 2027 08:55:59.755   12 Jun 2027 08:57:10.203            70.448                Norilsk          1398.000
       468   12 Jun 2027 08:57:13.994   12 Jun 2027 08:57:56.974            42.980                Norilsk          1895.500
       469   12 Jun 2027 08:57:57.441   12 Jun 2027 08:58:06.008             8.567              Murmansk1           233.500
       470   12 Jun 2027 08:58:08.896   12 Jun 2027 08:58:24.919            16.023                Norilsk          1444.000
       471   12 Jun 2027 08:58:31.152   12 Jun 2027 08:59:18.991            47.839              Murmansk2          3116.500
       472   12 Jun 2027 10:29:08.302   12 Jun 2027 10:29:54.364            46.062                 Moscow          1464.500
       473   12 Jun 2027 10:30:18.708   12 Jun 2027 10:32:02.430           103.722              Murmansk1         11339.000
       474   12 Jun 2027 10:32:10.628   12 Jun 2027 10:33:16.608            65.980              Murmansk1          4099.000
       475   12 Jun 2027 10:33:28.201   12 Jun 2027 10:34:18.035            49.834                 Moscow          5796.500
       476   12 Jun 2027 10:34:19.102   12 Jun 2027 10:34:50.219            31.117                Norilsk           533.500
       477   13 Jun 2027 04:15:15.533   13 Jun 2027 04:16:07.952            52.419               Magadan1          3079.500
       478   13 Jun 2027 04:16:09.627   13 Jun 2027 04:16:34.592            24.965               Magadan1           837.500
       479   13 Jun 2027 04:16:42.102   13 Jun 2027 04:17:21.344            39.242               Magadan1          3755.000
       480   13 Jun 2027 04:17:50.390   13 Jun 2027 04:18:32.889            42.499                Irkutsk          5312.375
       481   13 Jun 2027 04:18:33.117   13 Jun 2027 04:20:12.721            99.604                Irkutsk          9324.625
       482   13 Jun 2027 04:20:22.029   13 Jun 2027 04:20:27.286             5.257                Novosib           657.125
