uniorb/output/strategy_2/Drop/Drop_KinoSat_112003.txt

KinoSat_112003
-------------------------
    Access    *     Start Time (UTCG)     *     Stop Time (UTCG)  *   Duration (s)        *       Station  *  Data (Mbytes)
         1   01 Jun 2027 03:16:33.932   01 Jun 2027 03:16:35.883             1.951               Magadan2            60.969
         2   01 Jun 2027 03:17:18.269   01 Jun 2027 03:18:16.012            57.743               Magadan2          1804.469
         3   01 Jun 2027 03:18:16.012   01 Jun 2027 03:18:30.523            14.511               Magadan1           453.469
         4   01 Jun 2027 03:19:56.289   01 Jun 2027 03:20:50.389            54.100                Norilsk          1690.625
         5   01 Jun 2027 03:22:30.968   01 Jun 2027 03:22:55.391            24.423                Norilsk           763.219
         6   01 Jun 2027 03:23:09.076   01 Jun 2027 03:23:12.280             3.204                Novosib           100.125
         7   01 Jun 2027 03:23:16.805   01 Jun 2027 03:24:25.654            68.849                Norilsk          2151.531
         8   01 Jun 2027 03:25:10.242   01 Jun 2027 03:25:47.434            37.192                Irkutsk          1162.250
         9   01 Jun 2027 03:25:48.387   01 Jun 2027 03:27:38.524           110.137                Novosib          3441.781
        10   01 Jun 2027 03:28:54.815   01 Jun 2027 03:32:51.201           236.386                  Delhi          7387.063
        11   01 Jun 2027 04:05:04.861   01 Jun 2027 04:10:03.388           298.527            RioGallegos          9328.969
        12   01 Jun 2027 04:11:32.352   01 Jun 2027 04:12:36.575            64.223            RioGallegos          2006.969
        13   01 Jun 2027 04:41:05.519   01 Jun 2027 04:41:17.090            11.571                Anadyr1           361.594
        14   01 Jun 2027 04:56:51.152   01 Jun 2027 04:57:23.975            32.823                Novosib          1025.719
        15   01 Jun 2027 04:57:28.891   01 Jun 2027 04:58:45.782            76.891              Murmansk2          2402.844
        16   01 Jun 2027 04:58:50.751   01 Jun 2027 04:59:13.611            22.860                Norilsk           714.375
        17   01 Jun 2027 04:59:24.621   01 Jun 2027 05:00:09.603            44.982                 Moscow          1405.687
        18   01 Jun 2027 05:00:28.213   01 Jun 2027 05:00:53.947            25.734              Murmansk2           804.188
        19   01 Jun 2027 05:01:39.400   01 Jun 2027 05:02:36.025            56.625                Novosib          1769.531
        20   01 Jun 2027 05:02:46.031   01 Jun 2027 05:08:56.955           370.924                  Delhi         11591.375
        21   01 Jun 2027 06:28:44.145   01 Jun 2027 06:29:15.673            31.528                Novosib           985.250
        22   01 Jun 2027 06:30:49.963   01 Jun 2027 06:30:56.655             6.692                Novosib           209.125
        23   01 Jun 2027 06:33:54.215   01 Jun 2027 06:34:02.451             8.236              Murmansk1           257.375
        24   01 Jun 2027 06:34:03.329   01 Jun 2027 06:34:31.155            27.826                 Moscow           869.563
        25   01 Jun 2027 06:34:41.643   01 Jun 2027 06:35:41.169            59.526              Murmansk2          1860.187
        26   01 Jun 2027 06:35:41.169   01 Jun 2027 06:36:31.129            49.960              Murmansk1          1561.250
        27   01 Jun 2027 06:36:38.652   01 Jun 2027 06:39:02.639           143.987                 Moscow          4499.594
        28   01 Jun 2027 06:39:51.439   01 Jun 2027 06:40:11.594            20.155                 Moscow           629.844
        29   01 Jun 2027 06:40:50.892   01 Jun 2027 06:41:12.828            21.936                 Moscow           685.500
        30   01 Jun 2027 06:53:20.576   01 Jun 2027 06:56:34.004           193.428               CapeTown          6044.625
        31   01 Jun 2027 07:57:36.436   01 Jun 2027 07:59:54.365           137.929                Anadyr2          4310.281
        32   01 Jun 2027 08:32:31.942   01 Jun 2027 08:39:30.451           418.509               CapeTown         13078.406
        33   01 Jun 2027 09:33:33.180   01 Jun 2027 09:36:39.703           186.523                Anadyr2          5828.844
        34   01 Jun 2027 11:02:44.022   01 Jun 2027 11:02:59.464            15.442               Magadan2           482.562
        35   01 Jun 2027 11:08:17.138   01 Jun 2027 11:13:30.390           313.252                Anadyr2          9789.125
        36   01 Jun 2027 12:28:11.366   01 Jun 2027 12:29:03.415            52.049                Sumatra          1626.531
        37   01 Jun 2027 12:37:29.615   01 Jun 2027 12:38:52.203            82.588                Irkutsk          2580.875
        38   01 Jun 2027 12:39:42.948   01 Jun 2027 12:40:08.438            25.490                Irkutsk           796.563
        39   01 Jun 2027 12:41:24.387   01 Jun 2027 12:42:29.239            64.852                Irkutsk          2026.625
        40   01 Jun 2027 12:43:36.504   01 Jun 2027 12:43:53.450            16.946                Norilsk           529.563
        41   01 Jun 2027 12:44:29.886   01 Jun 2027 12:47:49.685           199.799               Magadan1          6243.719
        42   01 Jun 2027 13:25:30.952   01 Jun 2027 13:25:40.069             9.117            RioGallegos           284.906
        43   01 Jun 2027 13:28:03.402   01 Jun 2027 13:30:24.801           141.399            RioGallegos          4418.719
        44   01 Jun 2027 13:34:53.438   01 Jun 2027 13:35:51.911            58.473            RioGallegos          1827.281
        45   01 Jun 2027 13:59:57.078   01 Jun 2027 14:00:01.113             4.035                Sumatra           126.094
        46   01 Jun 2027 14:02:52.194   01 Jun 2027 14:04:38.334           106.140                Sumatra          3316.875
        47   01 Jun 2027 14:06:00.976   01 Jun 2027 14:09:41.626           220.650                Sumatra          6895.313
        48   01 Jun 2027 14:14:40.630   01 Jun 2027 14:15:49.021            68.391                Irkutsk          2137.219
        49   01 Jun 2027 14:19:41.238   01 Jun 2027 14:20:03.397            22.159                Irkutsk           692.469
        50   01 Jun 2027 14:20:40.986   01 Jun 2027 14:24:23.356           222.370                Irkutsk          6949.062
        51   01 Jun 2027 15:44:31.823   01 Jun 2027 15:45:45.415            73.592                  Delhi          2299.750
        52   01 Jun 2027 15:52:39.478   01 Jun 2027 15:54:11.919            92.441                Novosib          2888.781
        53   01 Jun 2027 15:56:35.228   01 Jun 2027 15:57:35.301            60.073                Norilsk          1877.281
        54   01 Jun 2027 15:58:00.525   01 Jun 2027 15:58:14.062            13.537                Novosib           423.031
        55   01 Jun 2027 15:59:30.699   01 Jun 2027 16:03:08.834           218.135                Novosib          6816.719
        56   01 Jun 2027 17:37:05.201   01 Jun 2027 17:42:44.635           339.434                Norilsk         10607.312
        57   01 Jun 2027 19:06:36.917   01 Jun 2027 19:08:58.007           141.090                 Moscow          4409.062
        58   01 Jun 2027 19:09:25.767   01 Jun 2027 19:11:13.961           108.194              Murmansk1          3381.062
        59   01 Jun 2027 19:11:51.372   01 Jun 2027 19:13:01.980            70.608              Murmansk1          2206.500
        60   01 Jun 2027 20:49:20.350   01 Jun 2027 20:55:30.176           369.826              Murmansk2         11557.063
        61   01 Jun 2027 22:34:25.874   01 Jun 2027 22:35:27.858            61.984                Anadyr1          1937.000
        62   01 Jun 2027 22:35:43.295   01 Jun 2027 22:35:57.048            13.753                Anadyr1           429.781
        63   01 Jun 2027 22:36:42.983   01 Jun 2027 22:39:30.001           167.018               Magadan1          5219.312
        64   01 Jun 2027 22:40:00.804   01 Jun 2027 22:40:10.361             9.557               Magadan1           298.656
        65   01 Jun 2027 22:40:29.847   01 Jun 2027 22:40:37.706             7.859               Magadan2           245.594
        66   01 Jun 2027 22:41:02.535   01 Jun 2027 22:41:40.955            38.420               Magadan2          1200.625
        67   01 Jun 2027 23:30:11.385   01 Jun 2027 23:33:01.043           169.658            RioGallegos          5301.812
        68   01 Jun 2027 23:35:41.792   01 Jun 2027 23:36:21.952            40.160            RioGallegos          1255.000
        69   02 Jun 2027 00:10:14.715   02 Jun 2027 00:11:42.252            87.537                Anadyr2          2735.531
        70   02 Jun 2027 00:11:50.861   02 Jun 2027 00:12:09.040            18.179                Anadyr1           568.094
        71   02 Jun 2027 00:12:19.213   02 Jun 2027 00:13:55.303            96.090                Norilsk          3002.813
        72   02 Jun 2027 00:14:21.144   02 Jun 2027 00:14:24.446             3.302               Magadan2           103.188
        73   02 Jun 2027 00:15:30.920   02 Jun 2027 00:16:06.869            35.949               Magadan2          1123.406
        74   02 Jun 2027 00:17:07.448   02 Jun 2027 00:18:09.755            62.307                Irkutsk          1947.094
        75   02 Jun 2027 00:19:17.543   02 Jun 2027 00:19:49.752            32.209                Irkutsk          1006.531
        76   02 Jun 2027 00:21:37.548   02 Jun 2027 00:21:51.969            14.421                Irkutsk           450.656
        77   02 Jun 2027 00:23:23.446   02 Jun 2027 00:24:43.706            80.260                Irkutsk          2508.125
        78   02 Jun 2027 00:31:51.254   02 Jun 2027 00:33:38.860           107.606                Sumatra          3362.688
        79   02 Jun 2027 00:37:02.414   02 Jun 2027 00:37:44.652            42.238                Sumatra          1319.938
        80   02 Jun 2027 01:04:13.157   02 Jun 2027 01:05:35.211            82.054            RioGallegos          2564.188
        81   02 Jun 2027 01:05:57.340   02 Jun 2027 01:06:10.998            13.658            RioGallegos           426.813
        82   02 Jun 2027 01:45:28.642   02 Jun 2027 01:45:34.271             5.629                Anadyr2           175.906
        83   02 Jun 2027 01:45:48.023   02 Jun 2027 01:46:21.509            33.486                Anadyr2          1046.438
        84   02 Jun 2027 01:47:14.492   02 Jun 2027 01:47:42.173            27.681                Anadyr2           865.031
        85   02 Jun 2027 01:48:08.611   02 Jun 2027 01:50:04.722           116.111                Norilsk          3628.469
        86   02 Jun 2027 01:50:04.872   02 Jun 2027 01:50:27.776            22.904               Magadan2           715.750
        87   02 Jun 2027 01:52:03.402   02 Jun 2027 01:54:11.949           128.547                Irkutsk          4017.094
        88   02 Jun 2027 01:55:10.667   02 Jun 2027 01:55:30.270            19.603                Novosib           612.594
        89   02 Jun 2027 01:55:50.258   02 Jun 2027 01:56:25.411            35.153                Novosib          1098.531
        90   02 Jun 2027 02:02:05.107   02 Jun 2027 02:03:39.753            94.646                  Delhi          2957.688
        91   02 Jun 2027 02:06:03.138   02 Jun 2027 02:08:47.442           164.304                Sumatra          5134.500
        92   02 Jun 2027 02:13:32.845   02 Jun 2027 02:15:50.354           137.509                Sumatra          4297.156
        93   02 Jun 2027 02:42:47.520   02 Jun 2027 02:43:04.885            17.365            RioGallegos           542.656
        94   02 Jun 2027 03:29:04.588   02 Jun 2027 03:29:57.860            53.272               Magadan1          1664.750
        95   02 Jun 2027 03:31:54.954   02 Jun 2027 03:32:15.416            20.462                Irkutsk           639.438
        96   02 Jun 2027 03:32:51.507   02 Jun 2027 03:32:53.295             1.788                Norilsk            55.875
        97   02 Jun 2027 03:32:55.318   02 Jun 2027 03:33:05.721            10.403                Novosib           325.094
        98   02 Jun 2027 03:33:29.978   02 Jun 2027 03:33:33.702             3.724                Norilsk           116.375
        99   02 Jun 2027 03:34:13.217   02 Jun 2027 03:35:06.404            53.187                Irkutsk          1662.094
       100   02 Jun 2027 03:35:07.567   02 Jun 2027 03:35:31.479            23.912                Novosib           747.250
       101   02 Jun 2027 03:35:34.939   02 Jun 2027 03:36:29.557            54.618                Irkutsk          1706.812
       102   02 Jun 2027 03:37:16.498   02 Jun 2027 03:38:32.167            75.669                Irkutsk          2364.656
       103   02 Jun 2027 03:38:36.572   02 Jun 2027 03:39:31.020            54.448                Irkutsk          1701.500
       104   02 Jun 2027 03:39:40.685   02 Jun 2027 03:44:53.284           312.599                  Delhi          9768.719
       105   02 Jun 2027 04:17:24.806   02 Jun 2027 04:23:49.033           384.227            RioGallegos         12007.094
       106   02 Jun 2027 04:52:47.502   02 Jun 2027 04:52:58.931            11.429                Anadyr2           357.156
       107   02 Jun 2027 05:05:50.704   02 Jun 2027 05:07:35.189           104.485                Irkutsk          3265.156
       108   02 Jun 2027 05:09:22.063   02 Jun 2027 05:10:39.056            76.993              Murmansk1          2406.031
       109   02 Jun 2027 05:10:39.056   02 Jun 2027 05:10:48.324             9.268              Murmansk2           289.625
       110   02 Jun 2027 05:11:18.727   02 Jun 2027 05:11:26.867             8.140              Murmansk2           254.375
       111   02 Jun 2027 05:11:28.202   02 Jun 2027 05:11:31.795             3.593                 Moscow           112.281
       112   02 Jun 2027 05:11:37.460   02 Jun 2027 05:11:51.336            13.876              Murmansk2           433.625
       113   02 Jun 2027 05:12:05.729   02 Jun 2027 05:12:06.660             0.931                Novosib            29.094
       114   02 Jun 2027 05:12:19.585   02 Jun 2027 05:13:45.028            85.443                Novosib          2670.094
       115   02 Jun 2027 05:13:58.216   02 Jun 2027 05:14:56.637            58.421                Novosib          1825.656
       116   02 Jun 2027 05:17:36.754   02 Jun 2027 05:19:49.674           132.920                  Delhi          4153.750
       117   02 Jun 2027 06:45:08.517   02 Jun 2027 06:45:50.700            42.183                Novosib          1318.219
       118   02 Jun 2027 06:46:15.266   02 Jun 2027 06:46:57.026            41.760                Novosib          1305.000
       119   02 Jun 2027 06:47:10.347   02 Jun 2027 06:47:51.517            41.170              Murmansk2          1286.563
       120   02 Jun 2027 06:48:18.245   02 Jun 2027 06:49:08.511            50.266              Murmansk2          1570.812
       121   02 Jun 2027 06:49:08.511   02 Jun 2027 06:49:18.309             9.798              Murmansk1           306.187
       122   02 Jun 2027 06:49:47.745   02 Jun 2027 06:51:04.534            76.789                 Moscow          2399.656
       123   02 Jun 2027 06:51:26.430   02 Jun 2027 06:52:29.156            62.726                 Moscow          1960.188
       124   02 Jun 2027 06:53:18.014   02 Jun 2027 06:54:22.776            64.762                 Moscow          2023.812
       125   02 Jun 2027 07:05:23.002   02 Jun 2027 07:09:44.943           261.941               CapeTown          8185.656
       126   02 Jun 2027 08:09:21.812   02 Jun 2027 08:11:36.530           134.718                Anadyr2          4209.937
       127   02 Jun 2027 08:11:36.530   02 Jun 2027 08:11:49.372            12.842                Anadyr1           401.312
       128   02 Jun 2027 08:12:53.572   02 Jun 2027 08:12:59.401             5.829               Magadan1           182.156
       129   02 Jun 2027 08:13:11.137   02 Jun 2027 08:14:32.567            81.430                Anadyr1          2544.688
       130   02 Jun 2027 08:14:32.567   02 Jun 2027 08:15:02.413            29.846                Anadyr2           932.687
       131   02 Jun 2027 08:46:14.534   02 Jun 2027 08:50:06.753           232.219               CapeTown          7256.844
       132   02 Jun 2027 09:42:22.240   02 Jun 2027 09:43:45.493            83.253                Anadyr1          2601.656
       133   02 Jun 2027 09:44:58.651   02 Jun 2027 09:45:25.558            26.907               Magadan1           840.844
       134   02 Jun 2027 09:45:38.550   02 Jun 2027 09:45:39.481             0.931                Norilsk            29.094
       135   02 Jun 2027 09:45:51.977   02 Jun 2027 09:50:30.323           278.346               Magadan1          8698.313
       136   02 Jun 2027 11:15:07.864   02 Jun 2027 11:15:44.976            37.112               Magadan2          1159.750
       137   02 Jun 2027 11:16:45.056   02 Jun 2027 11:17:11.482            26.426               Magadan2           825.812
       138   02 Jun 2027 11:18:21.756   02 Jun 2027 11:20:19.420           117.664               Magadan2          3677.000
       139   02 Jun 2027 11:20:22.375   02 Jun 2027 11:25:03.719           281.344               Magadan1          8792.000
       140   02 Jun 2027 11:25:47.788   02 Jun 2027 11:25:48.673             0.885                Novosib            27.656
       141   02 Jun 2027 11:25:57.844   02 Jun 2027 11:26:14.489            16.645              Murmansk2           520.156
       142   02 Jun 2027 11:26:26.562   02 Jun 2027 11:27:19.121            52.559                Norilsk          1642.469
       143   02 Jun 2027 12:01:12.245   02 Jun 2027 12:02:29.521            77.276            RioGallegos          2414.875
       144   02 Jun 2027 12:37:30.318   02 Jun 2027 12:38:00.034            29.716                Sumatra           928.625
       145   02 Jun 2027 12:40:15.551   02 Jun 2027 12:40:59.858            44.307                Sumatra          1384.594
       146   02 Jun 2027 12:49:28.534   02 Jun 2027 12:52:38.992           190.458                Irkutsk          5951.812
       147   02 Jun 2027 12:54:23.734   02 Jun 2027 12:55:17.684            53.950                Norilsk          1685.938
       148   02 Jun 2027 13:37:51.553   02 Jun 2027 13:38:28.694            37.141            RioGallegos          1160.656
       149   02 Jun 2027 13:39:38.133   02 Jun 2027 13:42:59.421           201.288            RioGallegos          6290.250
       150   02 Jun 2027 14:12:10.850   02 Jun 2027 14:13:15.034            64.184                Sumatra          2005.750
       151   02 Jun 2027 14:27:11.213   02 Jun 2027 14:29:11.240           120.027                Irkutsk          3750.844
       152   02 Jun 2027 14:31:23.571   02 Jun 2027 14:32:53.992            90.421                Irkutsk          2825.656
       153   02 Jun 2027 14:35:54.330   02 Jun 2027 14:37:34.944           100.614                Irkutsk          3144.187
       154   02 Jun 2027 15:56:56.732   02 Jun 2027 15:58:42.094           105.362                  Delhi          3292.563
       155   02 Jun 2027 16:01:35.339   02 Jun 2027 16:02:40.669            65.330                  Delhi          2041.562
       156   02 Jun 2027 16:05:14.365   02 Jun 2027 16:07:56.713           162.348                Novosib          5073.375
       157   02 Jun 2027 16:09:42.206   02 Jun 2027 16:10:33.911            51.705                Norilsk          1615.781
       158   02 Jun 2027 16:10:37.154   02 Jun 2027 16:12:15.339            98.185                Novosib          3068.281
       159   02 Jun 2027 17:43:46.049   02 Jun 2027 17:44:32.951            46.902                 Moscow          1465.687
       160   02 Jun 2027 17:45:30.381   02 Jun 2027 17:47:01.849            91.468              Murmansk2          2858.375
       161   02 Jun 2027 17:50:00.753   02 Jun 2027 17:54:32.570           271.817                Norilsk          8494.281
       162   02 Jun 2027 19:19:16.920   02 Jun 2027 19:25:38.023           381.103                 Moscow         11909.469
       163   02 Jun 2027 20:30:22.518   02 Jun 2027 20:30:36.938            14.420               CapeTown           450.625
       164   02 Jun 2027 20:32:13.639   02 Jun 2027 20:34:02.852           109.213               CapeTown          3412.906
       165   02 Jun 2027 20:38:37.107   02 Jun 2027 20:40:10.359            93.252               CapeTown          2914.125
       166   02 Jun 2027 21:02:08.418   02 Jun 2027 21:08:14.968           366.550              Murmansk1         11454.688
       167   02 Jun 2027 22:46:27.574   02 Jun 2027 22:47:44.673            77.099                Anadyr2          2409.344
       168   02 Jun 2027 22:47:57.637   02 Jun 2027 22:49:16.558            78.921                Anadyr2          2466.281
       169   02 Jun 2027 22:49:19.235   02 Jun 2027 22:49:57.056            37.821               Magadan1          1181.906
       170   02 Jun 2027 22:50:10.130   02 Jun 2027 22:50:18.603             8.473               Magadan1           264.781
       171   02 Jun 2027 22:51:54.750   02 Jun 2027 22:52:11.139            16.389               Magadan1           512.156
       172   02 Jun 2027 22:52:28.557   02 Jun 2027 22:53:12.239            43.682               Magadan1          1365.063
       173   02 Jun 2027 22:54:05.033   02 Jun 2027 22:54:33.525            28.492               Magadan1           890.375
       174   02 Jun 2027 23:41:40.433   02 Jun 2027 23:44:47.961           187.528            RioGallegos          5860.250
       175   02 Jun 2027 23:47:46.950   02 Jun 2027 23:48:15.822            28.872            RioGallegos           902.250
       176   03 Jun 2027 00:22:13.838   03 Jun 2027 00:23:54.400           100.562                Anadyr1          3142.562
       177   03 Jun 2027 00:24:18.149   03 Jun 2027 00:26:14.097           115.948                Norilsk          3623.375
       178   03 Jun 2027 00:27:14.648   03 Jun 2027 00:27:23.567             8.919               Magadan1           278.719
       179   03 Jun 2027 00:27:23.567   03 Jun 2027 00:27:47.613            24.046               Magadan2           751.438
       180   03 Jun 2027 00:28:13.118   03 Jun 2027 00:28:16.737             3.619               Magadan2           113.094
       181   03 Jun 2027 00:28:26.711   03 Jun 2027 00:28:35.860             9.149               Magadan2           285.906
       182   03 Jun 2027 00:28:53.075   03 Jun 2027 00:30:09.132            76.057                Irkutsk          2376.781
       183   03 Jun 2027 00:30:52.828   03 Jun 2027 00:33:20.207           147.379                Irkutsk          4605.594
       184   03 Jun 2027 00:43:12.603   03 Jun 2027 00:44:05.127            52.524                Sumatra          1641.375
       185   03 Jun 2027 00:48:48.826   03 Jun 2027 00:49:44.130            55.304                Sumatra          1728.250
       186   03 Jun 2027 01:20:04.252   03 Jun 2027 01:20:05.510             1.258            RioGallegos            39.313
       187   03 Jun 2027 01:20:56.856   03 Jun 2027 01:21:04.432             7.576            RioGallegos           236.750
       188   03 Jun 2027 01:22:12.902   03 Jun 2027 01:23:22.269            69.367            RioGallegos          2167.719
       189   03 Jun 2027 01:57:20.515   03 Jun 2027 01:57:40.942            20.427                Anadyr1           638.344
       190   03 Jun 2027 01:58:17.996   03 Jun 2027 01:58:50.538            32.542                Anadyr1          1016.937
       191   03 Jun 2027 01:59:14.447   03 Jun 2027 01:59:41.424            26.977                Anadyr2           843.031
       192   03 Jun 2027 02:00:10.909   03 Jun 2027 02:00:11.278             0.369                Norilsk            11.531
       193   03 Jun 2027 02:00:51.528   03 Jun 2027 02:01:57.688            66.160               Magadan1          2067.500
       194   03 Jun 2027 02:02:06.941   03 Jun 2027 02:02:15.013             8.072                Norilsk           252.250
       195   03 Jun 2027 02:02:30.784   03 Jun 2027 02:02:57.042            26.258               Magadan2           820.562
       196   03 Jun 2027 02:03:43.713   03 Jun 2027 02:03:43.812             0.099               Magadan1             3.094
       197   03 Jun 2027 02:04:04.219   03 Jun 2027 02:06:18.033           133.814                Irkutsk          4181.687
       198   03 Jun 2027 02:08:51.377   03 Jun 2027 02:09:18.778            27.401                Novosib           856.281
       199   03 Jun 2027 02:12:18.426   03 Jun 2027 02:13:22.218            63.792                Irkutsk          1993.500
       200   03 Jun 2027 02:17:33.575   03 Jun 2027 02:18:24.910            51.335                  Delhi          1604.219
       201   03 Jun 2027 02:23:10.094   03 Jun 2027 02:28:13.713           303.619                Sumatra          9488.094
       202   03 Jun 2027 03:43:19.051   03 Jun 2027 03:43:54.047            34.996              Murmansk2          1093.625
       203   03 Jun 2027 03:44:09.250   03 Jun 2027 03:44:51.938            42.688              Murmansk1          1334.000
       204   03 Jun 2027 03:44:52.821   03 Jun 2027 03:44:57.001             4.180                Norilsk           130.625
       205   03 Jun 2027 03:44:57.175   03 Jun 2027 03:45:45.408            48.233              Murmansk1          1507.281
       206   03 Jun 2027 03:45:51.125   03 Jun 2027 03:46:22.718            31.593                Norilsk           987.281
       207   03 Jun 2027 03:46:47.261   03 Jun 2027 03:47:14.067            26.806                Norilsk           837.688
       208   03 Jun 2027 03:47:57.353   03 Jun 2027 03:48:41.280            43.927                Irkutsk          1372.719
       209   03 Jun 2027 03:49:29.640   03 Jun 2027 03:49:54.881            25.241                Irkutsk           788.781
       210   03 Jun 2027 03:50:02.955   03 Jun 2027 03:52:52.181           169.226                Novosib          5288.312
       211   03 Jun 2027 03:53:52.765   03 Jun 2027 03:56:11.312           138.547                  Delhi          4329.594
       212   03 Jun 2027 03:58:17.303   03 Jun 2027 03:59:58.723           101.420                  Delhi          3169.375
       213   03 Jun 2027 04:29:51.836   03 Jun 2027 04:34:52.075           300.239            RioGallegos          9382.469
       214   03 Jun 2027 05:19:14.841   03 Jun 2027 05:20:47.940            93.099                Irkutsk          2909.344
       215   03 Jun 2027 05:21:33.126   03 Jun 2027 05:22:08.655            35.529                Novosib          1110.281
       216   03 Jun 2027 05:22:16.463   03 Jun 2027 05:23:05.604            49.141                Novosib          1535.656
       217   03 Jun 2027 05:23:19.078   03 Jun 2027 05:24:04.327            45.249                Norilsk          1414.031
       218   03 Jun 2027 05:24:46.400   03 Jun 2027 05:24:57.529            11.129              Murmansk2           347.781
       219   03 Jun 2027 05:25:51.233   03 Jun 2027 05:26:14.028            22.795                Novosib           712.344
       220   03 Jun 2027 05:27:04.137   03 Jun 2027 05:29:56.060           171.923                  Delhi          5372.594
       221   03 Jun 2027 06:57:35.439   03 Jun 2027 06:58:06.054            30.615              Murmansk2           956.719
       222   03 Jun 2027 06:58:29.722   03 Jun 2027 06:59:05.247            35.525              Murmansk1          1110.156
       223   03 Jun 2027 06:59:30.129   03 Jun 2027 07:00:15.843            45.714              Murmansk2          1428.563
       224   03 Jun 2027 07:00:15.843   03 Jun 2027 07:01:05.358            49.515              Murmansk1          1547.344
       225   03 Jun 2027 07:05:23.744   03 Jun 2027 07:06:21.238            57.494                 Moscow          1796.688
       226   03 Jun 2027 07:20:05.125   03 Jun 2027 07:22:08.129           123.004               CapeTown          3843.875
       227   03 Jun 2027 08:20:17.621   03 Jun 2027 08:21:22.973            65.352                Anadyr2          2042.250
       228   03 Jun 2027 08:21:38.768   03 Jun 2027 08:21:41.208             2.440               Magadan1            76.250
       229   03 Jun 2027 08:22:40.325   03 Jun 2027 08:23:58.025            77.700                Anadyr2          2428.125
       230   03 Jun 2027 08:30:52.075   03 Jun 2027 08:30:52.619             0.544                 Moscow            17.000
       231   03 Jun 2027 08:31:06.940   03 Jun 2027 08:32:21.808            74.868                 Moscow          2339.625
       232   03 Jun 2027 09:52:19.416   03 Jun 2027 09:54:55.333           155.917                Anadyr1          4872.406
       233   03 Jun 2027 09:56:34.572   03 Jun 2027 09:58:28.781           114.209                Anadyr1          3569.031
       234   03 Jun 2027 09:58:55.376   03 Jun 2027 09:59:25.656            30.280               Magadan2           946.250
       235   03 Jun 2027 09:59:25.656   03 Jun 2027 10:00:44.991            79.335               Magadan1          2479.219
       236   03 Jun 2027 10:01:39.335   03 Jun 2027 10:02:41.124            61.789               Magadan1          1930.906
       237   03 Jun 2027 11:27:35.688   03 Jun 2027 11:28:23.539            47.851               Magadan1          1495.344
       238   03 Jun 2027 11:28:23.539   03 Jun 2027 11:28:39.538            15.999               Magadan2           499.969
       239   03 Jun 2027 11:28:41.086   03 Jun 2027 11:28:43.257             2.171               Magadan1            67.844
       240   03 Jun 2027 11:31:08.842   03 Jun 2027 11:31:54.879            46.037               Magadan1          1438.656
       241   03 Jun 2027 11:32:13.322   03 Jun 2027 11:38:11.070           357.748               Magadan1         11179.625
       242   03 Jun 2027 13:01:30.701   03 Jun 2027 13:05:07.882           217.181                Irkutsk          6786.906
       243   03 Jun 2027 13:15:34.955   03 Jun 2027 13:15:59.043            24.088                Norilsk           752.750
       244   03 Jun 2027 13:50:17.032   03 Jun 2027 13:51:30.791            73.759            RioGallegos          2304.969
       245   03 Jun 2027 13:55:14.705   03 Jun 2027 13:55:41.602            26.897            RioGallegos           840.531
       246   03 Jun 2027 13:57:58.173   03 Jun 2027 14:00:15.292           137.119            RioGallegos          4284.969
       247   03 Jun 2027 14:24:31.826   03 Jun 2027 14:30:08.048           336.222                Sumatra         10506.937
       248   03 Jun 2027 14:39:48.164   03 Jun 2027 14:45:58.937           370.773                Irkutsk         11586.656
       249   03 Jun 2027 16:12:41.423   03 Jun 2027 16:16:04.627           203.204                  Delhi          6350.125
       250   03 Jun 2027 16:17:55.925   03 Jun 2027 16:24:25.827           389.902                Novosib         12184.437
       251   03 Jun 2027 18:03:08.741   03 Jun 2027 18:04:05.875            57.134                Norilsk          1785.437
       252   03 Jun 2027 18:05:35.546   03 Jun 2027 18:06:09.983            34.437                Norilsk          1076.156
       253   03 Jun 2027 19:32:05.094   03 Jun 2027 19:39:58.258           473.164                 Moscow         14786.375
       254   03 Jun 2027 20:45:41.277   03 Jun 2027 20:47:48.172           126.895               CapeTown          3965.469
       255   03 Jun 2027 21:15:03.275   03 Jun 2027 21:20:02.341           299.066              Murmansk2          9345.812
       256   03 Jun 2027 22:58:29.123   03 Jun 2027 22:59:46.027            76.904                Anadyr2          2403.250
       257   03 Jun 2027 23:00:44.754   03 Jun 2027 23:02:06.388            81.634               Magadan2          2551.063
       258   03 Jun 2027 23:03:46.093   03 Jun 2027 23:04:15.558            29.465               Magadan1           920.781
       259   03 Jun 2027 23:04:15.558   03 Jun 2027 23:04:28.378            12.820               Magadan2           400.625
       260   03 Jun 2027 23:05:19.098   03 Jun 2027 23:05:32.296            13.198               Magadan1           412.438
       261   03 Jun 2027 23:05:51.637   03 Jun 2027 23:06:31.337            39.700               Magadan1          1240.625
       262   03 Jun 2027 23:11:36.041   03 Jun 2027 23:11:53.090            17.049               Magadan2           532.781
       263   03 Jun 2027 23:13:01.794   03 Jun 2027 23:13:11.320             9.526               Magadan2           297.688
       264   03 Jun 2027 23:53:19.113   03 Jun 2027 23:56:38.279           199.166            RioGallegos          6223.938
       265   04 Jun 2027 00:01:17.612   04 Jun 2027 00:01:45.976            28.364            RioGallegos           886.375
       266   04 Jun 2027 00:34:12.363   04 Jun 2027 00:35:18.989            66.626                Anadyr1          2082.063
       267   04 Jun 2027 00:36:17.974   04 Jun 2027 00:37:58.693           100.719                Norilsk          3147.469
       268   04 Jun 2027 00:38:50.192   04 Jun 2027 00:39:25.482            35.290               Magadan2          1102.813
       269   04 Jun 2027 00:39:41.063   04 Jun 2027 00:39:59.912            18.849                Norilsk           589.031
       270   04 Jun 2027 00:40:15.260   04 Jun 2027 00:40:29.357            14.097               Magadan1           440.531
       271   04 Jun 2027 00:40:42.441   04 Jun 2027 00:42:09.524            87.083                Irkutsk          2721.344
       272   04 Jun 2027 00:45:14.912   04 Jun 2027 00:45:55.905            40.993                Irkutsk          1281.031
       273   04 Jun 2027 00:49:09.698   04 Jun 2027 00:49:19.651             9.953                Irkutsk           311.031
       274   04 Jun 2027 00:54:44.889   04 Jun 2027 00:56:20.181            95.292                Sumatra          2977.875
       275   04 Jun 2027 00:56:25.674   04 Jun 2027 00:56:49.556            23.882                Sumatra           746.312
       276   04 Jun 2027 00:58:43.345   04 Jun 2027 01:01:00.363           137.018                Sumatra          4281.813
       277   04 Jun 2027 02:09:11.093   04 Jun 2027 02:09:23.589            12.496                Anadyr2           390.500
       278   04 Jun 2027 02:09:25.289   04 Jun 2027 02:10:16.258            50.969                Anadyr1          1592.781
       279   04 Jun 2027 02:11:14.742   04 Jun 2027 02:11:40.067            25.325                Anadyr1           791.406
       280   04 Jun 2027 02:11:40.067   04 Jun 2027 02:11:57.284            17.217                Anadyr2           538.031
       281   04 Jun 2027 02:12:13.308   04 Jun 2027 02:13:06.582            53.274                Norilsk          1664.812
       282   04 Jun 2027 02:13:36.669   04 Jun 2027 02:13:56.664            19.995                Norilsk           624.844
       283   04 Jun 2027 02:16:05.935   04 Jun 2027 02:18:25.006           139.071                Irkutsk          4345.969
       284   04 Jun 2027 02:19:42.631   04 Jun 2027 02:20:04.196            21.565                Irkutsk           673.906
       285   04 Jun 2027 02:22:59.211   04 Jun 2027 02:24:04.505            65.294                Irkutsk          2040.437
       286   04 Jun 2027 02:30:45.533   04 Jun 2027 02:36:45.882           360.349                Sumatra         11260.906
       287   04 Jun 2027 03:55:29.413   04 Jun 2027 03:56:00.235            30.822                Norilsk           963.188
       288   04 Jun 2027 03:56:32.302   04 Jun 2027 03:56:41.306             9.004                Irkutsk           281.375
       289   04 Jun 2027 03:56:44.456   04 Jun 2027 03:58:13.715            89.259              Murmansk1          2789.344
       290   04 Jun 2027 03:58:13.715   04 Jun 2027 03:58:28.841            15.126              Murmansk2           472.687
       291   04 Jun 2027 03:58:36.302   04 Jun 2027 03:59:35.044            58.742                 Moscow          1835.687
       292   04 Jun 2027 03:59:45.611   04 Jun 2027 04:00:00.247            14.636                Norilsk           457.375
       293   04 Jun 2027 04:00:49.868   04 Jun 2027 04:01:18.538            28.670                Novosib           895.937
       294   04 Jun 2027 04:01:20.001   04 Jun 2027 04:02:42.418            82.417                Irkutsk          2575.531
       295   04 Jun 2027 04:03:02.554   04 Jun 2027 04:03:35.394            32.840                Novosib          1026.250
       296   04 Jun 2027 04:07:53.423   04 Jun 2027 04:11:48.104           234.681                  Delhi          7333.781
       297   04 Jun 2027 04:42:35.986   04 Jun 2027 04:45:35.681           179.695            RioGallegos          5615.469
       298   04 Jun 2027 05:32:44.552   04 Jun 2027 05:32:49.468             4.916                Norilsk           153.625
       299   04 Jun 2027 05:32:49.714   04 Jun 2027 05:34:09.497            79.783              Murmansk2          2493.219
       300   04 Jun 2027 05:34:10.006   04 Jun 2027 05:34:24.028            14.022                Novosib           438.188
       301   04 Jun 2027 05:34:24.998   04 Jun 2027 05:34:36.434            11.436                Norilsk           357.375
       302   04 Jun 2027 05:34:44.821   04 Jun 2027 05:36:36.157           111.336              Murmansk2          3479.250
       303   04 Jun 2027 05:36:36.157   04 Jun 2027 05:36:55.196            19.039              Murmansk1           594.969
       304   04 Jun 2027 05:37:47.217   04 Jun 2027 05:37:58.807            11.590              Murmansk1           362.188
       305   04 Jun 2027 05:54:42.076   04 Jun 2027 05:55:33.502            51.426               CapeTown          1607.062
       306   04 Jun 2027 07:08:46.349   04 Jun 2027 07:11:12.166           145.817                 Moscow          4556.781
       307   04 Jun 2027 07:11:25.647   04 Jun 2027 07:11:28.986             3.339              Murmansk2           104.344
       308   04 Jun 2027 07:11:35.204   04 Jun 2027 07:11:54.435            19.231                 Moscow           600.969
       309   04 Jun 2027 07:11:55.962   04 Jun 2027 07:13:00.492            64.530              Murmansk1          2016.563
       310   04 Jun 2027 07:14:22.458   04 Jun 2027 07:14:39.556            17.098                 Moscow           534.312
       311   04 Jun 2027 07:15:10.029   04 Jun 2027 07:15:24.471            14.442                 Moscow           451.313
       312   04 Jun 2027 07:29:43.886   04 Jun 2027 07:30:08.861            24.975               CapeTown           780.469
       313   04 Jun 2027 07:30:45.825   04 Jun 2027 07:32:27.909           102.084               CapeTown          3190.125
       314   04 Jun 2027 07:38:25.121   04 Jun 2027 07:39:32.874            67.753               CapeTown          2117.281
       315   04 Jun 2027 08:32:39.011   04 Jun 2027 08:33:05.163            26.152               Magadan1           817.250
       316   04 Jun 2027 08:33:21.775   04 Jun 2027 08:33:39.511            17.736               Magadan1           554.250
       317   04 Jun 2027 08:34:25.063   04 Jun 2027 08:35:15.193            50.130                Anadyr2          1566.562
       318   04 Jun 2027 08:36:11.456   04 Jun 2027 08:36:15.015             3.559               Magadan1           111.219
       319   04 Jun 2027 08:37:11.115   04 Jun 2027 08:38:17.545            66.430                Anadyr1          2075.938
       320   04 Jun 2027 08:47:41.281   04 Jun 2027 08:47:47.160             5.879                 Moscow           183.719
       321   04 Jun 2027 08:50:21.715   04 Jun 2027 08:51:04.609            42.894                 Moscow          1340.438
       322   04 Jun 2027 10:04:50.309   04 Jun 2027 10:09:17.187           266.878                Anadyr2          8339.937
       323   04 Jun 2027 10:09:17.187   04 Jun 2027 10:14:42.566           325.379                Anadyr1         10168.094
       324   04 Jun 2027 11:40:07.984   04 Jun 2027 11:40:35.549            27.565               Magadan1           861.406
       325   04 Jun 2027 11:40:35.549   04 Jun 2027 11:45:48.365           312.816               Magadan2          9775.500
       326   04 Jun 2027 11:46:47.256   04 Jun 2027 11:50:03.975           196.719               Magadan1          6147.469
       327   04 Jun 2027 12:36:09.969   04 Jun 2027 12:37:58.923           108.954            RioGallegos          3404.813
       328   04 Jun 2027 13:07:54.127   04 Jun 2027 13:09:55.408           121.281                Sumatra          3790.031
       329   04 Jun 2027 13:14:20.425   04 Jun 2027 13:16:48.920           148.495                Irkutsk          4640.469
       330   04 Jun 2027 13:30:46.636   04 Jun 2027 13:31:22.622            35.986                Norilsk          1124.563
       331   04 Jun 2027 14:02:48.097   04 Jun 2027 14:04:59.940           131.843            RioGallegos          4120.094
       332   04 Jun 2027 14:12:07.231   04 Jun 2027 14:12:51.525            44.294            RioGallegos          1384.187
       333   04 Jun 2027 14:37:01.830   04 Jun 2027 14:43:39.929           398.099                Sumatra         12440.594
       334   04 Jun 2027 14:52:33.106   04 Jun 2027 14:59:35.507           422.401                Irkutsk         13200.031
       335   04 Jun 2027 16:23:20.957   04 Jun 2027 16:31:02.556           461.599                  Delhi         14424.969
       336   04 Jun 2027 16:31:30.769   04 Jun 2027 16:38:22.728           411.959                Novosib         12873.719
       337   04 Jun 2027 19:45:04.975   04 Jun 2027 19:51:30.482           385.507                 Moscow         12047.094
       338   04 Jun 2027 19:51:38.862   04 Jun 2027 19:51:54.374            15.512              Murmansk2           484.750
       339   04 Jun 2027 20:56:58.126   04 Jun 2027 21:00:47.942           229.816               CapeTown          7181.750
       340   04 Jun 2027 21:28:09.832   04 Jun 2027 21:31:40.101           210.269              Murmansk1          6570.906
       341   04 Jun 2027 23:12:46.285   04 Jun 2027 23:12:59.784            13.499               Magadan2           421.844
       342   04 Jun 2027 23:14:00.881   04 Jun 2027 23:14:01.040             0.159                Norilsk             4.969
       343   04 Jun 2027 23:14:06.327   04 Jun 2027 23:14:14.524             8.197               Magadan2           256.156
       344   04 Jun 2027 23:15:22.688   04 Jun 2027 23:16:05.884            43.196               Magadan1          1349.875
       345   04 Jun 2027 23:17:42.098   04 Jun 2027 23:17:59.411            17.313               Magadan1           541.031
       346   04 Jun 2027 23:23:34.702   04 Jun 2027 23:24:39.373            64.671               Magadan2          2020.969
       347   05 Jun 2027 00:05:03.660   05 Jun 2027 00:07:08.363           124.703            RioGallegos          3896.969
       348   05 Jun 2027 00:07:20.695   05 Jun 2027 00:08:03.264            42.569            RioGallegos          1330.281
       349   05 Jun 2027 00:10:39.023   05 Jun 2027 00:11:06.770            27.747            RioGallegos           867.094
       350   05 Jun 2027 00:46:10.198   05 Jun 2027 00:47:21.887            71.689                Anadyr2          2240.281
       351   05 Jun 2027 00:48:18.466   05 Jun 2027 00:49:33.281            74.815                Norilsk          2337.969
       352   05 Jun 2027 00:50:23.838   05 Jun 2027 00:50:54.341            30.503               Magadan2           953.219
       353   05 Jun 2027 00:50:57.565   05 Jun 2027 00:51:05.139             7.574               Magadan1           236.688
       354   05 Jun 2027 00:51:12.685   05 Jun 2027 00:51:20.323             7.638                Norilsk           238.687
       355   05 Jun 2027 00:51:29.620   05 Jun 2027 00:52:01.826            32.206                Norilsk          1006.437
       356   05 Jun 2027 00:52:32.038   05 Jun 2027 00:52:58.810            26.772               Magadan1           836.625
       357   05 Jun 2027 00:53:12.691   05 Jun 2027 00:54:10.840            58.149                Irkutsk          1817.156
       358   05 Jun 2027 00:55:00.989   05 Jun 2027 00:56:03.977            62.988                Novosib          1968.375
       359   05 Jun 2027 01:00:55.375   05 Jun 2027 01:02:04.171            68.796                Irkutsk          2149.875
       360   05 Jun 2027 01:06:25.496   05 Jun 2027 01:07:15.044            49.548                Sumatra          1548.375
       361   05 Jun 2027 01:09:56.543   05 Jun 2027 01:10:23.926            27.383                Sumatra           855.719
       362   05 Jun 2027 01:12:43.066   05 Jun 2027 01:14:00.502            77.436                Sumatra          2419.875
       363   05 Jun 2027 01:47:36.960   05 Jun 2027 01:48:08.343            31.383            RioGallegos           980.719
       364   05 Jun 2027 01:52:44.476   05 Jun 2027 01:52:59.421            14.945            RioGallegos           467.031
       365   05 Jun 2027 02:21:00.330   05 Jun 2027 02:21:39.062            38.732                Anadyr2          1210.375
       366   05 Jun 2027 02:22:16.755   05 Jun 2027 02:22:46.344            29.589                Anadyr1           924.656
       367   05 Jun 2027 02:24:15.767   05 Jun 2027 02:25:26.694            70.927                Norilsk          2216.469
       368   05 Jun 2027 02:25:49.098   05 Jun 2027 02:26:19.227            30.129                Norilsk           941.531
       369   05 Jun 2027 02:28:08.494   05 Jun 2027 02:30:33.002           144.508                Irkutsk          4515.875
       370   05 Jun 2027 02:37:05.786   05 Jun 2027 02:37:23.932            18.146                  Delhi           567.063
       371   05 Jun 2027 02:39:33.016   05 Jun 2027 02:40:30.586            57.570                  Delhi          1799.062
       372   05 Jun 2027 02:43:21.258   05 Jun 2027 02:52:43.078           561.820                Sumatra         17556.875
       373   05 Jun 2027 04:07:27.425   05 Jun 2027 04:08:25.439            58.014                Irkutsk          1812.937
       374   05 Jun 2027 04:08:42.882   05 Jun 2027 04:08:53.798            10.916                Irkutsk           341.125
       375   05 Jun 2027 04:09:13.823   05 Jun 2027 04:09:54.134            40.311              Murmansk1          1259.719
       376   05 Jun 2027 04:10:05.381   05 Jun 2027 04:10:17.837            12.456                Novosib           389.250
       377   05 Jun 2027 04:10:23.173   05 Jun 2027 04:10:28.915             5.742                Irkutsk           179.438
       378   05 Jun 2027 04:10:34.717   05 Jun 2027 04:11:08.236            33.519              Murmansk1          1047.469
       379   05 Jun 2027 04:11:35.831   05 Jun 2027 04:16:25.382           289.551                  Delhi          9048.469
       380   05 Jun 2027 05:42:55.832   05 Jun 2027 05:43:34.162            38.330                Novosib          1197.813
       381   05 Jun 2027 05:45:16.686   05 Jun 2027 05:45:52.512            35.826                Norilsk          1119.562
       382   05 Jun 2027 05:46:11.678   05 Jun 2027 05:48:26.600           134.922              Murmansk1          4216.313
       383   05 Jun 2027 05:48:42.924   05 Jun 2027 05:49:24.763            41.839                 Moscow          1307.469
       384   05 Jun 2027 05:50:00.878   05 Jun 2027 05:50:20.430            19.552              Murmansk1           611.000
       385   05 Jun 2027 05:50:20.570   05 Jun 2027 05:51:13.280            52.710                 Moscow          1647.188
       386   05 Jun 2027 05:52:19.362   05 Jun 2027 05:53:14.451            55.089                 Moscow          1721.531
       387   05 Jun 2027 06:06:18.223   05 Jun 2027 06:07:28.134            69.911               CapeTown          2184.719
       388   05 Jun 2027 06:10:34.975   05 Jun 2027 06:12:18.636           103.661               CapeTown          3239.406
       389   05 Jun 2027 07:10:03.774   05 Jun 2027 07:11:19.373            75.599                Anadyr2          2362.469
       390   05 Jun 2027 07:20:41.395   05 Jun 2027 07:20:47.546             6.151                 Moscow           192.219
       391   05 Jun 2027 07:20:51.044   05 Jun 2027 07:21:13.298            22.254                Norilsk           695.438
       392   05 Jun 2027 07:21:13.320   05 Jun 2027 07:21:37.636            24.316                 Moscow           759.875
       393   05 Jun 2027 07:21:38.815   05 Jun 2027 07:22:08.958            30.143              Murmansk1           941.969
       394   05 Jun 2027 07:22:32.031   05 Jun 2027 07:22:51.646            19.615              Murmansk1           612.969
       395   05 Jun 2027 07:22:51.646   05 Jun 2027 07:23:16.935            25.289              Murmansk2           790.281
       396   05 Jun 2027 07:23:21.175   05 Jun 2027 07:24:04.205            43.030                 Moscow          1344.688
       397   05 Jun 2027 07:24:05.396   05 Jun 2027 07:24:52.698            47.302              Murmansk2          1478.187
       398   05 Jun 2027 07:42:03.275   05 Jun 2027 07:43:20.423            77.148               CapeTown          2410.875
       399   05 Jun 2027 07:44:19.338   05 Jun 2027 07:47:20.381           181.043               CapeTown          5657.594
       400   05 Jun 2027 08:44:57.031   05 Jun 2027 08:45:40.241            43.210               Magadan1          1350.312
       401   05 Jun 2027 08:46:47.934   05 Jun 2027 08:47:54.528            66.594                Anadyr2          2081.063
       402   05 Jun 2027 08:49:10.232   05 Jun 2027 08:49:32.305            22.073                Anadyr2           689.781
       403   05 Jun 2027 08:50:33.812   05 Jun 2027 08:50:46.248            12.436               Magadan1           388.625
       404   05 Jun 2027 09:32:47.073   05 Jun 2027 09:33:50.492            63.419            RioGallegos          1981.844
       405   05 Jun 2027 10:17:25.051   05 Jun 2027 10:26:37.766           552.715                Anadyr1         17272.344
       406   05 Jun 2027 11:52:45.471   05 Jun 2027 11:58:46.743           361.272               Magadan2         11289.750
       407   05 Jun 2027 11:59:04.575   05 Jun 2027 12:01:54.320           169.745               Magadan1          5304.531
       408   05 Jun 2027 14:18:28.505   05 Jun 2027 14:21:42.296           193.791            RioGallegos          6055.969
       409   05 Jun 2027 14:49:44.621   05 Jun 2027 14:58:17.504           512.883                Sumatra         16027.594
       410   05 Jun 2027 15:05:29.112   05 Jun 2027 15:12:35.087           425.975                Irkutsk         13311.719
       411   05 Jun 2027 16:35:21.343   05 Jun 2027 16:42:10.727           409.384                  Delhi         12793.250
       412   05 Jun 2027 16:43:49.441   05 Jun 2027 16:49:52.248           362.807                Novosib         11337.719
       413   05 Jun 2027 19:58:26.640   05 Jun 2027 20:02:44.039           257.399                 Moscow          8043.719
       414   05 Jun 2027 20:03:05.824   05 Jun 2027 20:05:25.965           140.141              Murmansk2          4379.406
       415   05 Jun 2027 21:07:34.672   05 Jun 2027 21:15:30.502           475.830               CapeTown         14869.687
       416   06 Jun 2027 00:58:07.258   06 Jun 2027 00:59:04.313            57.055                Anadyr2          1782.969
       417   06 Jun 2027 01:00:19.474   06 Jun 2027 01:00:32.454            12.980                Norilsk           405.625
       418   06 Jun 2027 01:00:45.364   06 Jun 2027 01:02:20.734            95.370                Norilsk          2980.312
       419   06 Jun 2027 01:03:12.554   06 Jun 2027 01:04:13.386            60.832               Magadan2          1901.000
       420   06 Jun 2027 01:04:28.936   06 Jun 2027 01:05:45.182            76.246                Irkutsk          2382.688
       421   06 Jun 2027 01:07:16.862   06 Jun 2027 01:07:51.240            34.378                Novosib          1074.313
       422   06 Jun 2027 01:08:16.634   06 Jun 2027 01:08:28.975            12.341                Novosib           385.656
       423   06 Jun 2027 01:08:33.701   06 Jun 2027 01:08:44.535            10.834                Novosib           338.563
       424   06 Jun 2027 01:11:47.214   06 Jun 2027 01:12:00.127            12.913                Irkutsk           403.531
       425   06 Jun 2027 01:18:13.015   06 Jun 2027 01:21:03.718           170.703                Sumatra          5334.469
       426   06 Jun 2027 02:00:14.575   06 Jun 2027 02:01:02.074            47.499            RioGallegos          1484.344
       427   06 Jun 2027 02:32:48.227   06 Jun 2027 02:33:33.595            45.368                Anadyr1          1417.750
       428   06 Jun 2027 02:36:18.265   06 Jun 2027 02:37:37.926            79.661                Norilsk          2489.406
       429   06 Jun 2027 02:38:37.021   06 Jun 2027 02:39:01.501            24.480               Magadan2           765.000
       430   06 Jun 2027 02:40:11.848   06 Jun 2027 02:42:45.992           154.144                Irkutsk          4817.000
       431   06 Jun 2027 02:46:36.568   06 Jun 2027 02:47:46.221            69.653                Irkutsk          2176.656
       432   06 Jun 2027 02:56:13.292   06 Jun 2027 03:03:46.400           453.108                Sumatra         14159.625
       433   06 Jun 2027 04:19:25.372   06 Jun 2027 04:19:58.748            33.376                Norilsk          1043.000
       434   06 Jun 2027 04:21:19.872   06 Jun 2027 04:22:19.439            59.567                Norilsk          1861.469
       435   06 Jun 2027 04:22:21.527   06 Jun 2027 04:22:22.743             1.216                 Moscow            38.000
       436   06 Jun 2027 04:22:52.969   06 Jun 2027 04:23:00.971             8.002                Norilsk           250.063
       437   06 Jun 2027 04:23:14.287   06 Jun 2027 04:23:44.158            29.871              Murmansk1           933.469
       438   06 Jun 2027 04:23:49.581   06 Jun 2027 04:35:08.951           679.370                  Delhi         21230.312
       439   06 Jun 2027 05:54:01.692   06 Jun 2027 05:54:59.200            57.508                Novosib          1797.125
       440   06 Jun 2027 05:57:14.926   06 Jun 2027 05:57:48.516            33.590              Murmansk2          1049.688
       441   06 Jun 2027 05:58:00.806   06 Jun 2027 05:58:10.446             9.640                Novosib           301.250
       442   06 Jun 2027 05:58:13.857   06 Jun 2027 05:58:43.109            29.252              Murmansk1           914.125
       443   06 Jun 2027 05:58:46.265   06 Jun 2027 05:59:34.696            48.431              Murmansk1          1513.469
       444   06 Jun 2027 05:59:57.664   06 Jun 2027 06:00:17.761            20.097              Murmansk1           628.031
       445   06 Jun 2027 06:00:43.127   06 Jun 2027 06:01:11.095            27.968              Murmansk2           874.000
       446   06 Jun 2027 06:01:11.095   06 Jun 2027 06:01:14.531             3.436              Murmansk1           107.375
       447   06 Jun 2027 06:01:26.751   06 Jun 2027 06:01:33.654             6.903                 Moscow           215.719
       448   06 Jun 2027 06:01:35.380   06 Jun 2027 06:02:09.928            34.548                 Moscow          1079.625
       449   06 Jun 2027 06:02:16.437   06 Jun 2027 06:02:36.625            20.188              Murmansk1           630.875
       450   06 Jun 2027 06:03:10.552   06 Jun 2027 06:04:00.351            49.799                 Moscow          1556.219
       451   06 Jun 2027 06:05:03.250   06 Jun 2027 06:05:15.859            12.609                 Moscow           394.031
       452   06 Jun 2027 06:06:07.514   06 Jun 2027 06:06:17.993            10.479                 Moscow           327.469
       453   06 Jun 2027 06:18:00.336   06 Jun 2027 06:20:02.404           122.068               CapeTown          3814.625
       454   06 Jun 2027 07:21:21.329   06 Jun 2027 07:21:37.332            16.003               Magadan1           500.094
       455   06 Jun 2027 07:21:44.707   06 Jun 2027 07:23:19.900            95.193                Anadyr1          2974.781
       456   06 Jun 2027 07:33:01.535   06 Jun 2027 07:33:19.449            17.914              Murmansk2           559.812
       457   06 Jun 2027 07:33:42.502   06 Jun 2027 07:34:49.399            66.897                 Moscow          2090.531
       458   06 Jun 2027 07:36:06.155   06 Jun 2027 07:37:05.317            59.162                 Moscow          1848.812
       459   06 Jun 2027 07:54:29.763   06 Jun 2027 07:56:06.613            96.850               CapeTown          3026.562
       460   06 Jun 2027 07:59:25.180   06 Jun 2027 08:00:16.192            51.012               CapeTown          1594.125
       461   06 Jun 2027 08:55:27.172   06 Jun 2027 08:56:14.266            47.094               Magadan1          1471.687
       462   06 Jun 2027 08:57:10.109   06 Jun 2027 08:57:43.485            33.376               Magadan2          1043.000
       463   06 Jun 2027 08:58:28.192   06 Jun 2027 08:58:39.750            11.558                Norilsk           361.188
       464   06 Jun 2027 08:58:40.168   06 Jun 2027 09:00:37.894           117.726                Anadyr2          3678.938
       465   06 Jun 2027 09:14:29.803   06 Jun 2027 09:14:41.073            11.270                 Moscow           352.188
       466   06 Jun 2027 10:29:08.422   06 Jun 2027 10:30:39.897            91.475               Magadan2          2858.594
       467   06 Jun 2027 10:31:00.942   06 Jun 2027 10:38:30.953           450.011                Anadyr1         14062.844
       468   06 Jun 2027 12:05:29.279   06 Jun 2027 12:12:03.444           394.165               Magadan2         12317.656
       469   06 Jun 2027 12:12:44.577   06 Jun 2027 12:13:41.053            56.476               Magadan1          1764.875
       470   06 Jun 2027 14:28:12.078   06 Jun 2027 14:35:31.361           439.283            RioGallegos         13727.594
       471   06 Jun 2027 15:02:49.926   06 Jun 2027 15:09:07.085           377.159                Sumatra         11786.219
       472   06 Jun 2027 15:18:43.885   06 Jun 2027 15:23:52.408           308.523                Irkutsk          9641.344
       473   06 Jun 2027 16:49:14.766   06 Jun 2027 16:52:32.450           197.684                  Delhi          6177.625
       474   06 Jun 2027 16:57:19.522   06 Jun 2027 17:00:58.073           218.551                Novosib          6829.719
       475   06 Jun 2027 17:04:56.723   06 Jun 2027 17:04:56.793             0.070                Norilsk             2.187
       476   06 Jun 2027 20:12:10.664   06 Jun 2027 20:12:47.679            37.015              Murmansk1          1156.719
       477   06 Jun 2027 20:13:25.708   06 Jun 2027 20:14:34.181            68.473              Murmansk2          2139.781
       478   06 Jun 2027 20:15:02.742   06 Jun 2027 20:18:01.214           178.472              Murmansk2          5577.250
       479   06 Jun 2027 20:18:31.887   06 Jun 2027 20:19:27.481            55.594              Murmansk2          1737.312
       480   06 Jun 2027 21:20:19.731   06 Jun 2027 21:26:23.646           363.915               CapeTown         11372.344
       481   06 Jun 2027 23:34:32.390   06 Jun 2027 23:37:01.105           148.715                Anadyr2          4647.344
       482   06 Jun 2027 23:37:01.260   06 Jun 2027 23:38:24.393            83.133                Norilsk          2597.906
