uniorb/output/strategy_2/Drop/Drop_KinoSat_111210.txt

KinoSat_111210
-------------------------
    Access    *     Start Time (UTCG)     *     Stop Time (UTCG)  *   Duration (s)        *       Station  *  Data (Mbytes)
         1   01 Jun 2027 04:09:25.399   01 Jun 2027 04:12:31.983           186.584                Anadyr1          5830.750
         2   01 Jun 2027 04:25:11.408   01 Jun 2027 04:25:12.974             1.566              Murmansk2            48.937
         3   01 Jun 2027 04:25:26.086   01 Jun 2027 04:25:41.597            15.511              Murmansk2           484.719
         4   01 Jun 2027 05:44:51.892   01 Jun 2027 05:47:27.202           155.310                Anadyr2          4853.437
         5   01 Jun 2027 05:47:27.202   01 Jun 2027 05:49:34.299           127.097                Anadyr1          3971.781
         6   01 Jun 2027 07:20:28.016   01 Jun 2027 07:24:42.116           254.100               Magadan2          7940.625
         7   01 Jun 2027 07:25:14.175   01 Jun 2027 07:25:30.101            15.926                Anadyr2           497.687
         8   01 Jun 2027 07:25:31.864   01 Jun 2027 07:25:49.740            17.876               Magadan2           558.625
         9   01 Jun 2027 07:27:22.802   01 Jun 2027 07:27:25.970             3.168                Norilsk            99.000
        10   01 Jun 2027 07:32:33.763   01 Jun 2027 07:32:46.441            12.678              Murmansk2           396.188
        11   01 Jun 2027 08:01:16.263   01 Jun 2027 08:02:22.104            65.841            RioGallegos          2057.531
        12   01 Jun 2027 08:56:20.886   01 Jun 2027 08:59:09.069           168.183               Magadan2          5255.719
        13   01 Jun 2027 08:59:27.660   01 Jun 2027 08:59:51.265            23.605                Irkutsk           737.656
        14   01 Jun 2027 08:59:58.120   01 Jun 2027 09:00:24.227            26.107               Magadan2           815.844
        15   01 Jun 2027 09:00:24.227   01 Jun 2027 09:00:34.298            10.071               Magadan1           314.719
        16   01 Jun 2027 09:00:44.165   01 Jun 2027 09:01:02.590            18.425                Irkutsk           575.781
        17   01 Jun 2027 09:01:18.913   01 Jun 2027 09:01:46.496            27.583                Novosib           861.969
        18   01 Jun 2027 09:04:49.293   01 Jun 2027 09:05:10.130            20.837                Norilsk           651.156
        19   01 Jun 2027 09:06:01.202   01 Jun 2027 09:06:02.167             0.965                Norilsk            30.156
        20   01 Jun 2027 09:41:09.342   01 Jun 2027 09:41:18.651             9.309            RioGallegos           290.906
        21   01 Jun 2027 09:43:31.732   01 Jun 2027 09:44:29.749            58.017            RioGallegos          1813.031
        22   01 Jun 2027 10:11:14.777   01 Jun 2027 10:11:51.880            37.103                Sumatra          1159.469
        23   01 Jun 2027 10:14:13.888   01 Jun 2027 10:15:11.991            58.103                Sumatra          1815.719
        24   01 Jun 2027 10:33:39.505   01 Jun 2027 10:34:00.918            21.413              Murmansk2           669.156
        25   01 Jun 2027 10:34:07.430   01 Jun 2027 10:35:55.046           107.616                Novosib          3363.000
        26   01 Jun 2027 10:35:56.315   01 Jun 2027 10:37:24.624            88.309                Irkutsk          2759.656
        27   01 Jun 2027 10:37:30.385   01 Jun 2027 10:38:22.698            52.313                 Moscow          1634.781
        28   01 Jun 2027 10:38:48.481   01 Jun 2027 10:39:17.922            29.441                Norilsk           920.031
        29   01 Jun 2027 10:39:51.821   01 Jun 2027 10:40:33.835            42.014              Murmansk1          1312.938
        30   01 Jun 2027 10:40:33.835   01 Jun 2027 10:41:01.188            27.353              Murmansk2           854.781
        31   01 Jun 2027 10:41:53.528   01 Jun 2027 10:42:41.609            48.081              Murmansk1          1502.531
        32   01 Jun 2027 11:15:59.927   01 Jun 2027 11:17:11.576            71.649            RioGallegos          2239.031
        33   01 Jun 2027 11:18:29.047   01 Jun 2027 11:19:38.302            69.255            RioGallegos          2164.219
        34   01 Jun 2027 11:51:12.297   01 Jun 2027 11:54:17.488           185.191                Sumatra          5787.219
        35   01 Jun 2027 12:07:15.820   01 Jun 2027 12:07:57.770            41.950                Irkutsk          1310.938
        36   01 Jun 2027 12:12:51.754   01 Jun 2027 12:13:05.953            14.199                Norilsk           443.719
        37   01 Jun 2027 12:14:48.865   01 Jun 2027 12:15:06.106            17.241                Norilsk           538.781
        38   01 Jun 2027 12:16:56.527   01 Jun 2027 12:17:33.001            36.474                Norilsk          1139.813
        39   01 Jun 2027 13:45:27.429   01 Jun 2027 13:45:48.988            21.559                 Moscow           673.719
        40   01 Jun 2027 13:46:17.587   01 Jun 2027 13:46:54.627            37.040                 Moscow          1157.500
        41   01 Jun 2027 13:46:59.524   01 Jun 2027 13:48:19.236            79.712                Norilsk          2491.000
        42   01 Jun 2027 13:48:22.305   01 Jun 2027 13:48:48.403            26.098                Norilsk           815.563
        43   01 Jun 2027 13:50:13.883   01 Jun 2027 13:50:46.198            32.315              Murmansk2          1009.844
        44   01 Jun 2027 13:50:46.198   01 Jun 2027 13:50:58.313            12.115              Murmansk1           378.594
        45   01 Jun 2027 13:51:06.109   01 Jun 2027 13:52:51.506           105.397                Norilsk          3293.656
        46   01 Jun 2027 14:58:41.886   01 Jun 2027 14:59:44.112            62.226               CapeTown          1944.563
        47   01 Jun 2027 15:00:27.979   01 Jun 2027 15:01:09.421            41.442               CapeTown          1295.063
        48   01 Jun 2027 15:02:23.622   01 Jun 2027 15:03:57.016            93.394               CapeTown          2918.563
        49   01 Jun 2027 15:25:23.387   01 Jun 2027 15:25:46.272            22.885                 Moscow           715.156
        50   01 Jun 2027 15:28:22.896   01 Jun 2027 15:29:10.052            47.156              Murmansk1          1473.625
        51   01 Jun 2027 15:30:17.779   01 Jun 2027 15:30:26.888             9.109              Murmansk2           284.656
        52   01 Jun 2027 15:30:35.823   01 Jun 2027 15:30:44.719             8.896              Murmansk2           278.000
        53   01 Jun 2027 15:36:07.918   01 Jun 2027 15:37:01.591            53.673                Anadyr2          1677.281
        54   01 Jun 2027 15:38:22.498   01 Jun 2027 15:38:33.010            10.512                Anadyr1           328.500
        55   01 Jun 2027 15:38:37.185   01 Jun 2027 15:39:02.933            25.748                Anadyr1           804.625
        56   01 Jun 2027 15:40:10.415   01 Jun 2027 15:40:28.657            18.242                Anadyr2           570.063
        57   01 Jun 2027 15:41:02.124   01 Jun 2027 15:42:20.674            78.550                Anadyr1          2454.688
        58   01 Jun 2027 16:40:15.827   01 Jun 2027 16:40:59.572            43.745               CapeTown          1367.031
        59   01 Jun 2027 17:02:00.412   01 Jun 2027 17:02:40.390            39.978              Murmansk1          1249.312
        60   01 Jun 2027 17:02:40.390   01 Jun 2027 17:03:05.853            25.463              Murmansk2           795.719
        61   01 Jun 2027 17:04:15.238   01 Jun 2027 17:04:40.420            25.182              Murmansk2           786.938
        62   01 Jun 2027 17:04:40.420   01 Jun 2027 17:05:23.589            43.169              Murmansk1          1349.031
        63   01 Jun 2027 17:07:07.729   01 Jun 2027 17:07:55.249            47.520              Murmansk2          1485.000
        64   01 Jun 2027 17:16:32.781   01 Jun 2027 17:16:40.630             7.849               Magadan2           245.281
        65   01 Jun 2027 17:17:10.462   01 Jun 2027 17:17:25.260            14.798                Anadyr2           462.438
        66   01 Jun 2027 17:18:13.811   01 Jun 2027 17:18:17.156             3.345                Anadyr1           104.531
        67   01 Jun 2027 17:18:19.801   01 Jun 2027 17:18:36.679            16.878                Anadyr2           527.437
        68   01 Jun 2027 17:18:56.283   01 Jun 2027 17:19:12.420            16.137               Magadan1           504.281
        69   01 Jun 2027 17:19:28.477   01 Jun 2027 17:20:15.761            47.284                Anadyr1          1477.625
        70   01 Jun 2027 18:47:07.463   01 Jun 2027 18:47:50.145            42.682                Anadyr2          1333.812
        71   01 Jun 2027 18:48:06.948   01 Jun 2027 18:48:33.755            26.807                Anadyr2           837.719
        72   01 Jun 2027 18:48:48.328   01 Jun 2027 18:48:56.858             8.530               Magadan2           266.562
        73   01 Jun 2027 18:49:04.972   01 Jun 2027 18:49:57.677            52.705                Anadyr2          1647.031
        74   01 Jun 2027 18:51:07.106   01 Jun 2027 18:51:49.053            41.947                Anadyr1          1310.844
        75   01 Jun 2027 18:52:46.322   01 Jun 2027 18:53:18.608            32.286               Magadan1          1008.938
        76   01 Jun 2027 18:54:00.492   01 Jun 2027 18:54:14.054            13.562                Anadyr2           423.812
        77   01 Jun 2027 18:54:19.101   01 Jun 2027 18:54:31.067            11.966               Magadan2           373.937
        78   01 Jun 2027 18:54:56.482   01 Jun 2027 18:55:48.858            52.376                Anadyr2          1636.750
        79   01 Jun 2027 18:56:04.900   01 Jun 2027 18:56:34.947            30.047               Magadan2           938.969
        80   01 Jun 2027 18:57:18.768   01 Jun 2027 18:57:24.820             6.052               Magadan2           189.125
        81   01 Jun 2027 18:57:47.588   01 Jun 2027 18:58:33.417            45.829               Magadan2          1432.156
        82   01 Jun 2027 19:00:10.942   01 Jun 2027 19:00:26.059            15.117               Magadan1           472.406
        83   01 Jun 2027 20:21:39.996   01 Jun 2027 20:22:19.697            39.701                Anadyr1          1240.656
        84   01 Jun 2027 20:22:32.722   01 Jun 2027 20:23:10.201            37.479                Anadyr2          1171.219
        85   01 Jun 2027 20:23:10.201   01 Jun 2027 20:23:25.408            15.207                Anadyr1           475.219
        86   01 Jun 2027 20:23:57.450   01 Jun 2027 20:24:29.843            32.393                Norilsk          1012.281
        87   01 Jun 2027 20:25:02.984   01 Jun 2027 20:25:15.305            12.321               Magadan1           385.031
        88   01 Jun 2027 20:25:25.482   01 Jun 2027 20:25:52.658            27.176                Anadyr1           849.250
        89   01 Jun 2027 20:26:13.556   01 Jun 2027 20:26:32.582            19.026               Magadan1           594.563
        90   01 Jun 2027 20:26:35.168   01 Jun 2027 20:26:35.656             0.488                Anadyr2            15.250
        91   01 Jun 2027 20:26:47.286   01 Jun 2027 20:27:53.299            66.013                Norilsk          2062.906
        92   01 Jun 2027 20:28:09.268   01 Jun 2027 20:28:46.245            36.977                Norilsk          1155.531
        93   01 Jun 2027 20:29:52.931   01 Jun 2027 20:31:36.376           103.445                Irkutsk          3232.656
        94   01 Jun 2027 20:34:41.444   01 Jun 2027 20:35:35.856            54.412                Irkutsk          1700.375
        95   01 Jun 2027 20:46:17.174   01 Jun 2027 20:46:31.805            14.631                Sumatra           457.219
        96   01 Jun 2027 20:46:54.963   01 Jun 2027 20:49:32.407           157.444                Sumatra          4920.125
        97   01 Jun 2027 22:02:12.316   01 Jun 2027 22:02:50.115            37.799                Anadyr2          1181.219
        98   01 Jun 2027 22:03:43.182   01 Jun 2027 22:03:48.648             5.466                Anadyr2           170.813
        99   01 Jun 2027 22:03:58.529   01 Jun 2027 22:03:58.743             0.214                Norilsk             6.688
       100   01 Jun 2027 22:03:59.158   01 Jun 2027 22:04:10.970            11.812               Magadan2           369.125
       101   01 Jun 2027 22:04:32.916   01 Jun 2027 22:05:12.053            39.137               Magadan2          1223.031
       102   01 Jun 2027 22:06:48.672   01 Jun 2027 22:07:49.545            60.873                Norilsk          1902.281
       103   01 Jun 2027 22:09:59.832   01 Jun 2027 22:10:19.140            19.308               Magadan1           603.375
       104   01 Jun 2027 22:11:09.768   01 Jun 2027 22:11:24.066            14.298                Novosib           446.813
       105   01 Jun 2027 22:11:47.008   01 Jun 2027 22:12:52.893            65.885                Novosib          2058.906
       106   01 Jun 2027 22:26:00.130   01 Jun 2027 22:26:03.966             3.836                Sumatra           119.875
       107   01 Jun 2027 22:26:13.466   01 Jun 2027 22:26:30.158            16.692                Sumatra           521.625
       108   01 Jun 2027 22:26:50.228   01 Jun 2027 22:28:16.527            86.299                Sumatra          2696.844
       109   01 Jun 2027 23:03:54.663   01 Jun 2027 23:04:03.764             9.101            RioGallegos           284.406
       110   01 Jun 2027 23:31:57.262   01 Jun 2027 23:33:16.463            79.201                Anadyr1          2475.031
       111   01 Jun 2027 23:34:09.543   01 Jun 2027 23:34:29.693            20.150                Anadyr2           629.688
       112   01 Jun 2027 23:35:31.316   01 Jun 2027 23:35:50.577            19.261                Norilsk           601.906
       113   01 Jun 2027 23:36:08.512   01 Jun 2027 23:36:40.170            31.658               Magadan1           989.312
       114   01 Jun 2027 23:37:32.510   01 Jun 2027 23:37:33.732             1.222               Magadan1            38.187
       115   01 Jun 2027 23:37:36.372   01 Jun 2027 23:37:40.298             3.926               Magadan2           122.687
       116   01 Jun 2027 23:37:48.928   01 Jun 2027 23:37:58.833             9.905               Magadan2           309.531
       117   01 Jun 2027 23:38:21.600   01 Jun 2027 23:38:59.589            37.989               Magadan2          1187.156
       118   01 Jun 2027 23:39:18.223   01 Jun 2027 23:40:16.172            57.949              Murmansk1          1810.906
       119   01 Jun 2027 23:40:39.477   01 Jun 2027 23:40:42.719             3.242              Murmansk2           101.312
       120   01 Jun 2027 23:44:36.451   01 Jun 2027 23:45:01.184            24.733                Novosib           772.906
       121   01 Jun 2027 23:45:45.233   01 Jun 2027 23:46:27.925            42.692                Novosib          1334.125
       122   01 Jun 2027 23:48:26.395   01 Jun 2027 23:48:57.039            30.644                Novosib           957.625
       123   01 Jun 2027 23:51:00.807   01 Jun 2027 23:51:07.037             6.230                Novosib           194.687
       124   01 Jun 2027 23:53:19.449   01 Jun 2027 23:53:42.663            23.214                  Delhi           725.438
       125   01 Jun 2027 23:54:35.105   01 Jun 2027 23:56:19.967           104.862                  Delhi          3276.938
       126   02 Jun 2027 00:36:45.533   02 Jun 2027 00:36:54.869             9.336            RioGallegos           291.750
       127   02 Jun 2027 01:04:53.171   02 Jun 2027 01:05:46.363            53.192                Anadyr2          1662.250
       128   02 Jun 2027 01:06:44.263   02 Jun 2027 01:07:08.795            24.532                Anadyr2           766.625
       129   02 Jun 2027 01:07:29.788   02 Jun 2027 01:07:39.654             9.866                Anadyr1           308.312
       130   02 Jun 2027 01:07:39.654   02 Jun 2027 01:07:49.168             9.514                Anadyr2           297.312
       131   02 Jun 2027 01:08:58.371   02 Jun 2027 01:09:23.536            25.165                Anadyr2           786.406
       132   02 Jun 2027 01:10:03.998   02 Jun 2027 01:10:39.542            35.544                Anadyr1          1110.750
       133   02 Jun 2027 01:11:04.014   02 Jun 2027 01:12:13.231            69.217               Magadan1          2163.031
       134   02 Jun 2027 01:13:26.882   02 Jun 2027 01:13:31.634             4.752                Norilsk           148.500
       135   02 Jun 2027 01:13:39.606   02 Jun 2027 01:14:04.052            24.446               Magadan1           763.937
       136   02 Jun 2027 01:14:16.999   02 Jun 2027 01:15:44.388            87.389              Murmansk1          2730.906
       137   02 Jun 2027 01:21:26.426   02 Jun 2027 01:22:10.654            44.228              Murmansk2          1382.125
       138   02 Jun 2027 01:23:41.222   02 Jun 2027 01:23:43.982             2.760              Murmansk2            86.250
       139   02 Jun 2027 01:24:51.719   02 Jun 2027 01:26:27.243            95.524                 Moscow          2985.125
       140   02 Jun 2027 01:50:15.695   02 Jun 2027 01:50:34.199            18.504               CapeTown           578.250
       141   02 Jun 2027 02:38:29.670   02 Jun 2027 02:40:41.149           131.479                Anadyr1          4108.719
       142   02 Jun 2027 02:40:54.514   02 Jun 2027 02:41:04.691            10.177                Anadyr2           318.031
       143   02 Jun 2027 02:42:56.256   02 Jun 2027 02:43:34.554            38.298               Magadan2          1196.812
       144   02 Jun 2027 02:44:08.598   02 Jun 2027 02:44:14.341             5.743               Magadan2           179.469
       145   02 Jun 2027 02:44:25.241   02 Jun 2027 02:44:39.970            14.729               Magadan2           460.281
       146   02 Jun 2027 02:45:20.819   02 Jun 2027 02:45:27.605             6.786               Magadan2           212.062
       147   02 Jun 2027 02:46:27.445   02 Jun 2027 02:46:41.188            13.743               Magadan2           429.469
       148   02 Jun 2027 02:47:11.072   02 Jun 2027 02:47:48.182            37.110                Norilsk          1159.688
       149   02 Jun 2027 02:49:23.418   02 Jun 2027 02:49:38.109            14.691                Norilsk           459.094
       150   02 Jun 2027 02:49:56.141   02 Jun 2027 02:51:05.386            69.245              Murmansk1          2163.906
       151   02 Jun 2027 02:54:43.865   02 Jun 2027 02:55:07.805            23.940                Novosib           748.125
       152   02 Jun 2027 02:57:42.063   02 Jun 2027 02:57:50.881             8.818                 Moscow           275.562
       153   02 Jun 2027 02:58:55.622   02 Jun 2027 02:59:09.138            13.516              Murmansk2           422.375
       154   02 Jun 2027 02:59:13.728   02 Jun 2027 02:59:27.962            14.234                Novosib           444.812
       155   02 Jun 2027 03:00:37.789   02 Jun 2027 03:01:10.606            32.817                 Moscow          1025.531
       156   02 Jun 2027 03:01:11.758   02 Jun 2027 03:01:39.095            27.337              Murmansk2           854.281
       157   02 Jun 2027 03:02:01.732   02 Jun 2027 03:02:07.023             5.291              Murmansk1           165.344
       158   02 Jun 2027 03:02:19.281   02 Jun 2027 03:02:27.725             8.444                 Moscow           263.875
       159   02 Jun 2027 03:16:50.801   02 Jun 2027 03:20:36.688           225.887               CapeTown          7058.969
       160   02 Jun 2027 04:20:58.660   02 Jun 2027 04:21:17.702            19.042                Anadyr1           595.063
       161   02 Jun 2027 04:21:17.702   02 Jun 2027 04:24:32.864           195.162                Anadyr2          6098.813
       162   02 Jun 2027 05:55:49.176   02 Jun 2027 05:56:53.644            64.468                Anadyr1          2014.625
       163   02 Jun 2027 05:56:53.644   02 Jun 2027 05:57:36.309            42.665                Anadyr2          1333.281
       164   02 Jun 2027 05:58:08.955   02 Jun 2027 06:00:04.295           115.340               Magadan2          3604.375
       165   02 Jun 2027 06:00:04.295   02 Jun 2027 06:01:35.850            91.555               Magadan1          2861.094
       166   02 Jun 2027 06:01:47.930   02 Jun 2027 06:02:14.906            26.976                Anadyr2           843.000
       167   02 Jun 2027 07:30:48.365   02 Jun 2027 07:32:45.917           117.552                Anadyr2          3673.500
       168   02 Jun 2027 07:32:56.095   02 Jun 2027 07:35:02.514           126.419               Magadan2          3950.594
       169   02 Jun 2027 07:35:08.176   02 Jun 2027 07:36:25.155            76.979                Anadyr1          2405.594
       170   02 Jun 2027 07:36:48.928   02 Jun 2027 07:37:47.973            59.045               Magadan1          1845.156
       171   02 Jun 2027 09:08:19.884   02 Jun 2027 09:11:20.815           180.931               Magadan2          5654.094
       172   02 Jun 2027 09:11:41.609   02 Jun 2027 09:11:57.966            16.357              Murmansk1           511.156
       173   02 Jun 2027 09:11:57.966   02 Jun 2027 09:12:05.032             7.066              Murmansk2           220.813
       174   02 Jun 2027 09:12:17.256   02 Jun 2027 09:12:23.190             5.934                Norilsk           185.438
       175   02 Jun 2027 09:12:29.845   02 Jun 2027 09:12:56.223            26.378                Norilsk           824.313
       176   02 Jun 2027 09:13:02.413   02 Jun 2027 09:13:18.143            15.730                Irkutsk           491.562
       177   02 Jun 2027 09:13:20.635   02 Jun 2027 09:13:20.890             0.255                Irkutsk             7.969
       178   02 Jun 2027 09:13:32.894   02 Jun 2027 09:15:47.630           134.736              Murmansk1          4210.500
       179   02 Jun 2027 09:48:37.816   02 Jun 2027 09:49:52.088            74.272            RioGallegos          2321.000
       180   02 Jun 2027 10:23:14.730   02 Jun 2027 10:25:08.566           113.836                Sumatra          3557.375
       181   02 Jun 2027 10:43:23.034   02 Jun 2027 10:43:33.900            10.866                  Delhi           339.562
       182   02 Jun 2027 10:43:42.429   02 Jun 2027 10:43:45.733             3.304                Norilsk           103.250
       183   02 Jun 2027 10:44:01.971   02 Jun 2027 10:44:11.290             9.319                Irkutsk           291.219
       184   02 Jun 2027 10:44:16.981   02 Jun 2027 10:45:25.384            68.403                Novosib          2137.594
       185   02 Jun 2027 10:45:27.049   02 Jun 2027 10:45:45.647            18.598                Irkutsk           581.187
       186   02 Jun 2027 10:45:48.698   02 Jun 2027 10:46:11.342            22.644              Murmansk1           707.625
       187   02 Jun 2027 10:46:16.421   02 Jun 2027 10:46:18.144             1.723                 Moscow            53.844
       188   02 Jun 2027 10:46:19.017   02 Jun 2027 10:46:57.684            38.667              Murmansk2          1208.344
       189   02 Jun 2027 10:47:01.254   02 Jun 2027 10:47:12.554            11.300                Novosib           353.125
       190   02 Jun 2027 10:47:13.908   02 Jun 2027 10:48:26.584            72.676              Murmansk2          2271.125
       191   02 Jun 2027 10:48:31.861   02 Jun 2027 10:48:37.652             5.791              Murmansk2           180.969
       192   02 Jun 2027 10:48:54.974   02 Jun 2027 10:49:11.265            16.291                Norilsk           509.094
       193   02 Jun 2027 10:49:16.515   02 Jun 2027 10:50:22.246            65.731                Novosib          2054.094
       194   02 Jun 2027 11:29:11.133   02 Jun 2027 11:29:48.685            37.552            RioGallegos          1173.500
       195   02 Jun 2027 11:31:36.800   02 Jun 2027 11:32:12.107            35.307            RioGallegos          1103.344
       196   02 Jun 2027 12:07:37.031   02 Jun 2027 12:07:43.466             6.435                  Delhi           201.094
       197   02 Jun 2027 12:09:39.773   02 Jun 2027 12:10:31.187            51.414                  Delhi          1606.688
       198   02 Jun 2027 12:15:30.527   02 Jun 2027 12:16:15.398            44.871                Novosib          1402.219
       199   02 Jun 2027 12:16:49.346   02 Jun 2027 12:17:13.537            24.191                Novosib           755.969
       200   02 Jun 2027 12:17:49.939   02 Jun 2027 12:19:32.988           103.049                Novosib          3220.281
       201   02 Jun 2027 12:19:49.379   02 Jun 2027 12:20:14.732            25.353              Murmansk2           792.281
       202   02 Jun 2027 12:25:46.105   02 Jun 2027 12:26:01.298            15.193                Norilsk           474.781
       203   02 Jun 2027 12:28:43.594   02 Jun 2027 12:28:54.340            10.746                Norilsk           335.813
       204   02 Jun 2027 12:31:42.174   02 Jun 2027 12:31:59.249            17.075              Murmansk1           533.594
       205   02 Jun 2027 13:51:50.448   02 Jun 2027 13:55:47.814           237.366                 Moscow          7417.688
       206   02 Jun 2027 13:55:56.462   02 Jun 2027 13:58:13.522           137.060              Murmansk1          4283.125
       207   02 Jun 2027 13:58:13.522   02 Jun 2027 13:58:24.398            10.876              Murmansk2           339.875
       208   02 Jun 2027 13:59:34.899   02 Jun 2027 14:00:11.804            36.905                Norilsk          1153.281
       209   02 Jun 2027 14:02:40.066   02 Jun 2027 14:03:08.501            28.435                Norilsk           888.594
       210   02 Jun 2027 15:06:18.070   02 Jun 2027 15:09:20.573           182.503               CapeTown          5703.219
       211   02 Jun 2027 15:32:27.729   02 Jun 2027 15:33:39.091            71.362              Murmansk1          2230.063
       212   02 Jun 2027 15:36:38.463   02 Jun 2027 15:36:54.169            15.706              Murmansk2           490.813
       213   02 Jun 2027 15:46:19.283   02 Jun 2027 15:48:55.806           156.523                Anadyr2          4891.344
       214   02 Jun 2027 15:54:56.371   02 Jun 2027 15:55:21.210            24.839                Anadyr1           776.219
       215   02 Jun 2027 15:55:55.804   02 Jun 2027 15:56:03.368             7.564                Anadyr2           236.375
       216   02 Jun 2027 16:41:22.557   02 Jun 2027 16:42:04.980            42.423               CapeTown          1325.719
       217   02 Jun 2027 17:11:55.937   02 Jun 2027 17:14:42.145           166.208              Murmansk2          5194.000
       218   02 Jun 2027 17:21:54.209   02 Jun 2027 17:22:54.635            60.426                Anadyr1          1888.312
       219   02 Jun 2027 17:23:03.964   02 Jun 2027 17:24:07.824            63.860                Anadyr2          1995.625
       220   02 Jun 2027 17:25:12.699   02 Jun 2027 17:26:25.663            72.964               Magadan2          2280.125
       221   02 Jun 2027 17:26:58.725   02 Jun 2027 17:27:52.187            53.462               Magadan1          1670.688
       222   02 Jun 2027 18:57:49.322   02 Jun 2027 18:59:53.982           124.660                Anadyr1          3895.625
       223   02 Jun 2027 19:00:09.785   02 Jun 2027 19:03:39.591           209.806               Magadan1          6556.438
       224   02 Jun 2027 19:04:21.210   02 Jun 2027 19:04:48.214            27.004               Magadan1           843.875
       225   02 Jun 2027 19:07:36.015   02 Jun 2027 19:08:15.585            39.570               Magadan1          1236.563
       226   02 Jun 2027 19:54:57.107   02 Jun 2027 19:56:50.706           113.599            RioGallegos          3549.969
       227   02 Jun 2027 20:33:39.806   02 Jun 2027 20:34:08.175            28.369                Anadyr1           886.531
       228   02 Jun 2027 20:34:53.507   02 Jun 2027 20:35:47.151            53.644                Anadyr2          1676.375
       229   02 Jun 2027 20:35:52.085   02 Jun 2027 20:39:02.730           190.645                Norilsk          5957.656
       230   02 Jun 2027 20:40:14.419   02 Jun 2027 20:41:22.570            68.151               Magadan1          2129.719
       231   02 Jun 2027 20:41:35.178   02 Jun 2027 20:43:35.827           120.649                Irkutsk          3770.281
       232   02 Jun 2027 20:56:30.658   02 Jun 2027 20:58:18.840           108.182                Sumatra          3380.687
       233   02 Jun 2027 21:02:21.164   02 Jun 2027 21:03:39.212            78.048                Sumatra          2439.000
       234   02 Jun 2027 22:11:33.443   02 Jun 2027 22:13:12.417            98.974                Norilsk          3092.938
       235   02 Jun 2027 22:15:30.334   02 Jun 2027 22:16:50.739            80.405                Irkutsk          2512.656
       236   02 Jun 2027 22:17:26.800   02 Jun 2027 22:17:37.665            10.865                Novosib           339.531
       237   02 Jun 2027 22:19:28.878   02 Jun 2027 22:19:59.990            31.112                Novosib           972.250
       238   02 Jun 2027 22:28:06.755   02 Jun 2027 22:29:31.494            84.739                  Delhi          2648.094
       239   02 Jun 2027 23:43:15.558   02 Jun 2027 23:45:17.373           121.815                Anadyr1          3806.719
       240   02 Jun 2027 23:47:33.361   02 Jun 2027 23:48:17.499            44.138                Norilsk          1379.312
       241   02 Jun 2027 23:49:05.966   02 Jun 2027 23:49:33.340            27.374                Norilsk           855.438
       242   02 Jun 2027 23:49:50.847   02 Jun 2027 23:50:00.815             9.968               Magadan1           311.500
       243   02 Jun 2027 23:50:45.240   02 Jun 2027 23:52:00.436            75.196              Murmansk1          2349.875
       244   02 Jun 2027 23:52:23.155   02 Jun 2027 23:53:26.216            63.061                Novosib          1970.656
       245   02 Jun 2027 23:54:02.461   02 Jun 2027 23:54:54.387            51.926              Murmansk2          1622.688
       246   02 Jun 2027 23:58:44.725   02 Jun 2027 23:59:39.582            54.857                  Delhi          1714.281
       247   03 Jun 2027 00:02:31.136   03 Jun 2027 00:04:19.180           108.044                  Delhi          3376.375
       248   03 Jun 2027 00:44:44.091   03 Jun 2027 00:45:04.992            20.901            RioGallegos           653.156
       249   03 Jun 2027 01:16:34.544   03 Jun 2027 01:16:56.792            22.248                Anadyr2           695.250
       250   03 Jun 2027 01:16:59.739   03 Jun 2027 01:17:16.180            16.441                Anadyr1           513.781
       251   03 Jun 2027 01:17:47.593   03 Jun 2027 01:18:40.417            52.824                Anadyr1          1650.750
       252   03 Jun 2027 01:18:44.509   03 Jun 2027 01:19:09.101            24.592                Anadyr1           768.500
       253   03 Jun 2027 01:22:27.660   03 Jun 2027 01:22:59.440            31.780                Anadyr1           993.125
       254   03 Jun 2027 01:23:19.545   03 Jun 2027 01:25:37.939           138.394               Magadan2          4324.813
       255   03 Jun 2027 01:25:45.156   03 Jun 2027 01:27:34.623           109.467              Murmansk1          3420.844
       256   03 Jun 2027 01:29:40.660   03 Jun 2027 01:29:47.209             6.549                 Moscow           204.656
       257   03 Jun 2027 01:30:42.167   03 Jun 2027 01:31:07.770            25.603                 Moscow           800.094
       258   03 Jun 2027 01:33:42.835   03 Jun 2027 01:33:57.360            14.525                 Moscow           453.906
       259   03 Jun 2027 01:37:37.666   03 Jun 2027 01:38:48.766            71.100                  Delhi          2221.875
       260   03 Jun 2027 01:58:52.159   03 Jun 2027 01:59:00.928             8.769               CapeTown           274.031
       261   03 Jun 2027 02:02:14.491   03 Jun 2027 02:03:33.390            78.899               CapeTown          2465.594
       262   03 Jun 2027 02:50:18.436   03 Jun 2027 02:51:42.308            83.872                Anadyr2          2621.000
       263   03 Jun 2027 02:52:51.511   03 Jun 2027 02:53:39.480            47.969                Anadyr1          1499.031
       264   03 Jun 2027 02:54:35.007   03 Jun 2027 02:55:42.847            67.840               Magadan1          2120.000
       265   03 Jun 2027 03:09:52.591   03 Jun 2027 03:10:44.032            51.441                 Moscow          1607.531
       266   03 Jun 2027 03:10:50.655   03 Jun 2027 03:11:05.185            14.530              Murmansk1           454.063
       267   03 Jun 2027 03:11:07.533   03 Jun 2027 03:11:15.225             7.692              Murmansk2           240.375
       268   03 Jun 2027 03:11:29.992   03 Jun 2027 03:11:40.863            10.871              Murmansk2           339.719
       269   03 Jun 2027 03:12:00.539   03 Jun 2027 03:12:40.738            40.199                 Moscow          1256.219
       270   03 Jun 2027 03:12:47.212   03 Jun 2027 03:13:54.115            66.903              Murmansk2          2090.719
       271   03 Jun 2027 03:13:54.115   03 Jun 2027 03:14:17.771            23.656              Murmansk1           739.250
       272   03 Jun 2027 03:28:46.700   03 Jun 2027 03:31:41.428           174.728               CapeTown          5460.250
       273   03 Jun 2027 04:25:30.138   03 Jun 2027 04:26:57.446            87.308                Anadyr1          2728.375
       274   03 Jun 2027 04:26:57.446   03 Jun 2027 04:27:07.822            10.376                Anadyr2           324.250
       275   03 Jun 2027 04:27:26.938   03 Jun 2027 04:27:30.600             3.662               Magadan2           114.437
       276   03 Jun 2027 04:32:10.348   03 Jun 2027 04:32:17.304             6.956               Magadan2           217.375
       277   03 Jun 2027 04:32:21.691   03 Jun 2027 04:34:26.839           125.148               Magadan2          3910.875
       278   03 Jun 2027 04:34:26.839   03 Jun 2027 04:35:15.001            48.162               Magadan1          1505.063
       279   03 Jun 2027 04:35:38.348   03 Jun 2027 04:35:55.517            17.169                Anadyr1           536.531
       280   03 Jun 2027 06:09:11.753   03 Jun 2027 06:10:14.798            63.045               Magadan2          1970.156
       281   03 Jun 2027 06:10:21.644   03 Jun 2027 06:11:37.903            76.259               Magadan1          2383.094
       282   03 Jun 2027 06:11:42.332   03 Jun 2027 06:11:53.486            11.154                Norilsk           348.562
       283   03 Jun 2027 06:13:36.229   03 Jun 2027 06:13:40.446             4.217                Anadyr2           131.781
       284   03 Jun 2027 06:19:34.035   03 Jun 2027 06:19:45.399            11.364                 Moscow           355.125
       285   03 Jun 2027 06:52:17.720   03 Jun 2027 06:53:47.229            89.509            RioGallegos          2797.156
       286   03 Jun 2027 07:42:25.055   03 Jun 2027 07:42:35.674            10.619               Magadan1           331.844
       287   03 Jun 2027 07:42:55.255   03 Jun 2027 07:43:26.567            31.312               Magadan2           978.500
       288   03 Jun 2027 07:43:31.173   03 Jun 2027 07:44:45.658            74.485                Anadyr2          2327.656
       289   03 Jun 2027 07:44:59.495   03 Jun 2027 07:46:06.350            66.855               Magadan2          2089.219
       290   03 Jun 2027 07:46:30.581   03 Jun 2027 07:46:42.711            12.130               Magadan1           379.062
       291   03 Jun 2027 07:46:52.290   03 Jun 2027 07:47:37.551            45.261                Anadyr2          1414.406
       292   03 Jun 2027 07:47:51.986   03 Jun 2027 07:48:45.783            53.797                Irkutsk          1681.156
       293   03 Jun 2027 07:48:48.900   03 Jun 2027 07:49:04.554            15.654              Murmansk1           489.188
       294   03 Jun 2027 07:50:36.927   03 Jun 2027 07:51:11.616            34.689              Murmansk1          1084.031
       295   03 Jun 2027 08:24:48.493   03 Jun 2027 08:25:52.696            64.203            RioGallegos          2006.344
       296   03 Jun 2027 08:30:44.733   03 Jun 2027 08:30:50.954             6.221            RioGallegos           194.406
       297   03 Jun 2027 09:01:57.104   03 Jun 2027 09:04:04.725           127.621                Sumatra          3988.156
       298   03 Jun 2027 09:19:07.278   03 Jun 2027 09:19:44.733            37.455                Novosib          1170.469
       299   03 Jun 2027 09:20:07.879   03 Jun 2027 09:20:31.358            23.479                Novosib           733.719
       300   03 Jun 2027 09:21:01.582   03 Jun 2027 09:22:53.879           112.297               Magadan2          3509.281
       301   03 Jun 2027 09:23:14.144   03 Jun 2027 09:23:17.111             2.967                Norilsk            92.719
       302   03 Jun 2027 09:23:26.734   03 Jun 2027 09:23:47.062            20.328                Norilsk           635.250
       303   03 Jun 2027 09:23:47.266   03 Jun 2027 09:23:50.360             3.094              Murmansk2            96.688
       304   03 Jun 2027 09:23:54.692   03 Jun 2027 09:24:53.210            58.518                Irkutsk          1828.688
       305   03 Jun 2027 09:25:04.932   03 Jun 2027 09:26:14.898            69.966              Murmansk2          2186.437
       306   03 Jun 2027 10:00:52.728   03 Jun 2027 10:01:42.587            49.859            RioGallegos          1558.094
       307   03 Jun 2027 10:35:20.346   03 Jun 2027 10:37:39.815           139.469                Sumatra          4358.406
       308   03 Jun 2027 10:55:51.439   03 Jun 2027 10:55:52.834             1.395                  Delhi            43.594
       309   03 Jun 2027 10:56:42.822   03 Jun 2027 10:57:42.479            59.657                Irkutsk          1864.281
       310   03 Jun 2027 10:57:46.321   03 Jun 2027 10:57:52.890             6.569                Norilsk           205.281
       311   03 Jun 2027 10:57:55.682   03 Jun 2027 10:59:05.923            70.241                Norilsk          2195.031
       312   03 Jun 2027 10:59:10.509   03 Jun 2027 10:59:34.692            24.183              Murmansk2           755.719
       313   03 Jun 2027 10:59:36.841   03 Jun 2027 11:00:24.914            48.073              Murmansk1          1502.281
       314   03 Jun 2027 11:00:25.708   03 Jun 2027 11:01:17.851            52.143                 Moscow          1629.469
       315   03 Jun 2027 11:01:24.337   03 Jun 2027 11:02:10.827            46.490                Novosib          1452.813
       316   03 Jun 2027 11:05:02.155   03 Jun 2027 11:05:06.578             4.423              Murmansk1           138.219
       317   03 Jun 2027 11:43:16.916   03 Jun 2027 11:44:41.610            84.694            RioGallegos          2646.687
       318   03 Jun 2027 12:19:52.650   03 Jun 2027 12:20:47.139            54.489                  Delhi          1702.781
       319   03 Jun 2027 12:27:58.372   03 Jun 2027 12:28:41.704            43.332                Novosib          1354.125
       320   03 Jun 2027 12:29:08.949   03 Jun 2027 12:29:18.148             9.199                 Moscow           287.469
       321   03 Jun 2027 12:29:32.574   03 Jun 2027 12:29:56.402            23.828                Novosib           744.625
       322   03 Jun 2027 12:31:31.968   03 Jun 2027 12:32:27.637            55.669                Novosib          1739.656
       323   03 Jun 2027 12:32:43.662   03 Jun 2027 12:33:23.142            39.480                Norilsk          1233.750
       324   03 Jun 2027 12:33:24.122   03 Jun 2027 12:34:22.865            58.743              Murmansk2          1835.719
       325   03 Jun 2027 12:42:09.385   03 Jun 2027 12:42:31.736            22.351                Norilsk           698.469
       326   03 Jun 2027 14:03:52.461   03 Jun 2027 14:07:36.283           223.822                 Moscow          6994.437
       327   03 Jun 2027 14:07:43.935   03 Jun 2027 14:10:40.082           176.147              Murmansk2          5504.594
       328   03 Jun 2027 14:13:10.251   03 Jun 2027 14:13:50.198            39.947                Norilsk          1248.344
       329   03 Jun 2027 14:14:14.680   03 Jun 2027 14:14:37.716            23.036                Norilsk           719.875
       330   03 Jun 2027 15:17:59.693   03 Jun 2027 15:19:36.425            96.732               CapeTown          3022.875
       331   03 Jun 2027 15:19:40.264   03 Jun 2027 15:21:21.273           101.009               CapeTown          3156.531
       332   03 Jun 2027 15:43:56.844   03 Jun 2027 15:43:57.741             0.897                 Moscow            28.031
       333   03 Jun 2027 15:44:47.178   03 Jun 2027 15:45:43.862            56.684              Murmansk1          1771.375
       334   03 Jun 2027 15:45:43.862   03 Jun 2027 15:45:50.675             6.813              Murmansk2           212.906
       335   03 Jun 2027 15:48:40.403   03 Jun 2027 15:48:55.242            14.839              Murmansk1           463.719
       336   03 Jun 2027 15:49:25.928   03 Jun 2027 15:49:32.021             6.093              Murmansk1           190.406
       337   03 Jun 2027 15:54:16.789   03 Jun 2027 15:54:30.913            14.124              Murmansk1           441.375
       338   03 Jun 2027 15:58:15.270   03 Jun 2027 15:58:47.837            32.567                Anadyr2          1017.719
       339   03 Jun 2027 15:58:56.997   03 Jun 2027 16:00:08.655            71.658                Anadyr2          2239.312
       340   03 Jun 2027 16:00:48.409   03 Jun 2027 16:00:50.336             1.927                Anadyr1            60.219
       341   03 Jun 2027 16:01:54.284   03 Jun 2027 16:02:08.661            14.377                Anadyr1           449.281
       342   03 Jun 2027 16:03:05.579   03 Jun 2027 16:03:29.452            23.873                Anadyr1           746.031
       343   03 Jun 2027 16:03:31.210   03 Jun 2027 16:04:12.603            41.393                Anadyr1          1293.531
       344   03 Jun 2027 16:54:24.665   03 Jun 2027 16:55:10.893            46.228               CapeTown          1444.625
       345   03 Jun 2027 17:24:37.964   03 Jun 2027 17:26:43.718           125.754              Murmansk2          3929.813
       346   03 Jun 2027 17:27:13.421   03 Jun 2027 17:28:12.660            59.239              Murmansk2          1851.219
       347   03 Jun 2027 17:33:55.154   03 Jun 2027 17:34:41.989            46.835                Anadyr1          1463.594
       348   03 Jun 2027 17:36:01.378   03 Jun 2027 17:36:03.427             2.049                Anadyr1            64.031
       349   03 Jun 2027 17:36:40.900   03 Jun 2027 17:36:59.219            18.319                Anadyr1           572.469
       350   03 Jun 2027 17:37:51.771   03 Jun 2027 17:37:54.466             2.695                Anadyr1            84.219
       351   03 Jun 2027 17:38:10.602   03 Jun 2027 17:38:13.079             2.477                Anadyr1            77.406
       352   03 Jun 2027 17:38:24.312   03 Jun 2027 17:39:23.744            59.432               Magadan2          1857.250
       353   03 Jun 2027 17:39:23.744   03 Jun 2027 17:40:19.367            55.623               Magadan1          1738.219
       354   03 Jun 2027 19:09:50.747   03 Jun 2027 19:11:53.276           122.529                Anadyr1          3829.031
       355   03 Jun 2027 19:11:53.682   03 Jun 2027 19:12:18.448            24.766                Anadyr2           773.937
       356   03 Jun 2027 19:12:54.702   03 Jun 2027 19:13:40.539            45.837                Anadyr1          1432.406
       357   03 Jun 2027 19:13:56.617   03 Jun 2027 19:17:00.744           184.127               Magadan1          5753.969
       358   03 Jun 2027 19:17:23.284   03 Jun 2027 19:18:13.489            50.205               Magadan1          1568.906
       359   03 Jun 2027 20:05:51.719   03 Jun 2027 20:08:30.049           158.330            RioGallegos          4947.813
       360   03 Jun 2027 20:11:23.199   03 Jun 2027 20:11:58.201            35.002            RioGallegos          1093.812
       361   03 Jun 2027 20:45:39.180   03 Jun 2027 20:47:48.028           128.848                Anadyr1          4026.500
       362   03 Jun 2027 20:47:48.695   03 Jun 2027 20:48:30.509            41.814                Norilsk          1306.687
       363   03 Jun 2027 20:49:48.094   03 Jun 2027 20:50:22.027            33.933                Norilsk          1060.406
       364   03 Jun 2027 20:51:00.288   03 Jun 2027 20:51:32.647            32.359                Norilsk          1011.219
       365   03 Jun 2027 20:52:40.079   03 Jun 2027 20:53:44.805            64.726                Irkutsk          2022.687
       366   03 Jun 2027 20:53:53.834   03 Jun 2027 20:54:38.154            44.320                Norilsk          1385.000
       367   03 Jun 2027 20:55:32.146   03 Jun 2027 20:55:54.303            22.157                Irkutsk           692.406
       368   03 Jun 2027 20:57:01.349   03 Jun 2027 20:57:45.326            43.977                Irkutsk          1374.281
       369   03 Jun 2027 21:07:29.737   03 Jun 2027 21:09:52.774           143.037                Sumatra          4469.906
       370   03 Jun 2027 22:24:11.131   03 Jun 2027 22:24:56.148            45.017               Magadan1          1406.781
       371   03 Jun 2027 22:24:56.148   03 Jun 2027 22:25:13.437            17.289               Magadan2           540.281
       372   03 Jun 2027 22:25:40.166   03 Jun 2027 22:26:15.270            35.104               Magadan2          1097.000
       373   03 Jun 2027 22:27:29.438   03 Jun 2027 22:28:46.133            76.695                Irkutsk          2396.719
       374   03 Jun 2027 22:29:07.097   03 Jun 2027 22:31:24.066           136.969                Novosib          4280.281
       375   03 Jun 2027 22:37:51.103   03 Jun 2027 22:39:33.242           102.139                  Delhi          3191.844
       376   03 Jun 2027 23:57:13.425   03 Jun 2027 23:57:31.498            18.073                Anadyr2           564.781
       377   03 Jun 2027 23:59:35.346   03 Jun 2027 23:59:53.022            17.676                Norilsk           552.375
       378   04 Jun 2027 00:00:07.622   04 Jun 2027 00:00:57.287            49.665                Norilsk          1552.031
       379   04 Jun 2027 00:01:25.068   04 Jun 2027 00:01:52.520            27.452               Magadan1           857.875
       380   04 Jun 2027 00:02:03.062   04 Jun 2027 00:02:14.750            11.688               Magadan2           365.250
       381   04 Jun 2027 00:02:28.484   04 Jun 2027 00:06:02.525           214.041              Murmansk2          6688.781
       382   04 Jun 2027 00:10:42.802   04 Jun 2027 00:11:22.019            39.217                  Delhi          1225.531
       383   04 Jun 2027 00:14:39.169   04 Jun 2027 00:14:49.367            10.198                  Delhi           318.688
       384   04 Jun 2027 00:15:04.812   04 Jun 2027 00:16:38.010            93.198                  Delhi          2912.438
       385   04 Jun 2027 01:28:16.365   04 Jun 2027 01:28:41.856            25.491                Anadyr1           796.594
       386   04 Jun 2027 01:28:55.244   04 Jun 2027 01:29:13.695            18.451                Anadyr1           576.594
       387   04 Jun 2027 01:29:48.896   04 Jun 2027 01:31:09.688            80.792                Anadyr1          2524.750
       388   04 Jun 2027 01:34:17.084   04 Jun 2027 01:35:40.261            83.177               Magadan2          2599.281
       389   04 Jun 2027 01:36:10.984   04 Jun 2027 01:37:35.396            84.412               Magadan1          2637.875
       390   04 Jun 2027 01:37:45.424   04 Jun 2027 01:38:35.657            50.233              Murmansk1          1569.781
       391   04 Jun 2027 01:38:42.874   04 Jun 2027 01:39:24.096            41.222              Murmansk2          1288.187
       392   04 Jun 2027 01:41:02.645   04 Jun 2027 01:41:18.989            16.344                Irkutsk           510.750
       393   04 Jun 2027 01:44:28.836   04 Jun 2027 01:44:31.513             2.677                Novosib            83.656
       394   04 Jun 2027 01:44:49.097   04 Jun 2027 01:45:02.887            13.790                 Moscow           430.938
       395   04 Jun 2027 01:46:57.643   04 Jun 2027 01:47:13.080            15.437                Novosib           482.406
       396   04 Jun 2027 01:48:41.766   04 Jun 2027 01:49:42.779            61.013                  Delhi          1906.656
       397   04 Jun 2027 02:10:13.515   04 Jun 2027 02:10:58.708            45.193               CapeTown          1412.281
       398   04 Jun 2027 02:16:30.556   04 Jun 2027 02:16:31.427             0.871               CapeTown            27.219
       399   04 Jun 2027 03:03:44.263   04 Jun 2027 03:03:56.654            12.391                Anadyr2           387.219
       400   04 Jun 2027 03:12:34.676   04 Jun 2027 03:13:24.465            49.789               Magadan2          1555.906
       401   04 Jun 2027 03:22:50.810   04 Jun 2027 03:22:54.919             4.109              Murmansk2           128.406
       402   04 Jun 2027 03:23:17.082   04 Jun 2027 03:26:26.710           189.628              Murmansk2          5925.875
       403   04 Jun 2027 03:45:47.834   04 Jun 2027 03:46:13.768            25.934               CapeTown           810.437
       404   04 Jun 2027 04:37:34.225   04 Jun 2027 04:38:51.655            77.430                Anadyr2          2419.688
       405   04 Jun 2027 04:43:56.471   04 Jun 2027 04:44:23.889            27.418               Magadan1           856.813
       406   04 Jun 2027 04:44:41.583   04 Jun 2027 04:48:11.502           209.919                Anadyr2          6559.969
       407   04 Jun 2027 04:48:17.029   04 Jun 2027 04:48:32.071            15.042               Magadan2           470.062
       408   04 Jun 2027 04:49:33.293   04 Jun 2027 04:50:02.844            29.551               Magadan2           923.469
       409   04 Jun 2027 04:50:42.005   04 Jun 2027 04:51:06.180            24.175                Norilsk           755.469
       410   04 Jun 2027 04:51:29.100   04 Jun 2027 04:52:05.720            36.620                Norilsk          1144.375
       411   04 Jun 2027 06:20:57.006   04 Jun 2027 06:21:44.269            47.263                Anadyr2          1476.969
       412   04 Jun 2027 06:22:01.126   04 Jun 2027 06:22:16.939            15.813               Magadan2           494.156
       413   04 Jun 2027 06:22:25.815   04 Jun 2027 06:24:08.632           102.817               Magadan1          3213.031
       414   04 Jun 2027 07:03:39.933   04 Jun 2027 07:04:37.099            57.166            RioGallegos          1786.437
       415   04 Jun 2027 07:54:08.816   04 Jun 2027 07:54:23.604            14.788                Irkutsk           462.125
       416   04 Jun 2027 07:55:11.389   04 Jun 2027 07:55:13.263             1.874                Irkutsk            58.562
       417   04 Jun 2027 07:55:28.252   04 Jun 2027 07:56:34.392            66.140               Magadan1          2066.875
       418   04 Jun 2027 07:56:45.868   04 Jun 2027 07:58:53.316           127.448                Anadyr1          3982.750
       419   04 Jun 2027 07:59:05.596   04 Jun 2027 07:59:07.635             2.039               Magadan2            63.719
       420   04 Jun 2027 07:59:56.350   04 Jun 2027 08:00:07.404            11.054                Irkutsk           345.437
       421   04 Jun 2027 08:00:16.262   04 Jun 2027 08:00:18.234             1.972               Magadan1            61.625
       422   04 Jun 2027 08:00:18.234   04 Jun 2027 08:00:22.973             4.739               Magadan2           148.094
       423   04 Jun 2027 08:00:30.927   04 Jun 2027 08:02:08.693            97.766                Novosib          3055.187
       424   04 Jun 2027 08:36:39.409   04 Jun 2027 08:37:20.553            41.144            RioGallegos          1285.750
       425   04 Jun 2027 09:13:06.864   04 Jun 2027 09:13:34.171            27.307                Sumatra           853.344
       426   04 Jun 2027 09:17:54.604   04 Jun 2027 09:18:24.868            30.264                Sumatra           945.750
       427   04 Jun 2027 09:31:33.558   04 Jun 2027 09:31:54.761            21.203                Norilsk           662.594
       428   04 Jun 2027 09:32:47.566   04 Jun 2027 09:33:29.606            42.040                Novosib          1313.750
       429   04 Jun 2027 09:33:58.170   04 Jun 2027 09:34:29.101            30.931                Irkutsk           966.594
       430   04 Jun 2027 09:34:58.112   04 Jun 2027 09:35:28.841            30.729              Murmansk1           960.281
       431   04 Jun 2027 09:35:35.110   04 Jun 2027 09:36:04.255            29.145              Murmansk1           910.781
       432   04 Jun 2027 09:36:06.613   04 Jun 2027 09:36:47.533            40.920                Norilsk          1278.750
       433   04 Jun 2027 09:36:51.656   04 Jun 2027 09:36:59.101             7.445                Norilsk           232.656
       434   04 Jun 2027 09:37:14.699   04 Jun 2027 09:37:28.114            13.415                Norilsk           419.219
       435   04 Jun 2027 09:37:29.254   04 Jun 2027 09:37:47.275            18.021                Irkutsk           563.156
       436   04 Jun 2027 09:38:00.773   04 Jun 2027 09:38:10.297             9.524                Novosib           297.625
       437   04 Jun 2027 09:38:34.509   04 Jun 2027 09:38:49.765            15.256              Murmansk2           476.750
       438   04 Jun 2027 10:13:11.884   04 Jun 2027 10:13:58.746            46.862            RioGallegos          1464.438
       439   04 Jun 2027 10:15:24.900   04 Jun 2027 10:15:53.639            28.739            RioGallegos           898.094
       440   04 Jun 2027 10:47:31.960   04 Jun 2027 10:48:12.236            40.276                Sumatra          1258.625
       441   04 Jun 2027 10:50:09.918   04 Jun 2027 10:51:58.253           108.335                Sumatra          3385.469
       442   04 Jun 2027 11:08:16.788   04 Jun 2027 11:08:48.893            32.105                Irkutsk          1003.281
       443   04 Jun 2027 11:09:02.492   04 Jun 2027 11:09:04.824             2.332              Murmansk1            72.875
       444   04 Jun 2027 11:09:07.151   04 Jun 2027 11:09:51.698            44.547                Norilsk          1392.094
       445   04 Jun 2027 11:09:54.199   04 Jun 2027 11:10:29.557            35.358                Norilsk          1104.938
       446   04 Jun 2027 11:10:35.171   04 Jun 2027 11:10:43.104             7.933                 Moscow           247.906
       447   04 Jun 2027 11:10:44.838   04 Jun 2027 11:10:50.389             5.551                Novosib           173.469
       448   04 Jun 2027 11:10:54.902   04 Jun 2027 11:11:36.394            41.492                Irkutsk          1296.625
       449   04 Jun 2027 11:11:38.076   04 Jun 2027 11:12:00.543            22.467              Murmansk2           702.094
       450   04 Jun 2027 11:12:01.223   04 Jun 2027 11:12:28.506            27.283                Novosib           852.594
       451   04 Jun 2027 11:12:30.863   04 Jun 2027 11:12:57.711            26.848                Irkutsk           839.000
       452   04 Jun 2027 11:13:00.112   04 Jun 2027 11:13:30.595            30.483              Murmansk2           952.594
       453   04 Jun 2027 12:32:15.187   04 Jun 2027 12:34:37.353           142.166                  Delhi          4442.687
       454   04 Jun 2027 12:36:18.874   04 Jun 2027 12:36:44.845            25.971                  Delhi           811.594
       455   04 Jun 2027 12:37:00.428   04 Jun 2027 12:37:32.966            32.538                  Delhi          1016.812
       456   04 Jun 2027 12:40:31.497   04 Jun 2027 12:40:57.330            25.833                Novosib           807.281
       457   04 Jun 2027 12:41:24.617   04 Jun 2027 12:41:57.124            32.507                 Moscow          1015.844
       458   04 Jun 2027 12:42:28.068   04 Jun 2027 12:43:29.968            61.900                Novosib          1934.375
       459   04 Jun 2027 12:43:37.710   04 Jun 2027 12:44:54.333            76.623              Murmansk2          2394.469
       460   04 Jun 2027 12:45:52.931   04 Jun 2027 12:46:27.603            34.672              Murmansk2          1083.500
       461   04 Jun 2027 14:15:57.453   04 Jun 2027 14:19:11.134           193.681                 Moscow          6052.531
       462   04 Jun 2027 14:19:28.900   04 Jun 2027 14:21:53.996           145.096              Murmansk2          4534.250
       463   04 Jun 2027 14:21:53.996   04 Jun 2027 14:22:41.902            47.906              Murmansk1          1497.063
       464   04 Jun 2027 14:26:08.778   04 Jun 2027 14:26:33.808            25.030                Norilsk           782.188
       465   04 Jun 2027 14:27:13.109   04 Jun 2027 14:28:53.816           100.707                Norilsk          3147.094
       466   04 Jun 2027 14:36:24.672   04 Jun 2027 14:36:34.983            10.311                Anadyr1           322.219
       467   04 Jun 2027 14:37:18.678   04 Jun 2027 14:38:17.507            58.829                Anadyr1          1838.406
       468   04 Jun 2027 15:31:44.817   04 Jun 2027 15:32:01.026            16.209               CapeTown           506.531
       469   04 Jun 2027 15:55:31.412   04 Jun 2027 15:56:03.310            31.898                 Moscow           996.812
       470   04 Jun 2027 15:57:08.841   04 Jun 2027 15:58:39.178            90.337              Murmansk2          2823.031
       471   04 Jun 2027 16:10:12.457   04 Jun 2027 16:12:09.453           116.996                Anadyr1          3656.125
       472   04 Jun 2027 16:12:39.480   04 Jun 2027 16:12:39.925             0.445                Anadyr2            13.906
       473   04 Jun 2027 16:14:23.379   04 Jun 2027 16:15:06.807            43.428                Anadyr1          1357.125
       474   04 Jun 2027 16:16:06.189   04 Jun 2027 16:16:07.770             1.581                Anadyr1            49.406
       475   04 Jun 2027 17:05:43.217   04 Jun 2027 17:07:14.388            91.171               CapeTown          2849.094
       476   04 Jun 2027 17:37:24.783   04 Jun 2027 17:40:09.774           164.991              Murmansk2          5155.969
       477   04 Jun 2027 17:40:09.774   04 Jun 2027 17:40:46.845            37.071              Murmansk1          1158.469
       478   04 Jun 2027 17:45:56.297   04 Jun 2027 17:46:42.329            46.032                Anadyr1          1438.500
       479   04 Jun 2027 17:47:24.876   04 Jun 2027 17:48:04.729            39.853                Anadyr2          1245.406
       480   04 Jun 2027 17:48:48.843   04 Jun 2027 17:50:35.485           106.642               Magadan2          3332.562
       481   04 Jun 2027 17:54:03.652   04 Jun 2027 17:54:56.880            53.228               Magadan2          1663.375
       482   04 Jun 2027 19:21:52.071   04 Jun 2027 19:25:31.096           219.025                Anadyr1          6844.531
