uniorb/output/strategy_2/Drop/Drop_KinoSat_112009.txt

KinoSat_112009
-------------------------
    Access    *     Start Time (UTCG)     *     Stop Time (UTCG)  *   Duration (s)        *       Station  *  Data (Mbytes)
         1   01 Jun 2027 03:57:25.103   01 Jun 2027 03:57:27.437             2.334              Murmansk1            72.938
         2   01 Jun 2027 03:57:42.865   01 Jun 2027 03:58:13.604            30.739              Murmansk2           960.594
         3   01 Jun 2027 03:58:13.604   01 Jun 2027 03:58:28.379            14.775              Murmansk1           461.719
         4   01 Jun 2027 03:59:00.151   01 Jun 2027 04:00:52.364           112.213              Murmansk2          3506.656
         5   01 Jun 2027 04:01:07.191   01 Jun 2027 04:02:33.184            85.993                 Moscow          2687.281
         6   01 Jun 2027 04:03:11.332   01 Jun 2027 04:03:30.109            18.777                Novosib           586.781
         7   01 Jun 2027 04:03:33.883   01 Jun 2027 04:04:54.676            80.793                Irkutsk          2524.781
         8   01 Jun 2027 04:04:57.183   01 Jun 2027 04:05:21.157            23.974                Novosib           749.187
         9   01 Jun 2027 04:06:11.237   01 Jun 2027 04:07:08.620            57.383                  Delhi          1793.219
        10   01 Jun 2027 04:10:39.231   01 Jun 2027 04:14:02.675           203.444                  Delhi          6357.625
        11   01 Jun 2027 04:45:04.359   01 Jun 2027 04:47:35.529           151.170            RioGallegos          4724.063
        12   01 Jun 2027 05:34:46.364   01 Jun 2027 05:34:46.938             0.574                Novosib            17.937
        13   01 Jun 2027 05:35:07.545   01 Jun 2027 05:35:38.367            30.822              Murmansk1           963.188
        14   01 Jun 2027 05:36:26.877   01 Jun 2027 05:37:02.594            35.717              Murmansk2          1116.156
        15   01 Jun 2027 05:37:09.576   01 Jun 2027 05:38:33.246            83.670                Novosib          2614.688
        16   01 Jun 2027 05:38:43.908   01 Jun 2027 05:38:50.795             6.887                 Moscow           215.219
        17   01 Jun 2027 05:38:52.387   01 Jun 2027 05:40:22.118            89.731              Murmansk1          2804.094
        18   01 Jun 2027 05:40:38.946   01 Jun 2027 05:40:44.563             5.617                 Moscow           175.531
        19   01 Jun 2027 05:42:13.300   01 Jun 2027 05:43:41.294            87.994                 Moscow          2749.813
        20   01 Jun 2027 05:58:23.652   01 Jun 2027 05:59:58.648            94.996               CapeTown          2968.625
        21   01 Jun 2027 06:04:20.993   01 Jun 2027 06:06:10.251           109.258               CapeTown          3414.312
        22   01 Jun 2027 06:07:35.870   01 Jun 2027 06:08:10.795            34.925               CapeTown          1091.406
        23   01 Jun 2027 07:13:32.171   01 Jun 2027 07:13:54.153            21.982                 Moscow           686.938
        24   01 Jun 2027 07:14:08.278   01 Jun 2027 07:14:13.144             4.866              Murmansk2           152.062
        25   01 Jun 2027 07:14:34.245   01 Jun 2027 07:15:46.345            72.100                 Moscow          2253.125
        26   01 Jun 2027 07:16:33.590   01 Jun 2027 07:18:07.894            94.304                 Moscow          2947.000
        27   01 Jun 2027 07:20:20.338   01 Jun 2027 07:20:32.732            12.394                 Moscow           387.313
        28   01 Jun 2027 07:32:03.435   01 Jun 2027 07:40:34.734           511.299               CapeTown         15978.094
        29   01 Jun 2027 07:41:53.259   01 Jun 2027 07:43:08.108            74.849               CapeTown          2339.031
        30   01 Jun 2027 08:35:40.871   01 Jun 2027 08:37:00.642            79.771                Anadyr1          2492.844
        31   01 Jun 2027 08:37:09.923   01 Jun 2027 08:38:27.755            77.832                Anadyr2          2432.250
        32   01 Jun 2027 10:07:27.439   01 Jun 2027 10:08:33.945            66.506                Anadyr2          2078.312
        33   01 Jun 2027 10:11:04.851   01 Jun 2027 10:14:14.178           189.327                Anadyr2          5916.469
        34   01 Jun 2027 10:14:19.654   01 Jun 2027 10:16:58.748           159.094                Anadyr1          4971.688
        35   01 Jun 2027 11:42:51.324   01 Jun 2027 11:44:19.651            88.327               Magadan1          2760.219
        36   01 Jun 2027 11:46:15.438   01 Jun 2027 11:48:14.073           118.635               Magadan2          3707.344
        37   01 Jun 2027 11:48:56.811   01 Jun 2027 11:52:19.450           202.639               Magadan1          6332.469
        38   01 Jun 2027 14:41:46.529   01 Jun 2027 14:46:22.533           276.004                Sumatra          8625.125
        39   01 Jun 2027 14:56:29.266   01 Jun 2027 15:02:16.755           347.489                Irkutsk         10859.031
        40   01 Jun 2027 16:25:16.145   01 Jun 2027 16:33:12.437           476.292                  Delhi         14884.125
        41   01 Jun 2027 16:33:36.253   01 Jun 2027 16:40:35.476           419.223                Novosib         13100.719
        42   01 Jun 2027 19:47:33.110   01 Jun 2027 19:53:41.539           368.429                 Moscow         11513.406
        43   01 Jun 2027 19:53:47.767   01 Jun 2027 19:54:17.289            29.522              Murmansk2           922.563
        44   01 Jun 2027 20:59:02.690   01 Jun 2027 21:03:19.528           256.838               CapeTown          8026.188
        45   01 Jun 2027 21:30:39.449   01 Jun 2027 21:33:51.565           192.116              Murmansk1          6003.625
        46   02 Jun 2027 02:46:55.032   02 Jun 2027 02:54:52.107           477.075                Sumatra         14908.594
        47   02 Jun 2027 04:11:01.163   02 Jun 2027 04:11:24.161            22.998                Irkutsk           718.688
        48   02 Jun 2027 04:11:26.626   02 Jun 2027 04:11:32.917             6.291              Murmansk1           196.594
        49   02 Jun 2027 04:11:45.820   02 Jun 2027 04:11:46.663             0.843                Norilsk            26.344
        50   02 Jun 2027 04:11:53.899   02 Jun 2027 04:12:09.116            15.217                Norilsk           475.531
        51   02 Jun 2027 04:12:12.071   02 Jun 2027 04:13:31.152            79.081              Murmansk1          2471.281
        52   02 Jun 2027 04:13:54.614   02 Jun 2027 04:16:25.324           150.710                  Delhi          4709.687
        53   02 Jun 2027 04:18:19.225   02 Jun 2027 04:19:00.835            41.610                Novosib          1300.312
        54   02 Jun 2027 04:19:14.862   02 Jun 2027 04:25:45.276           390.414                  Delhi         12200.438
        55   02 Jun 2027 05:46:56.062   02 Jun 2027 05:47:23.480            27.418              Murmansk1           856.812
        56   02 Jun 2027 05:47:58.852   02 Jun 2027 05:50:51.173           172.321                Novosib          5385.031
        57   02 Jun 2027 05:52:18.354   02 Jun 2027 05:52:40.047            21.693              Murmansk2           677.906
        58   02 Jun 2027 05:53:35.469   02 Jun 2027 05:55:47.319           131.850                 Moscow          4120.313
        59   02 Jun 2027 06:08:31.761   02 Jun 2027 06:16:52.635           500.874               CapeTown         15652.313
        60   02 Jun 2027 06:17:52.092   02 Jun 2027 06:18:47.421            55.329               CapeTown          1729.031
        61   02 Jun 2027 06:19:49.019   02 Jun 2027 06:20:23.609            34.590               CapeTown          1080.937
        62   02 Jun 2027 07:24:26.189   02 Jun 2027 07:24:50.289            24.100              Murmansk2           753.125
        63   02 Jun 2027 07:24:50.289   02 Jun 2027 07:25:32.303            42.014              Murmansk1          1312.937
        64   02 Jun 2027 07:25:36.684   02 Jun 2027 07:25:58.423            21.739                 Moscow           679.344
        65   02 Jun 2027 07:26:15.653   02 Jun 2027 07:26:16.175             0.522                 Moscow            16.313
        66   02 Jun 2027 07:26:21.807   02 Jun 2027 07:27:41.806            79.999                 Moscow          2499.969
        67   02 Jun 2027 07:28:12.380   02 Jun 2027 07:29:36.696            84.316              Murmansk1          2634.875
        68   02 Jun 2027 07:31:15.970   02 Jun 2027 07:32:14.190            58.220                 Moscow          1819.375
        69   02 Jun 2027 07:46:34.415   02 Jun 2027 07:55:58.361           563.946               CapeTown         17623.313
        70   02 Jun 2027 08:47:41.296   02 Jun 2027 08:50:12.411           151.115                Anadyr2          4722.344
        71   02 Jun 2027 08:58:48.384   02 Jun 2027 08:58:51.871             3.487                 Moscow           108.969
        72   02 Jun 2027 08:59:09.936   02 Jun 2027 08:59:17.797             7.861                 Moscow           245.656
        73   02 Jun 2027 10:19:47.925   02 Jun 2027 10:28:53.663           545.738                Anadyr2         17054.312
        74   02 Jun 2027 11:55:08.953   02 Jun 2027 12:01:14.647           365.694               Magadan2         11427.938
        75   02 Jun 2027 12:01:27.201   02 Jun 2027 12:04:09.294           162.093               Magadan1          5065.406
        76   02 Jun 2027 14:20:39.852   02 Jun 2027 14:24:12.932           213.080            RioGallegos          6658.750
        77   02 Jun 2027 14:52:10.118   02 Jun 2027 15:00:24.924           494.806                Sumatra         15462.687
        78   02 Jun 2027 15:07:56.471   02 Jun 2027 15:14:46.410           409.939                Irkutsk         12810.594
        79   02 Jun 2027 16:37:51.642   02 Jun 2027 16:44:16.433           384.791                  Delhi         12024.719
        80   02 Jun 2027 16:46:18.368   02 Jun 2027 16:52:02.618           344.250                Novosib         10757.813
        81   02 Jun 2027 20:01:00.918   02 Jun 2027 20:04:49.474           228.556                 Moscow          7142.375
        82   02 Jun 2027 20:05:22.362   02 Jun 2027 20:07:51.184           148.822              Murmansk1          4650.688
        83   02 Jun 2027 21:09:57.656   02 Jun 2027 21:17:37.862           460.206               CapeTown         14381.437
        84   03 Jun 2027 02:56:49.509   03 Jun 2027 02:57:27.253            37.744                  Delhi          1179.500
        85   03 Jun 2027 02:58:40.983   03 Jun 2027 03:05:51.546           430.563                Sumatra         13455.094
        86   03 Jun 2027 04:19:46.543   03 Jun 2027 04:20:41.201            54.658                Irkutsk          1708.062
        87   03 Jun 2027 04:23:22.953   03 Jun 2027 04:23:25.669             2.716                Novosib            84.875
        88   03 Jun 2027 04:23:40.848   03 Jun 2027 04:24:13.851            33.003              Murmansk1          1031.344
        89   03 Jun 2027 04:24:28.117   03 Jun 2027 04:25:12.779            44.662              Murmansk2          1395.688
        90   03 Jun 2027 04:25:20.354   03 Jun 2027 04:27:39.968           139.614                Irkutsk          4362.938
        91   03 Jun 2027 04:27:42.351   03 Jun 2027 04:27:50.217             7.866                Irkutsk           245.812
        92   03 Jun 2027 04:28:52.794   03 Jun 2027 04:29:09.166            16.372                Novosib           511.625
        93   03 Jun 2027 04:30:26.500   03 Jun 2027 04:30:37.821            11.321                Novosib           353.781
        94   03 Jun 2027 04:31:17.234   03 Jun 2027 04:33:49.900           152.666                  Delhi          4770.813
        95   03 Jun 2027 05:59:13.403   03 Jun 2027 06:00:14.014            60.611                Novosib          1894.094
        96   03 Jun 2027 06:01:04.694   03 Jun 2027 06:01:31.268            26.574                 Moscow           830.437
        97   03 Jun 2027 06:01:38.806   03 Jun 2027 06:02:26.756            47.950                Norilsk          1498.438
        98   03 Jun 2027 06:02:33.312   03 Jun 2027 06:03:08.699            35.387                 Moscow          1105.844
        99   03 Jun 2027 06:03:44.164   03 Jun 2027 06:03:54.413            10.249                 Moscow           320.281
       100   03 Jun 2027 06:04:20.328   03 Jun 2027 06:04:55.907            35.579              Murmansk2          1111.844
       101   03 Jun 2027 06:05:24.328   03 Jun 2027 06:07:00.923            96.595                 Moscow          3018.594
       102   03 Jun 2027 06:07:29.976   03 Jun 2027 06:07:59.996            30.020                 Moscow           938.125
       103   03 Jun 2027 06:20:14.790   03 Jun 2027 06:22:23.142           128.352               CapeTown          4011.000
       104   03 Jun 2027 07:23:21.972   03 Jun 2027 07:23:48.321            26.349               Magadan1           823.406
       105   03 Jun 2027 07:23:50.344   03 Jun 2027 07:23:57.909             7.565                Anadyr1           236.406
       106   03 Jun 2027 07:24:31.913   03 Jun 2027 07:26:10.321            98.408                Anadyr1          3075.250
       107   03 Jun 2027 07:35:16.353   03 Jun 2027 07:36:00.288            43.935                 Moscow          1372.969
       108   03 Jun 2027 07:36:27.268   03 Jun 2027 07:36:40.891            13.623              Murmansk1           425.719
       109   03 Jun 2027 07:37:03.604   03 Jun 2027 07:37:22.258            18.654                 Moscow           582.938
       110   03 Jun 2027 07:37:36.185   03 Jun 2027 07:37:44.013             7.828              Murmansk1           244.625
       111   03 Jun 2027 07:37:46.253   03 Jun 2027 07:38:25.167            38.914                 Moscow          1216.063
       112   03 Jun 2027 07:56:51.677   03 Jun 2027 08:02:44.329           352.652               CapeTown         11020.375
       113   03 Jun 2027 08:57:43.728   03 Jun 2027 08:57:49.342             5.614                Anadyr1           175.438
       114   03 Jun 2027 08:58:21.734   03 Jun 2027 08:58:28.113             6.379               Magadan1           199.344
       115   03 Jun 2027 08:58:28.113   03 Jun 2027 08:58:34.262             6.149               Magadan2           192.156
       116   03 Jun 2027 08:58:48.255   03 Jun 2027 08:59:27.396            39.141               Magadan2          1223.156
       117   03 Jun 2027 08:59:41.245   03 Jun 2027 09:02:40.733           179.488                Anadyr1          5609.000
       118   03 Jun 2027 10:32:27.868   03 Jun 2027 10:33:22.992            55.124                Anadyr2          1722.625
       119   03 Jun 2027 10:33:22.992   03 Jun 2027 10:40:46.463           443.471                Anadyr1         13858.469
       120   03 Jun 2027 12:07:53.937   03 Jun 2027 12:15:55.304           481.367               Magadan2         15042.719
       121   03 Jun 2027 14:31:53.505   03 Jun 2027 14:38:22.012           388.507            RioGallegos         12140.844
       122   03 Jun 2027 15:05:21.264   03 Jun 2027 15:11:08.493           347.229                Sumatra         10850.906
       123   03 Jun 2027 15:21:15.999   03 Jun 2027 15:25:59.503           283.504                Irkutsk          8859.500
       124   03 Jun 2027 16:52:07.992   03 Jun 2027 16:54:15.568           127.576                  Delhi          3986.750
       125   03 Jun 2027 16:59:57.186   03 Jun 2027 17:03:00.236           183.050                Novosib          5720.313
       126   03 Jun 2027 20:14:05.993   03 Jun 2027 20:16:00.660           114.667              Murmansk2          3583.344
       127   03 Jun 2027 20:16:24.743   03 Jun 2027 20:16:57.135            32.392              Murmansk2          1012.250
       128   03 Jun 2027 20:17:19.025   03 Jun 2027 20:19:38.087           139.062              Murmansk2          4345.687
       129   03 Jun 2027 20:20:46.904   03 Jun 2027 20:22:15.166            88.262              Murmansk1          2758.187
       130   03 Jun 2027 20:23:00.059   03 Jun 2027 20:23:07.457             7.398              Murmansk1           231.187
       131   03 Jun 2027 21:22:46.181   03 Jun 2027 21:28:27.037           340.856               CapeTown         10651.750
       132   03 Jun 2027 23:36:49.334   03 Jun 2027 23:39:16.755           147.421                Anadyr1          4606.906
       133   03 Jun 2027 23:39:21.220   03 Jun 2027 23:40:42.400            81.180                Norilsk          2536.875
       134   03 Jun 2027 23:40:55.629   03 Jun 2027 23:42:18.359            82.730               Magadan2          2585.312
       135   03 Jun 2027 23:42:50.520   03 Jun 2027 23:43:02.169            11.649               Magadan1           364.031
       136   03 Jun 2027 23:43:58.954   03 Jun 2027 23:44:40.030            41.076               Magadan2          1283.625
       137   03 Jun 2027 23:45:43.888   03 Jun 2027 23:46:12.437            28.549                Irkutsk           892.156
       138   03 Jun 2027 23:46:58.276   03 Jun 2027 23:47:36.540            38.264                Irkutsk          1195.750
       139   04 Jun 2027 00:30:59.523   04 Jun 2027 00:34:30.419           210.896            RioGallegos          6590.500
       140   04 Jun 2027 00:39:52.006   04 Jun 2027 00:40:17.985            25.979            RioGallegos           811.844
       141   04 Jun 2027 01:12:19.590   04 Jun 2027 01:13:12.992            53.402                Anadyr2          1668.813
       142   04 Jun 2027 01:13:48.095   04 Jun 2027 01:13:50.245             2.150                Anadyr1            67.187
       143   04 Jun 2027 01:14:14.712   04 Jun 2027 01:14:55.466            40.754                Anadyr1          1273.562
       144   04 Jun 2027 01:14:56.071   04 Jun 2027 01:16:40.616           104.545                Norilsk          3267.031
       145   04 Jun 2027 01:16:45.266   04 Jun 2027 01:16:54.794             9.528               Magadan2           297.750
       146   04 Jun 2027 01:18:08.258   04 Jun 2027 01:18:30.029            21.771               Magadan2           680.344
       147   04 Jun 2027 01:18:41.377   04 Jun 2027 01:20:33.683           112.306                Irkutsk          3509.562
       148   04 Jun 2027 01:21:42.190   04 Jun 2027 01:22:16.283            34.093                Novosib          1065.406
       149   04 Jun 2027 01:25:26.577   04 Jun 2027 01:25:56.642            30.065                Novosib           939.531
       150   04 Jun 2027 01:32:23.016   04 Jun 2027 01:33:32.533            69.517                Sumatra          2172.406
       151   04 Jun 2027 01:35:17.807   04 Jun 2027 01:36:26.372            68.565                Sumatra          2142.656
       152   04 Jun 2027 02:06:34.335   04 Jun 2027 02:07:03.083            28.748            RioGallegos           898.375
       153   04 Jun 2027 02:10:36.608   04 Jun 2027 02:12:24.204           107.596            RioGallegos          3362.375
       154   04 Jun 2027 02:49:35.270   04 Jun 2027 02:49:39.571             4.301                Anadyr1           134.406
       155   04 Jun 2027 02:50:38.007   04 Jun 2027 02:51:42.250            64.243                Norilsk          2007.594
       156   04 Jun 2027 02:53:31.549   04 Jun 2027 02:53:39.686             8.137                Norilsk           254.281
       157   04 Jun 2027 02:54:31.409   04 Jun 2027 02:56:28.572           117.163                Novosib          3661.344
       158   04 Jun 2027 02:56:42.082   04 Jun 2027 02:56:58.684            16.602                Irkutsk           518.813
       159   04 Jun 2027 02:58:40.209   04 Jun 2027 02:58:55.912            15.703                Irkutsk           490.719
       160   04 Jun 2027 03:00:19.506   04 Jun 2027 03:00:46.481            26.975                Novosib           842.969
       161   04 Jun 2027 03:01:39.334   04 Jun 2027 03:02:09.111            29.777                Novosib           930.531
       162   04 Jun 2027 03:02:39.267   04 Jun 2027 03:02:45.525             6.258                Irkutsk           195.563
       163   04 Jun 2027 03:03:05.108   04 Jun 2027 03:03:50.244            45.136                  Delhi          1410.500
       164   04 Jun 2027 03:12:21.307   04 Jun 2027 03:16:05.396           224.089                Sumatra          7002.781
       165   04 Jun 2027 03:43:13.738   04 Jun 2027 03:47:46.022           272.284            RioGallegos          8508.875
       166   04 Jun 2027 04:31:24.449   04 Jun 2027 04:32:05.790            41.341                Irkutsk          1291.906
       167   04 Jun 2027 04:35:01.337   04 Jun 2027 04:36:37.021            95.684                Irkutsk          2990.125
       168   04 Jun 2027 04:36:56.760   04 Jun 2027 04:37:35.309            38.549                Novosib          1204.656
       169   04 Jun 2027 04:37:42.553   04 Jun 2027 04:38:17.940            35.387                Irkutsk          1105.844
       170   04 Jun 2027 04:38:28.524   04 Jun 2027 04:43:47.921           319.397                  Delhi          9981.156
       171   04 Jun 2027 06:12:05.992   04 Jun 2027 06:12:33.370            27.378              Murmansk2           855.563
       172   04 Jun 2027 06:12:33.370   04 Jun 2027 06:13:00.824            27.454              Murmansk1           857.937
       173   04 Jun 2027 06:13:04.956   04 Jun 2027 06:15:11.451           126.495                Novosib          3952.969
       174   04 Jun 2027 06:15:15.239   04 Jun 2027 06:15:46.817            31.578                 Moscow           986.813
       175   04 Jun 2027 06:15:47.753   04 Jun 2027 06:16:20.587            32.834              Murmansk1          1026.062
       176   04 Jun 2027 06:17:03.856   04 Jun 2027 06:17:46.863            43.007                 Moscow          1343.969
       177   04 Jun 2027 06:18:49.893   04 Jun 2027 06:18:57.956             8.063                 Moscow           251.969
       178   04 Jun 2027 06:32:03.230   04 Jun 2027 06:34:48.579           165.349               CapeTown          5167.156
       179   04 Jun 2027 07:35:05.018   04 Jun 2027 07:35:21.411            16.393                Anadyr2           512.281
       180   04 Jun 2027 07:35:21.411   04 Jun 2027 07:35:35.098            13.687                Anadyr1           427.719
       181   04 Jun 2027 07:35:52.153   04 Jun 2027 07:36:41.605            49.452                Anadyr1          1545.375
       182   04 Jun 2027 07:36:44.445   04 Jun 2027 07:37:22.686            38.241               Magadan2          1195.031
       183   04 Jun 2027 07:39:43.053   04 Jun 2027 07:40:12.021            28.968                Anadyr2           905.250
       184   04 Jun 2027 07:45:00.811   04 Jun 2027 07:45:03.795             2.984                 Moscow            93.250
       185   04 Jun 2027 07:46:59.003   04 Jun 2027 07:47:04.735             5.732                Norilsk           179.125
       186   04 Jun 2027 07:47:09.535   04 Jun 2027 07:47:32.102            22.567              Murmansk2           705.219
       187   04 Jun 2027 07:48:27.295   04 Jun 2027 07:49:19.120            51.825                 Moscow          1619.531
       188   04 Jun 2027 07:50:29.383   04 Jun 2027 07:50:36.232             6.849                 Moscow           214.031
       189   04 Jun 2027 07:51:45.316   04 Jun 2027 07:52:08.640            23.324                 Moscow           728.875
       190   04 Jun 2027 08:09:28.522   04 Jun 2027 08:16:15.395           406.873               CapeTown         12714.781
       191   04 Jun 2027 09:09:24.559   04 Jun 2027 09:11:40.620           136.061                Anadyr2          4251.906
       192   04 Jun 2027 09:11:53.790   04 Jun 2027 09:15:12.600           198.810                Anadyr2          6212.813
       193   04 Jun 2027 09:23:16.212   04 Jun 2027 09:25:03.195           106.983                 Moscow          3343.219
       194   04 Jun 2027 10:44:40.619   04 Jun 2027 10:45:46.579            65.960               Magadan2          2061.250
       195   04 Jun 2027 10:46:20.584   04 Jun 2027 10:52:36.243           375.659                Anadyr2         11739.344
       196   04 Jun 2027 12:20:47.700   04 Jun 2027 12:27:35.359           407.659               Magadan1         12739.344
       197   04 Jun 2027 13:52:34.494   04 Jun 2027 13:52:47.715            13.221                Irkutsk           413.156
       198   04 Jun 2027 13:55:00.867   04 Jun 2027 13:55:19.106            18.239                Irkutsk           569.969
       199   04 Jun 2027 13:56:44.314   04 Jun 2027 13:57:22.898            38.584                Novosib          1205.750
       200   04 Jun 2027 14:04:07.989   04 Jun 2027 14:04:44.874            36.885                Norilsk          1152.656
       201   04 Jun 2027 14:43:38.280   04 Jun 2027 14:50:14.916           396.636            RioGallegos         12394.875
       202   04 Jun 2027 15:34:32.111   04 Jun 2027 15:35:33.248            61.137                Novosib          1910.531
       203   04 Jun 2027 17:06:59.099   04 Jun 2027 17:09:23.509           144.410                 Moscow          4512.812
       204   04 Jun 2027 17:11:31.591   04 Jun 2027 17:11:59.013            27.422              Murmansk1           856.938
       205   04 Jun 2027 17:14:18.038   04 Jun 2027 17:16:35.689           137.651                Norilsk          4301.594
       206   04 Jun 2027 17:18:22.621   04 Jun 2027 17:19:48.639            86.018                Norilsk          2688.063
       207   04 Jun 2027 18:31:25.938   04 Jun 2027 18:31:54.572            28.634               CapeTown           894.812
       208   04 Jun 2027 18:44:16.523   04 Jun 2027 18:45:11.453            54.930                 Moscow          1716.563
       209   04 Jun 2027 18:47:26.551   04 Jun 2027 18:48:03.904            37.353              Murmansk2          1167.281
       210   04 Jun 2027 18:49:04.866   04 Jun 2027 18:49:34.793            29.927                 Moscow           935.219
       211   04 Jun 2027 18:49:45.503   04 Jun 2027 18:50:17.173            31.670              Murmansk1           989.687
       212   04 Jun 2027 18:51:39.108   04 Jun 2027 18:52:21.462            42.354              Murmansk1          1323.563
       213   04 Jun 2027 18:52:23.804   04 Jun 2027 18:54:13.695           109.891                 Moscow          3434.094
       214   04 Jun 2027 19:56:28.164   04 Jun 2027 19:58:14.107           105.943               CapeTown          3310.719
       215   04 Jun 2027 19:59:30.370   04 Jun 2027 20:00:34.318            63.948               CapeTown          1998.375
       216   04 Jun 2027 20:26:42.526   04 Jun 2027 20:28:13.515            90.989              Murmansk2          2843.406
       217   04 Jun 2027 20:28:19.455   04 Jun 2027 20:35:05.274           405.819              Murmansk1         12681.844
       218   04 Jun 2027 21:36:31.892   04 Jun 2027 21:38:15.837           103.945               CapeTown          3248.281
       219   04 Jun 2027 22:13:48.563   04 Jun 2027 22:13:54.941             6.378                Anadyr1           199.312
       220   04 Jun 2027 22:14:13.779   04 Jun 2027 22:16:12.025           118.246                Anadyr1          3695.187
       221   04 Jun 2027 22:16:26.488   04 Jun 2027 22:17:04.591            38.103               Magadan2          1190.719
       222   04 Jun 2027 22:18:30.012   04 Jun 2027 22:18:38.458             8.446               Magadan1           263.938
       223   04 Jun 2027 22:18:57.909   04 Jun 2027 22:18:57.952             0.043               Magadan1             1.344
       224   04 Jun 2027 22:19:09.084   04 Jun 2027 22:19:12.878             3.794               Magadan2           118.563
       225   04 Jun 2027 22:20:01.539   04 Jun 2027 22:20:25.814            24.275               Magadan2           758.594
       226   04 Jun 2027 22:24:46.804   04 Jun 2027 22:24:49.953             3.149               Magadan2            98.406
       227   04 Jun 2027 23:48:49.743   04 Jun 2027 23:52:39.534           229.791                Anadyr2          7180.969
       228   04 Jun 2027 23:52:43.600   04 Jun 2027 23:54:25.490           101.890                Norilsk          3184.063
       229   04 Jun 2027 23:54:35.018   04 Jun 2027 23:55:04.660            29.642               Magadan2           926.313
       230   04 Jun 2027 23:55:30.917   04 Jun 2027 23:56:19.145            48.228               Magadan2          1507.125
       231   04 Jun 2027 23:56:21.970   04 Jun 2027 23:57:49.560            87.590                Irkutsk          2737.188
       232   04 Jun 2027 23:59:12.311   04 Jun 2027 23:59:18.846             6.535                Irkutsk           204.219
       233   05 Jun 2027 00:00:02.233   05 Jun 2027 00:00:23.987            21.754               Magadan2           679.813
       234   05 Jun 2027 00:01:30.881   05 Jun 2027 00:01:42.753            11.872                Irkutsk           371.000
       235   05 Jun 2027 00:12:21.866   05 Jun 2027 00:14:11.638           109.772                Sumatra          3430.375
       236   05 Jun 2027 00:15:05.276   05 Jun 2027 00:16:34.059            88.783                Sumatra          2774.469
       237   05 Jun 2027 00:50:10.919   05 Jun 2027 00:50:25.437            14.518            RioGallegos           453.688
       238   05 Jun 2027 00:52:24.512   05 Jun 2027 00:52:49.168            24.656            RioGallegos           770.500
       239   05 Jun 2027 00:54:19.213   05 Jun 2027 00:54:25.052             5.839            RioGallegos           182.469
       240   05 Jun 2027 01:24:14.638   05 Jun 2027 01:24:41.547            26.909                Anadyr2           840.906
       241   05 Jun 2027 01:25:04.902   05 Jun 2027 01:25:44.153            39.251                Anadyr1          1226.594
       242   05 Jun 2027 01:26:15.124   05 Jun 2027 01:26:56.796            41.672                Anadyr2          1302.250
       243   05 Jun 2027 01:27:17.059   05 Jun 2027 01:27:23.661             6.602               Magadan1           206.312
       244   05 Jun 2027 01:27:26.913   05 Jun 2027 01:28:42.975            76.062                Norilsk          2376.937
       245   05 Jun 2027 01:29:02.188   05 Jun 2027 01:29:59.454            57.266               Magadan1          1789.562
       246   05 Jun 2027 01:30:39.170   05 Jun 2027 01:33:33.883           174.713                Irkutsk          5459.781
       247   05 Jun 2027 01:44:23.353   05 Jun 2027 01:46:28.257           124.904                Sumatra          3903.250
       248   05 Jun 2027 01:47:32.349   05 Jun 2027 01:48:42.227            69.878                Sumatra          2183.687
       249   05 Jun 2027 02:24:31.211   05 Jun 2027 02:24:47.043            15.832            RioGallegos           494.750
       250   05 Jun 2027 02:27:30.544   05 Jun 2027 02:27:59.698            29.154            RioGallegos           911.063
       251   05 Jun 2027 02:59:53.438   05 Jun 2027 03:00:45.608            52.170                Anadyr1          1630.312
       252   05 Jun 2027 03:07:24.443   05 Jun 2027 03:07:50.284            25.841               Magadan2           807.531
       253   05 Jun 2027 03:08:24.885   05 Jun 2027 03:08:51.848            26.963                Irkutsk           842.594
       254   05 Jun 2027 03:09:14.282   05 Jun 2027 03:09:33.427            19.145                Irkutsk           598.281
       255   05 Jun 2027 03:10:23.971   05 Jun 2027 03:10:33.714             9.743                Novosib           304.469
       256   05 Jun 2027 03:10:50.298   05 Jun 2027 03:11:04.764            14.466                Novosib           452.063
       257   05 Jun 2027 03:11:22.641   05 Jun 2027 03:12:26.081            63.440                Norilsk          1982.500
       258   05 Jun 2027 03:12:55.905   05 Jun 2027 03:13:08.317            12.412                Norilsk           387.875
       259   05 Jun 2027 03:13:24.464   05 Jun 2027 03:13:37.766            13.302                Novosib           415.687
       260   05 Jun 2027 03:13:49.656   05 Jun 2027 03:14:14.875            25.219                Irkutsk           788.094
       261   05 Jun 2027 03:14:33.973   05 Jun 2027 03:14:37.406             3.433                Novosib           107.281
       262   05 Jun 2027 03:14:55.567   05 Jun 2027 03:15:07.132            11.565                Irkutsk           361.406
       263   05 Jun 2027 03:15:29.192   05 Jun 2027 03:17:44.570           135.378                Novosib          4230.563
       264   05 Jun 2027 03:17:51.775   05 Jun 2027 03:18:24.771            32.996                Irkutsk          1031.125
       265   05 Jun 2027 03:20:10.599   05 Jun 2027 03:24:19.283           248.684                  Delhi          7771.375
       266   05 Jun 2027 03:55:27.479   05 Jun 2027 04:00:11.191           283.712            RioGallegos          8866.000
       267   05 Jun 2027 04:44:03.852   05 Jun 2027 04:44:16.761            12.909                Irkutsk           403.406
       268   05 Jun 2027 04:45:01.221   05 Jun 2027 04:45:07.841             6.620                Norilsk           206.875
       269   05 Jun 2027 04:45:25.798   05 Jun 2027 04:45:45.851            20.053              Murmansk2           626.656
       270   05 Jun 2027 04:46:10.917   05 Jun 2027 04:46:13.279             2.362              Murmansk2            73.812
       271   05 Jun 2027 04:46:36.183   05 Jun 2027 04:47:51.624            75.441              Murmansk2          2357.531
       272   05 Jun 2027 04:47:51.624   05 Jun 2027 04:48:36.259            44.635              Murmansk1          1394.844
       273   05 Jun 2027 04:48:37.442   05 Jun 2027 04:49:59.126            81.684                Irkutsk          2552.625
       274   05 Jun 2027 04:50:54.536   05 Jun 2027 04:57:04.235           369.699                  Delhi         11553.094
       275   05 Jun 2027 06:23:19.955   05 Jun 2027 06:23:55.002            35.047              Murmansk1          1095.219
       276   05 Jun 2027 06:24:05.460   05 Jun 2027 06:24:35.431            29.971              Murmansk2           936.594
       277   05 Jun 2027 06:24:35.431   05 Jun 2027 06:24:36.700             1.269              Murmansk1            39.656
       278   05 Jun 2027 06:24:44.945   05 Jun 2027 06:24:55.110            10.165                Novosib           317.656
       279   05 Jun 2027 06:24:55.926   05 Jun 2027 06:25:11.589            15.663                Norilsk           489.469
       280   05 Jun 2027 06:25:16.399   05 Jun 2027 06:25:50.414            34.015              Murmansk1          1062.969
       281   05 Jun 2027 06:25:50.414   05 Jun 2027 06:26:17.183            26.769              Murmansk2           836.531
       282   05 Jun 2027 06:26:19.120   05 Jun 2027 06:26:42.778            23.658              Murmansk1           739.313
       283   05 Jun 2027 06:26:42.778   05 Jun 2027 06:27:10.559            27.781              Murmansk2           868.156
       284   05 Jun 2027 06:27:14.211   05 Jun 2027 06:28:12.292            58.081                 Moscow          1815.031
       285   05 Jun 2027 06:28:23.936   05 Jun 2027 06:29:21.718            57.782              Murmansk2          1805.687
       286   05 Jun 2027 06:29:36.395   05 Jun 2027 06:29:53.105            16.710                 Moscow           522.188
       287   05 Jun 2027 06:30:26.694   05 Jun 2027 06:30:47.213            20.519                 Moscow           641.219
       288   05 Jun 2027 06:43:56.819   05 Jun 2027 06:45:02.458            65.639               CapeTown          2051.219
       289   05 Jun 2027 07:47:13.852   05 Jun 2027 07:47:40.176            26.324                Anadyr1           822.625
       290   05 Jun 2027 07:47:40.176   05 Jun 2027 07:47:53.845            13.669                Anadyr2           427.156
       291   05 Jun 2027 07:47:57.199   05 Jun 2027 07:48:53.583            56.384                Anadyr1          1762.000
       292   05 Jun 2027 07:49:36.753   05 Jun 2027 07:50:14.162            37.409                Anadyr2          1169.031
       293   05 Jun 2027 07:57:10.142   05 Jun 2027 07:57:15.120             4.978                 Moscow           155.562
       294   05 Jun 2027 08:22:17.760   05 Jun 2027 08:30:41.662           503.902               CapeTown         15746.937
       295   05 Jun 2027 09:21:17.316   05 Jun 2027 09:23:39.268           141.952                Anadyr2          4436.000
       296   05 Jun 2027 09:24:16.574   05 Jun 2027 09:25:16.235            59.661               Magadan2          1864.406
       297   05 Jun 2027 09:25:34.066   05 Jun 2027 09:27:18.331           104.265                Anadyr1          3258.281
       298   05 Jun 2027 09:27:18.331   05 Jun 2027 09:27:37.724            19.393                Anadyr2           606.031
       299   05 Jun 2027 09:35:33.700   05 Jun 2027 09:36:07.912            34.212                 Moscow          1069.125
       300   05 Jun 2027 10:53:03.403   05 Jun 2027 10:53:10.112             6.709               Magadan2           209.656
       301   05 Jun 2027 10:56:15.539   05 Jun 2027 10:56:31.586            16.047                Irkutsk           501.469
       302   05 Jun 2027 10:57:55.958   05 Jun 2027 10:58:37.518            41.560               Magadan1          1298.750
       303   05 Jun 2027 10:58:37.518   05 Jun 2027 10:59:03.110            25.592               Magadan2           799.750
       304   05 Jun 2027 10:59:07.401   05 Jun 2027 11:02:37.540           210.139               Magadan1          6566.844
       305   05 Jun 2027 11:02:54.019   05 Jun 2027 11:04:56.613           122.594               Magadan2          3831.062
       306   05 Jun 2027 12:17:38.491   05 Jun 2027 12:19:24.175           105.684                Sumatra          3302.625
       307   05 Jun 2027 12:28:07.231   05 Jun 2027 12:29:27.225            79.994                Irkutsk          2499.813
       308   05 Jun 2027 12:33:01.476   05 Jun 2027 12:33:25.939            24.463                Norilsk           764.469
       309   05 Jun 2027 12:33:55.332   05 Jun 2027 12:39:04.451           309.119               Magadan1          9659.969
       310   05 Jun 2027 13:51:47.146   05 Jun 2027 13:53:31.251           104.105                Sumatra          3253.281
       311   05 Jun 2027 13:56:52.795   05 Jun 2027 13:57:09.196            16.401                Sumatra           512.531
       312   05 Jun 2027 13:59:26.321   05 Jun 2027 14:00:06.534            40.213                Sumatra          1256.656
       313   05 Jun 2027 14:04:56.150   05 Jun 2027 14:05:37.488            41.338                Irkutsk          1291.812
       314   05 Jun 2027 14:09:45.465   05 Jun 2027 14:10:06.531            21.066                Irkutsk           658.312
       315   05 Jun 2027 14:13:27.983   05 Jun 2027 14:14:50.895            82.912                Irkutsk          2591.000
       316   05 Jun 2027 14:57:04.128   05 Jun 2027 15:01:21.470           257.342            RioGallegos          8041.937
       317   05 Jun 2027 15:42:51.906   05 Jun 2027 15:43:53.866            61.960                Novosib          1936.250
       318   05 Jun 2027 15:46:51.694   05 Jun 2027 15:47:30.512            38.818                Norilsk          1213.063
       319   05 Jun 2027 15:47:47.780   05 Jun 2027 15:48:13.439            25.659                Novosib           801.844
       320   05 Jun 2027 15:50:19.850   05 Jun 2027 15:53:49.761           209.911                Novosib          6559.719
       321   05 Jun 2027 17:22:28.898   05 Jun 2027 17:23:30.225            61.327              Murmansk1          1916.469
       322   05 Jun 2027 17:27:03.175   05 Jun 2027 17:29:44.955           161.780                Norilsk          5055.625
       323   05 Jun 2027 17:30:34.083   05 Jun 2027 17:32:11.157            97.074                Norilsk          3033.563
       324   05 Jun 2027 17:33:15.714   05 Jun 2027 17:33:21.117             5.403                Norilsk           168.844
       325   05 Jun 2027 18:56:46.112   05 Jun 2027 18:58:19.873            93.761                 Moscow          2930.031
       326   05 Jun 2027 18:59:45.222   05 Jun 2027 19:01:47.402           122.180              Murmansk1          3818.125
       327   05 Jun 2027 19:02:04.552   05 Jun 2027 19:02:21.250            16.698                 Moscow           521.813
       328   05 Jun 2027 19:04:15.302   05 Jun 2027 19:05:24.393            69.091              Murmansk2          2159.094
       329   05 Jun 2027 20:08:35.922   05 Jun 2027 20:09:05.639            29.717               CapeTown           928.656
       330   05 Jun 2027 20:11:20.562   05 Jun 2027 20:13:02.102           101.540               CapeTown          3173.125
       331   05 Jun 2027 20:17:17.405   05 Jun 2027 20:17:57.395            39.990               CapeTown          1249.688
       332   05 Jun 2027 20:39:22.628   05 Jun 2027 20:45:18.598           355.970              Murmansk2         11124.063
       333   05 Jun 2027 20:45:26.189   05 Jun 2027 20:47:01.629            95.440              Murmansk1          2982.500
       334   05 Jun 2027 22:24:59.274   05 Jun 2027 22:28:13.918           194.644                Anadyr1          6082.625
       335   05 Jun 2027 22:28:45.389   05 Jun 2027 22:29:03.409            18.020               Magadan1           563.125
       336   05 Jun 2027 22:29:16.635   05 Jun 2027 22:29:42.420            25.785               Magadan2           805.781
       337   05 Jun 2027 22:30:10.825   05 Jun 2027 22:30:41.209            30.384               Magadan2           949.500
       338   05 Jun 2027 22:31:04.695   05 Jun 2027 22:31:12.938             8.243               Magadan2           257.594
       339   05 Jun 2027 22:31:58.259   05 Jun 2027 22:32:26.499            28.240               Magadan2           882.500
       340   05 Jun 2027 23:21:21.133   05 Jun 2027 23:23:48.421           147.288            RioGallegos          4602.750
       341   05 Jun 2027 23:26:06.130   05 Jun 2027 23:26:29.682            23.552            RioGallegos           736.000
       342   06 Jun 2027 00:00:49.745   06 Jun 2027 00:02:53.207           123.462                Anadyr2          3858.187
       343   06 Jun 2027 00:02:55.544   06 Jun 2027 00:04:45.137           109.593                Norilsk          3424.781
       344   06 Jun 2027 00:05:18.430   06 Jun 2027 00:06:13.920            55.490               Magadan1          1734.063
       345   06 Jun 2027 00:07:56.270   06 Jun 2027 00:09:50.599           114.329                Irkutsk          3572.781
       346   06 Jun 2027 00:15:47.080   06 Jun 2027 00:16:09.695            22.615                Irkutsk           706.719
       347   06 Jun 2027 00:23:04.915   06 Jun 2027 00:25:00.025           115.110                Sumatra          3597.187
       348   06 Jun 2027 00:54:49.830   06 Jun 2027 00:56:09.572            79.742            RioGallegos          2491.937
       349   06 Jun 2027 01:02:54.213   06 Jun 2027 01:03:02.777             8.564            RioGallegos           267.625
       350   06 Jun 2027 01:05:43.888   06 Jun 2027 01:06:04.983            21.095            RioGallegos           659.219
       351   06 Jun 2027 01:36:08.610   06 Jun 2027 01:36:20.030            11.420                Anadyr1           356.875
       352   06 Jun 2027 01:36:20.030   06 Jun 2027 01:36:22.602             2.572                Anadyr2            80.375
       353   06 Jun 2027 01:36:43.447   06 Jun 2027 01:36:58.391            14.944                Anadyr2           467.000
       354   06 Jun 2027 01:37:38.726   06 Jun 2027 01:38:15.196            36.470                Anadyr1          1139.687
       355   06 Jun 2027 01:38:15.196   06 Jun 2027 01:38:32.222            17.026                Anadyr2           532.062
       356   06 Jun 2027 01:38:41.756   06 Jun 2027 01:40:45.320           123.564                Norilsk          3861.375
       357   06 Jun 2027 01:41:02.121   06 Jun 2027 01:42:25.078            82.957               Magadan2          2592.406
       358   06 Jun 2027 01:42:38.180   06 Jun 2027 01:43:59.035            80.855                Irkutsk          2526.719
       359   06 Jun 2027 01:46:01.890   06 Jun 2027 01:46:06.557             4.667                Irkutsk           145.844
       360   06 Jun 2027 01:49:49.322   06 Jun 2027 01:50:04.631            15.309                Irkutsk           478.406
       361   06 Jun 2027 01:53:40.798   06 Jun 2027 01:54:54.626            73.828                  Delhi          2307.125
       362   06 Jun 2027 01:56:48.900   06 Jun 2027 01:59:28.712           159.812                Sumatra          4994.125
       363   06 Jun 2027 02:04:56.511   06 Jun 2027 02:06:12.740            76.229                Sumatra          2382.156
       364   06 Jun 2027 03:19:45.575   06 Jun 2027 03:20:49.935            64.360               Magadan2          2011.250
       365   06 Jun 2027 03:20:49.935   06 Jun 2027 03:20:51.384             1.449               Magadan1            45.281
       366   06 Jun 2027 03:23:05.685   06 Jun 2027 03:23:59.361            53.676                Irkutsk          1677.375
       367   06 Jun 2027 03:24:08.045   06 Jun 2027 03:24:11.627             3.582                Norilsk           111.938
       368   06 Jun 2027 03:24:29.247   06 Jun 2027 03:26:43.802           134.555                Novosib          4204.844
       369   06 Jun 2027 03:26:57.870   06 Jun 2027 03:27:36.417            38.547                Norilsk          1204.594
       370   06 Jun 2027 03:27:44.447   06 Jun 2027 03:28:02.102            17.655                Irkutsk           551.719
       371   06 Jun 2027 03:29:01.723   06 Jun 2027 03:29:24.229            22.506                  Delhi           703.313
       372   06 Jun 2027 03:30:19.136   06 Jun 2027 03:30:20.442             1.306                Irkutsk            40.812
       373   06 Jun 2027 04:07:44.217   06 Jun 2027 04:12:50.014           305.797            RioGallegos          9556.156
       374   06 Jun 2027 04:56:03.288   06 Jun 2027 04:58:26.378           143.090                Irkutsk          4471.562
       375   06 Jun 2027 04:59:59.027   06 Jun 2027 05:00:18.477            19.450              Murmansk2           607.813
       376   06 Jun 2027 05:00:21.278   06 Jun 2027 05:00:38.181            16.903              Murmansk2           528.219
       377   06 Jun 2027 05:00:52.337   06 Jun 2027 05:01:17.015            24.678                 Moscow           771.187
       378   06 Jun 2027 05:01:17.669   06 Jun 2027 05:02:05.287            47.618              Murmansk2          1488.063
       379   06 Jun 2027 05:03:30.328   06 Jun 2027 05:11:16.623           466.295                  Delhi         14571.719
       380   06 Jun 2027 06:32:10.944   06 Jun 2027 06:32:44.588            33.644                Novosib          1051.375
       381   06 Jun 2027 06:35:43.224   06 Jun 2027 06:36:01.939            18.715              Murmansk1           584.844
       382   06 Jun 2027 06:36:04.522   06 Jun 2027 06:36:24.620            20.098              Murmansk2           628.063
       383   06 Jun 2027 06:36:24.620   06 Jun 2027 06:36:37.395            12.775              Murmansk1           399.219
       384   06 Jun 2027 06:36:46.894   06 Jun 2027 06:37:15.226            28.332                Novosib           885.375
       385   06 Jun 2027 06:37:30.597   06 Jun 2027 06:37:56.561            25.964                Norilsk           811.375
       386   06 Jun 2027 06:38:12.664   06 Jun 2027 06:39:01.482            48.818              Murmansk1          1525.562
       387   06 Jun 2027 06:39:01.482   06 Jun 2027 06:39:43.969            42.487              Murmansk2          1327.719
       388   06 Jun 2027 06:39:53.665   06 Jun 2027 06:40:03.771            10.106                 Moscow           315.812
       389   06 Jun 2027 06:40:23.446   06 Jun 2027 06:41:37.816            74.370                 Moscow          2324.062
       390   06 Jun 2027 06:55:55.456   06 Jun 2027 06:56:51.867            56.411               CapeTown          1762.844
       391   06 Jun 2027 06:59:49.098   06 Jun 2027 07:00:06.611            17.513               CapeTown           547.281
       392   06 Jun 2027 07:59:07.982   06 Jun 2027 07:59:55.393            47.411                Anadyr2          1481.594
       393   06 Jun 2027 07:59:55.393   06 Jun 2027 08:00:19.868            24.475                Anadyr1           764.844
       394   06 Jun 2027 08:00:24.294   06 Jun 2027 08:00:31.700             7.406               Magadan1           231.437
       395   06 Jun 2027 08:00:34.230   06 Jun 2027 08:01:26.445            52.215               Magadan1          1631.719
       396   06 Jun 2027 08:01:35.617   06 Jun 2027 08:02:19.095            43.478                Anadyr2          1358.687
       397   06 Jun 2027 08:35:27.325   06 Jun 2027 08:41:49.138           381.813               CapeTown         11931.656
       398   06 Jun 2027 09:33:07.111   06 Jun 2027 09:35:10.052           122.941                Anadyr1          3841.906
       399   06 Jun 2027 09:35:58.894   06 Jun 2027 09:37:13.635            74.741                Anadyr1          2335.656
       400   06 Jun 2027 09:37:13.635   06 Jun 2027 09:39:12.496           118.861                Anadyr2          3714.406
       401   06 Jun 2027 09:41:17.981   06 Jun 2027 09:41:23.817             5.836                Anadyr2           182.375
       402   06 Jun 2027 11:08:07.060   06 Jun 2027 11:08:10.876             3.816               Magadan2           119.250
       403   06 Jun 2027 11:10:03.646   06 Jun 2027 11:10:14.971            11.325                Norilsk           353.906
       404   06 Jun 2027 11:10:27.349   06 Jun 2027 11:10:53.891            26.542               Magadan1           829.437
       405   06 Jun 2027 11:10:53.891   06 Jun 2027 11:14:26.156           212.265               Magadan2          6633.281
       406   06 Jun 2027 11:14:45.343   06 Jun 2027 11:15:10.658            25.315                Norilsk           791.094
       407   06 Jun 2027 11:15:18.034   06 Jun 2027 11:16:53.842            95.808               Magadan2          2994.000
       408   06 Jun 2027 11:51:52.733   06 Jun 2027 11:53:03.777            71.044            RioGallegos          2220.125
       409   06 Jun 2027 12:28:37.606   06 Jun 2027 12:30:30.930           113.324                Sumatra          3541.375
       410   06 Jun 2027 12:40:03.780   06 Jun 2027 12:41:26.335            82.555                Irkutsk          2579.844
       411   06 Jun 2027 12:42:13.091   06 Jun 2027 12:42:54.929            41.838                Irkutsk          1307.438
       412   06 Jun 2027 12:47:38.908   06 Jun 2027 12:50:00.617           141.709               Magadan1          4428.406
       413   06 Jun 2027 13:37:22.981   06 Jun 2027 13:38:01.591            38.610            RioGallegos          1206.563
       414   06 Jun 2027 14:02:34.727   06 Jun 2027 14:02:50.479            15.752                Sumatra           492.250
       415   06 Jun 2027 14:05:24.695   06 Jun 2027 14:07:20.978           116.283                Sumatra          3633.844
       416   06 Jun 2027 14:10:25.609   06 Jun 2027 14:12:20.612           115.003                Sumatra          3593.844
       417   06 Jun 2027 14:17:22.673   06 Jun 2027 14:18:41.098            78.425                Irkutsk          2450.781
       418   06 Jun 2027 14:22:11.881   06 Jun 2027 14:22:49.796            37.915                Irkutsk          1184.844
       419   06 Jun 2027 14:26:49.153   06 Jun 2027 14:27:21.751            32.598                Irkutsk          1018.688
       420   06 Jun 2027 15:47:12.205   06 Jun 2027 15:48:44.077            91.872                  Delhi          2871.000
       421   06 Jun 2027 15:52:27.834   06 Jun 2027 15:52:32.383             4.549                  Delhi           142.156
       422   06 Jun 2027 15:55:22.605   06 Jun 2027 16:01:01.865           339.260                Novosib         10601.875
       423   06 Jun 2027 16:05:25.113   06 Jun 2027 16:05:41.085            15.972                Novosib           499.125
       424   06 Jun 2027 16:09:12.076   06 Jun 2027 16:09:51.210            39.134                Norilsk          1222.938
       425   06 Jun 2027 17:31:45.740   06 Jun 2027 17:32:20.551            34.811                 Moscow          1087.844
       426   06 Jun 2027 17:32:49.457   06 Jun 2027 17:34:20.205            90.748                 Moscow          2835.875
       427   06 Jun 2027 17:36:03.296   06 Jun 2027 17:36:32.188            28.892              Murmansk1           902.875
       428   06 Jun 2027 17:39:53.459   06 Jun 2027 17:45:16.811           323.352                Norilsk         10104.750
       429   06 Jun 2027 19:09:21.258   06 Jun 2027 19:15:18.542           357.284                 Moscow         11165.125
       430   06 Jun 2027 20:23:05.453   06 Jun 2027 20:25:22.985           137.532               CapeTown          4297.875
       431   06 Jun 2027 20:52:06.919   06 Jun 2027 20:58:55.894           408.975              Murmansk2         12780.469
       432   06 Jun 2027 22:37:01.063   06 Jun 2027 22:38:54.641           113.578                Anadyr1          3549.312
       433   06 Jun 2027 22:39:17.852   06 Jun 2027 22:41:17.078           119.226               Magadan1          3725.812
       434   06 Jun 2027 22:42:34.100   06 Jun 2027 22:42:43.913             9.813               Magadan2           306.656
       435   06 Jun 2027 22:43:02.241   06 Jun 2027 22:43:04.879             2.638               Magadan2            82.437
       436   06 Jun 2027 22:43:29.384   06 Jun 2027 22:44:07.954            38.570               Magadan1          1205.312
       437   06 Jun 2027 22:44:51.524   06 Jun 2027 22:46:01.560            70.036               Magadan2          2188.625
       438   06 Jun 2027 23:32:36.963   06 Jun 2027 23:34:47.546           130.583            RioGallegos          4080.719
       439   06 Jun 2027 23:35:27.741   06 Jun 2027 23:35:31.991             4.250            RioGallegos           132.812
       440   06 Jun 2027 23:38:16.469   06 Jun 2027 23:38:54.706            38.237            RioGallegos          1194.906
       441   07 Jun 2027 00:12:49.276   07 Jun 2027 00:14:14.997            85.721                Anadyr2          2678.781
       442   07 Jun 2027 00:14:22.879   07 Jun 2027 00:14:39.496            16.617                Anadyr2           519.281
       443   07 Jun 2027 00:14:53.619   07 Jun 2027 00:16:29.130            95.511                Norilsk          2984.719
       444   07 Jun 2027 00:16:47.752   07 Jun 2027 00:16:57.156             9.404               Magadan1           293.875
       445   07 Jun 2027 00:18:00.215   07 Jun 2027 00:18:39.148            38.933               Magadan1          1216.656
       446   07 Jun 2027 00:19:15.291   07 Jun 2027 00:19:45.379            30.088               Magadan1           940.250
       447   07 Jun 2027 00:19:59.818   07 Jun 2027 00:20:43.808            43.990                Irkutsk          1374.688
       448   07 Jun 2027 00:21:50.994   07 Jun 2027 00:23:01.611            70.617                Irkutsk          2206.781
       449   07 Jun 2027 00:26:05.854   07 Jun 2027 00:26:36.910            31.056                Irkutsk           970.500
       450   07 Jun 2027 00:34:14.844   07 Jun 2027 00:35:54.816            99.972                Sumatra          3124.125
       451   07 Jun 2027 00:43:52.104   07 Jun 2027 00:44:02.400            10.296                Sumatra           321.750
       452   07 Jun 2027 01:06:47.427   07 Jun 2027 01:06:59.440            12.013            RioGallegos           375.406
       453   07 Jun 2027 01:08:09.302   07 Jun 2027 01:08:26.084            16.782            RioGallegos           524.437
       454   07 Jun 2027 01:09:19.444   07 Jun 2027 01:09:42.918            23.474            RioGallegos           733.563
       455   07 Jun 2027 01:11:03.212   07 Jun 2027 01:11:39.404            36.192            RioGallegos          1131.000
       456   07 Jun 2027 01:14:49.782   07 Jun 2027 01:15:04.076            14.294            RioGallegos           446.687
       457   07 Jun 2027 01:18:24.666   07 Jun 2027 01:19:10.895            46.229            RioGallegos          1444.656
       458   07 Jun 2027 01:48:01.403   07 Jun 2027 01:48:03.633             2.230                Anadyr2            69.688
       459   07 Jun 2027 01:48:11.831   07 Jun 2027 01:48:20.857             9.026                Anadyr2           282.062
       460   07 Jun 2027 01:49:38.424   07 Jun 2027 01:49:47.725             9.301                Anadyr2           290.656
       461   07 Jun 2027 01:50:14.851   07 Jun 2027 01:50:34.224            19.373                Anadyr2           605.406
       462   07 Jun 2027 01:50:34.224   07 Jun 2027 01:50:55.806            21.582                Anadyr1           674.438
       463   07 Jun 2027 01:51:23.811   07 Jun 2027 01:51:32.501             8.690               Magadan1           271.563
       464   07 Jun 2027 01:51:34.717   07 Jun 2027 01:52:56.019            81.302               Magadan2          2540.688
       465   07 Jun 2027 01:53:06.616   07 Jun 2027 01:54:12.750            66.134               Magadan1          2066.688
       466   07 Jun 2027 01:54:38.270   07 Jun 2027 01:55:36.128            57.858                Irkutsk          1808.063
       467   07 Jun 2027 01:55:36.238   07 Jun 2027 01:55:37.734             1.496                Novosib            46.750
       468   07 Jun 2027 01:55:48.076   07 Jun 2027 01:56:27.869            39.793                Novosib          1243.531
       469   07 Jun 2027 02:00:04.045   07 Jun 2027 02:01:02.330            58.285                Irkutsk          1821.406
       470   07 Jun 2027 02:07:39.172   07 Jun 2027 02:07:43.017             3.845                  Delhi           120.156
       471   07 Jun 2027 02:08:41.617   07 Jun 2027 02:09:26.690            45.073                Sumatra          1408.531
       472   07 Jun 2027 02:11:19.155   07 Jun 2027 02:13:39.131           139.976                Sumatra          4374.250
       473   07 Jun 2027 02:48:20.595   07 Jun 2027 02:49:55.732            95.137            RioGallegos          2973.031
       474   07 Jun 2027 03:31:36.309   07 Jun 2027 03:31:54.367            18.058               Magadan1           564.313
       475   07 Jun 2027 03:31:54.367   07 Jun 2027 03:32:24.354            29.987               Magadan2           937.094
       476   07 Jun 2027 03:33:48.756   07 Jun 2027 03:34:03.281            14.525                Norilsk           453.906
       477   07 Jun 2027 03:35:33.285   07 Jun 2027 03:36:47.183            73.898                Irkutsk          2309.313
       478   07 Jun 2027 03:37:41.351   07 Jun 2027 03:38:00.621            19.270                Novosib           602.188
       479   07 Jun 2027 03:38:19.147   07 Jun 2027 03:39:18.428            59.281                Norilsk          1852.531
       480   07 Jun 2027 03:40:02.766   07 Jun 2027 03:42:00.309           117.543                Irkutsk          3673.219
       481   07 Jun 2027 03:42:18.851   07 Jun 2027 03:43:15.011            56.160                Novosib          1755.000
       482   07 Jun 2027 03:44:39.183   07 Jun 2027 03:47:29.095           169.912                  Delhi          5309.750
