uniorb/output/strategy_2/Drop/Drop_KinoSat_111402.txt

KinoSat_111402
-------------------------
    Access    *     Start Time (UTCG)     *     Stop Time (UTCG)  *   Duration (s)        *       Station  *  Data (Mbytes)
         1   01 Jun 2027 03:54:21.124   01 Jun 2027 03:54:49.174            28.050                Novosib           876.562
         2   01 Jun 2027 03:55:12.502   01 Jun 2027 03:56:23.616            71.114              Murmansk2          2222.313
         3   01 Jun 2027 03:57:25.103   01 Jun 2027 03:57:42.865            17.762              Murmansk2           555.063
         4   01 Jun 2027 03:58:13.604   01 Jun 2027 03:59:00.151            46.547              Murmansk2          1454.594
         5   01 Jun 2027 05:17:20.155   01 Jun 2027 05:17:20.478             0.323               Magadan2            10.094
         6   01 Jun 2027 05:17:27.956   01 Jun 2027 05:19:21.967           114.011               Magadan2          3562.844
         7   01 Jun 2027 05:19:21.967   01 Jun 2027 05:21:10.792           108.825               Magadan1          3400.781
         8   01 Jun 2027 05:21:10.792   01 Jun 2027 05:23:07.799           117.007               Magadan2          3656.469
         9   01 Jun 2027 06:53:14.196   01 Jun 2027 06:55:10.340           116.144               Magadan2          3629.500
        10   01 Jun 2027 06:55:15.538   01 Jun 2027 06:57:07.751           112.213               Magadan1          3506.656
        11   01 Jun 2027 06:57:26.055   01 Jun 2027 06:58:22.224            56.169               Magadan1          1755.281
        12   01 Jun 2027 08:29:26.889   01 Jun 2027 08:30:20.241            53.352                Irkutsk          1667.250
        13   01 Jun 2027 08:30:20.905   01 Jun 2027 08:30:33.921            13.016                Irkutsk           406.750
        14   01 Jun 2027 08:31:06.339   01 Jun 2027 08:34:16.345           190.006                Anadyr1          5937.688
        15   01 Jun 2027 08:34:21.576   01 Jun 2027 08:34:31.806            10.230                Norilsk           319.688
        16   01 Jun 2027 08:34:57.344   01 Jun 2027 08:35:11.306            13.962              Murmansk1           436.312
        17   01 Jun 2027 08:35:27.606   01 Jun 2027 08:36:32.135            64.529                Norilsk          2016.531
        18   01 Jun 2027 08:36:50.020   01 Jun 2027 08:38:23.901            93.881              Murmansk1          2933.781
        19   01 Jun 2027 08:38:32.669   01 Jun 2027 08:38:57.938            25.269                Norilsk           789.656
        20   01 Jun 2027 08:39:01.857   01 Jun 2027 08:39:39.073            37.216              Murmansk2          1163.000
        21   01 Jun 2027 08:40:32.277   01 Jun 2027 08:40:36.702             4.425              Murmansk2           138.281
        22   01 Jun 2027 08:41:04.200   01 Jun 2027 08:41:24.094            19.894              Murmansk1           621.687
        23   01 Jun 2027 09:10:02.244   01 Jun 2027 09:11:31.300            89.056            RioGallegos          2783.000
        24   01 Jun 2027 09:12:45.182   01 Jun 2027 09:13:24.880            39.698            RioGallegos          1240.562
        25   01 Jun 2027 09:47:31.459   01 Jun 2027 09:49:23.397           111.938                Sumatra          3498.062
        26   01 Jun 2027 10:05:04.447   01 Jun 2027 10:07:05.267           120.820                Irkutsk          3775.625
        27   01 Jun 2027 10:07:24.172   01 Jun 2027 10:08:56.126            91.954               Magadan2          2873.562
        28   01 Jun 2027 10:09:26.048   01 Jun 2027 10:10:53.180            87.132                Irkutsk          2722.875
        29   01 Jun 2027 10:46:55.334   01 Jun 2027 10:47:05.994            10.660            RioGallegos           333.125
        30   01 Jun 2027 11:20:26.821   01 Jun 2027 11:21:47.728            80.907                Sumatra          2528.344
        31   01 Jun 2027 11:29:23.628   01 Jun 2027 11:29:44.178            20.550                Sumatra           642.187
        32   01 Jun 2027 11:40:41.445   01 Jun 2027 11:40:55.208            13.763                  Delhi           430.094
        33   01 Jun 2027 11:42:16.730   01 Jun 2027 11:42:21.442             4.712                Norilsk           147.250
        34   01 Jun 2027 11:42:28.776   01 Jun 2027 11:45:27.298           178.522              Murmansk1          5578.812
        35   01 Jun 2027 11:45:37.189   01 Jun 2027 11:46:24.518            47.329                Irkutsk          1479.031
        36   01 Jun 2027 11:46:33.759   01 Jun 2027 11:46:49.954            16.195              Murmansk1           506.094
        37   01 Jun 2027 11:47:02.310   01 Jun 2027 11:48:41.445            99.135              Murmansk1          3097.969
        38   01 Jun 2027 11:48:49.538   01 Jun 2027 11:48:58.914             9.376                 Moscow           293.000
        39   01 Jun 2027 11:50:33.566   01 Jun 2027 11:51:49.807            76.241                Norilsk          2382.531
        40   01 Jun 2027 12:27:21.167   01 Jun 2027 12:30:36.690           195.523            RioGallegos          6110.094
        41   01 Jun 2027 13:04:55.152   01 Jun 2027 13:04:59.460             4.308                  Delhi           134.625
        42   01 Jun 2027 13:12:56.129   01 Jun 2027 13:13:31.577            35.448                Novosib          1107.750
        43   01 Jun 2027 13:14:19.580   01 Jun 2027 13:16:45.297           145.717                Novosib          4553.656
        44   01 Jun 2027 13:16:54.728   01 Jun 2027 13:17:08.066            13.338              Murmansk2           416.812
        45   01 Jun 2027 13:17:19.053   01 Jun 2027 13:17:36.464            17.411                Norilsk           544.094
        46   01 Jun 2027 13:17:39.708   01 Jun 2027 13:18:00.746            21.038                Novosib           657.438
        47   01 Jun 2027 13:19:50.983   01 Jun 2027 13:20:18.747            27.764                Norilsk           867.625
        48   01 Jun 2027 14:49:00.643   01 Jun 2027 14:52:08.600           187.957                 Moscow          5873.656
        49   01 Jun 2027 14:52:19.446   01 Jun 2027 14:52:56.604            37.158                 Moscow          1161.188
        50   01 Jun 2027 14:53:47.686   01 Jun 2027 14:55:48.766           121.080              Murmansk2          3783.750
        51   01 Jun 2027 14:56:10.077   01 Jun 2027 14:56:24.153            14.076              Murmansk2           439.875
        52   01 Jun 2027 14:57:11.814   01 Jun 2027 14:59:51.566           159.752                Norilsk          4992.250
        53   01 Jun 2027 15:01:50.504   01 Jun 2027 15:01:56.528             6.024                Norilsk           188.250
        54   01 Jun 2027 16:03:15.091   01 Jun 2027 16:06:22.899           187.808               CapeTown          5869.000
        55   01 Jun 2027 16:26:50.859   01 Jun 2027 16:27:32.309            41.450                 Moscow          1295.312
        56   01 Jun 2027 16:29:48.499   01 Jun 2027 16:29:52.386             3.887              Murmansk1           121.469
        57   01 Jun 2027 16:30:05.811   01 Jun 2027 16:32:00.417           114.606              Murmansk2          3581.437
        58   01 Jun 2027 16:33:52.797   01 Jun 2027 16:35:31.610            98.813              Murmansk1          3087.906
        59   01 Jun 2027 16:43:25.419   01 Jun 2027 16:44:25.121            59.702                Anadyr1          1865.688
        60   01 Jun 2027 16:45:23.209   01 Jun 2027 16:46:05.849            42.640                Anadyr2          1332.500
        61   01 Jun 2027 16:50:15.629   01 Jun 2027 16:50:32.584            16.955                Anadyr2           529.844
        62   01 Jun 2027 16:51:59.506   01 Jun 2027 16:52:26.833            27.327                Anadyr2           853.969
        63   01 Jun 2027 16:52:35.139   01 Jun 2027 16:52:49.428            14.289                Anadyr2           446.531
        64   01 Jun 2027 16:53:14.430   01 Jun 2027 16:53:32.587            18.157                Anadyr2           567.406
        65   01 Jun 2027 17:38:36.998   01 Jun 2027 17:38:53.875            16.877               CapeTown           527.406
        66   01 Jun 2027 17:40:31.460   01 Jun 2027 17:40:35.048             3.588               CapeTown           112.125
        67   01 Jun 2027 17:41:19.779   01 Jun 2027 17:42:50.053            90.274               CapeTown          2821.063
        68   01 Jun 2027 17:49:20.022   01 Jun 2027 17:49:39.538            19.516               CapeTown           609.875
        69   01 Jun 2027 18:09:29.800   01 Jun 2027 18:14:22.462           292.662              Murmansk2          9145.688
        70   01 Jun 2027 18:22:12.347   01 Jun 2027 18:23:09.573            57.226               Magadan2          1788.312
        71   01 Jun 2027 18:24:06.667   01 Jun 2027 18:24:28.674            22.007               Magadan1           687.719
        72   01 Jun 2027 18:25:16.678   01 Jun 2027 18:25:32.666            15.988               Magadan2           499.625
        73   01 Jun 2027 18:28:31.134   01 Jun 2027 18:28:38.815             7.681               Magadan2           240.031
        74   01 Jun 2027 18:29:43.945   01 Jun 2027 18:30:08.937            24.992               Magadan2           781.000
        75   01 Jun 2027 18:31:23.830   01 Jun 2027 18:31:45.053            21.223                Anadyr2           663.219
        76   01 Jun 2027 19:54:59.635   01 Jun 2027 20:00:50.587           350.952                Anadyr2         10967.250
        77   01 Jun 2027 20:01:00.366   01 Jun 2027 20:03:00.483           120.117               Magadan2          3753.656
        78   01 Jun 2027 20:05:04.935   01 Jun 2027 20:05:13.730             8.795               Magadan2           274.844
        79   01 Jun 2027 20:05:36.534   01 Jun 2027 20:05:50.007            13.473               Magadan2           421.031
        80   01 Jun 2027 20:06:06.433   01 Jun 2027 20:06:34.094            27.661               Magadan1           864.406
        81   01 Jun 2027 20:07:02.993   01 Jun 2027 20:07:29.081            26.088               Magadan1           815.250
        82   01 Jun 2027 20:08:07.661   01 Jun 2027 20:08:26.632            18.971               Magadan1           592.844
        83   01 Jun 2027 20:08:56.554   01 Jun 2027 20:09:23.248            26.694               Magadan1           834.188
        84   01 Jun 2027 20:51:19.144   01 Jun 2027 20:52:29.613            70.469            RioGallegos          2202.156
        85   01 Jun 2027 20:52:53.552   01 Jun 2027 20:52:57.326             3.774            RioGallegos           117.938
        86   01 Jun 2027 20:53:43.573   01 Jun 2027 20:54:33.142            49.569            RioGallegos          1549.031
        87   01 Jun 2027 20:56:10.059   01 Jun 2027 20:56:37.072            27.013            RioGallegos           844.156
        88   01 Jun 2027 21:31:11.787   01 Jun 2027 21:33:11.059           119.272                Anadyr1          3727.250
        89   01 Jun 2027 21:33:13.109   01 Jun 2027 21:34:20.419            67.310               Magadan1          2103.438
        90   01 Jun 2027 21:34:35.957   01 Jun 2027 21:35:24.776            48.819                Norilsk          1525.594
        91   01 Jun 2027 21:35:44.873   01 Jun 2027 21:35:48.823             3.950                Norilsk           123.437
        92   01 Jun 2027 21:35:57.697   01 Jun 2027 21:36:36.797            39.100                Norilsk          1221.875
        93   01 Jun 2027 21:37:56.402   01 Jun 2027 21:40:04.293           127.891                Irkutsk          3996.594
        94   01 Jun 2027 21:44:29.555   01 Jun 2027 21:45:11.273            41.718                Irkutsk          1303.688
        95   01 Jun 2027 21:52:59.508   01 Jun 2027 21:54:32.142            92.634                Sumatra          2894.813
        96   01 Jun 2027 21:56:34.163   01 Jun 2027 21:58:12.434            98.271                Sumatra          3070.969
        97   01 Jun 2027 22:36:07.936   01 Jun 2027 22:36:53.387            45.451            RioGallegos          1420.344
        98   01 Jun 2027 23:06:06.639   01 Jun 2027 23:06:25.360            18.721                Anadyr1           585.031
        99   01 Jun 2027 23:06:33.172   01 Jun 2027 23:06:35.995             2.823                Anadyr1            88.219
       100   01 Jun 2027 23:06:54.511   01 Jun 2027 23:07:05.860            11.349                Anadyr1           354.656
       101   01 Jun 2027 23:07:22.825   01 Jun 2027 23:08:45.547            82.722                Anadyr1          2585.063
       102   01 Jun 2027 23:09:19.867   01 Jun 2027 23:09:53.403            33.536               Magadan2          1048.000
       103   01 Jun 2027 23:10:11.110   01 Jun 2027 23:10:31.003            19.893               Magadan1           621.656
       104   01 Jun 2027 23:11:44.371   01 Jun 2027 23:12:36.399            52.028               Magadan1          1625.875
       105   01 Jun 2027 23:13:20.797   01 Jun 2027 23:13:46.375            25.578                Novosib           799.313
       106   01 Jun 2027 23:15:26.628   01 Jun 2027 23:15:30.148             3.520                Norilsk           110.000
       107   01 Jun 2027 23:15:40.814   01 Jun 2027 23:15:43.600             2.786               Magadan1            87.063
       108   01 Jun 2027 23:15:44.383   01 Jun 2027 23:16:02.410            18.027                Norilsk           563.344
       109   01 Jun 2027 23:16:07.346   01 Jun 2027 23:16:42.864            35.518                Novosib          1109.938
       110   01 Jun 2027 23:17:49.124   01 Jun 2027 23:18:19.257            30.133                Norilsk           941.656
       111   01 Jun 2027 23:19:40.199   01 Jun 2027 23:20:24.705            44.506                Irkutsk          1390.812
       112   01 Jun 2027 23:21:57.757   01 Jun 2027 23:22:50.857            53.100                Novosib          1659.375
       113   01 Jun 2027 23:24:28.339   01 Jun 2027 23:25:27.006            58.667                Irkutsk          1833.344
       114   01 Jun 2027 23:36:45.220   01 Jun 2027 23:38:15.619            90.399                Sumatra          2824.969
       115   02 Jun 2027 00:09:27.268   02 Jun 2027 00:10:21.731            54.463            RioGallegos          1701.969
       116   02 Jun 2027 00:12:49.310   02 Jun 2027 00:12:55.195             5.885            RioGallegos           183.906
       117   02 Jun 2027 00:40:15.440   02 Jun 2027 00:40:22.973             7.533                Anadyr1           235.406
       118   02 Jun 2027 00:40:37.723   02 Jun 2027 00:41:17.257            39.534                Anadyr1          1235.437
       119   02 Jun 2027 00:42:21.078   02 Jun 2027 00:42:37.162            16.084                Anadyr1           502.625
       120   02 Jun 2027 00:42:44.605   02 Jun 2027 00:42:58.938            14.333                Anadyr2           447.906
       121   02 Jun 2027 00:43:44.130   02 Jun 2027 00:44:07.188            23.058                Anadyr2           720.563
       122   02 Jun 2027 00:44:43.831   02 Jun 2027 00:45:13.636            29.805                Norilsk           931.406
       123   02 Jun 2027 00:45:19.608   02 Jun 2027 00:46:00.218            40.610               Magadan2          1269.063
       124   02 Jun 2027 00:46:00.218   02 Jun 2027 00:46:23.440            23.222               Magadan1           725.687
       125   02 Jun 2027 00:47:22.435   02 Jun 2027 00:48:30.408            67.973               Magadan1          2124.156
       126   02 Jun 2027 00:48:44.997   02 Jun 2027 00:48:49.259             4.262              Murmansk2           133.188
       127   02 Jun 2027 00:48:51.487   02 Jun 2027 00:49:23.817            32.330              Murmansk1          1010.312
       128   02 Jun 2027 00:51:27.435   02 Jun 2027 00:52:36.614            69.179              Murmansk2          2161.844
       129   02 Jun 2027 00:55:58.593   02 Jun 2027 00:56:17.496            18.903                Irkutsk           590.719
       130   02 Jun 2027 00:57:50.885   02 Jun 2027 00:58:25.691            34.806                Novosib          1087.687
       131   02 Jun 2027 00:59:32.579   02 Jun 2027 01:00:02.411            29.832                Novosib           932.250
       132   02 Jun 2027 01:02:41.844   02 Jun 2027 01:03:22.200            40.356                  Delhi          1261.125
       133   02 Jun 2027 01:05:06.793   02 Jun 2027 01:05:51.619            44.826                  Delhi          1400.813
       134   02 Jun 2027 01:40:47.690   02 Jun 2027 01:41:35.067            47.377            RioGallegos          1480.531
       135   02 Jun 2027 01:43:56.675   02 Jun 2027 01:44:46.840            50.165            RioGallegos          1567.656
       136   02 Jun 2027 02:13:59.704   02 Jun 2027 02:14:14.924            15.220                Anadyr2           475.625
       137   02 Jun 2027 02:15:13.356   02 Jun 2027 02:15:58.310            44.954                Anadyr2          1404.812
       138   02 Jun 2027 02:18:01.915   02 Jun 2027 02:18:19.875            17.960                Anadyr1           561.250
       139   02 Jun 2027 02:19:14.916   02 Jun 2027 02:19:21.291             6.375                Anadyr2           199.219
       140   02 Jun 2027 02:19:24.605   02 Jun 2027 02:19:28.562             3.957                Anadyr1           123.656
       141   02 Jun 2027 02:19:38.456   02 Jun 2027 02:20:03.175            24.719               Magadan2           772.469
       142   02 Jun 2027 02:20:16.858   02 Jun 2027 02:20:29.415            12.557               Magadan1           392.406
       143   02 Jun 2027 02:20:39.571   02 Jun 2027 02:20:54.264            14.693                Norilsk           459.156
       144   02 Jun 2027 02:21:45.565   02 Jun 2027 02:22:06.349            20.784               Magadan1           649.500
       145   02 Jun 2027 02:22:06.349   02 Jun 2027 02:22:32.913            26.564               Magadan2           830.125
       146   02 Jun 2027 02:22:54.138   02 Jun 2027 02:23:01.328             7.190              Murmansk2           224.688
       147   02 Jun 2027 02:23:25.809   02 Jun 2027 02:23:42.348            16.539              Murmansk1           516.844
       148   02 Jun 2027 02:24:48.502   02 Jun 2027 02:25:50.901            62.399                Novosib          1949.969
       149   02 Jun 2027 02:29:26.527   02 Jun 2027 02:30:16.247            49.720              Murmansk1          1553.750
       150   02 Jun 2027 02:32:48.509   02 Jun 2027 02:33:03.592            15.083                 Moscow           471.344
       151   02 Jun 2027 02:34:15.637   02 Jun 2027 02:34:57.574            41.937                Novosib          1310.531
       152   02 Jun 2027 02:36:34.325   02 Jun 2027 02:38:29.690           115.365                  Delhi          3605.156
       153   02 Jun 2027 04:07:04.341   02 Jun 2027 04:07:26.600            22.259              Murmansk1           695.594
       154   02 Jun 2027 04:08:31.751   02 Jun 2027 04:08:42.933            11.182              Murmansk1           349.437
       155   02 Jun 2027 04:08:48.321   02 Jun 2027 04:09:45.848            57.527              Murmansk1          1797.719
       156   02 Jun 2027 04:09:45.848   02 Jun 2027 04:10:30.183            44.335              Murmansk2          1385.469
       157   02 Jun 2027 05:30:08.184   02 Jun 2027 05:35:36.215           328.031                Anadyr1         10250.969
       158   02 Jun 2027 07:07:43.807   02 Jun 2027 07:08:27.645            43.838                Anadyr1          1369.938
       159   02 Jun 2027 08:39:48.796   02 Jun 2027 08:40:37.273            48.477                Irkutsk          1514.906
       160   02 Jun 2027 08:41:21.918   02 Jun 2027 08:44:42.729           200.811                Anadyr1          6275.344
       161   02 Jun 2027 08:44:42.729   02 Jun 2027 08:45:50.056            67.327                Anadyr2          2103.969
       162   02 Jun 2027 08:46:13.312   02 Jun 2027 08:46:33.582            20.270                Norilsk           633.437
       163   02 Jun 2027 08:46:45.974   02 Jun 2027 08:47:06.047            20.073              Murmansk2           627.281
       164   02 Jun 2027 08:49:30.616   02 Jun 2027 08:49:59.684            29.068              Murmansk1           908.375
       165   02 Jun 2027 08:50:11.816   02 Jun 2027 08:50:34.995            23.179              Murmansk2           724.344
       166   02 Jun 2027 08:55:55.636   02 Jun 2027 08:56:07.321            11.685              Murmansk2           365.156
       167   02 Jun 2027 09:21:51.957   02 Jun 2027 09:23:20.518            88.561            RioGallegos          2767.531
       168   02 Jun 2027 09:58:33.289   02 Jun 2027 09:59:46.643            73.354                Sumatra          2292.313
       169   02 Jun 2027 10:17:05.065   02 Jun 2027 10:17:45.820            40.755                Irkutsk          1273.594
       170   02 Jun 2027 10:17:48.455   02 Jun 2027 10:18:32.043            43.588                Novosib          1362.125
       171   02 Jun 2027 10:18:41.155   02 Jun 2027 10:18:53.712            12.557                Norilsk           392.406
       172   02 Jun 2027 10:19:02.896   02 Jun 2027 10:19:09.172             6.276                Irkutsk           196.125
       173   02 Jun 2027 10:19:16.521   02 Jun 2027 10:19:17.583             1.062                Novosib            33.188
       174   02 Jun 2027 10:19:24.982   02 Jun 2027 10:19:33.502             8.520               Magadan2           266.250
       175   02 Jun 2027 10:19:37.922   02 Jun 2027 10:20:46.234            68.312                Irkutsk          2134.750
       176   02 Jun 2027 10:20:50.014   02 Jun 2027 10:21:16.349            26.335              Murmansk2           822.969
       177   02 Jun 2027 10:21:22.999   02 Jun 2027 10:22:02.886            39.887                Norilsk          1246.469
       178   02 Jun 2027 10:22:10.251   02 Jun 2027 10:22:25.266            15.015                Irkutsk           469.219
       179   02 Jun 2027 10:22:28.022   02 Jun 2027 10:23:06.530            38.508              Murmansk2          1203.375
       180   02 Jun 2027 10:26:00.790   02 Jun 2027 10:26:56.257            55.467              Murmansk1          1733.344
       181   02 Jun 2027 10:59:09.299   02 Jun 2027 10:59:39.492            30.193            RioGallegos           943.531
       182   02 Jun 2027 11:07:12.262   02 Jun 2027 11:07:59.878            47.616            RioGallegos          1488.000
       183   02 Jun 2027 11:35:23.826   02 Jun 2027 11:37:07.563           103.737                Sumatra          3241.781
       184   02 Jun 2027 11:53:22.741   02 Jun 2027 11:54:31.723            68.982                Novosib          2155.687
       185   02 Jun 2027 11:54:38.195   02 Jun 2027 11:55:02.737            24.542                Norilsk           766.938
       186   02 Jun 2027 11:55:16.151   02 Jun 2027 11:56:04.270            48.119              Murmansk1          1503.719
       187   02 Jun 2027 11:56:06.558   02 Jun 2027 11:56:20.127            13.569                Norilsk           424.031
       188   02 Jun 2027 11:56:21.751   02 Jun 2027 11:56:34.391            12.640                 Moscow           395.000
       189   02 Jun 2027 11:56:39.906   02 Jun 2027 11:57:08.285            28.379                Novosib           886.844
       190   02 Jun 2027 11:57:11.335   02 Jun 2027 11:57:26.331            14.996                Irkutsk           468.625
       191   02 Jun 2027 11:57:32.031   02 Jun 2027 11:57:49.214            17.183              Murmansk1           536.969
       192   02 Jun 2027 11:57:52.675   02 Jun 2027 11:57:53.614             0.939              Murmansk1            29.344
       193   02 Jun 2027 11:58:02.796   02 Jun 2027 11:58:17.429            14.633                Norilsk           457.281
       194   02 Jun 2027 11:58:21.139   02 Jun 2027 11:58:47.563            26.424                Norilsk           825.750
       195   02 Jun 2027 12:00:26.859   02 Jun 2027 12:00:28.853             1.994              Murmansk1            62.313
       196   02 Jun 2027 12:00:49.710   02 Jun 2027 12:01:11.383            21.673                 Moscow           677.281
       197   02 Jun 2027 12:01:17.956   02 Jun 2027 12:01:20.492             2.536              Murmansk2            79.250
       198   02 Jun 2027 12:01:41.292   02 Jun 2027 12:02:15.732            34.440              Murmansk2          1076.250
       199   02 Jun 2027 12:02:38.187   02 Jun 2027 12:03:51.998            73.811                Norilsk          2306.594
       200   02 Jun 2027 13:17:14.996   02 Jun 2027 13:18:12.783            57.787                  Delhi          1805.844
       201   02 Jun 2027 13:21:57.295   02 Jun 2027 13:22:46.473            49.178                  Delhi          1536.812
       202   02 Jun 2027 13:23:29.799   02 Jun 2027 13:24:12.883            43.084                  Delhi          1346.375
       203   02 Jun 2027 13:25:27.190   02 Jun 2027 13:27:00.451            93.261                Novosib          2914.406
       204   02 Jun 2027 13:28:10.370   02 Jun 2027 13:28:39.836            29.466                  Delhi           920.813
       205   02 Jun 2027 13:28:43.720   02 Jun 2027 13:30:35.022           111.302                Novosib          3478.188
       206   02 Jun 2027 13:32:20.944   02 Jun 2027 13:32:45.593            24.649                Norilsk           770.281
       207   02 Jun 2027 13:34:20.019   02 Jun 2027 13:34:36.617            16.598                Norilsk           518.688
       208   02 Jun 2027 13:34:37.994   02 Jun 2027 13:35:30.376            52.382                Novosib          1636.938
       209   02 Jun 2027 15:01:04.531   02 Jun 2027 15:05:07.860           243.329                 Moscow          7604.031
       210   02 Jun 2027 15:05:20.411   02 Jun 2027 15:05:58.618            38.207              Murmansk1          1193.969
       211   02 Jun 2027 15:06:16.109   02 Jun 2027 15:07:30.348            74.239              Murmansk2          2319.969
       212   02 Jun 2027 15:10:03.100   02 Jun 2027 15:11:20.308            77.208                Norilsk          2412.750
       213   02 Jun 2027 15:11:48.419   02 Jun 2027 15:12:07.493            19.074                Norilsk           596.063
       214   02 Jun 2027 15:13:37.661   02 Jun 2027 15:13:56.949            19.288                Norilsk           602.750
       215   02 Jun 2027 15:14:32.538   02 Jun 2027 15:14:39.914             7.376                Norilsk           230.500
       216   02 Jun 2027 16:15:43.758   02 Jun 2027 16:16:10.241            26.483               CapeTown           827.594
       217   02 Jun 2027 16:16:26.738   02 Jun 2027 16:17:01.314            34.576               CapeTown          1080.500
       218   02 Jun 2027 16:21:24.370   02 Jun 2027 16:22:05.849            41.479               CapeTown          1296.219
       219   02 Jun 2027 16:25:47.875   02 Jun 2027 16:26:08.023            20.148               CapeTown           629.625
       220   02 Jun 2027 16:39:26.466   02 Jun 2027 16:39:49.861            23.395                 Moscow           731.094
       221   02 Jun 2027 16:40:33.036   02 Jun 2027 16:41:08.754            35.718                 Moscow          1116.187
       222   02 Jun 2027 16:42:39.906   02 Jun 2027 16:44:24.191           104.285                 Moscow          3258.906
       223   02 Jun 2027 16:55:22.315   02 Jun 2027 16:56:57.974            95.659                Anadyr2          2989.344
       224   02 Jun 2027 16:59:20.185   02 Jun 2027 16:59:46.165            25.980                Anadyr2           811.875
       225   02 Jun 2027 17:00:37.322   02 Jun 2027 17:00:43.848             6.526                Anadyr1           203.937
       226   02 Jun 2027 17:00:47.490   02 Jun 2027 17:01:07.829            20.339                Anadyr2           635.594
       227   02 Jun 2027 17:04:20.454   02 Jun 2027 17:04:54.961            34.507                Anadyr1          1078.344
       228   02 Jun 2027 17:55:31.869   02 Jun 2027 17:55:45.571            13.702               CapeTown           428.188
       229   02 Jun 2027 17:57:08.266   02 Jun 2027 17:57:40.439            32.173               CapeTown          1005.406
       230   02 Jun 2027 18:00:20.597   02 Jun 2027 18:00:33.332            12.735               CapeTown           397.969
       231   02 Jun 2027 18:01:32.408   02 Jun 2027 18:02:02.454            30.046               CapeTown           938.937
       232   02 Jun 2027 18:22:14.617   02 Jun 2027 18:25:41.291           206.674              Murmansk2          6458.562
       233   02 Jun 2027 18:31:05.112   02 Jun 2027 18:31:46.130            41.018                Anadyr1          1281.813
       234   02 Jun 2027 18:34:01.164   02 Jun 2027 18:34:50.443            49.279               Magadan1          1539.969
       235   02 Jun 2027 18:35:01.185   02 Jun 2027 18:35:13.416            12.231               Magadan1           382.219
       236   02 Jun 2027 18:35:59.622   02 Jun 2027 18:36:31.275            31.653               Magadan2           989.156
       237   02 Jun 2027 18:38:37.173   02 Jun 2027 18:39:04.104            26.931               Magadan2           841.594
       238   02 Jun 2027 20:07:01.115   02 Jun 2027 20:10:02.690           181.575                Anadyr2          5674.219
       239   02 Jun 2027 20:10:02.690   02 Jun 2027 20:10:04.495             1.805                Anadyr1            56.406
       240   02 Jun 2027 20:10:16.829   02 Jun 2027 20:13:35.773           198.944               Magadan1          6217.000
       241   02 Jun 2027 20:13:35.773   02 Jun 2027 20:13:37.734             1.961               Magadan2            61.281
       242   02 Jun 2027 20:13:44.112   02 Jun 2027 20:13:55.771            11.659               Magadan2           364.344
       243   02 Jun 2027 20:14:43.957   02 Jun 2027 20:15:48.533            64.576               Magadan1          2018.000
       244   02 Jun 2027 21:02:36.331   02 Jun 2027 21:05:14.548           158.217            RioGallegos          4944.281
       245   02 Jun 2027 21:08:04.463   02 Jun 2027 21:08:44.246            39.783            RioGallegos          1243.219
       246   02 Jun 2027 21:43:13.038   02 Jun 2027 21:44:06.085            53.047                Anadyr2          1657.719
       247   02 Jun 2027 21:44:09.660   02 Jun 2027 21:44:56.145            46.485                Anadyr2          1452.656
       248   02 Jun 2027 21:44:57.568   02 Jun 2027 21:46:03.653            66.085                Norilsk          2065.156
       249   02 Jun 2027 21:47:15.568   02 Jun 2027 21:47:39.136            23.568                Norilsk           736.500
       250   02 Jun 2027 21:48:22.203   02 Jun 2027 21:48:36.617            14.414                Norilsk           450.437
       251   02 Jun 2027 21:49:38.372   02 Jun 2027 21:50:33.887            55.515                Irkutsk          1734.844
       252   02 Jun 2027 21:52:01.867   02 Jun 2027 21:52:35.387            33.520                Irkutsk          1047.500
       253   02 Jun 2027 21:54:21.075   02 Jun 2027 21:54:24.490             3.415                Irkutsk           106.719
       254   02 Jun 2027 21:55:39.580   02 Jun 2027 21:56:01.609            22.029                Irkutsk           688.406
       255   02 Jun 2027 22:04:11.313   02 Jun 2027 22:06:47.349           156.036                Sumatra          4876.125
       256   02 Jun 2027 23:17:59.076   02 Jun 2027 23:18:38.261            39.185                Anadyr2          1224.531
       257   02 Jun 2027 23:18:50.624   02 Jun 2027 23:19:11.490            20.866                Anadyr2           652.063
       258   02 Jun 2027 23:20:28.806   02 Jun 2027 23:20:34.923             6.117                Anadyr2           191.156
       259   02 Jun 2027 23:20:45.285   02 Jun 2027 23:22:37.189           111.904                Norilsk          3497.000
       260   02 Jun 2027 23:23:17.845   02 Jun 2027 23:24:08.675            50.830               Magadan1          1588.437
       261   02 Jun 2027 23:24:38.736   02 Jun 2027 23:25:36.637            57.901                Irkutsk          1809.406
       262   02 Jun 2027 23:25:51.026   02 Jun 2027 23:27:54.190           123.164                Novosib          3848.875
       263   02 Jun 2027 23:34:20.922   02 Jun 2027 23:34:47.205            26.283                  Delhi           821.344
       264   02 Jun 2027 23:36:53.525   02 Jun 2027 23:37:12.272            18.747                  Delhi           585.844
       265   02 Jun 2027 23:38:57.570   02 Jun 2027 23:39:46.386            48.816                  Delhi          1525.500
       266   03 Jun 2027 00:20:14.686   03 Jun 2027 00:20:18.003             3.317            RioGallegos           103.656
       267   03 Jun 2027 00:20:34.777   03 Jun 2027 00:20:53.391            18.614            RioGallegos           581.688
       268   03 Jun 2027 00:51:58.355   03 Jun 2027 00:52:38.771            40.416                Anadyr1          1263.000
       269   03 Jun 2027 00:53:18.532   03 Jun 2027 00:54:15.133            56.601                Anadyr1          1768.781
       270   03 Jun 2027 00:54:15.133   03 Jun 2027 00:54:41.429            26.296                Anadyr2           821.750
       271   03 Jun 2027 00:56:45.873   03 Jun 2027 00:57:16.085            30.212                Norilsk           944.125
       272   03 Jun 2027 00:57:18.755   03 Jun 2027 00:57:43.231            24.476               Magadan2           764.875
       273   03 Jun 2027 00:58:03.073   03 Jun 2027 00:58:53.864            50.791               Magadan1          1587.219
       274   03 Jun 2027 00:59:23.754   03 Jun 2027 00:59:58.439            34.685               Magadan1          1083.906
       275   03 Jun 2027 01:00:14.831   03 Jun 2027 01:02:05.236           110.405              Murmansk2          3450.156
       276   03 Jun 2027 01:05:27.071   03 Jun 2027 01:05:59.749            32.678                Novosib          1021.188
       277   03 Jun 2027 01:07:52.703   03 Jun 2027 01:08:12.696            19.993                  Delhi           624.781
       278   03 Jun 2027 01:10:12.697   03 Jun 2027 01:10:41.190            28.493                Novosib           890.406
       279   03 Jun 2027 01:14:16.414   03 Jun 2027 01:16:08.255           111.841                  Delhi          3495.031
       280   03 Jun 2027 01:51:47.263   03 Jun 2027 01:51:58.422            11.159            RioGallegos           348.719
       281   03 Jun 2027 01:54:31.437   03 Jun 2027 01:55:07.108            35.671            RioGallegos          1114.719
       282   03 Jun 2027 02:25:15.197   03 Jun 2027 02:25:21.088             5.891                Anadyr2           184.094
       283   03 Jun 2027 02:25:38.624   03 Jun 2027 02:25:41.428             2.804                Anadyr1            87.625
       284   03 Jun 2027 02:26:16.261   03 Jun 2027 02:26:49.148            32.887                Anadyr1          1027.719
       285   03 Jun 2027 02:27:41.519   03 Jun 2027 02:27:57.754            16.235                Anadyr2           507.344
       286   03 Jun 2027 02:28:39.043   03 Jun 2027 02:28:44.937             5.894                Anadyr2           184.187
       287   03 Jun 2027 02:31:10.977   03 Jun 2027 02:32:04.126            53.149               Magadan1          1660.906
       288   03 Jun 2027 02:32:06.406   03 Jun 2027 02:32:49.737            43.331               Magadan1          1354.094
       289   03 Jun 2027 02:34:24.386   03 Jun 2027 02:34:43.640            19.254                Norilsk           601.687
       290   03 Jun 2027 02:34:54.802   03 Jun 2027 02:35:44.531            49.729              Murmansk2          1554.031
       291   03 Jun 2027 02:36:08.273   03 Jun 2027 02:36:26.477            18.204              Murmansk2           568.875
       292   03 Jun 2027 02:36:42.334   03 Jun 2027 02:37:15.708            33.374                Novosib          1042.937
       293   03 Jun 2027 02:38:05.947   03 Jun 2027 02:38:10.334             4.387                Novosib           137.094
       294   03 Jun 2027 02:38:28.308   03 Jun 2027 02:38:38.145             9.837                Novosib           307.406
       295   03 Jun 2027 02:39:25.649   03 Jun 2027 02:39:33.938             8.289                Irkutsk           259.031
       296   03 Jun 2027 02:41:36.954   03 Jun 2027 02:41:57.294            20.340                Irkutsk           635.625
       297   03 Jun 2027 02:42:17.692   03 Jun 2027 02:42:29.305            11.613                Irkutsk           362.906
       298   03 Jun 2027 02:46:19.732   03 Jun 2027 02:46:21.069             1.337                Novosib            41.781
       299   03 Jun 2027 02:46:29.274   03 Jun 2027 02:47:06.782            37.508                  Delhi          1172.125
       300   03 Jun 2027 02:50:39.131   03 Jun 2027 02:51:06.533            27.402                  Delhi           856.313
       301   03 Jun 2027 03:09:46.719   03 Jun 2027 03:10:50.403            63.684               CapeTown          1990.125
       302   03 Jun 2027 04:19:39.848   03 Jun 2027 04:19:45.415             5.567                Norilsk           173.969
       303   03 Jun 2027 04:20:27.548   03 Jun 2027 04:22:32.105           124.557              Murmansk1          3892.406
       304   03 Jun 2027 04:22:32.105   03 Jun 2027 04:23:19.153            47.048              Murmansk2          1470.250
       305   03 Jun 2027 04:23:19.153   03 Jun 2027 04:23:40.848            21.695              Murmansk1           677.969
       306   03 Jun 2027 05:41:18.826   03 Jun 2027 05:45:18.034           239.208                Anadyr1          7475.250
       307   03 Jun 2027 05:45:31.932   03 Jun 2027 05:45:57.754            25.822                Anadyr2           806.938
       308   03 Jun 2027 05:47:12.726   03 Jun 2027 05:47:37.597            24.871                Anadyr2           777.219
       309   03 Jun 2027 07:17:53.129   03 Jun 2027 07:18:06.141            13.012                Anadyr2           406.625
       310   03 Jun 2027 07:18:06.141   03 Jun 2027 07:19:43.514            97.373                Anadyr1          3042.906
       311   03 Jun 2027 07:19:54.452   03 Jun 2027 07:21:53.561           119.109                Anadyr2          3722.156
       312   03 Jun 2027 08:51:38.139   03 Jun 2027 08:52:29.452            51.313               Magadan2          1603.531
       313   03 Jun 2027 08:52:45.001   03 Jun 2027 08:53:09.463            24.462               Magadan2           764.438
       314   03 Jun 2027 08:53:18.576   03 Jun 2027 08:53:39.800            21.224                Irkutsk           663.250
       315   03 Jun 2027 08:53:43.504   03 Jun 2027 08:54:22.534            39.030               Magadan2          1219.688
       316   03 Jun 2027 08:54:32.327   03 Jun 2027 08:54:44.153            11.826                Norilsk           369.563
       317   03 Jun 2027 08:54:48.739   03 Jun 2027 08:55:29.931            41.192               Magadan2          1287.250
       318   03 Jun 2027 08:55:49.522   03 Jun 2027 08:56:51.157            61.635                Anadyr2          1926.094
       319   03 Jun 2027 08:56:55.422   03 Jun 2027 08:56:56.716             1.294                Irkutsk            40.438
       320   03 Jun 2027 08:56:58.238   03 Jun 2027 08:57:03.560             5.322                Irkutsk           166.313
       321   03 Jun 2027 08:57:30.282   03 Jun 2027 08:57:50.023            19.741               Magadan1           616.906
       322   03 Jun 2027 08:57:50.023   03 Jun 2027 08:58:21.734            31.711               Magadan2           990.969
       323   03 Jun 2027 08:58:28.113   03 Jun 2027 08:58:34.262             6.149               Magadan1           192.156
       324   03 Jun 2027 08:58:34.262   03 Jun 2027 08:58:48.255            13.993               Magadan2           437.281
       325   03 Jun 2027 08:59:15.695   03 Jun 2027 08:59:19.610             3.915              Murmansk2           122.344
       326   03 Jun 2027 08:59:19.610   03 Jun 2027 09:00:35.907            76.297              Murmansk1          2384.281
       327   03 Jun 2027 09:33:51.717   03 Jun 2027 09:34:44.408            52.691            RioGallegos          1646.594
       328   03 Jun 2027 10:09:52.701   03 Jun 2027 10:10:22.936            30.235                Sumatra           944.844
       329   03 Jun 2027 10:28:42.598   03 Jun 2027 10:29:12.786            30.188                Novosib           943.375
       330   03 Jun 2027 10:29:27.887   03 Jun 2027 10:30:02.785            34.898                Novosib          1090.562
       331   03 Jun 2027 10:30:09.991   03 Jun 2027 10:30:11.490             1.499                Irkutsk            46.844
       332   03 Jun 2027 10:30:18.896   03 Jun 2027 10:30:29.332            10.436                Norilsk           326.125
       333   03 Jun 2027 10:30:35.891   03 Jun 2027 10:30:42.602             6.711                Novosib           209.719
       334   03 Jun 2027 10:30:46.012   03 Jun 2027 10:31:12.301            26.289                Irkutsk           821.531
       335   03 Jun 2027 10:31:40.422   03 Jun 2027 10:31:54.702            14.280                Irkutsk           446.250
       336   03 Jun 2027 10:31:56.245   03 Jun 2027 10:32:08.773            12.528                Norilsk           391.500
       337   03 Jun 2027 10:32:12.345   03 Jun 2027 10:32:16.926             4.581              Murmansk2           143.156
       338   03 Jun 2027 10:32:17.545   03 Jun 2027 10:32:38.182            20.637              Murmansk1           644.906
       339   03 Jun 2027 10:32:42.989   03 Jun 2027 10:33:01.138            18.149                Irkutsk           567.156
       340   03 Jun 2027 10:33:06.720   03 Jun 2027 10:34:00.663            53.943                Irkutsk          1685.719
       341   03 Jun 2027 10:34:04.587   03 Jun 2027 10:34:34.773            30.186                Norilsk           943.312
       342   03 Jun 2027 10:34:36.737   03 Jun 2027 10:34:57.310            20.573                Irkutsk           642.906
       343   03 Jun 2027 10:35:30.965   03 Jun 2027 10:35:38.013             7.048              Murmansk1           220.250
       344   03 Jun 2027 10:41:51.450   03 Jun 2027 10:42:03.439            11.989              Murmansk2           374.656
       345   03 Jun 2027 11:10:35.310   03 Jun 2027 11:10:54.236            18.926            RioGallegos           591.437
       346   03 Jun 2027 11:11:11.716   03 Jun 2027 11:11:46.083            34.367            RioGallegos          1073.969
       347   03 Jun 2027 11:14:55.623   03 Jun 2027 11:15:30.540            34.917            RioGallegos          1091.156
       348   03 Jun 2027 11:44:51.987   03 Jun 2027 11:45:28.483            36.496                Sumatra          1140.500
       349   03 Jun 2027 11:53:14.730   03 Jun 2027 11:53:44.446            29.716                  Delhi           928.625
       350   03 Jun 2027 12:04:23.536   03 Jun 2027 12:05:05.107            41.571                Irkutsk          1299.094
       351   03 Jun 2027 12:07:55.839   03 Jun 2027 12:09:11.043            75.204                Irkutsk          2350.125
       352   03 Jun 2027 12:15:30.278   03 Jun 2027 12:15:36.645             6.367              Murmansk2           198.969
       353   03 Jun 2027 12:15:43.517   03 Jun 2027 12:16:01.308            17.791              Murmansk1           555.969
       354   03 Jun 2027 13:29:42.548   03 Jun 2027 13:33:57.539           254.991                  Delhi          7968.469
       355   03 Jun 2027 13:38:04.119   03 Jun 2027 13:38:23.464            19.345                Novosib           604.531
       356   03 Jun 2027 13:39:03.003   03 Jun 2027 13:39:39.537            36.534                Novosib          1141.688
       357   03 Jun 2027 13:40:41.039   03 Jun 2027 13:41:34.348            53.309                Novosib          1665.906
       358   03 Jun 2027 13:42:43.038   03 Jun 2027 13:43:03.401            20.363                Novosib           636.344
       359   03 Jun 2027 13:44:50.233   03 Jun 2027 13:45:58.331            68.098                Norilsk          2128.062
       360   03 Jun 2027 15:13:11.477   03 Jun 2027 15:15:13.499           122.022                 Moscow          3813.188
       361   03 Jun 2027 15:16:20.710   03 Jun 2027 15:17:01.450            40.740                 Moscow          1273.125
       362   03 Jun 2027 15:17:34.070   03 Jun 2027 15:17:54.400            20.330                 Moscow           635.312
       363   03 Jun 2027 15:18:08.427   03 Jun 2027 15:19:32.802            84.375              Murmansk2          2636.719
       364   03 Jun 2027 15:21:57.768   03 Jun 2027 15:21:58.880             1.112              Murmansk2            34.750
       365   03 Jun 2027 15:23:03.064   03 Jun 2027 15:25:53.864           170.800                Norilsk          5337.500
       366   03 Jun 2027 15:33:15.746   03 Jun 2027 15:33:18.805             3.059                Anadyr2            95.594
       367   03 Jun 2027 15:33:38.595   03 Jun 2027 15:34:18.798            40.203                Anadyr1          1256.344
       368   03 Jun 2027 16:31:07.379   03 Jun 2027 16:33:00.694           113.315               CapeTown          3541.094
       369   03 Jun 2027 16:54:32.533   03 Jun 2027 16:55:27.669            55.136              Murmansk1          1723.000
       370   03 Jun 2027 16:58:22.514   03 Jun 2027 16:59:32.167            69.653              Murmansk2          2176.656
       371   03 Jun 2027 17:07:20.238   03 Jun 2027 17:08:22.668            62.430                Anadyr1          1950.938
       372   03 Jun 2027 17:08:50.863   03 Jun 2027 17:09:19.296            28.433                Anadyr1           888.531
       373   03 Jun 2027 17:12:03.578   03 Jun 2027 17:12:23.955            20.377                Anadyr2           636.781
       374   03 Jun 2027 17:13:08.504   03 Jun 2027 17:13:14.940             6.436                Anadyr1           201.125
       375   03 Jun 2027 17:14:31.417   03 Jun 2027 17:14:44.915            13.498                Anadyr1           421.812
       376   03 Jun 2027 17:16:11.846   03 Jun 2027 17:16:52.218            40.372                Anadyr2          1261.625
       377   03 Jun 2027 18:07:38.216   03 Jun 2027 18:07:47.519             9.303               CapeTown           290.719
       378   03 Jun 2027 18:08:35.194   03 Jun 2027 18:08:52.643            17.449               CapeTown           545.281
       379   03 Jun 2027 18:13:39.297   03 Jun 2027 18:13:47.264             7.967               CapeTown           248.969
       380   03 Jun 2027 18:35:05.058   03 Jun 2027 18:39:47.649           282.591              Murmansk2          8830.969
       381   03 Jun 2027 18:45:52.865   03 Jun 2027 18:46:50.641            57.776               Magadan1          1805.500
       382   03 Jun 2027 18:47:44.016   03 Jun 2027 18:48:01.884            17.868               Magadan2           558.375
       383   03 Jun 2027 18:49:59.978   03 Jun 2027 18:50:12.147            12.169               Magadan2           380.281
       384   03 Jun 2027 18:55:42.509   03 Jun 2027 18:55:48.506             5.997               Magadan1           187.406
       385   03 Jun 2027 20:19:02.456   03 Jun 2027 20:22:46.610           224.154                Anadyr1          7004.813
       386   03 Jun 2027 20:23:18.041   03 Jun 2027 20:26:21.540           183.499               Magadan2          5734.344
       387   03 Jun 2027 20:28:04.518   03 Jun 2027 20:28:23.494            18.976               Magadan1           593.000
       388   03 Jun 2027 21:14:08.830   03 Jun 2027 21:17:13.051           184.221            RioGallegos          5756.906
       389   03 Jun 2027 21:19:55.692   03 Jun 2027 21:20:25.662            29.970            RioGallegos           936.563
       390   03 Jun 2027 21:54:46.965   03 Jun 2027 21:55:15.536            28.571                Anadyr2           892.844
       391   03 Jun 2027 21:56:54.747   03 Jun 2027 21:59:43.917           169.170                Norilsk          5286.562
       392   03 Jun 2027 22:00:29.435   03 Jun 2027 22:00:37.022             7.587                Norilsk           237.094
       393   03 Jun 2027 22:00:54.490   03 Jun 2027 22:01:39.171            44.681               Magadan1          1396.281
       394   03 Jun 2027 22:01:55.132   03 Jun 2027 22:02:33.028            37.896                Irkutsk          1184.250
       395   03 Jun 2027 22:04:03.882   03 Jun 2027 22:05:44.570           100.688                Irkutsk          3146.500
       396   03 Jun 2027 22:15:36.889   03 Jun 2027 22:16:29.906            53.017                Sumatra          1656.781
       397   03 Jun 2027 22:19:18.280   03 Jun 2027 22:21:16.019           117.739                Sumatra          3679.344
       398   03 Jun 2027 23:29:50.286   03 Jun 2027 23:30:47.538            57.252                Anadyr2          1789.125
       399   03 Jun 2027 23:32:47.300   03 Jun 2027 23:33:13.245            25.945                Norilsk           810.781
       400   03 Jun 2027 23:33:25.655   03 Jun 2027 23:34:17.486            51.831               Magadan2          1619.719
       401   03 Jun 2027 23:34:47.704   03 Jun 2027 23:35:11.715            24.011               Magadan1           750.344
       402   03 Jun 2027 23:36:39.544   03 Jun 2027 23:38:54.172           134.628                Irkutsk          4207.125
       403   03 Jun 2027 23:42:59.839   03 Jun 2027 23:43:16.306            16.467                Novosib           514.594
       404   03 Jun 2027 23:44:10.682   03 Jun 2027 23:45:06.153            55.471                Novosib          1733.469
       405   03 Jun 2027 23:45:37.010   03 Jun 2027 23:45:46.379             9.369                  Delhi           292.781
       406   03 Jun 2027 23:46:27.861   03 Jun 2027 23:47:30.004            62.143                  Delhi          1941.969
       407   04 Jun 2027 00:30:39.148   04 Jun 2027 00:30:59.523            20.375            RioGallegos           636.719
       408   04 Jun 2027 00:35:53.943   04 Jun 2027 00:36:21.520            27.577            RioGallegos           861.781
       409   04 Jun 2027 01:03:40.506   04 Jun 2027 01:03:46.667             6.161                Anadyr1           192.531
       410   04 Jun 2027 01:04:15.881   04 Jun 2027 01:04:39.640            23.759                Anadyr1           742.469
       411   04 Jun 2027 01:05:19.856   04 Jun 2027 01:06:26.604            66.748                Anadyr1          2085.875
       412   04 Jun 2027 01:08:47.808   04 Jun 2027 01:08:58.128            10.320                Norilsk           322.500
       413   04 Jun 2027 01:09:16.344   04 Jun 2027 01:09:17.609             1.265               Magadan1            39.531
       414   04 Jun 2027 01:09:19.390   04 Jun 2027 01:11:04.893           105.503               Magadan2          3296.969
       415   04 Jun 2027 01:11:22.044   04 Jun 2027 01:12:49.239            87.195              Murmansk1          2724.844
       416   04 Jun 2027 01:12:54.873   04 Jun 2027 01:13:24.720            29.847              Murmansk2           932.719
       417   04 Jun 2027 01:13:32.630   04 Jun 2027 01:13:44.099            11.469              Murmansk2           358.406
       418   04 Jun 2027 01:16:26.629   04 Jun 2027 01:16:42.502            15.873              Murmansk1           496.031
       419   04 Jun 2027 01:17:41.251   04 Jun 2027 01:18:19.123            37.872                Novosib          1183.500
       420   04 Jun 2027 01:23:02.200   04 Jun 2027 01:23:49.378            47.178                  Delhi          1474.312
       421   04 Jun 2027 01:28:54.718   04 Jun 2027 01:28:57.976             3.258                  Delhi           101.813
       422   04 Jun 2027 01:30:34.104   04 Jun 2027 01:31:42.451            68.347                  Delhi          2135.844
       423   04 Jun 2027 02:02:34.705   04 Jun 2027 02:03:16.924            42.219            RioGallegos          1319.344
       424   04 Jun 2027 02:04:59.947   04 Jun 2027 02:05:08.564             8.617            RioGallegos           269.281
       425   04 Jun 2027 02:05:30.522   04 Jun 2027 02:05:47.772            17.250            RioGallegos           539.063
       426   04 Jun 2027 02:36:58.088   04 Jun 2027 02:37:22.722            24.634                Anadyr1           769.812
       427   04 Jun 2027 02:38:00.476   04 Jun 2027 02:38:17.644            17.168                Anadyr1           536.500
       428   04 Jun 2027 02:39:59.936   04 Jun 2027 02:40:03.229             3.293                Anadyr2           102.906
       429   04 Jun 2027 02:42:22.573   04 Jun 2027 02:43:10.470            47.897                Anadyr1          1496.781
       430   04 Jun 2027 02:43:21.437   04 Jun 2027 02:43:34.601            13.164               Magadan1           411.375
       431   04 Jun 2027 02:43:51.749   04 Jun 2027 02:44:40.739            48.990               Magadan2          1530.938
       432   04 Jun 2027 02:46:55.830   04 Jun 2027 02:47:59.510            63.680              Murmansk1          1990.000
       433   04 Jun 2027 02:48:01.789   04 Jun 2027 02:48:31.778            29.989              Murmansk2           937.156
       434   04 Jun 2027 02:48:47.878   04 Jun 2027 02:49:33.439            45.561                Novosib          1423.781
       435   04 Jun 2027 02:50:02.896   04 Jun 2027 02:50:12.841             9.945                Novosib           310.781
       436   04 Jun 2027 02:50:28.432   04 Jun 2027 02:50:41.880            13.448                Novosib           420.250
       437   04 Jun 2027 02:51:49.923   04 Jun 2027 02:52:09.611            19.688                Irkutsk           615.250
       438   04 Jun 2027 02:59:38.173   04 Jun 2027 02:59:42.371             4.198                 Moscow           131.188
       439   04 Jun 2027 03:15:35.472   04 Jun 2027 03:16:26.215            50.743               CapeTown          1585.719
       440   04 Jun 2027 04:30:27.984   04 Jun 2027 04:30:28.247             0.263                Novosib             8.219
       441   04 Jun 2027 04:32:43.923   04 Jun 2027 04:32:50.701             6.778              Murmansk1           211.813
       442   04 Jun 2027 04:33:09.876   04 Jun 2027 04:33:45.931            36.055              Murmansk1          1126.719
       443   04 Jun 2027 04:33:45.931   04 Jun 2027 04:33:47.285             1.354              Murmansk2            42.312
       444   04 Jun 2027 05:53:35.606   04 Jun 2027 05:55:21.134           105.528               Magadan2          3297.750
       445   04 Jun 2027 05:55:23.969   04 Jun 2027 05:56:01.610            37.641                Anadyr1          1176.281
       446   04 Jun 2027 07:29:43.659   04 Jun 2027 07:30:27.728            44.069               Magadan2          1377.156
       447   04 Jun 2027 07:30:37.003   04 Jun 2027 07:31:25.566            48.563               Magadan2          1517.594
       448   04 Jun 2027 07:31:32.253   04 Jun 2027 07:33:05.465            93.212               Magadan1          2912.875
       449   04 Jun 2027 07:33:54.528   04 Jun 2027 07:35:05.018            70.490                Anadyr2          2202.813
       450   04 Jun 2027 09:05:11.817   04 Jun 2027 09:05:49.982            38.165                Irkutsk          1192.656
       451   04 Jun 2027 09:05:53.185   04 Jun 2027 09:06:50.352            57.167                Irkutsk          1786.469
       452   04 Jun 2027 09:07:07.597   04 Jun 2027 09:07:09.117             1.520                Irkutsk            47.500
       453   04 Jun 2027 09:07:10.812   04 Jun 2027 09:07:35.669            24.857                Norilsk           776.781
       454   04 Jun 2027 09:07:45.230   04 Jun 2027 09:08:19.202            33.972                Novosib          1061.625
       455   04 Jun 2027 09:08:29.533   04 Jun 2027 09:08:42.318            12.785                Irkutsk           399.531
       456   04 Jun 2027 09:08:44.320   04 Jun 2027 09:08:58.885            14.565                Irkutsk           455.156
       457   04 Jun 2027 09:09:25.604   04 Jun 2027 09:09:33.092             7.488                Norilsk           234.000
       458   04 Jun 2027 09:09:42.044   04 Jun 2027 09:10:10.963            28.919                Irkutsk           903.719
       459   04 Jun 2027 09:10:12.998   04 Jun 2027 09:10:37.335            24.337                Norilsk           760.531
       460   04 Jun 2027 09:10:43.949   04 Jun 2027 09:11:10.705            26.756                Norilsk           836.125
       461   04 Jun 2027 09:11:18.898   04 Jun 2027 09:12:07.872            48.974              Murmansk2          1530.438
       462   04 Jun 2027 09:45:41.014   04 Jun 2027 09:46:09.365            28.351            RioGallegos           885.969
       463   04 Jun 2027 09:53:10.308   04 Jun 2027 09:53:21.653            11.345            RioGallegos           354.531
       464   04 Jun 2027 09:57:03.233   04 Jun 2027 09:57:49.756            46.523            RioGallegos          1453.844
       465   04 Jun 2027 10:21:23.467   04 Jun 2027 10:21:40.444            16.977                Sumatra           530.531
       466   04 Jun 2027 10:41:03.305   04 Jun 2027 10:41:13.310            10.005                Irkutsk           312.656
       467   04 Jun 2027 10:41:38.689   04 Jun 2027 10:41:42.452             3.763                Novosib           117.594
       468   04 Jun 2027 10:41:52.630   04 Jun 2027 10:42:26.713            34.083                Irkutsk          1065.094
       469   04 Jun 2027 10:42:32.265   04 Jun 2027 10:42:36.875             4.610                Irkutsk           144.063
       470   04 Jun 2027 10:42:36.903   04 Jun 2027 10:42:47.109            10.206                Norilsk           318.937
       471   04 Jun 2027 10:42:49.832   04 Jun 2027 10:43:48.120            58.288                Norilsk          1821.500
       472   04 Jun 2027 10:43:59.753   04 Jun 2027 10:44:04.968             5.215              Murmansk1           162.969
       473   04 Jun 2027 10:44:08.796   04 Jun 2027 10:44:38.213            29.417                Irkutsk           919.281
       474   04 Jun 2027 10:45:12.228   04 Jun 2027 10:45:51.311            39.083                Irkutsk          1221.344
       475   04 Jun 2027 10:45:54.177   04 Jun 2027 10:46:46.605            52.428                Irkutsk          1638.375
       476   04 Jun 2027 10:47:09.034   04 Jun 2027 10:47:18.275             9.241              Murmansk1           288.781
       477   04 Jun 2027 10:47:27.580   04 Jun 2027 10:47:44.844            17.264              Murmansk1           539.500
       478   04 Jun 2027 10:51:34.398   04 Jun 2027 10:52:03.220            28.822              Murmansk1           900.687
       479   04 Jun 2027 11:23:02.448   04 Jun 2027 11:23:56.321            53.873            RioGallegos          1683.531
       480   04 Jun 2027 11:57:15.429   04 Jun 2027 11:58:35.839            80.410                Sumatra          2512.813
       481   04 Jun 2027 12:11:42.694   04 Jun 2027 12:13:08.990            86.296                Novosib          2696.750
       482   04 Jun 2027 12:13:35.604   04 Jun 2027 12:14:11.433            35.829                Irkutsk          1119.656
