uniorb/output/strategy_2/Drop/Drop_KinoSat_110509.txt

KinoSat_110509
-------------------------
    Access    *     Start Time (UTCG)     *     Stop Time (UTCG)  *   Duration (s)        *       Station  *  Data (Mbytes)
         1   01 Jun 2027 03:10:20.492   01 Jun 2027 03:10:53.744            33.252                Irkutsk          2702.500
         2   01 Jun 2027 03:10:54.378   01 Jun 2027 03:11:02.121             7.743                Anadyr1           317.000
         3   01 Jun 2027 03:11:04.285   01 Jun 2027 03:11:34.269            29.984                Anadyr1          1082.000
         4   01 Jun 2027 03:11:38.048   01 Jun 2027 03:12:14.092            36.044                Irkutsk          1889.500
         5   01 Jun 2027 03:12:20.037   01 Jun 2027 03:12:47.740            27.703               Magadan2          2972.500
         6   01 Jun 2027 03:13:00.954   01 Jun 2027 03:13:57.707            56.753                Norilsk          6607.000
         7   01 Jun 2027 04:45:39.123   01 Jun 2027 04:46:38.281            59.158               Magadan1          7017.000
         8   01 Jun 2027 04:46:41.539   01 Jun 2027 04:47:04.276            22.737               Magadan1          1629.000
         9   01 Jun 2027 04:47:05.873   01 Jun 2027 04:47:15.917            10.044                Irkutsk           798.500
        10   01 Jun 2027 04:47:18.040   01 Jun 2027 04:47:27.123             9.083               Magadan2          1061.500
        11   01 Jun 2027 04:47:35.908   01 Jun 2027 04:48:18.692            42.784                Novosib          4392.500
        12   01 Jun 2027 04:48:27.006   01 Jun 2027 04:49:45.213            78.207                Novosib          4157.000
        13   01 Jun 2027 04:49:51.333   01 Jun 2027 04:50:30.214            38.881                Norilsk          3060.000
        14   01 Jun 2027 04:50:35.350   01 Jun 2027 04:51:16.091            40.741               Magadan2          2568.000
        15   01 Jun 2027 04:51:19.735   01 Jun 2027 04:51:27.671             7.936                Irkutsk           992.000
        16   01 Jun 2027 04:51:29.991   01 Jun 2027 04:51:56.027            26.036              Murmansk1          1990.000
        17   01 Jun 2027 04:52:01.120   01 Jun 2027 04:52:21.130            20.010                Novosib          2501.250
        18   01 Jun 2027 04:52:49.608   01 Jun 2027 04:53:29.019            39.411              Murmansk2            45.250
        19   01 Jun 2027 06:22:01.331   01 Jun 2027 06:22:47.328            45.997                Norilsk          5365.500
        20   01 Jun 2027 06:22:54.263   01 Jun 2027 06:23:31.559            37.296                Irkutsk          3467.500
        21   01 Jun 2027 06:23:41.126   01 Jun 2027 06:24:24.561            43.435                Norilsk          4783.500
        22   01 Jun 2027 06:24:27.212   01 Jun 2027 06:24:48.567            21.355                Norilsk          1325.500
        23   01 Jun 2027 06:24:55.526   01 Jun 2027 06:25:42.047            46.521              Murmansk1          3479.500
        24   01 Jun 2027 06:25:44.937   01 Jun 2027 06:25:57.706            12.769                Norilsk          1445.000
        25   01 Jun 2027 06:26:02.298   01 Jun 2027 06:26:37.166            34.868                Novosib          2296.000
        26   01 Jun 2027 06:26:51.813   01 Jun 2027 06:28:02.916            71.103                Novosib          7323.500
        27   01 Jun 2027 07:59:15.178   01 Jun 2027 08:00:46.512            91.334                Irkutsk          5074.000
        28   01 Jun 2027 08:00:46.569   01 Jun 2027 08:00:47.357             0.788              Murmansk1            28.500
        29   01 Jun 2027 08:00:47.438   01 Jun 2027 08:01:14.218            26.780              Murmansk1            40.500
        30   01 Jun 2027 08:01:24.327   01 Jun 2027 08:02:09.963            45.636              Murmansk2          5054.500
        31   01 Jun 2027 08:02:11.641   01 Jun 2027 08:02:43.559            31.918              Murmansk1           839.000
        32   01 Jun 2027 08:02:44.042   01 Jun 2027 08:03:27.657            43.615                Novosib           241.500
        33   01 Jun 2027 08:03:37.459   01 Jun 2027 08:04:27.474            50.015                Norilsk          4901.000
        34   01 Jun 2027 09:35:24.728   01 Jun 2027 09:35:57.397            32.669              Murmansk2          2588.500
        35   01 Jun 2027 09:36:06.681   01 Jun 2027 09:37:31.763            85.082                Norilsk          4642.000
        36   01 Jun 2027 09:37:32.130   01 Jun 2027 09:37:50.805            18.675                Novosib           183.500
        37   01 Jun 2027 09:37:57.215   01 Jun 2027 09:38:48.789            51.574              Murmansk2          3205.000
        38   01 Jun 2027 09:39:08.323   01 Jun 2027 09:40:31.408            83.085                Norilsk          9767.000
        39   02 Jun 2027 03:22:12.481   02 Jun 2027 03:22:34.283            21.802               Magadan2          2222.000
        40   02 Jun 2027 03:22:35.880   02 Jun 2027 03:22:50.996            15.116                Anadyr2           798.500
        41   02 Jun 2027 03:22:53.600   02 Jun 2027 03:23:05.709            12.109                Anadyr1          1302.000
        42   02 Jun 2027 03:23:16.097   02 Jun 2027 03:23:59.772            43.675                Norilsk          5194.000
        43   02 Jun 2027 03:24:00.478   02 Jun 2027 03:24:03.875             3.397               Magadan1           353.000
        44   02 Jun 2027 03:24:09.904   02 Jun 2027 03:24:36.912            27.008                Norilsk          3014.500
        45   02 Jun 2027 03:24:47.977   02 Jun 2027 03:26:00.168            72.191               Magadan2          5532.500
        46   02 Jun 2027 03:26:08.077   02 Jun 2027 03:26:32.537            24.460               Magadan1          3057.500
        47   02 Jun 2027 03:26:32.537   02 Jun 2027 03:26:34.770             2.233               Magadan2           279.125
        48   02 Jun 2027 03:26:54.477   02 Jun 2027 03:27:36.199            41.722               Magadan1           617.875
        49   02 Jun 2027 04:57:07.721   02 Jun 2027 04:57:50.572            42.851               Magadan1          1743.000
        50   02 Jun 2027 04:57:56.271   02 Jun 2027 04:58:40.802            44.531               Magadan1          2849.500
        51   02 Jun 2027 04:58:44.129   02 Jun 2027 04:59:22.677            38.548               Magadan2          1663.500
        52   02 Jun 2027 04:59:39.976   02 Jun 2027 05:01:04.974            84.998               Magadan1          8649.500
        53   02 Jun 2027 05:01:13.212   02 Jun 2027 05:02:08.039            54.827                Novosib          4119.000
        54   02 Jun 2027 05:02:19.455   02 Jun 2027 05:03:18.017            58.562               Magadan2          5708.000
        55   02 Jun 2027 05:03:25.189   02 Jun 2027 05:03:56.893            31.704              Murmansk1          3586.000
        56   02 Jun 2027 05:04:07.552   02 Jun 2027 05:04:58.090            50.538                Norilsk          5329.500
        57   02 Jun 2027 06:33:59.452   02 Jun 2027 06:36:39.564           160.112                Novosib         18322.500
        58   02 Jun 2027 06:36:41.785   02 Jun 2027 06:37:07.158            25.373                Irkutsk          1110.500
        59   02 Jun 2027 06:37:07.872   02 Jun 2027 06:37:48.691            40.819                Novosib           357.000
        60   02 Jun 2027 06:37:52.521   02 Jun 2027 06:38:17.616            25.095                Irkutsk          1915.000
        61   02 Jun 2027 06:38:23.761   02 Jun 2027 06:39:42.485            78.724                Novosib          3072.500
        62   02 Jun 2027 06:39:50.164   02 Jun 2027 06:41:08.808            78.644              Murmansk1          2558.000
        63   02 Jun 2027 08:11:40.245   02 Jun 2027 08:12:02.065            21.820                Norilsk           967.000
        64   02 Jun 2027 08:12:09.309   02 Jun 2027 08:12:57.180            47.871                 Moscow          3622.000
        65   02 Jun 2027 08:13:03.963   02 Jun 2027 08:14:38.814            94.851              Murmansk1          3391.500
        66   02 Jun 2027 08:14:39.316   02 Jun 2027 08:15:01.519            22.203                Norilsk           251.000
        67   02 Jun 2027 08:15:06.693   02 Jun 2027 08:15:34.153            27.460              Murmansk2          2587.000
        68   02 Jun 2027 09:46:58.636   02 Jun 2027 09:47:06.150             7.514                 Moscow           102.000
        69   02 Jun 2027 09:47:14.146   02 Jun 2027 09:47:52.926            38.780              Murmansk2          3998.000
        70   02 Jun 2027 09:48:02.237   02 Jun 2027 09:49:12.147            69.910                Novosib          4655.500
        71   02 Jun 2027 09:49:22.928   02 Jun 2027 09:50:06.807            43.879              Murmansk1          5390.500
        72   02 Jun 2027 09:50:11.499   02 Jun 2027 09:50:42.161            30.662                 Moscow          2346.000
        73   02 Jun 2027 09:50:53.512   02 Jun 2027 09:51:25.703            32.191                 Moscow          4023.875
        74   02 Jun 2027 09:51:35.992   02 Jun 2027 09:51:49.069            13.077                Novosib          1634.625
        75   02 Jun 2027 09:52:03.883   02 Jun 2027 09:53:41.884            98.001                Norilsk          9998.000
        76   03 Jun 2027 03:32:34.220   03 Jun 2027 03:33:30.932            56.712                Irkutsk          3761.000
        77   03 Jun 2027 03:33:54.690   03 Jun 2027 03:34:13.250            18.560               Magadan2          1417.000
        78   03 Jun 2027 03:34:13.514   03 Jun 2027 03:34:37.067            23.553               Magadan2           132.000
        79   03 Jun 2027 03:34:44.390   03 Jun 2027 03:35:20.651            36.261                Anadyr2          3661.500
        80   03 Jun 2027 03:35:22.918   03 Jun 2027 03:35:53.400            30.482                Norilsk          1133.500
        81   03 Jun 2027 03:35:59.215   03 Jun 2027 03:36:10.026            10.811                Norilsk          1351.375
        82   03 Jun 2027 03:36:10.294   03 Jun 2027 03:37:04.938            54.644                Anadyr2          1690.125
        83   03 Jun 2027 03:37:06.029   03 Jun 2027 03:37:17.369            11.340                Anadyr2           545.500
        84   03 Jun 2027 03:37:28.523   03 Jun 2027 03:39:01.755            93.232                Anadyr1          5577.000
        85   03 Jun 2027 05:08:39.902   03 Jun 2027 05:08:51.024            11.122                Norilsk          1179.500
        86   03 Jun 2027 05:08:54.756   03 Jun 2027 05:09:18.646            23.890               Magadan1          1866.000
        87   03 Jun 2027 05:09:47.921   03 Jun 2027 05:11:41.275           113.354                Norilsk         14169.250
        88   03 Jun 2027 05:11:48.086   03 Jun 2027 05:12:27.069            38.983                Irkutsk          3873.750
        89   03 Jun 2027 05:12:30.162   03 Jun 2027 05:13:31.042            60.880                Novosib          1546.500
        90   03 Jun 2027 05:13:41.948   03 Jun 2027 05:14:35.239            53.291               Magadan2          5453.000
        91   03 Jun 2027 05:14:39.142   03 Jun 2027 05:14:59.828            20.686               Magadan1          1951.500
        92   03 Jun 2027 05:15:05.856   03 Jun 2027 05:15:56.663            50.807                Norilsk          3014.000
        93   03 Jun 2027 05:16:03.660   03 Jun 2027 05:17:29.670            86.010              Murmansk2          3498.500
        94   03 Jun 2027 06:46:03.407   03 Jun 2027 06:47:13.075            69.668                Norilsk          8708.500
        95   03 Jun 2027 06:47:22.669   03 Jun 2027 06:48:27.868            65.199                Norilsk          6771.500
        96   03 Jun 2027 06:48:29.783   03 Jun 2027 06:48:54.523            24.740              Murmansk2           957.500
        97   03 Jun 2027 06:49:04.136   03 Jun 2027 06:49:54.808            50.672                Norilsk          4806.500
        98   03 Jun 2027 06:49:55.202   03 Jun 2027 06:49:56.474             1.272                Novosib           159.000
        99   03 Jun 2027 06:49:59.656   03 Jun 2027 06:50:14.923            15.267              Murmansk2          1629.000
       100   03 Jun 2027 06:50:17.800   03 Jun 2027 06:50:41.156            23.356              Murmansk2          1438.500
       101   03 Jun 2027 06:50:43.534   03 Jun 2027 06:52:18.804            95.270                Novosib          1189.000
       102   03 Jun 2027 08:23:51.845   03 Jun 2027 08:24:47.199            55.354                Norilsk          5322.500
       103   03 Jun 2027 08:24:48.966   03 Jun 2027 08:25:21.694            32.728              Murmansk1           883.500
       104   03 Jun 2027 08:25:27.964   03 Jun 2027 08:25:56.386            28.422                Irkutsk          3135.000
       105   03 Jun 2027 08:25:59.183   03 Jun 2027 08:26:20.745            21.562                Novosib          1398.500
       106   03 Jun 2027 08:26:28.431   03 Jun 2027 08:27:03.606            35.175                Norilsk          3843.000
       107   03 Jun 2027 08:27:08.502   03 Jun 2027 08:27:39.347            30.845                Novosib          2448.000
       108   03 Jun 2027 09:57:20.843   03 Jun 2027 09:59:39.505           138.662                 Moscow         15288.000
       109   03 Jun 2027 09:59:43.021   03 Jun 2027 10:00:46.031            63.010              Murmansk2          1758.000
       110   03 Jun 2027 10:00:46.796   03 Jun 2027 10:01:09.971            23.175              Murmansk1           382.500
       111   03 Jun 2027 10:01:10.194   03 Jun 2027 10:01:21.124            10.930              Murmansk1           111.500
       112   03 Jun 2027 10:01:27.626   03 Jun 2027 10:02:06.252            38.626              Murmansk2          3251.000
       113   03 Jun 2027 10:02:06.637   03 Jun 2027 10:02:25.747            19.110              Murmansk2           192.500
       114   03 Jun 2027 10:02:45.384   03 Jun 2027 10:03:08.352            22.968                Novosib          2871.000
       115   03 Jun 2027 10:03:20.336   03 Jun 2027 10:05:32.045           131.709              Murmansk1         12418.500
       116   04 Jun 2027 03:43:44.890   04 Jun 2027 03:44:44.277            59.387               Magadan1          5787.000
       117   04 Jun 2027 03:44:51.971   04 Jun 2027 03:45:28.590            36.619               Magadan1          3847.000
       118   04 Jun 2027 03:45:44.070   04 Jun 2027 03:45:58.081            14.011                Anadyr1          1751.375
       119   04 Jun 2027 03:45:58.081   04 Jun 2027 03:46:59.410            61.329                Anadyr2          2118.625
       120   04 Jun 2027 03:47:04.959   04 Jun 2027 03:48:46.250           101.291                Irkutsk          2774.500
       121   04 Jun 2027 03:48:47.625   04 Jun 2027 03:49:11.858            24.233                Norilsk           687.500
       122   04 Jun 2027 03:49:12.081   04 Jun 2027 03:49:17.938             5.857               Magadan2           111.500
       123   04 Jun 2027 03:49:24.345   04 Jun 2027 03:50:04.655            40.310               Magadan2          3203.500
       124   04 Jun 2027 03:50:11.978   04 Jun 2027 03:50:53.909            41.931                Irkutsk          3661.500
       125   04 Jun 2027 03:51:28.863   04 Jun 2027 03:51:32.515             3.652                Irkutsk           456.500
       126   04 Jun 2027 03:51:34.873   04 Jun 2027 03:51:39.043             4.170                Norilsk           521.250
       127   04 Jun 2027 03:51:42.163   04 Jun 2027 03:52:03.497            21.334                Norilsk          2258.750
       128   04 Jun 2027 05:20:55.005   04 Jun 2027 05:21:03.587             8.582               Magadan2            54.000
       129   04 Jun 2027 05:21:14.138   04 Jun 2027 05:21:57.105            42.967                Norilsk          5275.500
       130   04 Jun 2027 05:22:06.232   04 Jun 2027 05:22:48.114            41.882                Norilsk          4563.500
       131   04 Jun 2027 05:22:49.950   04 Jun 2027 05:23:08.473            18.523               Magadan2           918.000
       132   04 Jun 2027 05:23:13.660   04 Jun 2027 05:23:41.323            27.663                Norilsk          2593.500
       133   04 Jun 2027 05:24:03.552   04 Jun 2027 05:26:39.206           155.654                Irkutsk         11114.500
       134   04 Jun 2027 05:26:40.644   04 Jun 2027 05:27:12.233            31.589               Magadan1           719.000
       135   04 Jun 2027 05:27:24.282   04 Jun 2027 05:28:21.412            57.130              Murmansk1          6024.500
       136   04 Jun 2027 06:57:57.944   04 Jun 2027 06:59:47.348           109.404                Irkutsk          7133.500
       137   04 Jun 2027 07:00:04.159   04 Jun 2027 07:00:41.750            37.591                Novosib          4698.875
       138   04 Jun 2027 07:00:51.264   04 Jun 2027 07:02:00.962            69.698                Irkutsk          8463.625
       139   04 Jun 2027 07:02:03.409   04 Jun 2027 07:02:30.618            27.209                Novosib          1223.500
       140   04 Jun 2027 07:02:36.267   04 Jun 2027 07:03:59.855            83.588                Novosib          2824.500
       141   04 Jun 2027 07:04:01.002   04 Jun 2027 07:04:46.036            45.034                 Moscow           573.500
       142   04 Jun 2027 08:35:40.759   04 Jun 2027 08:35:56.968            16.209              Murmansk2            24.500
       143   04 Jun 2027 08:35:57.556   04 Jun 2027 08:37:09.654            72.098                Novosib           294.000
       144   04 Jun 2027 08:37:13.645   04 Jun 2027 08:37:40.745            27.100                Novosib          1995.500
       145   04 Jun 2027 08:37:43.633   04 Jun 2027 08:38:13.674            30.041                Norilsk          1444.000
       146   04 Jun 2027 08:38:16.487   04 Jun 2027 08:38:33.508            17.021                Norilsk          1406.500
       147   04 Jun 2027 08:38:38.303   04 Jun 2027 08:39:02.838            24.535              Murmansk1          2397.500
       148   04 Jun 2027 08:39:08.983   04 Jun 2027 08:39:24.189            15.206              Murmansk1          1900.750
       149   04 Jun 2027 08:39:24.189   04 Jun 2027 08:39:59.820            35.631              Murmansk2          1171.750
       150   04 Jun 2027 10:09:35.617   04 Jun 2027 10:11:00.593            84.976                 Moscow          9109.000
       151   04 Jun 2027 10:11:02.660   04 Jun 2027 10:11:45.924            43.264              Murmansk2          1033.500
       152   04 Jun 2027 10:11:55.806   04 Jun 2027 10:12:43.967            48.161                 Moscow          4941.000
       153   04 Jun 2027 10:12:47.142   04 Jun 2027 10:13:10.320            23.178              Murmansk1          1587.500
       154   04 Jun 2027 10:13:11.303   04 Jun 2027 10:13:17.127             5.824              Murmansk2           491.500
       155   04 Jun 2027 10:13:19.082   04 Jun 2027 10:13:33.994            14.912                Norilsk           977.500
       156   04 Jun 2027 10:13:43.236   04 Jun 2027 10:15:22.642            99.406                Norilsk          4621.000
       157   04 Jun 2027 10:15:27.922   04 Jun 2027 10:15:59.868            31.946                Norilsk          2640.000
       158   04 Jun 2027 10:15:59.908   04 Jun 2027 10:16:21.305            21.397                 Moscow            20.000
       159   04 Jun 2027 10:16:24.202   04 Jun 2027 10:16:39.575            15.373                Norilsk          1448.500
       160   04 Jun 2027 10:16:40.429   04 Jun 2027 10:17:10.039            29.610                 Moscow           427.000
       161   05 Jun 2027 03:55:14.185   05 Jun 2027 03:56:43.783            89.598               Magadan1          6336.000
       162   05 Jun 2027 03:56:46.337   05 Jun 2027 03:56:59.843            13.506               Magadan1          1277.000
       163   05 Jun 2027 03:57:06.847   05 Jun 2027 03:58:00.751            53.904               Magadan1          3502.000
       164   05 Jun 2027 03:58:14.908   05 Jun 2027 04:00:02.854           107.946               Magadan1          7078.500
       165   05 Jun 2027 04:00:03.602   05 Jun 2027 04:00:16.322            12.720                Norilsk           374.000
       166   05 Jun 2027 04:00:21.777   05 Jun 2027 04:00:50.955            29.178               Magadan1          2727.500
       167   05 Jun 2027 04:01:01.689   05 Jun 2027 04:02:28.184            86.495                Irkutsk          5367.000
       168   05 Jun 2027 04:02:28.671   05 Jun 2027 04:02:36.369             7.698               Magadan2           243.500
       169   05 Jun 2027 04:02:40.856   05 Jun 2027 04:03:06.095            25.239               Magadan1          2243.500
       170   05 Jun 2027 04:03:20.785   05 Jun 2027 04:03:33.261            12.476              Murmansk2           129.500
       171   05 Jun 2027 04:03:36.383   05 Jun 2027 04:03:55.658            19.275               Magadan1          1561.000
       172   05 Jun 2027 04:04:03.504   05 Jun 2027 04:04:30.317            26.813                Novosib          3351.625
       173   05 Jun 2027 04:04:40.860   05 Jun 2027 04:04:48.715             7.855              Murmansk1           443.875
       174   05 Jun 2027 05:32:52.793   05 Jun 2027 05:33:03.963            11.170               Magadan2          1274.500
       175   05 Jun 2027 05:33:16.636   05 Jun 2027 05:34:26.876            70.240                Irkutsk          6336.500
       176   05 Jun 2027 05:34:32.697   05 Jun 2027 05:35:14.732            42.035                Irkutsk          2910.500
       177   05 Jun 2027 05:35:23.437   05 Jun 2027 05:36:41.470            78.033               Magadan2          4352.500
       178   05 Jun 2027 05:36:44.658   05 Jun 2027 05:36:50.504             5.846                Norilsk           730.750
       179   05 Jun 2027 05:36:52.217   05 Jun 2027 05:37:16.702            24.485                Novosib          1719.750
       180   05 Jun 2027 05:37:25.298   05 Jun 2027 05:38:15.921            50.623               Magadan2          4298.000
       181   05 Jun 2027 05:38:20.793   05 Jun 2027 05:38:59.641            38.848              Murmansk1          2436.000
       182   05 Jun 2027 05:39:19.773   05 Jun 2027 05:40:10.470            50.697              Murmansk2          6337.125
       183   05 Jun 2027 05:40:10.470   05 Jun 2027 05:41:04.067            53.597              Murmansk1          3728.875
       184   05 Jun 2027 07:09:48.536   05 Jun 2027 07:10:51.730            63.194                Irkutsk          6943.000
       185   05 Jun 2027 07:10:56.058   05 Jun 2027 07:11:15.206            19.148                Norilsk          2164.000
       186   05 Jun 2027 07:11:20.250   05 Jun 2027 07:11:56.034            35.784                Novosib          2522.000
       187   05 Jun 2027 07:12:04.122   05 Jun 2027 07:12:56.525            52.403              Murmansk2          4044.000
       188   05 Jun 2027 07:13:02.427   05 Jun 2027 07:13:50.285            47.858              Murmansk2          2951.000
       189   05 Jun 2027 07:13:52.158   05 Jun 2027 07:14:09.150            16.992              Murmansk2           936.500
       190   05 Jun 2027 07:14:09.633   05 Jun 2027 07:14:29.029            19.396                Novosib           241.500
       191   05 Jun 2027 07:14:31.806   05 Jun 2027 07:15:22.278            50.472                Irkutsk          1388.500
       192   05 Jun 2027 07:15:24.334   05 Jun 2027 07:15:49.955            25.621              Murmansk2          1028.000
       193   05 Jun 2027 07:15:53.776   05 Jun 2027 07:16:40.823            47.047                 Moscow          1910.500
       194   05 Jun 2027 08:47:44.611   05 Jun 2027 08:47:56.385            11.774              Murmansk2          1187.500
       195   05 Jun 2027 08:48:12.179   05 Jun 2027 08:49:45.184            93.005                Norilsk          7897.000
       196   05 Jun 2027 08:49:45.442   05 Jun 2027 08:50:06.827            21.385                 Moscow           129.000
       197   05 Jun 2027 08:50:13.395   05 Jun 2027 08:50:43.723            30.328                 Moscow          3284.000
       198   05 Jun 2027 08:50:56.178   05 Jun 2027 08:51:57.477            61.299              Murmansk1          6227.500
       199   05 Jun 2027 10:21:43.811   05 Jun 2027 10:22:26.998            43.187                 Moscow          5262.000
       200   05 Jun 2027 10:22:28.043   05 Jun 2027 10:23:09.211            41.168                 Moscow           522.500
       201   05 Jun 2027 10:23:25.711   05 Jun 2027 10:25:18.522           112.811                 Moscow          8250.000
       202   05 Jun 2027 10:25:20.491   05 Jun 2027 10:26:12.182            51.691                 Moscow           984.500
       203   05 Jun 2027 10:26:16.752   05 Jun 2027 10:26:52.708            35.956                 Moscow          2285.000
       204   05 Jun 2027 10:26:57.881   05 Jun 2027 10:27:34.350            36.469              Murmansk2          2586.500
       205   05 Jun 2027 10:27:34.438   05 Jun 2027 10:27:38.333             3.895              Murmansk1            44.000
       206   05 Jun 2027 10:27:44.128   05 Jun 2027 10:28:11.692            27.564                Norilsk          2897.500
       207   06 Jun 2027 04:07:51.260   06 Jun 2027 04:08:48.730            57.470               Magadan2           654.500
       208   06 Jun 2027 04:08:55.702   06 Jun 2027 04:09:09.213            13.511               Magadan1          1688.875
       209   06 Jun 2027 04:09:09.213   06 Jun 2027 04:09:42.999            33.786               Magadan2          1797.125
       210   06 Jun 2027 04:09:46.052   06 Jun 2027 04:10:33.815            47.763               Magadan2          1526.500
       211   06 Jun 2027 04:10:45.618   06 Jun 2027 04:12:05.624            80.006               Magadan1          5901.500
       212   06 Jun 2027 04:12:08.679   06 Jun 2027 04:12:25.504            16.825               Magadan2          1527.500
       213   06 Jun 2027 04:12:28.977   06 Jun 2027 04:13:06.396            37.419               Magadan2          1736.500
       214   06 Jun 2027 04:13:09.172   06 Jun 2027 04:13:28.073            18.901                Anadyr2          1388.000
       215   06 Jun 2027 04:13:31.154   06 Jun 2027 04:14:11.226            40.072                Norilsk          1540.500
       216   06 Jun 2027 04:14:21.865   06 Jun 2027 04:15:02.608            40.743                Novosib          5092.875
       217   06 Jun 2027 04:15:05.313   06 Jun 2027 04:15:29.856            24.543                Anadyr2          1579.125
       218   06 Jun 2027 04:15:34.405   06 Jun 2027 04:16:00.185            25.780               Magadan1          2274.500
       219   06 Jun 2027 04:16:06.744   06 Jun 2027 04:16:09.325             2.581                Novosib           322.625
       220   06 Jun 2027 04:16:12.715   06 Jun 2027 04:16:23.566            10.851                Norilsk          1356.375
       221   06 Jun 2027 04:16:28.114   06 Jun 2027 04:17:19.402            51.288              Murmansk2          3295.500
       222   06 Jun 2027 05:45:06.462   06 Jun 2027 05:45:43.561            37.099                Irkutsk          4637.375
       223   06 Jun 2027 05:45:50.841   06 Jun 2027 05:46:49.016            58.175               Magadan2          3909.625
       224   06 Jun 2027 05:46:53.443   06 Jun 2027 05:47:12.301            18.858               Magadan2          2213.500
       225   06 Jun 2027 05:47:13.559   06 Jun 2027 05:47:28.807            15.248               Magadan1           629.000
       226   06 Jun 2027 05:47:42.292   06 Jun 2027 05:48:43.390            61.098                Norilsk          6742.500
       227   06 Jun 2027 05:48:44.109   06 Jun 2027 05:48:51.752             7.643               Magadan2           359.500
       228   06 Jun 2027 05:48:55.472   06 Jun 2027 05:49:20.326            24.854               Magadan1          1860.000
       229   06 Jun 2027 05:49:23.791   06 Jun 2027 05:49:38.362            14.571                Irkutsk          1732.500
       230   06 Jun 2027 05:49:46.819   06 Jun 2027 05:49:59.227            12.408              Murmansk1          1551.000
       231   06 Jun 2027 05:49:59.227   06 Jun 2027 05:50:24.850            25.623              Murmansk2          2677.500
       232   06 Jun 2027 05:50:44.163   06 Jun 2027 05:51:44.868            60.705                Norilsk          7588.125
       233   06 Jun 2027 05:51:46.769   06 Jun 2027 05:52:27.016            40.247              Murmansk2          3018.875
       234   06 Jun 2027 07:22:05.096   06 Jun 2027 07:22:58.184            53.088                Irkutsk          3002.000
       235   06 Jun 2027 07:22:59.067   06 Jun 2027 07:23:45.276            46.209                Novosib           441.500
       236   06 Jun 2027 07:23:51.613   06 Jun 2027 07:24:34.955            43.342              Murmansk1          3168.500
       237   06 Jun 2027 07:24:41.200   06 Jun 2027 07:25:22.495            41.295                Novosib          3122.500
       238   06 Jun 2027 07:25:40.024   06 Jun 2027 07:27:16.692            96.668              Murmansk1          8764.500
       239   06 Jun 2027 07:27:17.057   06 Jun 2027 07:27:19.996             2.939                Novosib           182.500
       240   06 Jun 2027 07:27:21.704   06 Jun 2027 07:27:39.130            17.426              Murmansk2           854.000
       241   06 Jun 2027 07:27:39.879   06 Jun 2027 07:27:44.644             4.765                Norilsk           374.500
       242   06 Jun 2027 07:27:47.091   06 Jun 2027 07:28:20.978            33.887              Murmansk2          1223.500
       243   06 Jun 2027 08:59:02.447   06 Jun 2027 08:59:38.128            35.681                Norilsk          3038.500
       244   06 Jun 2027 08:59:39.683   06 Jun 2027 09:00:09.997            30.314                Norilsk           777.500
       245   06 Jun 2027 09:00:16.639   06 Jun 2027 09:00:52.679            36.040              Murmansk2          3321.000
       246   06 Jun 2027 09:00:55.859   06 Jun 2027 09:01:20.704            24.845              Murmansk2          1590.000
       247   06 Jun 2027 09:01:27.949   06 Jun 2027 09:02:27.053            59.104                Novosib          3622.500
       248   06 Jun 2027 09:02:27.767   06 Jun 2027 09:02:30.823             3.056              Murmansk1           357.000
       249   06 Jun 2027 09:02:31.838   06 Jun 2027 09:02:43.391            11.553              Murmansk1           507.500
       250   06 Jun 2027 09:02:47.180   06 Jun 2027 09:03:14.468            27.288                Norilsk          1894.500
       251   06 Jun 2027 09:03:28.567   06 Jun 2027 09:04:47.132            78.565                Norilsk          7049.500
       252   06 Jun 2027 10:34:18.521   06 Jun 2027 10:35:41.236            82.715              Murmansk2          9256.000
       253   06 Jun 2027 10:35:42.887   06 Jun 2027 10:36:40.615            57.728                 Moscow           825.500
       254   06 Jun 2027 10:36:46.260   06 Jun 2027 10:37:14.308            28.048              Murmansk1          2822.500
       255   06 Jun 2027 10:37:39.927   06 Jun 2027 10:39:50.068           130.141                 Moscow         12809.500
       256   07 Jun 2027 04:19:52.006   07 Jun 2027 04:20:31.777            39.771               Magadan2          1664.000
       257   07 Jun 2027 04:20:33.953   07 Jun 2027 04:20:51.380            17.427               Magadan2          1088.000
       258   07 Jun 2027 04:21:01.976   07 Jun 2027 04:22:04.862            62.886                Irkutsk          5298.000
       259   07 Jun 2027 04:22:22.347   07 Jun 2027 04:23:43.439            81.092                Norilsk          8742.500
       260   07 Jun 2027 04:23:48.553   07 Jun 2027 04:24:22.611            34.058                Anadyr2          2557.000
       261   07 Jun 2027 04:24:35.920   07 Jun 2027 04:26:17.928           102.008                Novosib          6654.500
       262   07 Jun 2027 04:26:17.994   07 Jun 2027 04:26:21.394             3.400               Magadan2            33.000
       263   07 Jun 2027 04:26:24.415   07 Jun 2027 04:26:35.169            10.754                Novosib          1344.250
       264   07 Jun 2027 04:26:40.600   07 Jun 2027 04:27:08.916            28.316               Magadan1          2881.750
       265   07 Jun 2027 04:27:25.149   07 Jun 2027 04:28:52.102            86.953                Norilsk          7521.500
       266   07 Jun 2027 05:57:28.225   07 Jun 2027 05:58:09.038            40.813                Irkutsk          2860.000
       267   07 Jun 2027 05:58:31.768   07 Jun 2027 06:00:04.545            92.777                Norilsk         11365.000
       268   07 Jun 2027 06:00:17.637   07 Jun 2027 06:01:28.352            70.715                Norilsk          6546.000
       269   07 Jun 2027 06:01:32.291   07 Jun 2027 06:02:10.088            37.797                Novosib          1969.500
       270   07 Jun 2027 06:02:23.572   07 Jun 2027 06:03:37.837            74.265              Murmansk2          6742.000
       271   07 Jun 2027 06:03:46.889   07 Jun 2027 06:04:39.506            52.617              Murmansk2          4526.000
       272   07 Jun 2027 07:34:44.784   07 Jun 2027 07:36:00.553            75.769                Norilsk          9471.125
       273   07 Jun 2027 07:36:03.758   07 Jun 2027 07:36:59.215            55.457              Murmansk1          6127.875
       274   07 Jun 2027 07:36:59.737   07 Jun 2027 07:37:03.517             3.780                Irkutsk           261.000
       275   07 Jun 2027 07:37:07.154   07 Jun 2027 07:37:27.541            20.387              Murmansk1          1818.500
       276   07 Jun 2027 07:37:29.754   07 Jun 2027 07:37:53.396            23.642                 Moscow          1106.500
       277   07 Jun 2027 07:37:55.897   07 Jun 2027 07:38:22.264            26.367                Norilsk          1250.500
       278   07 Jun 2027 07:38:26.236   07 Jun 2027 07:39:09.797            43.561              Murmansk2          1986.000
       279   07 Jun 2027 07:39:16.422   07 Jun 2027 07:39:42.944            26.522              Murmansk2          3312.500
       280   07 Jun 2027 07:39:43.288   07 Jun 2027 07:40:01.542            18.254                Norilsk           172.000
       281   07 Jun 2027 09:11:10.613   07 Jun 2027 09:11:55.484            44.871                Novosib           276.500
       282   07 Jun 2027 09:11:58.685   07 Jun 2027 09:12:23.489            24.804              Murmansk2          1600.500
       283   07 Jun 2027 09:12:29.084   07 Jun 2027 09:13:48.094            79.010                Norilsk          2797.500
       284   07 Jun 2027 09:13:48.647   07 Jun 2027 09:14:24.270            35.623                Norilsk           276.500
       285   07 Jun 2027 09:14:24.294   07 Jun 2027 09:14:30.737             6.443              Murmansk2            12.000
       286   07 Jun 2027 09:14:40.003   07 Jun 2027 09:15:43.555            63.552              Murmansk1          4633.000
       287   07 Jun 2027 10:48:52.051   07 Jun 2027 10:49:37.817            45.766                 Moscow          1112.500
       288   07 Jun 2027 10:49:38.241   07 Jun 2027 10:49:46.530             8.289              Murmansk1           212.000
       289   07 Jun 2027 10:50:08.538   07 Jun 2027 10:51:54.725           106.187                 Moscow         11004.000
       290   08 Jun 2027 03:00:15.486   08 Jun 2027 03:01:04.530            49.044               Magadan1          6130.500
       291   08 Jun 2027 03:01:04.530   08 Jun 2027 03:01:22.929            18.399               Magadan2          1612.500
       292   08 Jun 2027 03:01:37.140   08 Jun 2027 03:02:20.772            43.632                Irkutsk          5454.000
       293   08 Jun 2027 03:02:21.265   08 Jun 2027 03:03:08.211            46.946                Norilsk          1651.500
       294   08 Jun 2027 04:33:20.888   08 Jun 2027 04:33:46.368            25.480                Norilsk          1764.000
       295   08 Jun 2027 04:33:59.601   08 Jun 2027 04:34:56.346            56.745               Magadan2          6616.500
       296   08 Jun 2027 04:35:08.743   08 Jun 2027 04:36:19.837            71.094                Irkutsk          6198.500
       297   08 Jun 2027 04:36:21.193   08 Jun 2027 04:36:46.981            25.788                Norilsk           678.000
       298   08 Jun 2027 04:36:53.570   08 Jun 2027 04:37:35.132            41.562               Magadan1          3294.500
       299   08 Jun 2027 04:37:42.298   08 Jun 2027 04:38:16.774            34.476                Novosib          3583.000
       300   08 Jun 2027 04:38:25.126   08 Jun 2027 04:39:18.554            53.428                Irkutsk          4176.000
       301   08 Jun 2027 04:39:20.358   08 Jun 2027 04:39:31.574            11.216               Magadan1           902.000
       302   08 Jun 2027 04:39:41.972   08 Jun 2027 04:40:01.562            19.590                Irkutsk          2448.750
       303   08 Jun 2027 04:40:08.290   08 Jun 2027 04:40:43.390            35.100                Norilsk          4387.500
       304   08 Jun 2027 04:41:12.190   08 Jun 2027 04:41:38.878            26.688              Murmansk2          1726.750
       305   08 Jun 2027 06:09:41.692   08 Jun 2027 06:11:29.686           107.994                Novosib          5897.500
       306   08 Jun 2027 06:11:43.958   08 Jun 2027 06:12:42.059            58.101                Norilsk          7136.000
       307   08 Jun 2027 06:12:43.918   08 Jun 2027 06:13:06.170            22.252                Irkutsk           929.500
       308   08 Jun 2027 06:13:12.317   08 Jun 2027 06:13:44.594            32.277                Novosib          3073.500
       309   08 Jun 2027 06:14:00.360   08 Jun 2027 06:15:27.477            87.117              Murmansk2          7883.000
       310   08 Jun 2027 06:15:28.419   08 Jun 2027 06:15:47.764            19.345                Norilsk           471.000
       311   08 Jun 2027 06:15:55.569   08 Jun 2027 06:16:27.869            32.300              Murmansk1          3902.500
       312   08 Jun 2027 07:47:19.517   08 Jun 2027 07:47:58.540            39.023                Norilsk          3079.000
       313   08 Jun 2027 07:48:01.538   08 Jun 2027 07:48:36.819            35.281              Murmansk2          1499.000
       314   08 Jun 2027 07:48:37.143   08 Jun 2027 07:48:55.285            18.142                Novosib           162.000
       315   08 Jun 2027 07:48:57.727   08 Jun 2027 07:49:14.824            17.097              Murmansk2          1221.000
       316   08 Jun 2027 07:49:24.427   08 Jun 2027 07:50:13.491            49.064                Norilsk          4801.500
       317   08 Jun 2027 07:50:18.102   08 Jun 2027 07:50:36.859            18.757                Norilsk          2305.500
       318   08 Jun 2027 07:50:41.706   08 Jun 2027 07:51:24.981            43.275                Novosib          2423.500
       319   08 Jun 2027 07:51:36.243   08 Jun 2027 07:52:49.894            73.651                Novosib          5631.000
       320   08 Jun 2027 09:23:22.870   08 Jun 2027 09:23:48.593            25.723              Murmansk1          1624.000
       321   08 Jun 2027 09:23:59.821   08 Jun 2027 09:24:48.517            48.696                Novosib          5614.000
       322   08 Jun 2027 09:24:53.524   08 Jun 2027 09:25:42.286            48.762                Novosib          2503.500
       323   08 Jun 2027 09:25:47.906   08 Jun 2027 09:26:19.710            31.804                Norilsk          2810.000
       324   08 Jun 2027 09:26:22.955   08 Jun 2027 09:26:44.151            21.196              Murmansk2          1622.500
       325   08 Jun 2027 09:26:44.902   08 Jun 2027 09:27:09.982            25.080                Norilsk           375.500
       326   08 Jun 2027 09:27:21.972   08 Jun 2027 09:28:24.964            62.992                Novosib          5995.000
       327   09 Jun 2027 03:10:35.289   09 Jun 2027 03:11:08.644            33.355                Irkutsk          2803.500
       328   09 Jun 2027 03:11:10.425   09 Jun 2027 03:11:19.778             9.353                Anadyr2           890.500
       329   09 Jun 2027 03:11:24.082   09 Jun 2027 03:12:05.294            41.212               Magadan1          2152.000
       330   09 Jun 2027 03:12:17.147   09 Jun 2027 03:13:05.642            48.495               Magadan1          5926.500
       331   09 Jun 2027 03:13:15.679   09 Jun 2027 03:13:59.697            44.018                Norilsk          5018.500
       332   09 Jun 2027 03:14:05.070   09 Jun 2027 03:14:27.890            22.820               Magadan2           826.500
       333   09 Jun 2027 04:45:41.576   09 Jun 2027 04:46:45.557            63.981                Novosib           905.500
       334   09 Jun 2027 04:46:53.813   09 Jun 2027 04:47:33.464            39.651               Magadan2          4128.000
       335   09 Jun 2027 04:47:42.178   09 Jun 2027 04:48:23.626            41.448               Magadan2          4357.000
       336   09 Jun 2027 04:48:42.818   09 Jun 2027 04:49:54.106            71.288                Novosib          8911.000
       337   09 Jun 2027 04:50:02.836   09 Jun 2027 04:50:44.728            41.892                Norilsk          5050.000
       338   09 Jun 2027 04:50:46.025   09 Jun 2027 04:50:59.802            13.777               Magadan2           648.500
       339   09 Jun 2027 04:51:10.348   09 Jun 2027 04:51:53.677            43.329               Magadan2          5273.000
       340   09 Jun 2027 04:51:58.151   09 Jun 2027 04:52:11.763            13.612              Murmansk1          1701.500
       341   09 Jun 2027 04:52:11.763   09 Jun 2027 04:52:33.838            22.075              Murmansk2           535.500
       342   09 Jun 2027 06:22:16.813   09 Jun 2027 06:23:02.569            45.756                Norilsk          5719.500
       343   09 Jun 2027 06:23:08.854   09 Jun 2027 06:23:59.198            50.344                Irkutsk          3429.000
       344   09 Jun 2027 06:24:01.175   09 Jun 2027 06:24:40.058            38.883                Norilsk           988.500
       345   09 Jun 2027 06:24:41.935   09 Jun 2027 06:25:03.284            21.349                Norilsk           938.500
       346   09 Jun 2027 06:25:09.988   09 Jun 2027 06:25:58.778            48.790              Murmansk2          3352.000
       347   09 Jun 2027 06:26:07.869   09 Jun 2027 06:26:51.563            43.694                Novosib          4545.500
       348   09 Jun 2027 06:27:06.298   09 Jun 2027 06:28:18.602            72.304                Novosib          7367.500
       349   09 Jun 2027 07:59:29.720   09 Jun 2027 08:01:01.347            91.627                Irkutsk          4930.000
       350   09 Jun 2027 08:01:01.993   09 Jun 2027 08:01:29.163            27.170              Murmansk2           323.000
       351   09 Jun 2027 08:01:38.925   09 Jun 2027 08:02:58.214            79.289              Murmansk2          4881.000
       352   09 Jun 2027 08:02:58.568   09 Jun 2027 08:03:33.602            35.034                Novosib           177.000
       353   09 Jun 2027 08:03:41.837   09 Jun 2027 08:04:17.810            35.973                Norilsk          4117.500
       354   09 Jun 2027 09:35:39.314   09 Jun 2027 09:36:12.492            33.178              Murmansk1          2540.000
       355   09 Jun 2027 09:36:23.705   09 Jun 2027 09:37:48.067            84.362                Norilsk          5606.500
       356   09 Jun 2027 09:37:48.404   09 Jun 2027 09:38:27.870            39.466                Novosib           168.500
       357   09 Jun 2027 09:38:35.918   09 Jun 2027 09:39:30.134            54.216              Murmansk2          4024.000
       358   09 Jun 2027 09:39:31.773   09 Jun 2027 09:40:02.008            30.235                Novosib           819.500
       359   09 Jun 2027 09:40:02.477   09 Jun 2027 09:40:13.273            10.796                Norilsk           234.500
       360   09 Jun 2027 09:40:16.811   09 Jun 2027 09:40:29.144            12.333                 Moscow          1392.500
       361   10 Jun 2027 03:22:27.071   10 Jun 2027 03:22:49.838            22.767               Magadan1          2263.500
       362   10 Jun 2027 03:22:51.890   10 Jun 2027 03:23:05.470            13.580                Anadyr1          1026.000
       363   10 Jun 2027 03:23:08.571   10 Jun 2027 03:23:21.194            12.623                Anadyr2          1550.500
       364   10 Jun 2027 03:23:30.807   10 Jun 2027 03:24:16.168            45.361               Magadan2          4806.500
       365   10 Jun 2027 03:24:16.312   10 Jun 2027 03:24:19.391             3.079                Norilsk            72.000
       366   10 Jun 2027 03:24:27.082   10 Jun 2027 03:25:19.853            52.771                Anadyr2          3845.500
       367   10 Jun 2027 03:25:22.409   10 Jun 2027 03:25:37.581            15.172               Magadan2          1278.000
       368   10 Jun 2027 03:25:42.796   10 Jun 2027 03:26:07.031            24.235                Anadyr1          2607.500
       369   10 Jun 2027 03:26:15.911   10 Jun 2027 03:27:09.634            53.723               Magadan1          4440.000
       370   10 Jun 2027 04:57:20.522   10 Jun 2027 04:57:35.159            14.637                Novosib           932.500
       371   10 Jun 2027 04:58:04.901   10 Jun 2027 05:00:49.043           164.142               Magadan2         14871.000
       372   10 Jun 2027 05:01:00.659   10 Jun 2027 05:01:48.500            47.841               Magadan2          5808.000
       373   10 Jun 2027 05:01:52.421   10 Jun 2027 05:02:06.461            14.040                Norilsk          1755.000
       374   10 Jun 2027 05:02:08.723   10 Jun 2027 05:02:34.531            25.808               Magadan1          1336.500
       375   10 Jun 2027 05:02:43.249   10 Jun 2027 05:03:45.385            62.136              Murmansk2          4359.000
       376   10 Jun 2027 05:03:45.477   10 Jun 2027 05:03:46.316             0.839              Murmansk1            46.000
       377   10 Jun 2027 05:03:54.975   10 Jun 2027 05:04:20.806            25.831                Irkutsk          3228.875
       378   10 Jun 2027 05:04:23.648   10 Jun 2027 05:04:44.160            20.512                Norilsk          2521.625
       379   10 Jun 2027 06:33:44.525   10 Jun 2027 06:34:21.026            36.501                Norilsk          3462.500
       380   10 Jun 2027 06:34:38.324   10 Jun 2027 06:35:51.176            72.852                Irkutsk          8649.000
       381   10 Jun 2027 06:36:00.974   10 Jun 2027 06:36:56.729            55.755                Irkutsk          4899.000
       382   10 Jun 2027 06:36:57.166   10 Jun 2027 06:37:08.844            11.678              Murmansk2           218.500
       383   10 Jun 2027 06:37:13.056   10 Jun 2027 06:37:37.912            24.856                Norilsk          2106.000
       384   10 Jun 2027 06:37:55.847   10 Jun 2027 06:39:08.921            73.074              Murmansk1          8967.500
       385   10 Jun 2027 06:39:09.198   10 Jun 2027 06:39:51.763            42.565              Murmansk1           138.500
       386   10 Jun 2027 06:39:54.909   10 Jun 2027 06:40:47.467            52.558                Novosib          1573.000
       387   10 Jun 2027 08:11:53.207   10 Jun 2027 08:12:36.573            43.366              Murmansk2           173.500
       388   10 Jun 2027 08:12:37.143   10 Jun 2027 08:12:40.136             2.993                 Moscow           285.000
       389   10 Jun 2027 08:12:49.161   10 Jun 2027 08:13:37.390            48.229              Murmansk2          4512.500
       390   10 Jun 2027 08:13:56.052   10 Jun 2027 08:15:17.060            81.008                Norilsk          9331.000
       391   10 Jun 2027 08:15:23.485   10 Jun 2027 08:15:50.008            26.523              Murmansk1          3212.500
       392   10 Jun 2027 09:47:29.588   10 Jun 2027 09:48:54.603            85.015              Murmansk1          8248.000
       393   10 Jun 2027 09:48:59.088   10 Jun 2027 09:49:23.409            24.321              Murmansk2          2242.500
       394   10 Jun 2027 09:49:26.505   10 Jun 2027 09:49:53.932            27.427                Novosib          1548.000
       395   10 Jun 2027 09:49:54.388   10 Jun 2027 09:50:14.066            19.678                Norilsk           228.000
       396   10 Jun 2027 09:50:21.525   10 Jun 2027 09:51:18.640            57.115              Murmansk1          3729.500
       397   10 Jun 2027 09:51:25.124   10 Jun 2027 09:51:54.719            29.595              Murmansk1          2933.500
       398   10 Jun 2027 09:51:58.417   10 Jun 2027 09:52:18.881            20.464                Norilsk          1849.000
       399   10 Jun 2027 09:52:20.432   10 Jun 2027 09:52:41.118            20.686                Norilsk           775.500
       400   10 Jun 2027 09:52:44.191   10 Jun 2027 09:53:32.369            48.178                Norilsk          1505.000
       401   11 Jun 2027 03:32:50.349   11 Jun 2027 03:33:46.352            56.003                Irkutsk          4565.500
       402   11 Jun 2027 03:34:09.182   11 Jun 2027 03:34:27.937            18.755               Magadan2          1339.000
       403   11 Jun 2027 03:34:29.385   11 Jun 2027 03:34:52.621            23.236               Magadan2           724.000
       404   11 Jun 2027 03:34:59.473   11 Jun 2027 03:35:35.664            36.191                Anadyr1          3426.000
       405   11 Jun 2027 03:35:37.615   11 Jun 2027 03:36:08.909            31.294                Norilsk           975.500
       406   11 Jun 2027 03:36:19.593   11 Jun 2027 03:37:04.490            44.897               Magadan1          5342.000
       407   11 Jun 2027 03:37:08.763   11 Jun 2027 03:37:49.052            40.289               Magadan1          2136.500
       408   11 Jun 2027 03:37:55.979   11 Jun 2027 03:38:50.638            54.659               Magadan1          3463.500
       409   11 Jun 2027 05:08:52.164   11 Jun 2027 05:09:03.196            11.032               Magadan1            80.500
       410   11 Jun 2027 05:09:05.802   11 Jun 2027 05:09:27.860            22.058                Norilsk          1303.000
       411   11 Jun 2027 05:09:32.771   11 Jun 2027 05:10:21.123            48.352               Magadan1          2455.500
       412   11 Jun 2027 05:10:36.534   11 Jun 2027 05:11:52.629            76.095               Magadan2          7705.500
       413   11 Jun 2027 05:11:55.892   11 Jun 2027 05:12:23.804            27.912                Norilsk          1631.500
       414   11 Jun 2027 05:12:30.758   11 Jun 2027 05:12:38.232             7.474                Irkutsk           934.250
       415   11 Jun 2027 05:12:44.865   11 Jun 2027 05:13:49.241            64.376                Novosib          5859.250
       416   11 Jun 2027 05:13:57.237   11 Jun 2027 05:14:52.034            54.797               Magadan2          3998.000
       417   11 Jun 2027 05:14:54.389   11 Jun 2027 05:15:14.846            20.457               Magadan1          1177.500
       418   11 Jun 2027 05:15:23.224   11 Jun 2027 05:16:13.423            50.199                Norilsk          4189.000
       419   11 Jun 2027 05:16:24.385   11 Jun 2027 05:17:11.496            47.111                Norilsk          5481.000
       420   11 Jun 2027 06:46:18.564   11 Jun 2027 06:47:48.485            89.921                Norilsk         10823.500
       421   11 Jun 2027 06:47:55.621   11 Jun 2027 06:48:29.636            34.015                Norilsk          3568.000
       422   11 Jun 2027 06:48:42.596   11 Jun 2027 06:49:18.893            36.297                Norilsk          4537.125
       423   11 Jun 2027 06:49:19.485   11 Jun 2027 06:49:51.638            32.153              Murmansk1          2238.875
       424   11 Jun 2027 06:49:54.053   11 Jun 2027 06:50:09.796            15.743                Norilsk          1207.500
       425   11 Jun 2027 06:50:14.211   11 Jun 2027 06:50:35.922            21.711              Murmansk1          2207.500
       426   11 Jun 2027 06:50:36.471   11 Jun 2027 06:50:38.250             1.779                Novosib           222.375
       427   11 Jun 2027 06:50:39.627   11 Jun 2027 06:51:01.369            21.742                Norilsk           740.625
       428   11 Jun 2027 06:51:01.465   11 Jun 2027 06:51:49.055            47.590              Murmansk1            48.000
       429   11 Jun 2027 06:51:56.448   11 Jun 2027 06:52:35.516            39.068              Murmansk2          3696.500
       430   11 Jun 2027 08:24:08.847   11 Jun 2027 08:25:03.952            55.105                Norilsk          6468.500
       431   11 Jun 2027 08:25:05.796   11 Jun 2027 08:25:36.302            30.506              Murmansk2           922.000
       432   11 Jun 2027 08:25:45.520   11 Jun 2027 08:26:10.476            24.956                Irkutsk          3119.500
       433   11 Jun 2027 08:26:13.854   11 Jun 2027 08:27:23.352            69.498                Novosib          3178.500
       434   11 Jun 2027 08:27:29.903   11 Jun 2027 08:28:04.529            34.626                Novosib          3275.500
       435   11 Jun 2027 09:57:30.882   11 Jun 2027 09:57:36.837             5.955                 Moscow           744.375
       436   11 Jun 2027 09:57:54.403   11 Jun 2027 10:01:51.055           236.652                 Moscow         21121.125
       437   11 Jun 2027 10:01:56.339   11 Jun 2027 10:02:32.392            36.053                Norilsk          2642.000
       438   11 Jun 2027 10:02:40.456   11 Jun 2027 10:03:21.340            40.884              Murmansk1          4032.000
       439   11 Jun 2027 10:03:35.460   11 Jun 2027 10:04:40.360            64.900              Murmansk1          5615.000
       440   11 Jun 2027 10:04:41.788   11 Jun 2027 10:05:49.642            67.854                 Moscow           714.000
       441   12 Jun 2027 03:43:59.964   12 Jun 2027 03:45:00.708            60.744               Magadan2          6142.500
       442   12 Jun 2027 03:45:06.698   12 Jun 2027 03:45:42.889            36.191               Magadan1          2995.000
       443   12 Jun 2027 03:45:59.915   12 Jun 2027 03:47:14.537            74.622                Anadyr1          4532.000
       444   12 Jun 2027 03:47:24.150   12 Jun 2027 03:48:06.207            42.057                Anadyr1          4806.500
       445   12 Jun 2027 03:48:14.725   12 Jun 2027 03:49:02.405            47.680                Norilsk          4259.000
       446   12 Jun 2027 03:49:08.939   12 Jun 2027 03:49:43.619            34.680                Anadyr1          3267.000
       447   12 Jun 2027 03:49:49.251   12 Jun 2027 03:49:56.440             7.189                Norilsk           898.625
       448   12 Jun 2027 03:50:01.039   12 Jun 2027 03:51:18.302            77.263                Anadyr2          4216.874
       449   12 Jun 2027 03:51:43.791   12 Jun 2027 03:52:20.467            36.676              Murmansk2           712.500
       450   12 Jun 2027 05:21:12.839   12 Jun 2027 05:22:04.986            52.147               Magadan2          1439.000
       451   12 Jun 2027 05:22:12.637   12 Jun 2027 05:23:03.163            50.526                Norilsk          3825.500
       452   12 Jun 2027 05:23:07.069   12 Jun 2027 05:23:23.558            16.489               Magadan1          1953.000
       453   12 Jun 2027 05:23:28.367   12 Jun 2027 05:23:53.446            25.079                Irkutsk          2404.500
       454   12 Jun 2027 05:23:55.944   12 Jun 2027 05:24:24.031            28.087                Norilsk          1249.000
       455   12 Jun 2027 05:24:31.792   12 Jun 2027 05:25:38.609            66.817                Novosib          3880.500
       456   12 Jun 2027 05:25:47.898   12 Jun 2027 05:26:55.130            67.232               Magadan1          4644.500
       457   12 Jun 2027 05:26:55.880   12 Jun 2027 05:27:00.856             4.976               Magadan2           375.000
       458   12 Jun 2027 05:27:16.814   12 Jun 2027 05:28:02.543            45.729                Norilsk          5716.125
       459   12 Jun 2027 05:28:13.453   12 Jun 2027 05:29:33.183            79.730                Norilsk          7717.875
       460   12 Jun 2027 06:58:12.606   12 Jun 2027 07:00:01.984           109.378                Irkutsk          7119.000
       461   12 Jun 2027 07:00:18.873   12 Jun 2027 07:01:30.827            71.954                Novosib          8444.500
       462   12 Jun 2027 07:01:38.822   12 Jun 2027 07:02:17.152            38.330                Norilsk          3997.500
       463   12 Jun 2027 07:02:18.379   12 Jun 2027 07:02:45.198            26.819                Novosib           613.500
       464   12 Jun 2027 07:02:51.209   12 Jun 2027 07:03:13.810            22.601                Novosib          2825.125
       465   12 Jun 2027 07:03:22.926   12 Jun 2027 07:04:12.206            49.280                Irkutsk          4738.375
       466   12 Jun 2027 07:04:14.378   12 Jun 2027 07:04:23.617             9.239                Norilsk          1086.000
       467   12 Jun 2027 07:04:36.660   12 Jun 2027 07:05:10.131            33.471              Murmansk2          1512.500
       468   12 Jun 2027 08:35:55.626   12 Jun 2027 08:36:13.037            17.411              Murmansk2            61.500
       469   12 Jun 2027 08:36:17.429   12 Jun 2027 08:36:43.225            25.796                 Moscow          2196.000
       470   12 Jun 2027 08:36:46.769   12 Jun 2027 08:38:21.090            94.321                 Moscow          1772.000
       471   12 Jun 2027 08:38:24.070   12 Jun 2027 08:38:36.102            12.032                 Moscow          1490.000
       472   12 Jun 2027 08:38:38.253   12 Jun 2027 08:39:02.173            23.920                Novosib          1075.500
       473   12 Jun 2027 08:39:05.482   12 Jun 2027 08:39:24.812            19.330              Murmansk2          1654.500
       474   12 Jun 2027 08:39:27.996   12 Jun 2027 08:39:42.311            14.315                Norilsk          1592.000
       475   12 Jun 2027 08:39:44.638   12 Jun 2027 08:39:49.798             5.160                Norilsk           645.000
       476   12 Jun 2027 08:39:59.693   12 Jun 2027 08:41:14.645            74.952                Novosib          2842.500
       477   12 Jun 2027 10:09:56.355   12 Jun 2027 10:11:33.198            96.843                 Moscow         12085.000
       478   12 Jun 2027 10:11:54.667   12 Jun 2027 10:13:25.087            90.420              Murmansk2         10734.500
       479   12 Jun 2027 10:13:25.936   12 Jun 2027 10:13:33.120             7.184              Murmansk2           424.500
       480   12 Jun 2027 10:13:34.189   12 Jun 2027 10:13:50.333            16.144                Norilsk           534.500
       481   12 Jun 2027 10:13:58.265   12 Jun 2027 10:15:38.134            99.869                Norilsk          3966.000
       482   12 Jun 2027 10:15:42.409   12 Jun 2027 10:16:00.724            18.315                Norilsk          2137.500
