uniorb/output/strategy_2/Drop/Drop_KinoSat_111305.txt

KinoSat_111305
-------------------------
    Access    *     Start Time (UTCG)     *     Stop Time (UTCG)  *   Duration (s)        *       Station  *  Data (Mbytes)
         1   01 Jun 2027 03:30:47.189   01 Jun 2027 03:32:47.321           120.132              Murmansk2          3754.125
         2   01 Jun 2027 03:33:17.340   01 Jun 2027 03:33:28.789            11.449              Murmansk2           357.781
         3   01 Jun 2027 03:34:48.836   01 Jun 2027 03:35:27.622            38.786                 Moscow          1212.062
         4   01 Jun 2027 04:52:21.077   01 Jun 2027 04:54:35.835           134.758               Magadan1          4211.188
         5   01 Jun 2027 04:54:35.835   01 Jun 2027 04:54:48.453            12.618               Magadan2           394.313
         6   01 Jun 2027 04:54:48.453   01 Jun 2027 04:55:29.945            41.492               Magadan1          1296.625
         7   01 Jun 2027 04:55:29.945   01 Jun 2027 04:56:14.753            44.808               Magadan2          1400.250
         8   01 Jun 2027 04:56:21.434   01 Jun 2027 04:56:34.675            13.241                Anadyr1           413.781
         9   01 Jun 2027 06:28:04.534   01 Jun 2027 06:30:34.197           149.663               Magadan2          4676.969
        10   01 Jun 2027 06:30:43.196   01 Jun 2027 06:32:11.366            88.170               Magadan2          2755.313
        11   01 Jun 2027 06:33:44.924   01 Jun 2027 06:34:22.763            37.839                Anadyr2          1182.469
        12   01 Jun 2027 08:02:45.864   01 Jun 2027 08:03:30.888            45.024               Magadan1          1407.000
        13   01 Jun 2027 08:03:54.909   01 Jun 2027 08:06:04.357           129.448                Anadyr2          4045.250
        14   01 Jun 2027 08:06:16.758   01 Jun 2027 08:07:20.660            63.902               Magadan1          1996.938
        15   01 Jun 2027 08:07:27.630   01 Jun 2027 08:07:55.694            28.064               Magadan1           877.000
        16   01 Jun 2027 08:08:14.499   01 Jun 2027 08:09:14.863            60.364                Norilsk          1886.375
        17   01 Jun 2027 08:09:16.662   01 Jun 2027 08:09:49.376            32.714                Novosib          1022.313
        18   01 Jun 2027 08:09:57.053   01 Jun 2027 08:10:22.465            25.412              Murmansk2           794.125
        19   01 Jun 2027 08:10:35.075   01 Jun 2027 08:10:40.463             5.388              Murmansk1           168.375
        20   01 Jun 2027 08:12:37.867   01 Jun 2027 08:12:42.816             4.949                Norilsk           154.656
        21   01 Jun 2027 08:14:15.739   01 Jun 2027 08:15:07.274            51.535                Norilsk          1610.469
        22   01 Jun 2027 08:45:01.435   01 Jun 2027 08:46:37.100            95.665            RioGallegos          2989.531
        23   01 Jun 2027 08:50:46.645   01 Jun 2027 08:51:16.466            29.821            RioGallegos           931.906
        24   01 Jun 2027 09:22:32.888   01 Jun 2027 09:23:50.166            77.278                Sumatra          2414.938
        25   01 Jun 2027 09:25:19.333   01 Jun 2027 09:25:37.718            18.385                Sumatra           574.531
        26   01 Jun 2027 09:39:20.672   01 Jun 2027 09:40:28.386            67.714               Magadan2          2116.062
        27   01 Jun 2027 09:41:15.136   01 Jun 2027 09:43:35.876           140.740               Magadan2          4398.125
        28   01 Jun 2027 09:44:08.198   01 Jun 2027 09:45:03.162            54.964                Irkutsk          1717.625
        29   01 Jun 2027 09:45:21.766   01 Jun 2027 09:45:52.876            31.110                Irkutsk           972.188
        30   01 Jun 2027 09:46:18.538   01 Jun 2027 09:47:15.430            56.892              Murmansk2          1777.875
        31   01 Jun 2027 09:47:41.411   01 Jun 2027 09:47:48.894             7.483              Murmansk1           233.844
        32   01 Jun 2027 10:20:54.024   01 Jun 2027 10:22:34.380           100.356            RioGallegos          3136.125
        33   01 Jun 2027 10:55:25.408   01 Jun 2027 10:56:38.521            73.113                Sumatra          2284.781
        34   01 Jun 2027 11:05:01.580   01 Jun 2027 11:05:40.630            39.050                  Delhi          1220.313
        35   01 Jun 2027 11:17:12.389   01 Jun 2027 11:19:16.121           123.732                Norilsk          3866.625
        36   01 Jun 2027 11:19:19.824   01 Jun 2027 11:20:56.820            96.996              Murmansk2          3031.125
        37   01 Jun 2027 11:20:56.820   01 Jun 2027 11:21:44.460            47.640              Murmansk1          1488.750
        38   01 Jun 2027 11:21:45.570   01 Jun 2027 11:22:27.343            41.773                Norilsk          1305.406
        39   01 Jun 2027 11:22:35.004   01 Jun 2027 11:23:15.127            40.123                 Moscow          1253.844
        40   01 Jun 2027 12:02:16.421   01 Jun 2027 12:03:44.704            88.283            RioGallegos          2758.844
        41   01 Jun 2027 12:39:53.400   01 Jun 2027 12:40:08.320            14.920                  Delhi           466.250
        42   01 Jun 2027 12:42:35.200   01 Jun 2027 12:44:37.495           122.295                  Delhi          3821.719
        43   01 Jun 2027 12:47:54.057   01 Jun 2027 12:48:40.719            46.662                Novosib          1458.187
        44   01 Jun 2027 12:51:39.537   01 Jun 2027 12:53:02.252            82.715                Novosib          2584.844
        45   01 Jun 2027 12:53:03.963   01 Jun 2027 12:54:11.893            67.930                Norilsk          2122.813
        46   01 Jun 2027 12:55:51.318   01 Jun 2027 12:56:58.534            67.216                Norilsk          2100.500
        47   01 Jun 2027 14:23:59.375   01 Jun 2027 14:27:57.498           238.123                 Moscow          7441.344
        48   01 Jun 2027 14:28:51.414   01 Jun 2027 14:30:31.771           100.357              Murmansk2          3136.156
        49   01 Jun 2027 14:32:09.470   01 Jun 2027 14:34:49.181           159.711                Norilsk          4990.969
        50   01 Jun 2027 15:38:14.692   01 Jun 2027 15:39:29.133            74.441               CapeTown          2326.281
        51   01 Jun 2027 15:41:08.961   01 Jun 2027 15:41:29.679            20.718               CapeTown           647.438
        52   01 Jun 2027 16:01:48.654   01 Jun 2027 16:02:29.527            40.873                 Moscow          1277.281
        53   01 Jun 2027 16:04:46.731   01 Jun 2027 16:05:57.150            70.419              Murmansk1          2200.594
        54   01 Jun 2027 16:06:45.784   01 Jun 2027 16:07:05.054            19.270              Murmansk1           602.188
        55   01 Jun 2027 16:07:05.054   01 Jun 2027 16:07:35.485            30.431              Murmansk2           950.969
        56   01 Jun 2027 16:08:50.650   01 Jun 2027 16:10:32.151           101.501              Murmansk1          3171.906
        57   01 Jun 2027 16:18:24.644   01 Jun 2027 16:19:59.658            95.014                Anadyr1          2969.188
        58   01 Jun 2027 17:13:35.409   01 Jun 2027 17:15:33.247           117.838               CapeTown          3682.437
        59   01 Jun 2027 17:44:27.496   01 Jun 2027 17:47:43.226           195.730              Murmansk2          6116.563
        60   01 Jun 2027 17:48:23.774   01 Jun 2027 17:48:41.255            17.481              Murmansk2           546.281
        61   01 Jun 2027 17:54:02.774   01 Jun 2027 17:56:12.119           129.345                Anadyr2          4042.031
        62   01 Jun 2027 17:57:11.989   01 Jun 2027 17:59:25.619           133.630               Magadan1          4175.938
        63   01 Jun 2027 18:00:02.678   01 Jun 2027 18:00:07.655             4.977               Magadan1           155.531
        64   01 Jun 2027 19:29:58.336   01 Jun 2027 19:31:50.856           112.520                Anadyr1          3516.250
        65   01 Jun 2027 19:32:03.530   01 Jun 2027 19:32:55.138            51.608                Anadyr2          1612.750
        66   01 Jun 2027 19:33:07.469   01 Jun 2027 19:33:17.327             9.858                Anadyr2           308.063
        67   01 Jun 2027 19:33:30.896   01 Jun 2027 19:33:48.700            17.804                Anadyr2           556.375
        68   01 Jun 2027 19:34:05.032   01 Jun 2027 19:34:35.786            30.754               Magadan2           961.062
        69   01 Jun 2027 19:34:56.254   01 Jun 2027 19:37:23.693           147.439               Magadan1          4607.469
        70   01 Jun 2027 20:26:20.659   01 Jun 2027 20:28:44.351           143.692            RioGallegos          4490.375
        71   01 Jun 2027 21:05:47.807   01 Jun 2027 21:08:04.675           136.868                Anadyr1          4277.125
        72   01 Jun 2027 21:08:11.758   01 Jun 2027 21:09:42.788            91.030               Magadan2          2844.687
        73   01 Jun 2027 21:09:45.444   01 Jun 2027 21:10:29.934            44.490               Magadan2          1390.313
        74   01 Jun 2027 21:11:25.597   01 Jun 2027 21:11:38.560            12.963               Magadan1           405.094
        75   01 Jun 2027 21:12:56.320   01 Jun 2027 21:16:04.190           187.870                Irkutsk          5870.937
        76   01 Jun 2027 21:28:00.461   01 Jun 2027 21:29:02.601            62.140                Sumatra          1941.875
        77   01 Jun 2027 22:41:05.384   01 Jun 2027 22:42:10.250            64.866                Anadyr1          2027.062
        78   01 Jun 2027 22:42:15.867   01 Jun 2027 22:42:54.476            38.609                Anadyr2          1206.531
        79   01 Jun 2027 22:43:42.331   01 Jun 2027 22:45:43.098           120.767                Norilsk          3773.969
        80   01 Jun 2027 22:45:54.952   01 Jun 2027 22:46:17.662            22.710               Magadan2           709.687
        81   01 Jun 2027 22:47:37.762   01 Jun 2027 22:48:42.506            64.744                Irkutsk          2023.250
        82   01 Jun 2027 22:48:50.650   01 Jun 2027 22:49:10.537            19.887                Irkutsk           621.469
        83   01 Jun 2027 22:51:14.245   01 Jun 2027 22:52:08.906            54.661                Novosib          1708.156
        84   01 Jun 2027 22:58:35.564   01 Jun 2027 23:00:07.819            92.255                  Delhi          2882.969
        85   02 Jun 2027 00:15:14.518   02 Jun 2027 00:16:19.668            65.150                Anadyr2          2035.937
        86   02 Jun 2027 00:16:19.668   02 Jun 2027 00:16:55.078            35.410                Anadyr1          1106.562
        87   02 Jun 2027 00:17:29.304   02 Jun 2027 00:18:06.610            37.306                Anadyr2          1165.813
        88   02 Jun 2027 00:19:42.609   02 Jun 2027 00:19:59.336            16.727                Norilsk           522.719
        89   02 Jun 2027 00:20:17.796   02 Jun 2027 00:21:08.193            50.397               Magadan1          1574.906
        90   02 Jun 2027 00:21:32.575   02 Jun 2027 00:21:53.142            20.567               Magadan2           642.719
        91   02 Jun 2027 00:22:41.847   02 Jun 2027 00:26:03.531           201.684              Murmansk1          6302.625
        92   02 Jun 2027 00:27:13.447   02 Jun 2027 00:27:50.075            36.628              Murmansk2          1144.625
        93   02 Jun 2027 00:30:51.303   02 Jun 2027 00:31:34.473            43.170                  Delhi          1349.063
        94   02 Jun 2027 00:32:06.690   02 Jun 2027 00:33:37.809            91.119                  Delhi          2847.469
        95   02 Jun 2027 01:12:41.987   02 Jun 2027 01:13:46.148            64.161            RioGallegos          2005.031
        96   02 Jun 2027 01:18:47.614   02 Jun 2027 01:19:45.673            58.059            RioGallegos          1814.344
        97   02 Jun 2027 01:48:32.269   02 Jun 2027 01:48:37.531             5.262                Anadyr1           164.437
        98   02 Jun 2027 01:50:00.040   02 Jun 2027 01:50:33.104            33.064                Anadyr1          1033.250
        99   02 Jun 2027 01:51:48.693   02 Jun 2027 01:51:56.902             8.209                Anadyr1           256.531
       100   02 Jun 2027 01:53:44.235   02 Jun 2027 01:54:16.980            32.745                Anadyr1          1023.281
       101   02 Jun 2027 01:54:37.232   02 Jun 2027 01:55:22.112            44.880               Magadan1          1402.500
       102   02 Jun 2027 01:55:38.292   02 Jun 2027 01:55:59.013            20.721                Norilsk           647.531
       103   02 Jun 2027 01:56:45.903   02 Jun 2027 01:57:04.092            18.189               Magadan2           568.406
       104   02 Jun 2027 01:57:17.502   02 Jun 2027 01:57:20.097             2.595                Norilsk            81.094
       105   02 Jun 2027 01:57:29.169   02 Jun 2027 01:57:33.936             4.767                Norilsk           148.969
       106   02 Jun 2027 01:57:53.160   02 Jun 2027 01:58:19.623            26.463              Murmansk1           826.969
       107   02 Jun 2027 01:58:39.980   02 Jun 2027 02:00:07.107            87.127              Murmansk1          2722.719
       108   02 Jun 2027 02:01:00.306   02 Jun 2027 02:01:38.179            37.873                Irkutsk          1183.531
       109   02 Jun 2027 02:02:11.663   02 Jun 2027 02:02:20.301             8.638                 Moscow           269.938
       110   02 Jun 2027 02:04:41.365   02 Jun 2027 02:05:04.911            23.546                 Moscow           735.812
       111   02 Jun 2027 02:06:21.611   02 Jun 2027 02:06:51.882            30.271                Novosib           945.969
       112   02 Jun 2027 02:08:30.645   02 Jun 2027 02:09:01.478            30.833                  Delhi           963.531
       113   02 Jun 2027 02:14:08.272   02 Jun 2027 02:14:17.313             9.041                  Delhi           282.531
       114   02 Jun 2027 02:15:01.210   02 Jun 2027 02:16:12.444            71.234                  Delhi          2226.062
       115   02 Jun 2027 03:43:09.938   02 Jun 2027 03:43:24.374            14.436              Murmansk1           451.125
       116   02 Jun 2027 03:43:30.164   02 Jun 2027 03:44:49.663            79.499              Murmansk2          2484.344
       117   02 Jun 2027 03:44:49.663   02 Jun 2027 03:45:28.256            38.593              Murmansk1          1206.031
       118   02 Jun 2027 05:04:31.976   02 Jun 2027 05:06:37.077           125.101               Magadan1          3909.406
       119   02 Jun 2027 05:06:43.762   02 Jun 2027 05:07:27.787            44.025                Anadyr2          1375.781
       120   02 Jun 2027 05:07:27.787   02 Jun 2027 05:07:37.378             9.591                Anadyr1           299.719
       121   02 Jun 2027 06:42:41.554   02 Jun 2027 06:44:51.434           129.880                Anadyr1          4058.750
       122   02 Jun 2027 08:15:16.545   02 Jun 2027 08:16:43.121            86.576               Magadan2          2705.500
       123   02 Jun 2027 08:16:44.417   02 Jun 2027 08:17:08.399            23.982                Irkutsk           749.438
       124   02 Jun 2027 08:17:13.683   02 Jun 2027 08:18:15.725            62.042               Magadan1          1938.813
       125   02 Jun 2027 08:18:15.725   02 Jun 2027 08:18:35.997            20.272               Magadan2           633.500
       126   02 Jun 2027 08:18:54.536   02 Jun 2027 08:19:18.109            23.573                Norilsk           736.656
       127   02 Jun 2027 08:19:43.172   02 Jun 2027 08:20:35.455            52.283                Novosib          1633.844
       128   02 Jun 2027 08:20:40.994   02 Jun 2027 08:20:49.463             8.469                Norilsk           264.656
       129   02 Jun 2027 08:21:05.657   02 Jun 2027 08:22:22.356            76.699              Murmansk2          2396.844
       130   02 Jun 2027 08:28:10.119   02 Jun 2027 08:28:14.410             4.291              Murmansk1           134.094
       131   02 Jun 2027 08:56:51.023   02 Jun 2027 08:58:28.429            97.406            RioGallegos          3043.938
       132   02 Jun 2027 09:36:34.273   02 Jun 2027 09:37:48.795            74.522                Sumatra          2328.813
       133   02 Jun 2027 09:51:44.319   02 Jun 2027 09:52:03.883            19.564                Norilsk           611.375
       134   02 Jun 2027 09:53:02.738   02 Jun 2027 09:54:33.374            90.636               Magadan2          2832.375
       135   02 Jun 2027 09:54:33.374   02 Jun 2027 09:54:36.864             3.490               Magadan1           109.063
       136   02 Jun 2027 09:55:14.557   02 Jun 2027 09:55:24.933            10.376                Norilsk           324.250
       137   02 Jun 2027 09:55:29.687   02 Jun 2027 09:55:54.670            24.983                Norilsk           780.719
       138   02 Jun 2027 09:55:59.502   02 Jun 2027 09:56:38.022            38.520                Irkutsk          1203.750
       139   02 Jun 2027 09:56:44.897   02 Jun 2027 09:57:07.306            22.409              Murmansk2           700.281
       140   02 Jun 2027 09:57:08.893   02 Jun 2027 09:57:31.115            22.222                Irkutsk           694.438
       141   02 Jun 2027 09:57:37.026   02 Jun 2027 09:57:57.688            20.662                Norilsk           645.688
       142   02 Jun 2027 09:58:20.223   02 Jun 2027 09:58:21.180             0.957              Murmansk2            29.906
       143   02 Jun 2027 09:58:44.257   02 Jun 2027 09:58:47.105             2.848              Murmansk2            89.000
       144   02 Jun 2027 09:59:07.178   02 Jun 2027 09:59:15.411             8.233                Norilsk           257.281
       145   02 Jun 2027 10:01:46.340   02 Jun 2027 10:01:54.791             8.451                Norilsk           264.094
       146   02 Jun 2027 10:33:11.382   02 Jun 2027 10:33:12.709             1.327            RioGallegos            41.469
       147   02 Jun 2027 10:33:40.322   02 Jun 2027 10:34:08.441            28.119            RioGallegos           878.719
       148   02 Jun 2027 10:35:35.228   02 Jun 2027 10:35:58.026            22.798            RioGallegos           712.437
       149   02 Jun 2027 10:37:15.159   02 Jun 2027 10:37:53.511            38.352            RioGallegos          1198.500
       150   02 Jun 2027 11:07:34.488   02 Jun 2027 11:08:00.590            26.102                Sumatra           815.688
       151   02 Jun 2027 11:10:22.951   02 Jun 2027 11:12:08.589           105.638                Sumatra          3301.188
       152   02 Jun 2027 11:28:56.988   02 Jun 2027 11:29:46.411            49.423                Irkutsk          1544.469
       153   02 Jun 2027 11:29:49.859   02 Jun 2027 11:30:27.452            37.593                Norilsk          1174.781
       154   02 Jun 2027 11:30:51.898   02 Jun 2027 11:30:59.668             7.770                Novosib           242.812
       155   02 Jun 2027 11:31:04.516   02 Jun 2027 11:32:10.495            65.979                Irkutsk          2061.844
       156   02 Jun 2027 11:32:13.438   02 Jun 2027 11:32:32.508            19.070              Murmansk1           595.938
       157   02 Jun 2027 11:32:56.374   02 Jun 2027 11:33:29.706            33.332              Murmansk1          1041.625
       158   02 Jun 2027 11:33:37.659   02 Jun 2027 11:34:16.687            39.028                Novosib          1219.625
       159   02 Jun 2027 11:34:41.890   02 Jun 2027 11:35:06.928            25.038                 Moscow           782.438
       160   02 Jun 2027 12:52:12.942   02 Jun 2027 12:53:24.633            71.691                  Delhi          2240.344
       161   02 Jun 2027 12:56:36.363   02 Jun 2027 12:57:18.985            42.622                  Delhi          1331.937
       162   02 Jun 2027 13:00:24.890   02 Jun 2027 13:02:05.172           100.282                Novosib          3133.812
       163   02 Jun 2027 13:03:41.762   02 Jun 2027 13:04:48.223            66.461                Novosib          2076.906
       164   02 Jun 2027 13:04:49.721   02 Jun 2027 13:04:54.994             5.273              Murmansk1           164.781
       165   02 Jun 2027 13:05:20.037   02 Jun 2027 13:05:30.316            10.279              Murmansk1           321.219
       166   02 Jun 2027 13:05:31.645   02 Jun 2027 13:05:59.796            28.151                Norilsk           879.719
       167   02 Jun 2027 13:06:53.674   02 Jun 2027 13:07:54.710            61.036                Norilsk          1907.375
       168   02 Jun 2027 14:36:03.130   02 Jun 2027 14:40:08.764           245.634                 Moscow          7676.063
       169   02 Jun 2027 14:40:24.079   02 Jun 2027 14:42:49.332           145.253              Murmansk1          4539.156
       170   02 Jun 2027 14:45:20.797   02 Jun 2027 14:45:29.723             8.926                Norilsk           278.938
       171   02 Jun 2027 14:47:16.178   02 Jun 2027 14:48:24.515            68.337                Norilsk          2135.531
       172   02 Jun 2027 15:49:59.515   02 Jun 2027 15:51:35.522            96.007               CapeTown          3000.219
       173   02 Jun 2027 15:56:04.212   02 Jun 2027 15:56:17.725            13.513               CapeTown           422.281
       174   02 Jun 2027 16:01:17.228   02 Jun 2027 16:01:37.689            20.461               CapeTown           639.406
       175   02 Jun 2027 16:14:34.122   02 Jun 2027 16:14:46.245            12.123                 Moscow           378.844
       176   02 Jun 2027 16:17:07.491   02 Jun 2027 16:18:10.001            62.510              Murmansk1          1953.438
       177   02 Jun 2027 16:19:06.969   02 Jun 2027 16:19:41.448            34.479              Murmansk1          1077.469
       178   02 Jun 2027 16:20:29.750   02 Jun 2027 16:20:52.608            22.858              Murmansk1           714.313
       179   02 Jun 2027 16:21:30.022   02 Jun 2027 16:22:18.304            48.282              Murmansk1          1508.812
       180   02 Jun 2027 16:30:21.428   02 Jun 2027 16:32:05.652           104.224                Anadyr1          3257.000
       181   02 Jun 2027 16:34:44.496   02 Jun 2027 16:35:02.389            17.893                Anadyr2           559.156
       182   02 Jun 2027 16:35:48.350   02 Jun 2027 16:36:03.289            14.939                Anadyr2           466.844
       183   02 Jun 2027 16:38:49.826   02 Jun 2027 16:39:01.581            11.755                Anadyr2           367.344
       184   02 Jun 2027 17:25:46.026   02 Jun 2027 17:27:01.687            75.661               CapeTown          2364.406
       185   02 Jun 2027 17:32:39.003   02 Jun 2027 17:33:27.896            48.893               CapeTown          1527.906
       186   02 Jun 2027 17:57:12.147   02 Jun 2027 18:00:21.449           189.302              Murmansk1          5915.687
       187   02 Jun 2027 18:00:21.449   02 Jun 2027 18:01:56.742            95.293              Murmansk2          2977.906
       188   02 Jun 2027 18:09:00.597   02 Jun 2027 18:10:23.779            83.182               Magadan1          2599.438
       189   02 Jun 2027 18:10:58.214   02 Jun 2027 18:11:45.165            46.951               Magadan2          1467.219
       190   02 Jun 2027 19:41:59.763   02 Jun 2027 19:45:01.749           181.986                Anadyr1          5687.062
       191   02 Jun 2027 19:45:08.224   02 Jun 2027 19:48:14.650           186.426               Magadan1          5825.812
       192   02 Jun 2027 19:51:19.633   02 Jun 2027 19:51:48.619            28.986               Magadan1           905.812
       193   02 Jun 2027 19:52:25.236   02 Jun 2027 19:52:31.034             5.798               Magadan2           181.187
       194   02 Jun 2027 20:37:36.791   02 Jun 2027 20:40:25.969           169.178            RioGallegos          5286.813
       195   02 Jun 2027 20:43:09.534   02 Jun 2027 20:43:23.437            13.903            RioGallegos           434.469
       196   02 Jun 2027 20:43:47.386   02 Jun 2027 20:44:46.492            59.106            RioGallegos          1847.062
       197   02 Jun 2027 21:17:46.948   02 Jun 2027 21:18:18.253            31.305                Anadyr2           978.281
       198   02 Jun 2027 21:19:01.836   02 Jun 2027 21:19:09.199             7.363                Anadyr2           230.094
       199   02 Jun 2027 21:19:22.924   02 Jun 2027 21:19:59.460            36.536                Anadyr2          1141.750
       200   02 Jun 2027 21:20:14.266   02 Jun 2027 21:21:32.261            77.995               Magadan1          2437.344
       201   02 Jun 2027 21:21:43.709   02 Jun 2027 21:22:31.599            47.890                Norilsk          1496.562
       202   02 Jun 2027 21:23:01.942   02 Jun 2027 21:23:36.822            34.880                Norilsk          1090.000
       203   02 Jun 2027 21:24:37.996   02 Jun 2027 21:25:41.169            63.173                Irkutsk          1974.156
       204   02 Jun 2027 21:33:36.822   02 Jun 2027 21:33:44.745             7.923                Irkutsk           247.594
       205   02 Jun 2027 21:39:11.642   02 Jun 2027 21:41:47.866           156.224                Sumatra          4882.000
       206   02 Jun 2027 22:52:57.823   02 Jun 2027 22:53:04.165             6.342                Anadyr1           198.188
       207   02 Jun 2027 22:53:21.822   02 Jun 2027 22:53:59.615            37.793                Anadyr1          1181.031
       208   02 Jun 2027 22:56:14.955   02 Jun 2027 22:57:45.039            90.084                Norilsk          2815.125
       209   02 Jun 2027 22:57:48.878   02 Jun 2027 22:58:18.696            29.818               Magadan2           931.813
       210   02 Jun 2027 22:59:37.523   02 Jun 2027 23:01:25.585           108.062                Irkutsk          3376.937
       211   02 Jun 2027 23:03:09.367   02 Jun 2027 23:03:27.292            17.925                Novosib           560.156
       212   02 Jun 2027 23:06:13.905   02 Jun 2027 23:06:46.239            32.334                Novosib          1010.438
       213   02 Jun 2027 23:09:21.973   02 Jun 2027 23:11:40.696           138.723                  Delhi          4335.094
       214   02 Jun 2027 23:58:51.269   02 Jun 2027 23:59:19.676            28.407            RioGallegos           887.719
       215   03 Jun 2027 00:26:57.454   03 Jun 2027 00:27:14.008            16.554                Anadyr1           517.312
       216   03 Jun 2027 00:27:26.900   03 Jun 2027 00:27:40.628            13.728                Anadyr2           429.000
       217   03 Jun 2027 00:28:17.193   03 Jun 2027 00:29:14.339            57.146                Anadyr2          1785.812
       218   03 Jun 2027 00:29:28.520   03 Jun 2027 00:29:42.324            13.804                Anadyr2           431.375
       219   03 Jun 2027 00:31:44.597   03 Jun 2027 00:32:00.977            16.380                Norilsk           511.875
       220   03 Jun 2027 00:32:16.877   03 Jun 2027 00:34:03.955           107.078               Magadan2          3346.187
       221   03 Jun 2027 00:34:29.494   03 Jun 2027 00:35:56.647            87.153              Murmansk1          2723.531
       222   03 Jun 2027 00:35:57.018   03 Jun 2027 00:37:43.217           106.199              Murmansk2          3318.719
       223   03 Jun 2027 00:42:51.395   03 Jun 2027 00:43:14.388            22.993                  Delhi           718.531
       224   03 Jun 2027 00:46:03.918   03 Jun 2027 00:46:18.119            14.201                  Delhi           443.781
       225   03 Jun 2027 00:51:13.522   03 Jun 2027 00:51:41.498            27.976                  Delhi           874.250
       226   03 Jun 2027 00:54:48.009   03 Jun 2027 00:55:36.539            48.530                  Delhi          1516.562
       227   03 Jun 2027 01:25:02.600   03 Jun 2027 01:25:45.699            43.099            RioGallegos          1346.844
       228   03 Jun 2027 01:28:51.619   03 Jun 2027 01:28:58.017             6.398            RioGallegos           199.937
       229   03 Jun 2027 01:29:11.972   03 Jun 2027 01:29:40.234            28.262            RioGallegos           883.188
       230   03 Jun 2027 02:00:14.427   03 Jun 2027 02:00:44.429            30.002                Anadyr1           937.562
       231   03 Jun 2027 02:01:19.821   03 Jun 2027 02:02:14.004            54.183                Anadyr2          1693.219
       232   03 Jun 2027 02:05:59.534   03 Jun 2027 02:06:20.345            20.811                Anadyr2           650.344
       233   03 Jun 2027 02:06:27.731   03 Jun 2027 02:07:05.391            37.660               Magadan1          1176.875
       234   03 Jun 2027 02:07:38.775   03 Jun 2027 02:09:04.172            85.397                Norilsk          2668.656
       235   03 Jun 2027 02:09:53.745   03 Jun 2027 02:10:46.302            52.557              Murmansk1          1642.406
       236   03 Jun 2027 02:10:49.534   03 Jun 2027 02:11:05.960            16.426              Murmansk1           513.313
       237   03 Jun 2027 02:11:40.738   03 Jun 2027 02:12:16.783            36.045                Novosib          1126.406
       238   03 Jun 2027 02:13:30.739   03 Jun 2027 02:13:39.717             8.978                Irkutsk           280.563
       239   03 Jun 2027 02:15:24.081   03 Jun 2027 02:15:35.075            10.994                Novosib           343.563
       240   03 Jun 2027 02:17:13.063   03 Jun 2027 02:17:32.295            19.232                Irkutsk           601.000
       241   03 Jun 2027 02:21:24.936   03 Jun 2027 02:22:05.173            40.237                  Delhi          1257.406
       242   03 Jun 2027 02:26:55.530   03 Jun 2027 02:26:57.247             1.717                  Delhi            53.656
       243   03 Jun 2027 02:40:07.306   03 Jun 2027 02:41:41.355            94.049               CapeTown          2939.031
       244   03 Jun 2027 03:55:26.286   03 Jun 2027 03:57:10.727           104.441              Murmansk2          3263.781
       245   03 Jun 2027 03:57:30.114   03 Jun 2027 03:58:12.039            41.925              Murmansk2          1310.156
       246   03 Jun 2027 03:58:12.039   03 Jun 2027 03:58:30.982            18.943              Murmansk1           591.969
       247   03 Jun 2027 05:16:26.507   03 Jun 2027 05:17:02.852            36.345               Magadan1          1135.781
       248   03 Jun 2027 05:17:03.769   03 Jun 2027 05:19:09.463           125.694                Anadyr1          3927.937
       249   03 Jun 2027 05:19:25.795   03 Jun 2027 05:20:21.428            55.633                Anadyr1          1738.531
       250   03 Jun 2027 05:21:58.377   03 Jun 2027 05:22:12.521            14.144               Magadan2           442.000
       251   03 Jun 2027 05:22:26.871   03 Jun 2027 05:22:36.246             9.375                Anadyr2           292.969
       252   03 Jun 2027 06:52:23.466   03 Jun 2027 06:52:32.956             9.490                Anadyr1           296.562
       253   03 Jun 2027 06:52:42.031   03 Jun 2027 06:53:30.005            47.974               Magadan1          1499.187
       254   03 Jun 2027 06:53:45.401   03 Jun 2027 06:53:53.927             8.526               Magadan1           266.437
       255   03 Jun 2027 06:53:57.260   03 Jun 2027 06:55:34.802            97.542                Anadyr1          3048.188
       256   03 Jun 2027 06:57:31.627   03 Jun 2027 06:57:32.911             1.284                Anadyr1            40.125
       257   03 Jun 2027 07:35:28.486   03 Jun 2027 07:35:57.500            29.014            RioGallegos           906.688
       258   03 Jun 2027 08:26:36.069   03 Jun 2027 08:27:36.434            60.365               Magadan1          1886.406
       259   03 Jun 2027 08:27:45.307   03 Jun 2027 08:27:52.183             6.876               Magadan2           214.875
       260   03 Jun 2027 08:28:00.754   03 Jun 2027 08:28:38.473            37.719                Irkutsk          1178.719
       261   03 Jun 2027 08:28:44.850   03 Jun 2027 08:30:13.878            89.028               Magadan1          2782.125
       262   03 Jun 2027 08:30:19.945   03 Jun 2027 08:30:32.788            12.843                Irkutsk           401.344
       263   03 Jun 2027 08:30:38.826   03 Jun 2027 08:31:00.179            21.353               Magadan1           667.281
       264   03 Jun 2027 08:31:13.922   03 Jun 2027 08:32:29.378            75.456               Magadan1          2358.000
       265   03 Jun 2027 08:32:36.009   03 Jun 2027 08:33:17.653            41.644              Murmansk1          1301.375
       266   03 Jun 2027 08:33:31.375   03 Jun 2027 08:33:37.037             5.662               Magadan2           176.938
       267   03 Jun 2027 08:33:37.037   03 Jun 2027 08:33:46.980             9.943               Magadan1           310.719
       268   03 Jun 2027 08:33:50.852   03 Jun 2027 08:34:00.037             9.185                Norilsk           287.031
       269   03 Jun 2027 08:34:21.752   03 Jun 2027 08:34:24.344             2.592              Murmansk1            81.000
       270   03 Jun 2027 08:34:55.653   03 Jun 2027 08:35:51.209            55.556              Murmansk1          1736.125
       271   03 Jun 2027 09:08:43.809   03 Jun 2027 09:08:47.453             3.644            RioGallegos           113.875
       272   03 Jun 2027 09:08:51.614   03 Jun 2027 09:09:43.478            51.864            RioGallegos          1620.750
       273   03 Jun 2027 09:44:52.797   03 Jun 2027 09:45:33.783            40.986                Sumatra          1280.812
       274   03 Jun 2027 09:49:44.928   03 Jun 2027 09:50:09.327            24.399                Sumatra           762.469
       275   03 Jun 2027 10:03:43.886   03 Jun 2027 10:04:13.769            29.883                Norilsk           933.844
       276   03 Jun 2027 10:04:19.400   03 Jun 2027 10:04:32.475            13.075                Norilsk           408.594
       277   03 Jun 2027 10:05:21.169   03 Jun 2027 10:05:23.219             2.050                Irkutsk            64.063
       278   03 Jun 2027 10:05:36.685   03 Jun 2027 10:05:53.907            17.222                Novosib           538.187
       279   03 Jun 2027 10:05:55.847   03 Jun 2027 10:07:16.519            80.672                Norilsk          2521.000
       280   03 Jun 2027 10:07:26.949   03 Jun 2027 10:07:46.511            19.562                Novosib           611.312
       281   03 Jun 2027 10:08:00.116   03 Jun 2027 10:08:05.820             5.704                Irkutsk           178.250
       282   03 Jun 2027 10:08:07.713   03 Jun 2027 10:08:38.369            30.656              Murmansk2           958.000
       283   03 Jun 2027 10:08:41.393   03 Jun 2027 10:08:50.658             9.265                Norilsk           289.531
       284   03 Jun 2027 10:08:55.180   03 Jun 2027 10:09:11.798            16.618                Novosib           519.312
       285   03 Jun 2027 10:09:21.002   03 Jun 2027 10:09:32.857            11.855              Murmansk2           370.469
       286   03 Jun 2027 10:09:36.836   03 Jun 2027 10:09:42.938             6.102                Norilsk           190.687
       287   03 Jun 2027 10:10:21.603   03 Jun 2027 10:10:34.341            12.738              Murmansk1           398.062
       288   03 Jun 2027 10:10:45.563   03 Jun 2027 10:10:46.949             1.386              Murmansk2            43.313
       289   03 Jun 2027 10:11:35.847   03 Jun 2027 10:11:41.259             5.412              Murmansk1           169.125
       290   03 Jun 2027 10:12:39.168   03 Jun 2027 10:12:41.652             2.484              Murmansk2            77.625
       291   03 Jun 2027 10:12:56.704   03 Jun 2027 10:13:04.789             8.085                Norilsk           252.656
       292   03 Jun 2027 10:45:33.230   03 Jun 2027 10:46:02.717            29.487            RioGallegos           921.469
       293   03 Jun 2027 10:48:04.037   03 Jun 2027 10:48:45.985            41.948            RioGallegos          1310.875
       294   03 Jun 2027 11:19:49.971   03 Jun 2027 11:20:52.692            62.721                Sumatra          1960.031
       295   03 Jun 2027 11:28:14.097   03 Jun 2027 11:28:38.008            23.911                  Delhi           747.219
       296   03 Jun 2027 11:28:56.349   03 Jun 2027 11:30:08.895            72.546                  Delhi          2267.062
       297   03 Jun 2027 11:41:05.346   03 Jun 2027 11:41:44.138            38.792                Irkutsk          1212.250
       298   03 Jun 2027 11:41:52.418   03 Jun 2027 11:42:09.287            16.869              Murmansk1           527.156
       299   03 Jun 2027 11:42:13.839   03 Jun 2027 11:42:42.850            29.011                Norilsk           906.594
       300   03 Jun 2027 11:42:44.251   03 Jun 2027 11:44:05.696            81.445                 Moscow          2545.156
       301   03 Jun 2027 11:44:10.176   03 Jun 2027 11:45:02.881            52.705                Irkutsk          1647.031
       302   03 Jun 2027 11:45:05.436   03 Jun 2027 11:45:24.069            18.633                Norilsk           582.281
       303   03 Jun 2027 11:45:41.626   03 Jun 2027 11:45:55.276            13.650                Novosib           426.562
       304   03 Jun 2027 13:04:40.128   03 Jun 2027 13:08:17.213           217.085                  Delhi          6783.906
       305   03 Jun 2027 13:08:47.093   03 Jun 2027 13:08:55.590             8.497                  Delhi           265.531
       306   03 Jun 2027 13:13:01.552   03 Jun 2027 13:14:40.997            99.445                Novosib          3107.656
       307   03 Jun 2027 13:15:43.431   03 Jun 2027 13:16:04.122            20.691              Murmansk1           646.594
       308   03 Jun 2027 13:16:41.617   03 Jun 2027 13:17:55.092            73.475                Novosib          2296.094
       309   03 Jun 2027 13:21:57.165   03 Jun 2027 13:22:48.215            51.050                Norilsk          1595.312
       310   03 Jun 2027 14:48:09.928   03 Jun 2027 14:50:11.649           121.721                 Moscow          3803.781
       311   03 Jun 2027 14:51:41.432   03 Jun 2027 14:54:51.227           189.795              Murmansk2          5931.094
       312   03 Jun 2027 14:58:00.322   03 Jun 2027 15:01:00.993           180.671                Norilsk          5645.969
       313   03 Jun 2027 15:09:56.670   03 Jun 2027 15:10:06.551             9.881                Anadyr2           308.781
       314   03 Jun 2027 16:01:48.849   03 Jun 2027 16:02:46.570            57.721               CapeTown          1803.781
       315   03 Jun 2027 16:10:47.940   03 Jun 2027 16:11:17.453            29.513               CapeTown           922.281
       316   03 Jun 2027 16:27:06.219   03 Jun 2027 16:27:39.695            33.476                 Moscow          1046.125
       317   03 Jun 2027 16:29:30.522   03 Jun 2027 16:30:24.799            54.277              Murmansk2          1696.156
       318   03 Jun 2027 16:30:48.096   03 Jun 2027 16:31:00.307            12.211              Murmansk2           381.594
       319   03 Jun 2027 16:31:25.874   03 Jun 2027 16:31:55.996            30.122                 Moscow           941.313
       320   03 Jun 2027 16:33:31.157   03 Jun 2027 16:34:19.835            48.678              Murmansk2          1521.187
       321   03 Jun 2027 16:42:19.251   03 Jun 2027 16:44:06.558           107.307                Anadyr2          3353.344
       322   03 Jun 2027 16:45:49.012   03 Jun 2027 16:45:54.725             5.713                Anadyr2           178.531
       323   03 Jun 2027 16:47:12.653   03 Jun 2027 16:47:55.289            42.636                Anadyr2          1332.375
       324   03 Jun 2027 17:38:00.231   03 Jun 2027 17:38:39.532            39.301               CapeTown          1228.156
       325   03 Jun 2027 17:42:38.981   03 Jun 2027 17:42:45.717             6.736               CapeTown           210.500
       326   03 Jun 2027 17:43:23.981   03 Jun 2027 17:44:07.330            43.349               CapeTown          1354.656
       327   03 Jun 2027 17:48:38.310   03 Jun 2027 17:48:55.420            17.110               CapeTown           534.688
       328   03 Jun 2027 18:10:02.391   03 Jun 2027 18:13:31.184           208.793              Murmansk1          6524.781
       329   03 Jun 2027 18:13:31.184   03 Jun 2027 18:14:38.418            67.234              Murmansk2          2101.063
       330   03 Jun 2027 18:20:52.130   03 Jun 2027 18:22:11.707            79.577               Magadan1          2486.781
       331   03 Jun 2027 18:22:29.489   03 Jun 2027 18:23:39.961            70.472               Magadan1          2202.250
       332   03 Jun 2027 19:54:01.057   03 Jun 2027 19:56:06.913           125.856                Anadyr1          3933.000
       333   03 Jun 2027 19:56:17.355   03 Jun 2027 19:57:48.519            91.164                Anadyr2          2848.875
       334   03 Jun 2027 19:57:56.099   03 Jun 2027 20:00:04.478           128.379               Magadan2          4011.844
       335   03 Jun 2027 20:00:52.859   03 Jun 2027 20:00:56.046             3.187               Magadan2            99.594
       336   03 Jun 2027 20:01:23.309   03 Jun 2027 20:01:32.386             9.077               Magadan2           283.656
       337   03 Jun 2027 20:02:18.438   03 Jun 2027 20:02:55.876            37.438               Magadan1          1169.938
       338   03 Jun 2027 20:07:05.640   03 Jun 2027 20:07:47.167            41.527               Magadan1          1297.719
       339   03 Jun 2027 20:49:08.783   03 Jun 2027 20:51:16.292           127.509            RioGallegos          3984.656
       340   03 Jun 2027 20:51:27.847   03 Jun 2027 20:52:12.306            44.459            RioGallegos          1389.344
       341   03 Jun 2027 21:29:45.544   03 Jun 2027 21:32:08.256           142.712                Anadyr1          4459.750
       342   03 Jun 2027 21:32:16.927   03 Jun 2027 21:32:51.220            34.293               Magadan2          1071.656
       343   03 Jun 2027 21:33:39.278   03 Jun 2027 21:33:46.838             7.560                Norilsk           236.250
       344   03 Jun 2027 21:34:22.425   03 Jun 2027 21:34:36.718            14.293               Magadan2           446.656
       345   03 Jun 2027 21:35:58.654   03 Jun 2027 21:36:03.065             4.411               Magadan2           137.844
       346   03 Jun 2027 21:36:24.454   03 Jun 2027 21:37:40.448            75.994                Irkutsk          2374.812
       347   03 Jun 2027 21:39:09.447   03 Jun 2027 21:40:05.654            56.207                Irkutsk          1756.469
       348   03 Jun 2027 21:50:36.783   03 Jun 2027 21:53:00.330           143.547                Sumatra          4485.844
       349   03 Jun 2027 21:56:38.356   03 Jun 2027 21:57:09.422            31.066                Sumatra           970.812
       350   03 Jun 2027 23:05:11.877   03 Jun 2027 23:06:02.786            50.909                Anadyr1          1590.906
       351   03 Jun 2027 23:07:13.849   03 Jun 2027 23:07:28.520            14.671                Anadyr1           458.469
       352   03 Jun 2027 23:07:46.095   03 Jun 2027 23:08:53.193            67.098                Norilsk          2096.812
       353   03 Jun 2027 23:09:45.166   03 Jun 2027 23:10:20.143            34.977               Magadan1          1093.031
       354   03 Jun 2027 23:11:36.041   03 Jun 2027 23:11:44.789             8.748               Magadan1           273.375
       355   03 Jun 2027 23:12:02.113   03 Jun 2027 23:13:20.168            78.055                Novosib          2439.219
       356   03 Jun 2027 23:15:58.226   03 Jun 2027 23:16:42.335            44.109                Novosib          1378.406
       357   03 Jun 2027 23:18:30.772   03 Jun 2027 23:20:47.727           136.955                Novosib          4279.844
       358   04 Jun 2027 00:08:10.567   04 Jun 2027 00:08:31.950            21.383            RioGallegos           668.219
       359   04 Jun 2027 00:10:53.095   04 Jun 2027 00:11:21.097            28.002            RioGallegos           875.062
       360   04 Jun 2027 00:38:39.623   04 Jun 2027 00:39:04.070            24.447                Anadyr1           763.969
       361   04 Jun 2027 00:39:24.512   04 Jun 2027 00:40:12.722            48.210                Anadyr2          1506.562
       362   04 Jun 2027 00:41:00.582   04 Jun 2027 00:41:09.701             9.119                Anadyr2           284.969
       363   04 Jun 2027 00:41:33.035   04 Jun 2027 00:41:38.528             5.493                Anadyr2           171.656
       364   04 Jun 2027 00:42:56.520   04 Jun 2027 00:43:16.744            20.224                Anadyr2           632.000
       365   04 Jun 2027 00:43:46.484   04 Jun 2027 00:44:02.857            16.373                Norilsk           511.656
       366   04 Jun 2027 00:44:14.413   04 Jun 2027 00:45:37.146            82.733               Magadan2          2585.406
       367   04 Jun 2027 00:45:37.146   04 Jun 2027 00:46:26.498            49.352               Magadan1          1542.250
       368   04 Jun 2027 00:46:47.936   04 Jun 2027 00:48:36.141           108.205              Murmansk1          3381.406
       369   04 Jun 2027 00:48:44.866   04 Jun 2027 00:48:55.581            10.715              Murmansk1           334.844
       370   04 Jun 2027 00:49:00.339   04 Jun 2027 00:49:14.908            14.569              Murmansk1           455.281
       371   04 Jun 2027 00:49:44.563   04 Jun 2027 00:50:36.530            51.967              Murmansk1          1623.969
       372   04 Jun 2027 00:59:54.863   04 Jun 2027 01:00:35.957            41.094                  Delhi          1284.188
       373   04 Jun 2027 01:06:40.795   04 Jun 2027 01:07:29.517            48.722                  Delhi          1522.562
       374   04 Jun 2027 01:37:31.315   04 Jun 2027 01:37:46.332            15.017            RioGallegos           469.281
       375   04 Jun 2027 01:39:35.238   04 Jun 2027 01:40:01.242            26.004            RioGallegos           812.625
       376   04 Jun 2027 02:11:57.284   04 Jun 2027 02:12:31.569            34.285                Anadyr2          1071.406
       377   04 Jun 2027 02:13:19.114   04 Jun 2027 02:14:15.627            56.513                Anadyr1          1766.031
       378   04 Jun 2027 02:17:40.217   04 Jun 2027 02:19:42.153           121.936               Magadan2          3810.500
       379   04 Jun 2027 02:21:54.699   04 Jun 2027 02:23:29.514            94.815              Murmansk1          2962.969
       380   04 Jun 2027 02:23:46.191   04 Jun 2027 02:24:26.985            40.794                Novosib          1274.812
       381   04 Jun 2027 02:28:18.763   04 Jun 2027 02:28:24.618             5.855                 Moscow           182.969
       382   04 Jun 2027 02:31:34.433   04 Jun 2027 02:31:52.853            18.420                Novosib           575.625
       383   04 Jun 2027 02:33:25.343   04 Jun 2027 02:33:27.109             1.766                Novosib            55.188
       384   04 Jun 2027 02:34:14.888   04 Jun 2027 02:34:30.434            15.546                 Moscow           485.812
       385   04 Jun 2027 02:50:35.325   04 Jun 2027 02:51:24.300            48.975               CapeTown          1530.469
       386   04 Jun 2027 02:54:11.297   04 Jun 2027 02:54:18.810             7.513               CapeTown           234.781
       387   04 Jun 2027 02:55:47.089   04 Jun 2027 02:56:19.385            32.296               CapeTown          1009.250
       388   04 Jun 2027 03:00:56.550   04 Jun 2027 03:01:07.530            10.980               CapeTown           343.125
       389   04 Jun 2027 04:08:08.354   04 Jun 2027 04:09:45.129            96.775              Murmansk1          3024.219
       390   04 Jun 2027 05:28:29.039   04 Jun 2027 05:30:26.548           117.509               Magadan1          3672.156
       391   04 Jun 2027 05:30:26.548   04 Jun 2027 05:30:38.426            11.878               Magadan2           371.188
       392   04 Jun 2027 05:30:38.426   04 Jun 2027 05:32:05.581            87.155               Magadan1          2723.594
       393   04 Jun 2027 05:32:11.949   04 Jun 2027 05:32:35.192            23.243                Anadyr1           726.344
       394   04 Jun 2027 07:05:08.960   04 Jun 2027 07:05:13.154             4.194                Anadyr1           131.063
       395   04 Jun 2027 07:05:31.914   04 Jun 2027 07:05:36.361             4.447               Magadan2           138.969
       396   04 Jun 2027 07:05:36.361   04 Jun 2027 07:05:49.842            13.481               Magadan1           421.281
       397   04 Jun 2027 07:05:59.194   04 Jun 2027 07:06:05.366             6.172               Magadan1           192.875
       398   04 Jun 2027 07:06:05.366   04 Jun 2027 07:06:29.968            24.602               Magadan2           768.813
       399   04 Jun 2027 07:06:34.664   04 Jun 2027 07:07:01.350            26.686               Magadan2           833.937
       400   04 Jun 2027 07:07:05.066   04 Jun 2027 07:07:24.467            19.401                Anadyr2           606.281
       401   04 Jun 2027 07:07:34.685   04 Jun 2027 07:08:07.568            32.883                Norilsk          1027.594
       402   04 Jun 2027 07:08:08.751   04 Jun 2027 07:08:32.722            23.971               Magadan2           749.094
       403   04 Jun 2027 07:08:53.534   04 Jun 2027 07:09:29.471            35.937                Anadyr1          1123.031
       404   04 Jun 2027 07:15:24.471   04 Jun 2027 07:15:31.809             7.338                 Moscow           229.313
       405   04 Jun 2027 07:47:22.321   04 Jun 2027 07:48:22.009            59.688            RioGallegos          1865.250
       406   04 Jun 2027 08:39:23.147   04 Jun 2027 08:40:06.064            42.917                Irkutsk          1341.156
       407   04 Jun 2027 08:40:28.904   04 Jun 2027 08:40:33.772             4.868               Magadan1           152.125
       408   04 Jun 2027 08:40:46.219   04 Jun 2027 08:41:31.965            45.746               Magadan1          1429.563
       409   04 Jun 2027 08:41:49.322   04 Jun 2027 08:42:11.338            22.016                Norilsk           688.000
       410   04 Jun 2027 08:42:19.425   04 Jun 2027 08:43:12.189            52.764                Irkutsk          1648.875
       411   04 Jun 2027 08:43:14.140   04 Jun 2027 08:44:29.632            75.492               Magadan1          2359.125
       412   04 Jun 2027 08:44:39.577   04 Jun 2027 08:45:09.047            29.470                Norilsk           920.938
       413   04 Jun 2027 08:45:11.106   04 Jun 2027 08:45:13.708             2.602                Norilsk            81.313
       414   04 Jun 2027 08:45:20.385   04 Jun 2027 08:45:25.575             5.190               Magadan2           162.187
       415   04 Jun 2027 08:45:25.575   04 Jun 2027 08:45:40.799            15.224               Magadan1           475.750
       416   04 Jun 2027 08:45:47.228   04 Jun 2027 08:46:01.934            14.706                Norilsk           459.563
       417   04 Jun 2027 08:46:13.494   04 Jun 2027 08:46:25.559            12.065              Murmansk1           377.031
       418   04 Jun 2027 08:47:50.072   04 Jun 2027 08:47:56.623             6.551              Murmansk2           204.719
       419   04 Jun 2027 08:49:03.547   04 Jun 2027 08:49:26.711            23.164                Norilsk           723.875
       420   04 Jun 2027 09:20:39.797   04 Jun 2027 09:21:52.659            72.862            RioGallegos          2276.937
       421   04 Jun 2027 09:56:23.181   04 Jun 2027 09:57:46.963            83.782                Sumatra          2618.188
       422   04 Jun 2027 10:16:03.840   04 Jun 2027 10:16:14.882            11.042                Irkutsk           345.063
       423   04 Jun 2027 10:16:14.972   04 Jun 2027 10:16:24.202             9.230                Norilsk           288.438
       424   04 Jun 2027 10:16:39.575   04 Jun 2027 10:17:19.068            39.493                Norilsk          1234.156
       425   04 Jun 2027 10:17:25.341   04 Jun 2027 10:17:39.978            14.637                Novosib           457.406
       426   04 Jun 2027 10:17:42.460   04 Jun 2027 10:18:12.340            29.880                Irkutsk           933.750
       427   04 Jun 2027 10:18:14.413   04 Jun 2027 10:19:32.336            77.923                Novosib          2435.094
       428   04 Jun 2027 10:19:41.163   04 Jun 2027 10:20:11.288            30.125                Irkutsk           941.406
       429   04 Jun 2027 10:20:32.971   04 Jun 2027 10:21:18.271            45.300              Murmansk2          1415.625
       430   04 Jun 2027 10:21:32.789   04 Jun 2027 10:21:48.396            15.607                Novosib           487.719
       431   04 Jun 2027 10:22:21.578   04 Jun 2027 10:22:21.647             0.069              Murmansk1             2.156
       432   04 Jun 2027 10:22:23.486   04 Jun 2027 10:22:36.721            13.235              Murmansk1           413.594
       433   04 Jun 2027 10:28:29.933   04 Jun 2027 10:28:35.587             5.654              Murmansk2           176.687
       434   04 Jun 2027 10:58:00.124   04 Jun 2027 10:58:53.589            53.465            RioGallegos          1670.781
       435   04 Jun 2027 11:01:36.542   04 Jun 2027 11:01:52.566            16.024            RioGallegos           500.750
       436   04 Jun 2027 11:02:36.170   04 Jun 2027 11:03:12.995            36.825            RioGallegos          1150.781
       437   04 Jun 2027 11:32:13.015   04 Jun 2027 11:32:39.082            26.067                Sumatra           814.594
       438   04 Jun 2027 11:42:07.803   04 Jun 2027 11:42:33.347            25.544                  Delhi           798.250
       439   04 Jun 2027 11:53:12.033   04 Jun 2027 11:53:23.566            11.533              Murmansk1           360.406
       440   04 Jun 2027 11:53:29.153   04 Jun 2027 11:53:53.999            24.846                Novosib           776.437
       441   04 Jun 2027 11:54:03.558   04 Jun 2027 11:54:19.704            16.146              Murmansk2           504.563
       442   04 Jun 2027 11:54:21.686   04 Jun 2027 11:54:58.520            36.834                Irkutsk          1151.062
       443   04 Jun 2027 11:55:12.498   04 Jun 2027 11:55:25.010            12.512              Murmansk2           391.000
       444   04 Jun 2027 11:55:25.856   04 Jun 2027 11:56:12.997            47.141              Murmansk1          1473.156
       445   04 Jun 2027 11:56:23.699   04 Jun 2027 11:57:00.930            37.231                Novosib          1163.469
       446   04 Jun 2027 11:57:05.212   04 Jun 2027 11:57:36.581            31.369                Novosib           980.281
       447   04 Jun 2027 11:57:41.155   04 Jun 2027 11:58:13.198            32.043                 Moscow          1001.344
       448   04 Jun 2027 12:01:12.344   04 Jun 2027 12:01:49.623            37.279                Norilsk          1164.969
       449   04 Jun 2027 12:03:15.337   04 Jun 2027 12:03:33.847            18.510              Murmansk2           578.438
       450   04 Jun 2027 12:03:55.542   04 Jun 2027 12:04:06.358            10.816              Murmansk2           338.000
       451   04 Jun 2027 13:17:16.930   04 Jun 2027 13:17:48.108            31.178                  Delhi           974.312
       452   04 Jun 2027 13:18:40.266   04 Jun 2027 13:20:52.555           132.289                  Delhi          4134.031
       453   04 Jun 2027 13:22:56.596   04 Jun 2027 13:23:41.489            44.893                  Delhi          1402.906
       454   04 Jun 2027 13:25:45.435   04 Jun 2027 13:26:09.496            24.061                Novosib           751.906
       455   04 Jun 2027 13:26:49.188   04 Jun 2027 13:27:33.892            44.704                Novosib          1397.000
       456   04 Jun 2027 13:27:40.149   04 Jun 2027 13:28:58.960            78.811              Murmansk1          2462.844
       457   04 Jun 2027 13:29:08.754   04 Jun 2027 13:29:24.351            15.597              Murmansk1           487.406
       458   04 Jun 2027 13:29:36.346   04 Jun 2027 13:30:37.904            61.558                Norilsk          1923.688
       459   04 Jun 2027 13:33:34.129   04 Jun 2027 13:34:08.478            34.349                Novosib          1073.406
       460   04 Jun 2027 13:37:38.930   04 Jun 2027 13:38:49.686            70.756                Norilsk          2211.125
       461   04 Jun 2027 15:00:19.910   04 Jun 2027 15:02:10.006           110.096                 Moscow          3440.500
       462   04 Jun 2027 15:03:50.392   04 Jun 2027 15:06:53.143           182.751              Murmansk2          5710.969
       463   04 Jun 2027 15:11:21.365   04 Jun 2027 15:13:03.942           102.577                Norilsk          3205.531
       464   04 Jun 2027 15:19:30.119   04 Jun 2027 15:19:51.033            20.914                Anadyr2           653.562
       465   04 Jun 2027 15:20:47.829   04 Jun 2027 15:21:13.091            25.262                Anadyr2           789.438
       466   04 Jun 2027 15:21:23.124   04 Jun 2027 15:21:48.121            24.997                Anadyr2           781.156
       467   04 Jun 2027 15:21:57.991   04 Jun 2027 15:22:51.546            53.555                Anadyr2          1673.594
       468   04 Jun 2027 16:22:02.363   04 Jun 2027 16:23:13.106            70.743               CapeTown          2210.719
       469   04 Jun 2027 16:40:26.232   04 Jun 2027 16:40:28.514             2.282                 Moscow            71.313
       470   04 Jun 2027 16:41:55.946   04 Jun 2027 16:42:41.617            45.671              Murmansk2          1427.219
       471   04 Jun 2027 16:45:33.830   04 Jun 2027 16:46:31.915            58.085              Murmansk2          1815.156
       472   04 Jun 2027 16:50:46.995   04 Jun 2027 16:51:13.405            26.410              Murmansk2           825.312
       473   04 Jun 2027 16:54:17.895   04 Jun 2027 16:55:55.394            97.499                Anadyr1          3046.844
       474   04 Jun 2027 16:57:48.796   04 Jun 2027 16:57:53.413             4.617                Anadyr1           144.281
       475   04 Jun 2027 16:58:46.900   04 Jun 2027 16:59:20.706            33.806                Anadyr2          1056.437
       476   04 Jun 2027 17:04:48.590   04 Jun 2027 17:05:23.076            34.486                Anadyr1          1077.688
       477   04 Jun 2027 17:56:40.654   04 Jun 2027 17:57:04.132            23.478               CapeTown           733.688
       478   04 Jun 2027 17:59:48.585   04 Jun 2027 18:00:12.188            23.603               CapeTown           737.594
       479   04 Jun 2027 18:23:00.969   04 Jun 2027 18:27:24.175           263.206              Murmansk1          8225.187
       480   04 Jun 2027 18:31:37.313   04 Jun 2027 18:32:13.290            35.977                Anadyr1          1124.281
       481   04 Jun 2027 18:32:45.825   04 Jun 2027 18:33:04.104            18.279               Magadan2           571.219
       482   04 Jun 2027 18:33:42.497   04 Jun 2027 18:33:57.571            15.074               Magadan1           471.063
