uniorb/output/strategy_2/Drop/Drop_KinoSat_111902.txt

KinoSat_111902
-------------------------
    Access    *     Start Time (UTCG)     *     Stop Time (UTCG)  *   Duration (s)        *       Station  *  Data (Mbytes)
         1   01 Jun 2027 03:32:46.840   01 Jun 2027 03:33:17.340            30.500              Murmansk1           953.125
         2   01 Jun 2027 03:33:42.368   01 Jun 2027 03:33:53.962            11.594                Norilsk           362.313
         3   01 Jun 2027 03:33:57.976   01 Jun 2027 03:34:35.341            37.365              Murmansk1          1167.656
         4   01 Jun 2027 03:34:35.341   01 Jun 2027 03:34:48.067            12.726              Murmansk2           397.687
         5   01 Jun 2027 03:35:04.107   01 Jun 2027 03:35:27.290            23.183                Irkutsk           724.469
         6   01 Jun 2027 03:35:27.622   01 Jun 2027 03:36:40.428            72.806                 Moscow          2275.188
         7   01 Jun 2027 03:36:46.775   01 Jun 2027 03:37:13.512            26.737                Norilsk           835.531
         8   01 Jun 2027 03:37:42.903   01 Jun 2027 03:38:22.946            40.043                Norilsk          1251.344
         9   01 Jun 2027 03:38:33.833   01 Jun 2027 03:39:30.062            56.229                Irkutsk          1757.156
        10   01 Jun 2027 03:40:24.417   01 Jun 2027 03:40:46.245            21.828                Novosib           682.125
        11   01 Jun 2027 04:21:33.833   01 Jun 2027 04:22:21.053            47.220            RioGallegos          1475.625
        12   01 Jun 2027 05:11:28.402   01 Jun 2027 05:12:43.927            75.525              Murmansk1          2360.156
        13   01 Jun 2027 05:12:43.927   01 Jun 2027 05:14:12.617            88.690              Murmansk2          2771.562
        14   01 Jun 2027 05:14:29.664   01 Jun 2027 05:15:11.946            42.282              Murmansk2          1321.313
        15   01 Jun 2027 05:15:11.946   01 Jun 2027 05:15:33.982            22.036              Murmansk1           688.625
        16   01 Jun 2027 05:16:29.061   01 Jun 2027 05:18:45.383           136.322                 Moscow          4260.062
        17   01 Jun 2027 05:19:00.779   01 Jun 2027 05:19:18.530            17.751                 Moscow           554.719
        18   01 Jun 2027 05:33:02.940   01 Jun 2027 05:33:35.501            32.561               CapeTown          1017.531
        19   01 Jun 2027 05:35:02.067   01 Jun 2027 05:35:35.972            33.905               CapeTown          1059.531
        20   01 Jun 2027 05:35:55.204   01 Jun 2027 05:37:09.966            74.762               CapeTown          2336.313
        21   01 Jun 2027 05:37:53.326   01 Jun 2027 05:38:35.022            41.696               CapeTown          1303.000
        22   01 Jun 2027 05:39:19.627   01 Jun 2027 05:41:14.720           115.093               CapeTown          3596.656
        23   01 Jun 2027 06:44:40.665   01 Jun 2027 06:45:02.475            21.810                Novosib           681.562
        24   01 Jun 2027 06:47:46.887   01 Jun 2027 06:47:53.033             6.146                Norilsk           192.062
        25   01 Jun 2027 06:48:13.587   01 Jun 2027 06:52:42.413           268.826              Murmansk2          8400.812
        26   01 Jun 2027 06:52:47.032   01 Jun 2027 06:53:04.043            17.011                 Moscow           531.594
        27   01 Jun 2027 06:53:43.244   01 Jun 2027 06:54:05.934            22.690                 Moscow           709.063
        28   01 Jun 2027 06:55:21.199   01 Jun 2027 06:55:39.907            18.708                 Moscow           584.625
        29   01 Jun 2027 07:12:10.208   01 Jun 2027 07:12:35.217            25.009               CapeTown           781.531
        30   01 Jun 2027 07:15:34.922   01 Jun 2027 07:17:06.035            91.113               CapeTown          2847.281
        31   01 Jun 2027 08:12:07.964   01 Jun 2027 08:14:29.263           141.299                Anadyr1          4415.594
        32   01 Jun 2027 09:42:32.443   01 Jun 2027 09:47:15.939           283.496                Anadyr1          8859.250
        33   01 Jun 2027 09:48:13.583   01 Jun 2027 09:49:01.971            48.388               Magadan1          1512.125
        34   01 Jun 2027 09:49:20.026   01 Jun 2027 09:52:06.065           166.039                Anadyr2          5188.719
        35   01 Jun 2027 11:22:31.939   01 Jun 2027 11:27:25.912           293.973               Magadan2          9186.656
        36   01 Jun 2027 14:16:42.569   01 Jun 2027 14:19:30.495           167.926                Sumatra          5247.687
        37   01 Jun 2027 14:21:40.093   01 Jun 2027 14:24:14.953           154.860                Sumatra          4839.375
        38   01 Jun 2027 14:31:27.861   01 Jun 2027 14:33:33.848           125.987                Irkutsk          3937.094
        39   01 Jun 2027 14:35:11.564   01 Jun 2027 14:37:39.588           148.024                Irkutsk          4625.750
        40   01 Jun 2027 16:04:23.581   01 Jun 2027 16:08:11.887           228.306                  Delhi          7134.562
        41   01 Jun 2027 16:08:32.291   01 Jun 2027 16:08:52.497            20.206                Novosib           631.438
        42   01 Jun 2027 16:09:25.114   01 Jun 2027 16:15:38.349           373.235                Novosib         11663.594
        43   01 Jun 2027 19:22:55.752   01 Jun 2027 19:28:42.026           346.274                 Moscow         10821.063
        44   01 Jun 2027 20:33:59.994   01 Jun 2027 20:36:08.771           128.777               CapeTown          4024.281
        45   01 Jun 2027 20:37:40.678   01 Jun 2027 20:38:32.902            52.224               CapeTown          1632.000
        46   01 Jun 2027 21:06:05.071   01 Jun 2027 21:08:51.279           166.208              Murmansk2          5194.000
        47   01 Jun 2027 22:48:34.549   01 Jun 2027 22:50:05.018            90.469                Anadyr1          2827.156
        48   01 Jun 2027 22:50:12.109   01 Jun 2027 22:50:12.235             0.126               Magadan1             3.938
        49   01 Jun 2027 22:50:13.343   01 Jun 2027 22:50:52.727            39.384               Magadan2          1230.750
        50   01 Jun 2027 22:51:17.400   01 Jun 2027 22:51:42.766            25.366               Magadan1           792.687
        51   01 Jun 2027 22:53:04.471   01 Jun 2027 22:53:30.529            26.058               Magadan1           814.312
        52   01 Jun 2027 22:55:14.715   01 Jun 2027 22:55:24.421             9.706               Magadan2           303.312
        53   01 Jun 2027 22:55:52.647   01 Jun 2027 22:55:55.175             2.528               Magadan1            79.000
        54   01 Jun 2027 22:56:10.323   01 Jun 2027 22:56:48.295            37.972               Magadan2          1186.625
        55   01 Jun 2027 23:02:39.578   01 Jun 2027 23:03:07.039            27.461               Magadan2           858.156
        56   01 Jun 2027 23:42:24.605   01 Jun 2027 23:45:20.225           175.620            RioGallegos          5488.125
        57   01 Jun 2027 23:46:46.017   01 Jun 2027 23:46:56.496            10.479            RioGallegos           327.469
        58   01 Jun 2027 23:47:54.540   01 Jun 2027 23:48:35.584            41.044            RioGallegos          1282.625
        59   01 Jun 2027 23:50:33.968   01 Jun 2027 23:50:56.856            22.888            RioGallegos           715.250
        60   02 Jun 2027 00:23:34.280   02 Jun 2027 00:24:50.710            76.430                Anadyr2          2388.437
        61   02 Jun 2027 00:25:01.947   02 Jun 2027 00:25:09.097             7.150                Anadyr2           223.438
        62   02 Jun 2027 00:25:44.154   02 Jun 2027 00:27:21.860            97.706                Norilsk          3053.312
        63   02 Jun 2027 00:27:36.671   02 Jun 2027 00:28:17.390            40.719               Magadan1          1272.469
        64   02 Jun 2027 00:28:22.032   02 Jun 2027 00:28:26.881             4.849               Magadan1           151.531
        65   02 Jun 2027 00:28:36.648   02 Jun 2027 00:28:40.169             3.521                Norilsk           110.031
        66   02 Jun 2027 00:28:44.109   02 Jun 2027 00:29:01.368            17.259               Magadan2           539.344
        67   02 Jun 2027 00:29:01.368   02 Jun 2027 00:29:51.585            50.217               Magadan1          1569.281
        68   02 Jun 2027 00:29:57.687   02 Jun 2027 00:30:52.792            55.105                Irkutsk          1722.031
        69   02 Jun 2027 00:32:04.155   02 Jun 2027 00:33:00.261            56.106                Novosib          1753.313
        70   02 Jun 2027 00:40:32.767   02 Jun 2027 00:40:38.801             6.034                Irkutsk           188.562
        71   02 Jun 2027 00:41:03.442   02 Jun 2027 00:41:36.629            33.187                Irkutsk          1037.094
        72   02 Jun 2027 00:43:45.587   02 Jun 2027 00:46:02.800           137.213                Sumatra          4287.906
        73   02 Jun 2027 00:53:57.903   02 Jun 2027 00:56:02.746           124.843                Sumatra          3901.344
        74   02 Jun 2027 01:28:53.965   02 Jun 2027 01:29:26.170            32.205            RioGallegos          1006.406
        75   02 Jun 2027 01:58:21.184   02 Jun 2027 01:59:08.658            47.474                Anadyr1          1483.562
        76   02 Jun 2027 01:59:45.541   02 Jun 2027 01:59:59.338            13.797                Anadyr1           431.156
        77   02 Jun 2027 02:00:38.138   02 Jun 2027 02:01:16.191            38.053                Anadyr2          1189.156
        78   02 Jun 2027 02:01:41.909   02 Jun 2027 02:02:51.250            69.341                Norilsk          2166.906
        79   02 Jun 2027 02:05:10.935   02 Jun 2027 02:05:35.162            24.227                Norilsk           757.094
        80   02 Jun 2027 02:05:37.463   02 Jun 2027 02:08:46.424           188.961                Irkutsk          5905.031
        81   02 Jun 2027 02:17:31.907   02 Jun 2027 02:18:08.840            36.933                Irkutsk          1154.156
        82   02 Jun 2027 02:20:52.336   02 Jun 2027 02:22:56.260           123.924                  Delhi          3872.625
        83   02 Jun 2027 02:27:30.009   02 Jun 2027 02:29:50.721           140.712                Sumatra          4397.250
        84   02 Jun 2027 03:45:28.256   02 Jun 2027 03:46:23.439            55.183              Murmansk1          1724.469
        85   02 Jun 2027 03:46:31.350   02 Jun 2027 03:46:35.820             4.470              Murmansk1           139.688
        86   02 Jun 2027 03:46:41.187   02 Jun 2027 03:47:12.843            31.656              Murmansk2           989.250
        87   02 Jun 2027 03:47:12.843   02 Jun 2027 03:47:33.316            20.473              Murmansk1           639.781
        88   02 Jun 2027 03:47:34.711   02 Jun 2027 03:48:44.815            70.104                 Moscow          2190.750
        89   02 Jun 2027 03:48:47.641   02 Jun 2027 03:50:22.299            94.658                Irkutsk          2958.062
        90   02 Jun 2027 03:51:05.798   02 Jun 2027 03:51:14.105             8.307                Irkutsk           259.594
        91   02 Jun 2027 03:54:04.252   02 Jun 2027 03:54:07.881             3.629                Novosib           113.406
        92   02 Jun 2027 05:23:30.532   02 Jun 2027 05:25:18.048           107.516              Murmansk1          3359.875
        93   02 Jun 2027 05:25:29.432   02 Jun 2027 05:25:42.405            12.973                Norilsk           405.406
        94   02 Jun 2027 05:26:06.606   02 Jun 2027 05:26:10.429             3.823                 Moscow           119.469
        95   02 Jun 2027 05:26:17.336   02 Jun 2027 05:27:17.534            60.198              Murmansk2          1881.188
        96   02 Jun 2027 05:27:17.534   02 Jun 2027 05:27:51.483            33.949              Murmansk1          1060.906
        97   02 Jun 2027 05:29:47.328   02 Jun 2027 05:30:46.260            58.932                 Moscow          1841.625
        98   02 Jun 2027 05:43:36.454   02 Jun 2027 05:52:57.628           561.174               CapeTown         17536.687
        99   02 Jun 2027 06:40:44.508   02 Jun 2027 06:40:59.404            14.896                Anadyr1           465.500
       100   02 Jun 2027 06:52:15.714   02 Jun 2027 06:52:36.991            21.277                Anadyr2           664.906
       101   02 Jun 2027 06:59:17.259   02 Jun 2027 07:00:01.044            43.785                Norilsk          1368.281
       102   02 Jun 2027 07:00:06.103   02 Jun 2027 07:02:34.356           148.253              Murmansk2          4632.906
       103   02 Jun 2027 07:02:34.356   02 Jun 2027 07:04:45.516           131.160              Murmansk1          4098.750
       104   02 Jun 2027 07:05:42.605   02 Jun 2027 07:06:42.342            59.737                 Moscow          1866.781
       105   02 Jun 2027 07:07:14.445   02 Jun 2027 07:07:31.782            17.337                 Moscow           541.781
       106   02 Jun 2027 07:19:36.919   02 Jun 2027 07:24:40.945           304.026               CapeTown          9500.813
       107   02 Jun 2027 07:29:33.611   02 Jun 2027 07:31:03.707            90.096               CapeTown          2815.500
       108   02 Jun 2027 08:22:29.773   02 Jun 2027 08:25:12.124           162.351               Magadan2          5073.469
       109   02 Jun 2027 08:25:52.658   02 Jun 2027 08:26:28.193            35.535                Anadyr1          1110.469
       110   02 Jun 2027 08:26:28.193   02 Jun 2027 08:28:31.978           123.785                Anadyr2          3868.281
       111   02 Jun 2027 09:55:03.639   02 Jun 2027 09:59:45.346           281.707                Anadyr2          8803.344
       112   02 Jun 2027 10:00:20.635   02 Jun 2027 10:00:42.879            22.244                Anadyr1           695.125
       113   02 Jun 2027 10:00:52.319   02 Jun 2027 10:04:00.572           188.253                Anadyr2          5882.906
       114   02 Jun 2027 11:32:58.956   02 Jun 2027 11:38:57.924           358.968               Magadan2         11217.750
       115   02 Jun 2027 11:39:22.557   02 Jun 2027 11:40:17.033            54.476                Novosib          1702.375
       116   02 Jun 2027 12:14:34.079   02 Jun 2027 12:15:39.834            65.755            RioGallegos          2054.844
       117   02 Jun 2027 12:49:39.669   02 Jun 2027 12:52:18.122           158.453                Sumatra          4951.656
       118   02 Jun 2027 13:03:14.460   02 Jun 2027 13:03:52.770            38.310                Irkutsk          1197.188
       119   02 Jun 2027 13:04:48.223   02 Jun 2027 13:05:31.457            43.234                Novosib          1351.062
       120   02 Jun 2027 13:06:13.433   02 Jun 2027 13:07:43.651            90.218                Irkutsk          2819.313
       121   02 Jun 2027 13:15:07.734   02 Jun 2027 13:16:23.493            75.759                Norilsk          2367.469
       122   02 Jun 2027 13:53:06.299   02 Jun 2027 13:57:42.766           276.467            RioGallegos          8639.594
       123   02 Jun 2027 14:27:29.199   02 Jun 2027 14:31:56.416           267.217                Sumatra          8350.531
       124   02 Jun 2027 14:43:17.966   02 Jun 2027 14:47:21.583           243.617                Irkutsk          7613.031
       125   02 Jun 2027 16:13:17.288   02 Jun 2027 16:17:03.867           226.579                  Delhi          7080.594
       126   02 Jun 2027 16:17:17.339   02 Jun 2027 16:19:10.056           112.717                  Delhi          3522.406
       127   02 Jun 2027 16:21:42.063   02 Jun 2027 16:25:32.313           230.250                Novosib          7195.313
       128   02 Jun 2027 16:26:23.481   02 Jun 2027 16:27:02.108            38.627                Novosib          1207.094
       129   02 Jun 2027 19:14:19.954   02 Jun 2027 19:15:29.574            69.620               CapeTown          2175.625
       130   02 Jun 2027 19:36:33.375   02 Jun 2027 19:39:40.671           187.296                 Moscow          5853.000
       131   02 Jun 2027 19:39:48.053   02 Jun 2027 19:42:04.238           136.185              Murmansk2          4255.781
       132   02 Jun 2027 20:45:13.335   02 Jun 2027 20:51:27.564           374.229               CapeTown         11694.656
       133   02 Jun 2027 20:52:01.275   02 Jun 2027 20:52:34.784            33.509               CapeTown          1047.156
       134   02 Jun 2027 21:28:29.304   02 Jun 2027 21:29:09.045            39.741               Magadan2          1241.906
       135   02 Jun 2027 21:29:24.640   02 Jun 2027 21:29:35.300            10.660               Magadan1           333.125
       136   02 Jun 2027 21:35:05.494   02 Jun 2027 21:35:39.250            33.756               Magadan1          1054.875
       137   02 Jun 2027 22:59:56.968   02 Jun 2027 23:05:09.936           312.968                Anadyr1          9780.250
       138   02 Jun 2027 23:05:20.082   02 Jun 2027 23:05:54.059            33.977                Norilsk          1061.781
       139   02 Jun 2027 23:06:21.853   02 Jun 2027 23:07:41.107            79.254               Magadan1          2476.687
       140   02 Jun 2027 23:08:37.328   02 Jun 2027 23:08:50.615            13.287               Magadan1           415.219
       141   02 Jun 2027 23:09:11.607   02 Jun 2027 23:10:25.971            74.364                Irkutsk          2323.875
       142   02 Jun 2027 23:12:54.562   02 Jun 2027 23:13:21.243            26.681               Magadan1           833.781
       143   02 Jun 2027 23:54:14.290   02 Jun 2027 23:56:27.795           133.505            RioGallegos          4172.031
       144   02 Jun 2027 23:58:15.945   02 Jun 2027 23:58:51.269            35.324            RioGallegos          1103.875
       145   03 Jun 2027 00:03:09.881   03 Jun 2027 00:03:42.326            32.445            RioGallegos          1013.906
       146   03 Jun 2027 00:35:31.010   03 Jun 2027 00:36:00.491            29.481                Anadyr1           921.281
       147   03 Jun 2027 00:36:17.729   03 Jun 2027 00:36:40.484            22.755                Anadyr2           711.094
       148   03 Jun 2027 00:36:59.418   03 Jun 2027 00:37:40.428            41.010                Anadyr2          1281.562
       149   03 Jun 2027 00:37:45.268   03 Jun 2027 00:39:37.482           112.214                Norilsk          3506.687
       150   03 Jun 2027 00:40:28.038   03 Jun 2027 00:40:31.009             2.971               Magadan1            92.844
       151   03 Jun 2027 00:41:19.011   03 Jun 2027 00:41:20.509             1.498                Norilsk            46.813
       152   03 Jun 2027 00:41:40.235   03 Jun 2027 00:41:59.506            19.271               Magadan1           602.219
       153   03 Jun 2027 00:42:56.949   03 Jun 2027 00:43:59.344            62.395                Irkutsk          1949.844
       154   03 Jun 2027 00:44:56.045   03 Jun 2027 00:45:33.867            37.822                Irkutsk          1181.937
       155   03 Jun 2027 00:45:48.312   03 Jun 2027 00:48:17.471           149.159                Novosib          4661.219
       156   03 Jun 2027 00:58:32.702   03 Jun 2027 00:59:07.917            35.215                Sumatra          1100.469
       157   03 Jun 2027 01:03:48.337   03 Jun 2027 01:05:05.617            77.280                Sumatra          2415.000
       158   03 Jun 2027 01:34:21.454   03 Jun 2027 01:34:58.848            37.394            RioGallegos          1168.562
       159   03 Jun 2027 01:42:13.344   03 Jun 2027 01:42:28.423            15.079            RioGallegos           471.219
       160   03 Jun 2027 02:10:08.597   03 Jun 2027 02:10:53.756            45.159                Anadyr1          1411.219
       161   03 Jun 2027 02:11:10.021   03 Jun 2027 02:11:38.020            27.999                Anadyr2           874.969
       162   03 Jun 2027 02:12:01.470   03 Jun 2027 02:12:02.821             1.351                Anadyr1            42.219
       163   03 Jun 2027 02:12:26.332   03 Jun 2027 02:12:41.890            15.558                Anadyr2           486.188
       164   03 Jun 2027 02:13:44.374   03 Jun 2027 02:14:44.769            60.395                Norilsk          1887.344
       165   03 Jun 2027 02:15:02.593   03 Jun 2027 02:15:06.591             3.998                Norilsk           124.937
       166   03 Jun 2027 02:15:21.739   03 Jun 2027 02:15:57.631            35.892               Magadan1          1121.625
       167   03 Jun 2027 02:17:38.334   03 Jun 2027 02:20:28.839           170.505                Irkutsk          5328.281
       168   03 Jun 2027 02:29:34.829   03 Jun 2027 02:31:13.255            98.426                  Delhi          3075.813
       169   03 Jun 2027 02:34:02.989   03 Jun 2027 02:38:13.179           250.190                Sumatra          7818.437
       170   03 Jun 2027 03:56:39.789   03 Jun 2027 03:56:45.863             6.074                Norilsk           189.813
       171   03 Jun 2027 03:57:03.364   03 Jun 2027 03:57:10.727             7.363              Murmansk1           230.094
       172   03 Jun 2027 03:57:20.614   03 Jun 2027 03:58:48.613            87.999                Irkutsk          2749.969
       173   03 Jun 2027 03:59:00.158   03 Jun 2027 03:59:44.552            44.394                Irkutsk          1387.312
       174   03 Jun 2027 04:00:09.859   03 Jun 2027 04:01:21.005            71.146              Murmansk1          2223.313
       175   03 Jun 2027 04:02:15.878   03 Jun 2027 04:02:22.327             6.449                Norilsk           201.531
       176   03 Jun 2027 04:04:48.528   03 Jun 2027 04:05:12.559            24.031                Novosib           750.969
       177   03 Jun 2027 05:35:23.939   03 Jun 2027 05:38:00.071           156.132              Murmansk1          4879.125
       178   03 Jun 2027 05:38:02.778   03 Jun 2027 05:38:33.324            30.546                Novosib           954.563
       179   03 Jun 2027 05:38:45.524   03 Jun 2027 05:38:46.503             0.979                 Moscow            30.594
       180   03 Jun 2027 05:38:46.961   03 Jun 2027 05:38:48.073             1.112              Murmansk2            34.750
       181   03 Jun 2027 05:38:48.073   03 Jun 2027 05:39:17.798            29.725              Murmansk1           928.906
       182   03 Jun 2027 05:39:17.798   03 Jun 2027 05:39:19.459             1.661              Murmansk2            51.906
       183   03 Jun 2027 05:39:23.867   03 Jun 2027 05:40:38.580            74.713                 Moscow          2334.781
       184   03 Jun 2027 05:42:02.240   03 Jun 2027 05:42:29.074            26.834                 Moscow           838.562
       185   03 Jun 2027 05:55:20.519   03 Jun 2027 05:56:31.347            70.828               CapeTown          2213.375
       186   03 Jun 2027 06:58:26.845   03 Jun 2027 06:59:55.131            88.286               Magadan1          2758.938
       187   03 Jun 2027 07:00:35.056   03 Jun 2027 07:00:43.019             7.963                Anadyr1           248.844
       188   03 Jun 2027 07:00:43.019   03 Jun 2027 07:01:18.669            35.650                Anadyr2          1114.063
       189   03 Jun 2027 07:10:19.244   03 Jun 2027 07:11:05.056            45.812                 Moscow          1431.625
       190   03 Jun 2027 07:11:19.155   03 Jun 2027 07:11:23.815             4.660                Norilsk           145.625
       191   03 Jun 2027 07:11:57.639   03 Jun 2027 07:12:20.498            22.859              Murmansk2           714.344
       192   03 Jun 2027 07:12:43.563   03 Jun 2027 07:13:17.624            34.061                 Moscow          1064.406
       193   03 Jun 2027 07:14:27.985   03 Jun 2027 07:14:35.702             7.717              Murmansk2           241.156
       194   03 Jun 2027 07:16:44.216   03 Jun 2027 07:17:31.083            46.867                 Moscow          1464.594
       195   03 Jun 2027 07:32:06.202   03 Jun 2027 07:36:07.941           241.739               CapeTown          7554.344
       196   03 Jun 2027 08:32:29.378   03 Jun 2027 08:32:47.793            18.415               Magadan1           575.469
       197   03 Jun 2027 08:32:55.919   03 Jun 2027 08:34:45.475           109.556                Anadyr2          3423.625
       198   03 Jun 2027 08:35:02.735   03 Jun 2027 08:37:06.041           123.306               Magadan2          3853.312
       199   03 Jun 2027 08:37:42.778   03 Jun 2027 08:38:09.228            26.450                Anadyr2           826.563
       200   03 Jun 2027 08:38:58.450   03 Jun 2027 08:40:32.632            94.182                Anadyr2          2943.188
       201   03 Jun 2027 10:04:28.306   03 Jun 2027 10:06:33.507           125.201               Magadan2          3912.531
       202   03 Jun 2027 10:07:44.515   03 Jun 2027 10:09:43.975           119.460                Anadyr1          3733.125
       203   03 Jun 2027 10:09:43.975   03 Jun 2027 10:12:18.419           154.444                Anadyr2          4826.375
       204   03 Jun 2027 10:12:18.572   03 Jun 2027 10:15:52.815           214.243                Anadyr1          6695.094
       205   03 Jun 2027 11:44:29.785   03 Jun 2027 11:51:00.090           390.305               Magadan1         12197.031
       206   03 Jun 2027 11:51:53.907   03 Jun 2027 11:52:47.243            53.336              Murmansk2          1666.750
       207   03 Jun 2027 12:26:40.477   03 Jun 2027 12:27:35.514            55.037            RioGallegos          1719.906
       208   03 Jun 2027 12:32:14.751   03 Jun 2027 12:33:20.464            65.713            RioGallegos          2053.531
       209   03 Jun 2027 12:37:03.978   03 Jun 2027 12:39:24.592           140.614            RioGallegos          4394.187
       210   03 Jun 2027 13:11:30.487   03 Jun 2027 13:13:47.191           136.704                Sumatra          4272.000
       211   03 Jun 2027 13:15:28.477   03 Jun 2027 13:15:43.183            14.706                Irkutsk           459.562
       212   03 Jun 2027 13:18:46.971   03 Jun 2027 13:20:08.353            81.382                Irkutsk          2543.187
       213   03 Jun 2027 13:31:47.974   03 Jun 2027 13:32:40.879            52.905                Norilsk          1653.281
       214   03 Jun 2027 14:05:56.197   03 Jun 2027 14:09:47.189           230.992            RioGallegos          7218.500
       215   03 Jun 2027 14:40:48.592   03 Jun 2027 14:44:33.183           224.591                Sumatra          7018.469
       216   03 Jun 2027 14:56:44.412   03 Jun 2027 15:00:54.090           249.678                Irkutsk          7802.437
       217   03 Jun 2027 16:35:37.103   03 Jun 2027 16:37:44.033           126.930                Novosib          3966.563
       218   03 Jun 2027 16:37:46.278   03 Jun 2027 16:38:15.368            29.090                Norilsk           909.063
       219   03 Jun 2027 16:42:00.184   03 Jun 2027 16:42:31.555            31.371                Norilsk           980.344
       220   03 Jun 2027 17:45:08.286   03 Jun 2027 17:46:05.223            56.937               CapeTown          1779.281
       221   03 Jun 2027 17:51:14.600   03 Jun 2027 17:51:22.401             7.801               CapeTown           243.781
       222   03 Jun 2027 17:52:15.828   03 Jun 2027 17:52:42.740            26.912               CapeTown           841.000
       223   03 Jun 2027 18:07:04.425   03 Jun 2027 18:07:20.593            16.168                 Moscow           505.250
       224   03 Jun 2027 18:09:04.485   03 Jun 2027 18:12:03.912           179.427                 Moscow          5607.094
       225   03 Jun 2027 18:18:16.611   03 Jun 2027 18:18:31.586            14.975              Murmansk2           467.969
       226   03 Jun 2027 18:24:48.529   03 Jun 2027 18:25:13.485            24.956                Anadyr2           779.875
       227   03 Jun 2027 18:28:23.047   03 Jun 2027 18:28:46.217            23.170                Anadyr2           724.062
       228   03 Jun 2027 18:28:58.443   03 Jun 2027 18:29:14.570            16.127                Anadyr2           503.969
       229   03 Jun 2027 18:33:31.003   03 Jun 2027 18:33:34.688             3.685                Anadyr1           115.156
       230   03 Jun 2027 19:19:32.297   03 Jun 2027 19:22:05.776           153.479               CapeTown          4796.219
       231   03 Jun 2027 19:28:55.670   03 Jun 2027 19:29:09.477            13.807               CapeTown           431.469
       232   03 Jun 2027 19:49:21.123   03 Jun 2027 19:57:29.975           488.852              Murmansk1         15276.625
       233   03 Jun 2027 19:58:00.982   03 Jun 2027 19:58:15.180            14.198              Murmansk2           443.687
       234   03 Jun 2027 20:58:06.444   03 Jun 2027 21:03:18.740           312.296               CapeTown          9759.250
       235   03 Jun 2027 21:46:50.531   03 Jun 2027 21:47:05.295            14.764               Magadan2           461.375
       236   03 Jun 2027 23:11:57.633   03 Jun 2027 23:15:44.512           226.879                Anadyr1          7089.969
       237   03 Jun 2027 23:15:55.972   03 Jun 2027 23:17:50.113           114.141                Norilsk          3566.906
       238   03 Jun 2027 23:18:00.454   03 Jun 2027 23:19:50.770           110.316               Magadan1          3447.375
       239   03 Jun 2027 23:20:01.303   03 Jun 2027 23:20:41.240            39.937                Irkutsk          1248.031
       240   03 Jun 2027 23:21:48.544   03 Jun 2027 23:23:02.972            74.428                Irkutsk          2325.875
       241   03 Jun 2027 23:38:05.699   03 Jun 2027 23:38:44.711            39.012                Sumatra          1219.125
       242   04 Jun 2027 00:06:06.702   04 Jun 2027 00:07:26.352            79.650            RioGallegos          2489.063
       243   04 Jun 2027 00:09:29.309   04 Jun 2027 00:09:32.990             3.681            RioGallegos           115.031
       244   04 Jun 2027 00:09:50.214   04 Jun 2027 00:10:53.095            62.881            RioGallegos          1965.031
       245   04 Jun 2027 00:15:15.325   04 Jun 2027 00:15:36.480            21.155            RioGallegos           661.094
       246   04 Jun 2027 00:47:26.833   04 Jun 2027 00:47:42.950            16.117                Anadyr1           503.656
       247   04 Jun 2027 00:47:59.425   04 Jun 2027 00:48:31.727            32.302                Anadyr2          1009.437
       248   04 Jun 2027 00:48:57.549   04 Jun 2027 00:49:44.368            46.819                Anadyr1          1463.094
       249   04 Jun 2027 00:50:12.298   04 Jun 2027 00:50:35.018            22.720                Norilsk           710.000
       250   04 Jun 2027 00:50:39.325   04 Jun 2027 00:51:41.741            62.416               Magadan1          1950.500
       251   04 Jun 2027 00:52:01.718   04 Jun 2027 00:53:08.635            66.917               Magadan1          2091.156
       252   04 Jun 2027 00:53:49.243   04 Jun 2027 00:55:03.061            73.818                Irkutsk          2306.813
       253   04 Jun 2027 00:55:17.433   04 Jun 2027 00:55:38.751            21.318                Novosib           666.188
       254   04 Jun 2027 00:57:51.683   04 Jun 2027 00:58:08.446            16.763                Novosib           523.844
       255   04 Jun 2027 00:58:30.486   04 Jun 2027 00:59:36.585            66.099                Novosib          2065.594
       256   04 Jun 2027 01:05:02.630   04 Jun 2027 01:05:09.922             7.292                Irkutsk           227.875
       257   04 Jun 2027 01:08:02.857   04 Jun 2027 01:10:27.584           144.727                Sumatra          4522.719
       258   04 Jun 2027 01:51:20.486   04 Jun 2027 01:52:36.037            75.551            RioGallegos          2360.969
       259   04 Jun 2027 02:23:11.400   04 Jun 2027 02:24:15.862            64.462                Anadyr2          2014.438
       260   04 Jun 2027 02:26:28.204   04 Jun 2027 02:26:49.858            21.654               Magadan2           676.688
       261   04 Jun 2027 02:26:51.087   04 Jun 2027 02:27:04.701            13.614                Norilsk           425.438
       262   04 Jun 2027 02:27:38.227   04 Jun 2027 02:27:39.389             1.162                Norilsk            36.312
       263   04 Jun 2027 02:28:11.058   04 Jun 2027 02:28:24.070            13.012               Magadan1           406.625
       264   04 Jun 2027 02:28:48.311   04 Jun 2027 02:28:49.873             1.562                Norilsk            48.812
       265   04 Jun 2027 02:29:13.247   04 Jun 2027 02:29:28.029            14.782                Norilsk           461.937
       266   04 Jun 2027 02:29:39.596   04 Jun 2027 02:31:34.433           114.837                Novosib          3588.656
       267   04 Jun 2027 02:32:32.019   04 Jun 2027 02:33:14.219            42.200                Irkutsk          1318.750
       268   04 Jun 2027 02:38:06.306   04 Jun 2027 02:38:44.443            38.137                  Delhi          1191.781
       269   04 Jun 2027 02:43:38.723   04 Jun 2027 02:43:54.091            15.368                  Delhi           480.250
       270   04 Jun 2027 02:45:34.783   04 Jun 2027 02:47:33.839           119.056                  Delhi          3720.500
       271   04 Jun 2027 02:48:06.118   04 Jun 2027 02:50:35.770           149.652                Sumatra          4676.625
       272   04 Jun 2027 04:10:41.107   04 Jun 2027 04:10:51.382            10.275                 Moscow           321.094
       273   04 Jun 2027 04:11:04.143   04 Jun 2027 04:11:16.351            12.208                Irkutsk           381.500
       274   04 Jun 2027 04:11:28.095   04 Jun 2027 04:11:35.445             7.350                Novosib           229.687
       275   04 Jun 2027 04:11:35.994   04 Jun 2027 04:13:52.769           136.775              Murmansk1          4274.219
       276   04 Jun 2027 04:13:53.768   04 Jun 2027 04:17:12.386           198.618                 Moscow          6206.813
       277   04 Jun 2027 04:18:51.714   04 Jun 2027 04:23:51.651           299.937                  Delhi          9373.031
       278   04 Jun 2027 04:36:19.824   04 Jun 2027 04:36:40.547            20.723               CapeTown           647.594
       279   04 Jun 2027 04:37:25.440   04 Jun 2027 04:37:34.305             8.865               CapeTown           277.031
       280   04 Jun 2027 04:39:36.921   04 Jun 2027 04:39:48.184            11.263               CapeTown           351.969
       281   04 Jun 2027 04:40:48.345   04 Jun 2027 04:41:02.584            14.239               CapeTown           444.969
       282   04 Jun 2027 05:46:00.153   04 Jun 2027 05:46:25.486            25.333                Novosib           791.656
       283   04 Jun 2027 05:47:38.204   04 Jun 2027 05:49:06.801            88.597                Novosib          2768.656
       284   04 Jun 2027 05:49:09.062   04 Jun 2027 05:49:23.756            14.694                Norilsk           459.188
       285   04 Jun 2027 05:49:28.865   04 Jun 2027 05:49:52.200            23.335              Murmansk2           729.219
       286   04 Jun 2027 05:49:52.200   04 Jun 2027 05:50:02.260            10.060              Murmansk1           314.375
       287   04 Jun 2027 05:50:15.767   04 Jun 2027 05:51:35.080            79.313                 Moscow          2478.531
       288   04 Jun 2027 05:51:42.523   04 Jun 2027 05:52:20.410            37.887              Murmansk2          1183.969
       289   04 Jun 2027 05:52:33.610   04 Jun 2027 05:52:44.071            10.461                 Moscow           326.906
       290   04 Jun 2027 05:55:16.045   04 Jun 2027 05:55:56.346            40.301                 Moscow          1259.406
       291   04 Jun 2027 06:07:09.923   04 Jun 2027 06:09:46.770           156.847               CapeTown          4901.469
       292   04 Jun 2027 06:19:46.875   04 Jun 2027 06:19:48.671             1.796               CapeTown            56.125
       293   04 Jun 2027 07:10:02.688   04 Jun 2027 07:10:31.934            29.246                Anadyr2           913.937
       294   04 Jun 2027 07:10:41.548   04 Jun 2027 07:11:09.957            28.409               Magadan2           887.781
       295   04 Jun 2027 07:11:43.137   04 Jun 2027 07:12:35.060            51.923                Anadyr2          1622.594
       296   04 Jun 2027 07:15:52.018   04 Jun 2027 07:16:52.253            60.235              Murmansk2          1882.344
       297   04 Jun 2027 07:22:28.733   04 Jun 2027 07:22:52.461            23.728              Murmansk2           741.500
       298   04 Jun 2027 07:23:29.319   04 Jun 2027 07:23:40.796            11.477              Murmansk2           358.656
       299   04 Jun 2027 07:24:40.158   04 Jun 2027 07:25:30.781            50.623                 Moscow          1581.969
       300   04 Jun 2027 07:30:35.076   04 Jun 2027 07:30:50.969            15.893                 Moscow           496.656
       301   04 Jun 2027 07:44:45.010   04 Jun 2027 07:49:26.144           281.134               CapeTown          8785.437
       302   04 Jun 2027 08:44:29.632   04 Jun 2027 08:45:20.385            50.753               Magadan2          1586.031
       303   04 Jun 2027 08:46:33.988   04 Jun 2027 08:46:45.386            11.398               Magadan1           356.188
       304   04 Jun 2027 08:47:09.033   04 Jun 2027 08:48:19.844            70.811               Magadan2          2212.844
       305   04 Jun 2027 08:48:19.844   04 Jun 2027 08:48:59.334            39.490               Magadan1          1234.062
       306   04 Jun 2027 08:49:24.839   04 Jun 2027 08:50:14.682            49.843                Anadyr1          1557.594
       307   04 Jun 2027 08:50:21.304   04 Jun 2027 08:50:46.653            25.349               Magadan2           792.156
       308   04 Jun 2027 08:57:42.209   04 Jun 2027 08:58:50.098            67.889                 Moscow          2121.531
       309   04 Jun 2027 10:18:32.994   04 Jun 2027 10:20:35.710           122.716               Magadan1          3834.875
       310   04 Jun 2027 10:20:52.419   04 Jun 2027 10:21:52.000            59.581                Irkutsk          1861.906
       311   04 Jun 2027 10:22:05.530   04 Jun 2027 10:27:41.790           336.260                Anadyr1         10508.125
       312   04 Jun 2027 11:56:07.677   04 Jun 2027 12:02:38.515           390.838               Magadan1         12213.687
       313   04 Jun 2027 14:19:00.354   04 Jun 2027 14:25:15.107           374.753            RioGallegos         11711.031
       314   04 Jun 2027 15:11:03.136   04 Jun 2027 15:13:22.050           138.914                Novosib          4341.062
       315   04 Jun 2027 16:42:07.299   04 Jun 2027 16:43:25.421            78.122                 Moscow          2441.312
       316   04 Jun 2027 16:47:29.193   04 Jun 2027 16:48:10.036            40.843              Murmansk2          1276.344
       317   04 Jun 2027 16:49:34.776   04 Jun 2027 16:51:41.318           126.542                Norilsk          3954.437
       318   04 Jun 2027 16:53:20.294   04 Jun 2027 16:55:26.524           126.230                Norilsk          3944.687
       319   04 Jun 2027 18:02:09.362   04 Jun 2027 18:03:18.902            69.540               CapeTown          2173.125
       320   04 Jun 2027 18:19:30.044   04 Jun 2027 18:20:14.058            44.014                 Moscow          1375.438
       321   04 Jun 2027 18:20:59.560   04 Jun 2027 18:24:25.043           205.483                 Moscow          6421.344
       322   04 Jun 2027 18:33:29.362   04 Jun 2027 18:33:39.889            10.527              Murmansk2           328.969
       323   04 Jun 2027 18:42:26.231   04 Jun 2027 18:43:57.390            91.159                Anadyr2          2848.719
       324   04 Jun 2027 19:31:37.640   04 Jun 2027 19:33:15.376            97.736               CapeTown          3054.250
       325   04 Jun 2027 19:40:20.906   04 Jun 2027 19:40:25.003             4.097               CapeTown           128.031
       326   04 Jun 2027 20:01:58.273   04 Jun 2027 20:03:16.747            78.474              Murmansk1          2452.312
       327   04 Jun 2027 20:03:55.861   04 Jun 2027 20:10:12.687           376.826              Murmansk2         11775.812
       328   04 Jun 2027 21:48:06.004   04 Jun 2027 21:51:15.812           189.808                Anadyr1          5931.500
       329   04 Jun 2027 21:51:30.834   04 Jun 2027 21:53:56.385           145.551               Magadan1          4548.469
       330   04 Jun 2027 21:59:18.793   04 Jun 2027 22:00:02.230            43.437               Magadan1          1357.406
       331   04 Jun 2027 22:45:46.394   04 Jun 2027 22:47:13.475            87.081            RioGallegos          2721.281
       332   04 Jun 2027 23:23:57.932   04 Jun 2027 23:25:24.592            86.660                Anadyr2          2708.125
       333   04 Jun 2027 23:25:34.821   04 Jun 2027 23:26:07.343            32.522                Anadyr2          1016.313
       334   04 Jun 2027 23:26:12.074   04 Jun 2027 23:26:39.743            27.669                Anadyr2           864.656
       335   04 Jun 2027 23:26:44.711   04 Jun 2027 23:28:03.232            78.521               Magadan1          2453.781
       336   04 Jun 2027 23:28:13.850   04 Jun 2027 23:29:27.157            73.307               Magadan2          2290.844
       337   04 Jun 2027 23:30:35.173   04 Jun 2027 23:31:17.133            41.960               Magadan2          1311.250
       338   04 Jun 2027 23:31:24.985   04 Jun 2027 23:31:47.396            22.411                Irkutsk           700.344
       339   04 Jun 2027 23:32:33.842   04 Jun 2027 23:32:47.088            13.246                Irkutsk           413.937
       340   04 Jun 2027 23:34:17.270   04 Jun 2027 23:35:23.622            66.352                Irkutsk          2073.500
       341   04 Jun 2027 23:47:12.431   04 Jun 2027 23:48:32.359            79.928                Sumatra          2497.750
       342   04 Jun 2027 23:49:19.747   04 Jun 2027 23:50:04.787            45.040                Sumatra          1407.500
       343   05 Jun 2027 00:18:01.273   05 Jun 2027 00:18:48.656            47.383            RioGallegos          1480.719
       344   05 Jun 2027 00:27:21.715   05 Jun 2027 00:27:32.462            10.747            RioGallegos           335.844
       345   05 Jun 2027 00:27:49.305   05 Jun 2027 00:28:44.770            55.465            RioGallegos          1733.281
       346   05 Jun 2027 00:59:21.649   05 Jun 2027 00:59:26.179             4.530                Anadyr2           141.562
       347   05 Jun 2027 00:59:30.043   05 Jun 2027 00:59:47.012            16.969                Anadyr2           530.281
       348   05 Jun 2027 00:59:47.012   05 Jun 2027 00:59:57.265            10.253                Anadyr1           320.406
       349   05 Jun 2027 01:00:56.264   05 Jun 2027 01:01:38.035            41.771                Anadyr2          1305.344
       350   05 Jun 2027 01:01:48.530   05 Jun 2027 01:02:02.545            14.015                Norilsk           437.969
       351   05 Jun 2027 01:02:25.803   05 Jun 2027 01:04:14.542           108.739               Magadan2          3398.094
       352   05 Jun 2027 01:04:36.467   05 Jun 2027 01:06:09.516            93.049               Magadan2          2907.781
       353   05 Jun 2027 01:06:39.411   05 Jun 2027 01:08:15.791            96.380                Novosib          3011.875
       354   05 Jun 2027 01:18:22.196   05 Jun 2027 01:18:27.546             5.350                Irkutsk           167.188
       355   05 Jun 2027 01:19:32.322   05 Jun 2027 01:21:29.747           117.425                Sumatra          3669.531
       356   05 Jun 2027 01:28:43.831   05 Jun 2027 01:28:48.126             4.295                Sumatra           134.219
       357   05 Jun 2027 01:53:47.139   05 Jun 2027 01:55:07.193            80.054            RioGallegos          2501.687
       358   05 Jun 2027 02:03:25.063   05 Jun 2027 02:05:08.247           103.184            RioGallegos          3224.500
       359   05 Jun 2027 02:37:49.252   05 Jun 2027 02:38:33.785            44.533                Norilsk          1391.656
       360   05 Jun 2027 02:38:38.085   05 Jun 2027 02:38:39.481             1.396                Norilsk            43.625
       361   05 Jun 2027 02:39:16.785   05 Jun 2027 02:39:32.411            15.626                Norilsk           488.312
       362   05 Jun 2027 02:40:33.615   05 Jun 2027 02:40:59.082            25.467                Norilsk           795.844
       363   05 Jun 2027 02:41:02.663   05 Jun 2027 02:41:45.083            42.420              Murmansk1          1325.625
       364   05 Jun 2027 02:41:47.833   05 Jun 2027 02:43:25.468            97.635                Irkutsk          3051.094
       365   05 Jun 2027 02:51:56.078   05 Jun 2027 02:52:54.924            58.846                  Delhi          1838.938
       366   05 Jun 2027 03:30:38.355   05 Jun 2027 03:31:00.114            21.759            RioGallegos           679.969
       367   05 Jun 2027 03:31:36.109   05 Jun 2027 03:31:54.398            18.289            RioGallegos           571.531
       368   05 Jun 2027 03:32:13.593   05 Jun 2027 03:32:53.814            40.221            RioGallegos          1256.906
       369   05 Jun 2027 03:34:16.467   05 Jun 2027 03:34:34.891            18.424            RioGallegos           575.750
       370   05 Jun 2027 03:34:51.796   05 Jun 2027 03:35:17.760            25.964            RioGallegos           811.375
       371   05 Jun 2027 03:36:20.689   05 Jun 2027 03:37:42.992            82.303            RioGallegos          2571.969
       372   05 Jun 2027 04:22:50.146   05 Jun 2027 04:23:17.701            27.555              Murmansk1           861.094
       373   05 Jun 2027 04:23:20.821   05 Jun 2027 04:24:39.876            79.055                Irkutsk          2470.469
       374   05 Jun 2027 04:24:41.908   05 Jun 2027 04:26:41.050           119.142                Novosib          3723.187
       375   05 Jun 2027 04:27:36.258   05 Jun 2027 04:32:19.226           282.968                  Delhi          8842.750
       376   05 Jun 2027 06:00:04.663   05 Jun 2027 06:00:46.522            41.859                Norilsk          1308.094
       377   05 Jun 2027 06:00:48.509   05 Jun 2027 06:01:09.854            21.345              Murmansk2           667.031
       378   05 Jun 2027 06:01:14.860   05 Jun 2027 06:01:55.841            40.981              Murmansk2          1280.656
       379   05 Jun 2027 06:01:55.841   05 Jun 2027 06:02:49.378            53.537              Murmansk1          1673.031
       380   05 Jun 2027 06:02:57.421   05 Jun 2027 06:04:20.847            83.426              Murmansk2          2607.062
       381   05 Jun 2027 06:04:50.250   05 Jun 2027 06:05:22.431            32.181                 Moscow          1005.656
       382   05 Jun 2027 06:19:04.445   05 Jun 2027 06:22:15.301           190.856               CapeTown          5964.250
       383   05 Jun 2027 07:22:12.409   05 Jun 2027 07:22:37.657            25.248                Anadyr1           789.000
       384   05 Jun 2027 07:22:53.818   05 Jun 2027 07:22:58.293             4.475                Anadyr1           139.844
       385   05 Jun 2027 07:23:12.522   05 Jun 2027 07:23:25.226            12.704               Magadan2           397.000
       386   05 Jun 2027 07:23:32.083   05 Jun 2027 07:23:33.404             1.321               Magadan2            41.281
       387   05 Jun 2027 07:23:45.052   05 Jun 2027 07:24:15.174            30.122               Magadan2           941.313
       388   05 Jun 2027 07:24:34.544   05 Jun 2027 07:24:46.850            12.306                Anadyr1           384.562
       389   05 Jun 2027 07:25:23.204   05 Jun 2027 07:25:37.708            14.504                Anadyr1           453.250
       390   05 Jun 2027 07:26:45.429   05 Jun 2027 07:27:37.423            51.994                Anadyr2          1624.812
       391   05 Jun 2027 07:57:37.175   05 Jun 2027 08:01:57.442           260.267               CapeTown          8133.344
       392   05 Jun 2027 08:58:06.028   05 Jun 2027 08:58:43.252            37.224                Anadyr1          1163.250
       393   05 Jun 2027 08:59:18.042   05 Jun 2027 09:00:06.317            48.275               Magadan2          1508.594
       394   05 Jun 2027 09:00:06.317   05 Jun 2027 09:00:22.676            16.359               Magadan1           511.219
       395   05 Jun 2027 09:00:41.436   05 Jun 2027 09:02:19.212            97.776                Anadyr1          3055.500
       396   05 Jun 2027 09:02:19.212   05 Jun 2027 09:02:50.592            31.380                Anadyr2           980.625
       397   05 Jun 2027 10:28:15.407   05 Jun 2027 10:29:25.382            69.975               Magadan1          2186.719
       398   05 Jun 2027 10:33:03.085   05 Jun 2027 10:33:28.431            25.346               Magadan1           792.063
       399   05 Jun 2027 10:33:28.431   05 Jun 2027 10:33:35.034             6.603               Magadan2           206.344
       400   05 Jun 2027 10:33:55.470   05 Jun 2027 10:34:00.399             4.929                Irkutsk           154.031
       401   05 Jun 2027 10:34:03.146   05 Jun 2027 10:36:16.786           133.640               Magadan2          4176.250
       402   05 Jun 2027 10:36:49.673   05 Jun 2027 10:39:25.554           155.881                Anadyr2          4871.281
       403   05 Jun 2027 10:39:52.969   05 Jun 2027 10:40:15.599            22.630                Novosib           707.188
       404   05 Jun 2027 10:40:24.734   05 Jun 2027 10:40:41.953            17.219              Murmansk2           538.094
       405   05 Jun 2027 11:15:09.293   05 Jun 2027 11:15:37.055            27.762            RioGallegos           867.562
       406   05 Jun 2027 11:16:03.887   05 Jun 2027 11:16:08.967             5.080            RioGallegos           158.750
       407   05 Jun 2027 11:17:19.515   05 Jun 2027 11:17:52.866            33.351            RioGallegos          1042.219
       408   05 Jun 2027 11:52:33.374   05 Jun 2027 11:54:24.486           111.112                Sumatra          3472.250
       409   05 Jun 2027 12:06:17.922   05 Jun 2027 12:06:35.556            17.634                Novosib           551.062
       410   05 Jun 2027 12:08:06.085   05 Jun 2027 12:08:25.445            19.360                Irkutsk           605.000
       411   05 Jun 2027 12:09:19.220   05 Jun 2027 12:13:06.780           227.560               Magadan1          7111.250
       412   05 Jun 2027 13:00:41.254   05 Jun 2027 13:00:52.612            11.358            RioGallegos           354.938
       413   05 Jun 2027 13:25:35.152   05 Jun 2027 13:26:49.436            74.284                Sumatra          2321.375
       414   05 Jun 2027 13:29:59.368   05 Jun 2027 13:31:14.821            75.453                Sumatra          2357.906
       415   05 Jun 2027 13:40:09.036   05 Jun 2027 13:40:39.896            30.860                Irkutsk           964.375
       416   05 Jun 2027 13:41:34.184   05 Jun 2027 13:42:03.509            29.325                Irkutsk           916.406
       417   05 Jun 2027 13:42:48.514   05 Jun 2027 13:43:12.545            24.031                Novosib           750.969
       418   05 Jun 2027 13:45:28.903   05 Jun 2027 13:47:54.306           145.403                Irkutsk          4543.844
       419   05 Jun 2027 14:32:35.083   05 Jun 2027 14:35:52.544           197.461            RioGallegos          6170.656
       420   05 Jun 2027 15:18:05.585   05 Jun 2027 15:18:56.474            50.889                Novosib          1590.281
       421   05 Jun 2027 15:22:04.544   05 Jun 2027 15:22:19.647            15.103                Norilsk           471.969
       422   05 Jun 2027 15:22:51.791   05 Jun 2027 15:23:21.976            30.185                Novosib           943.281
       423   05 Jun 2027 15:25:19.403   05 Jun 2027 15:28:04.416           165.013                Novosib          5156.656
       424   05 Jun 2027 16:54:08.595   05 Jun 2027 16:56:07.654           119.059                 Moscow          3720.594
       425   05 Jun 2027 16:58:30.467   05 Jun 2027 16:59:02.376            31.909              Murmansk2           997.156
       426   05 Jun 2027 17:02:20.780   05 Jun 2027 17:08:31.597           370.817                Norilsk         11588.031
       427   05 Jun 2027 18:32:00.575   05 Jun 2027 18:33:22.897            82.322                 Moscow          2572.562
       428   05 Jun 2027 18:34:57.286   05 Jun 2027 18:35:51.985            54.699              Murmansk1          1709.344
       429   05 Jun 2027 18:36:00.935   05 Jun 2027 18:36:10.625             9.690                 Moscow           302.812
       430   05 Jun 2027 18:38:36.670   05 Jun 2027 18:38:52.104            15.434              Murmansk1           482.313
       431   05 Jun 2027 18:53:37.263   05 Jun 2027 18:53:39.435             2.172                Anadyr1            67.875
       432   05 Jun 2027 18:55:59.879   05 Jun 2027 18:56:03.356             3.477                Anadyr2           108.656
       433   05 Jun 2027 18:56:18.051   05 Jun 2027 18:56:53.346            35.295                Anadyr2          1102.969
       434   05 Jun 2027 19:43:45.901   05 Jun 2027 19:46:26.419           160.518               CapeTown          5016.188
       435   05 Jun 2027 20:14:39.091   05 Jun 2027 20:20:42.330           363.239              Murmansk1         11351.219
       436   05 Jun 2027 22:00:07.824   05 Jun 2027 22:03:35.405           207.581                Anadyr2          6486.906
       437   05 Jun 2027 22:03:46.659   05 Jun 2027 22:06:29.842           163.183               Magadan1          5099.469
       438   05 Jun 2027 22:07:25.750   05 Jun 2027 22:07:47.829            22.079               Magadan1           689.969
       439   05 Jun 2027 22:10:26.432   05 Jun 2027 22:10:44.754            18.322               Magadan2           572.563
       440   05 Jun 2027 22:10:51.190   05 Jun 2027 22:11:19.997            28.807               Magadan2           900.219
       441   05 Jun 2027 22:56:19.576   05 Jun 2027 22:58:51.302           151.726            RioGallegos          4741.437
       442   05 Jun 2027 23:01:12.556   05 Jun 2027 23:01:53.969            41.413            RioGallegos          1294.156
       443   05 Jun 2027 23:35:57.806   05 Jun 2027 23:37:48.725           110.919                Anadyr1          3466.219
       444   05 Jun 2027 23:38:03.662   05 Jun 2027 23:39:30.971            87.309                Norilsk          2728.406
       445   05 Jun 2027 23:40:00.985   05 Jun 2027 23:40:19.670            18.685               Magadan1           583.906
       446   05 Jun 2027 23:42:21.503   05 Jun 2027 23:42:48.178            26.675               Magadan1           833.594
       447   05 Jun 2027 23:43:00.923   05 Jun 2027 23:43:44.529            43.606                Irkutsk          1362.687
       448   05 Jun 2027 23:44:49.597   05 Jun 2027 23:45:19.065            29.468                Irkutsk           920.875
       449   05 Jun 2027 23:46:33.694   05 Jun 2027 23:47:10.476            36.782                Irkutsk          1149.437
       450   05 Jun 2027 23:58:02.426   06 Jun 2027 00:00:00.668           118.242                Sumatra          3695.063
       451   06 Jun 2027 00:01:53.103   06 Jun 2027 00:03:24.411            91.308                Sumatra          2853.375
       452   06 Jun 2027 00:41:04.220   06 Jun 2027 00:41:18.593            14.373            RioGallegos           449.156
       453   06 Jun 2027 01:11:15.375   06 Jun 2027 01:11:21.756             6.381                Anadyr2           199.406
       454   06 Jun 2027 01:11:24.473   06 Jun 2027 01:11:42.729            18.256                Anadyr2           570.500
       455   06 Jun 2027 01:12:06.237   06 Jun 2027 01:12:18.925            12.688                Anadyr2           396.500
       456   06 Jun 2027 01:12:55.488   06 Jun 2027 01:13:29.319            33.831                Anadyr2          1057.219
       457   06 Jun 2027 01:13:50.534   06 Jun 2027 01:15:44.387           113.853                Norilsk          3557.906
       458   06 Jun 2027 01:15:52.102   06 Jun 2027 01:16:14.678            22.576               Magadan1           705.500
       459   06 Jun 2027 01:16:14.678   06 Jun 2027 01:17:28.330            73.652               Magadan2          2301.625
       460   06 Jun 2027 01:17:46.409   06 Jun 2027 01:19:00.220            73.811                Irkutsk          2306.594
       461   06 Jun 2027 01:21:12.236   06 Jun 2027 01:21:35.671            23.435                Irkutsk           732.344
       462   06 Jun 2027 01:23:20.393   06 Jun 2027 01:23:31.703            11.310                Novosib           353.438
       463   06 Jun 2027 01:26:54.346   06 Jun 2027 01:27:34.874            40.528                Novosib          1266.500
       464   06 Jun 2027 01:29:53.219   06 Jun 2027 01:30:06.724            13.505                  Delhi           422.031
       465   06 Jun 2027 01:30:58.657   06 Jun 2027 01:33:08.855           130.198                  Delhi          4068.688
       466   06 Jun 2027 02:11:27.387   06 Jun 2027 02:11:46.810            19.423            RioGallegos           606.969
       467   06 Jun 2027 02:14:35.359   06 Jun 2027 02:15:09.079            33.720            RioGallegos          1053.750
       468   06 Jun 2027 02:17:27.824   06 Jun 2027 02:18:01.647            33.823            RioGallegos          1056.969
       469   06 Jun 2027 02:47:14.053   06 Jun 2027 02:47:58.841            44.788                Anadyr2          1399.625
       470   06 Jun 2027 02:49:51.622   06 Jun 2027 02:50:59.373            67.751                Norilsk          2117.219
       471   06 Jun 2027 02:52:44.821   06 Jun 2027 02:53:55.967            71.146              Murmansk1          2223.313
       472   06 Jun 2027 02:54:04.617   06 Jun 2027 02:54:52.244            47.627                Novosib          1488.344
       473   06 Jun 2027 02:55:36.185   06 Jun 2027 02:56:05.134            28.949                Irkutsk           904.656
       474   06 Jun 2027 02:59:13.652   06 Jun 2027 03:01:15.466           121.814                Irkutsk          3806.687
       475   06 Jun 2027 03:01:42.470   06 Jun 2027 03:03:49.006           126.536                  Delhi          3954.250
       476   06 Jun 2027 03:42:55.693   06 Jun 2027 03:43:38.653            42.960            RioGallegos          1342.500
       477   06 Jun 2027 04:35:21.315   06 Jun 2027 04:36:15.066            53.751                Novosib          1679.719
       478   06 Jun 2027 04:36:43.881   06 Jun 2027 04:37:48.580            64.699                Novosib          2021.844
       479   06 Jun 2027 04:37:52.497   06 Jun 2027 04:38:08.159            15.662              Murmansk2           489.437
       480   06 Jun 2027 04:38:08.159   06 Jun 2027 04:38:38.004            29.845              Murmansk1           932.656
       481   06 Jun 2027 04:38:46.588   06 Jun 2027 04:46:13.202           446.614                  Delhi         13956.687
       482   06 Jun 2027 06:12:22.213   06 Jun 2027 06:13:08.176            45.963              Murmansk2          1436.344
