uniorb/output/strategy_2/Drop/Drop_KinoSat_110106.txt

KinoSat_110106
-------------------------
    Access    *     Start Time (UTCG)     *     Stop Time (UTCG)  *   Duration (s)        *       Station  *  Data (Mbytes)
         1   01 Jun 2027 03:57:17.941   01 Jun 2027 03:58:15.391            57.450                Irkutsk          7086.500
         2   01 Jun 2027 03:58:17.199   01 Jun 2027 03:58:19.444             2.245                Novosib           280.625
         3   01 Jun 2027 03:58:26.676   01 Jun 2027 03:58:44.187            17.511                Novosib          2188.875
         4   01 Jun 2027 03:58:51.849   01 Jun 2027 04:00:20.508            88.659                Irkutsk          5881.501
         5   01 Jun 2027 04:00:21.312   01 Jun 2027 04:00:30.832             9.520              Murmansk1           402.000
         6   01 Jun 2027 04:00:38.103   01 Jun 2027 04:01:20.931            42.828                Norilsk          3635.500
         7   01 Jun 2027 04:01:27.209   01 Jun 2027 04:02:02.766            35.557                Norilsk          3139.000
         8   01 Jun 2027 04:02:07.385   01 Jun 2027 04:02:29.136            21.751              Murmansk2          2309.500
         9   01 Jun 2027 04:02:51.269   01 Jun 2027 04:04:41.480           110.211              Murmansk1         11066.500
        10   01 Jun 2027 05:35:34.365   01 Jun 2027 05:36:31.718            57.353                Norilsk          7073.500
        11   01 Jun 2027 05:36:32.119   01 Jun 2027 05:36:39.674             7.555                Novosib           200.500
        12   01 Jun 2027 05:36:43.180   01 Jun 2027 05:37:01.192            18.012                Norilsk          1753.000
        13   01 Jun 2027 05:37:02.594   01 Jun 2027 05:37:27.629            25.035              Murmansk2           701.000
        14   01 Jun 2027 05:37:31.882   01 Jun 2027 05:38:13.824            41.942              Murmansk1          2126.500
        15   01 Jun 2027 05:38:33.246   01 Jun 2027 05:40:04.440            91.194                Novosib          9711.000
        16   01 Jun 2027 07:10:50.011   01 Jun 2027 07:11:36.794            46.783              Murmansk2          3274.500
        17   01 Jun 2027 07:11:43.686   01 Jun 2027 07:12:33.829            50.143                 Moscow          3446.000
        18   01 Jun 2027 07:12:34.539   01 Jun 2027 07:12:56.290            21.751                Novosib           355.000
        19   01 Jun 2027 07:13:06.155   01 Jun 2027 07:13:46.067            39.912                Norilsk          4932.500
        20   01 Jun 2027 07:13:54.153   01 Jun 2027 07:14:34.245            40.092                 Moscow          4043.000
        21   01 Jun 2027 07:14:35.020   01 Jun 2027 07:15:04.808            29.788                Norilsk           387.500
        22   01 Jun 2027 07:15:17.028   01 Jun 2027 07:15:41.321            24.293              Murmansk2          2733.500
        23   01 Jun 2027 07:15:42.666   01 Jun 2027 07:16:37.185            54.519              Murmansk1           672.500
        24   02 Jun 2027 04:09:31.142   02 Jun 2027 04:10:09.603            38.461                Novosib          3930.500
        25   02 Jun 2027 04:10:18.155   02 Jun 2027 04:11:12.140            53.985                Norilsk          4276.000
        26   02 Jun 2027 04:11:14.257   02 Jun 2027 04:11:45.820            31.563                Norilsk          1058.500
        27   02 Jun 2027 04:11:46.663   02 Jun 2027 04:11:53.899             7.236                Norilsk           421.500
        28   02 Jun 2027 04:12:03.304   02 Jun 2027 04:12:38.371            35.067                Novosib          4383.375
        29   02 Jun 2027 04:12:45.547   02 Jun 2027 04:15:05.181           139.634                Irkutsk          3907.125
        30   02 Jun 2027 04:15:08.998   02 Jun 2027 04:15:29.720            20.722                Norilsk          1908.500
        31   02 Jun 2027 04:15:30.729   02 Jun 2027 04:16:00.089            29.360              Murmansk1           504.500
        32   02 Jun 2027 05:47:23.480   02 Jun 2027 05:47:35.624            12.144              Murmansk2          1144.000
        33   02 Jun 2027 05:47:50.529   02 Jun 2027 05:49:09.374            78.845                 Moscow          7452.500
        34   02 Jun 2027 05:49:14.716   02 Jun 2027 05:49:46.378            31.662              Murmansk1          2671.000
        35   02 Jun 2027 05:49:50.717   02 Jun 2027 05:50:15.793            25.076              Murmansk1          2169.500
        36   02 Jun 2027 05:50:19.851   02 Jun 2027 05:50:58.056            38.205                 Moscow          2029.000
        37   02 Jun 2027 05:51:01.365   02 Jun 2027 05:51:42.082            40.717                 Moscow          1654.500
        38   02 Jun 2027 07:20:36.461   02 Jun 2027 07:20:58.730            22.269                 Moscow          2783.625
        39   02 Jun 2027 07:21:20.198   02 Jun 2027 07:22:57.160            96.962                 Moscow         11975.375
        40   02 Jun 2027 07:23:00.478   02 Jun 2027 07:23:28.698            28.220                 Moscow          1659.000
        41   02 Jun 2027 07:23:37.961   02 Jun 2027 07:24:33.885            55.924                Novosib          4631.500
        42   02 Jun 2027 07:24:46.285   02 Jun 2027 07:25:36.684            50.399                 Moscow          6200.000
        43   02 Jun 2027 07:25:39.291   02 Jun 2027 07:25:55.946            16.655              Murmansk1          1303.500
        44   02 Jun 2027 07:25:58.423   02 Jun 2027 07:26:15.653            17.230                 Moscow          1238.500
        45   02 Jun 2027 07:26:16.175   02 Jun 2027 07:26:21.807             5.632                 Moscow           261.000
        46   02 Jun 2027 07:26:22.957   02 Jun 2027 07:26:41.916            18.959                Novosib           575.000
        47   02 Jun 2027 07:27:09.379   02 Jun 2027 07:27:31.874            22.495              Murmansk2          1861.500
        48   02 Jun 2027 07:27:32.228   02 Jun 2027 07:27:36.943             4.715                Norilsk           177.000
        49   02 Jun 2027 07:27:38.511   02 Jun 2027 07:28:12.380            33.869              Murmansk1           784.000
        50   02 Jun 2027 07:28:17.042   02 Jun 2027 07:28:41.621            24.579                Norilsk          2331.000
        51   03 Jun 2027 04:21:24.589   03 Jun 2027 04:21:55.162            30.573                Novosib           489.500
        52   03 Jun 2027 04:21:57.902   03 Jun 2027 04:22:19.876            21.974                Irkutsk          1370.000
        53   03 Jun 2027 04:22:25.821   03 Jun 2027 04:23:22.953            57.132                Novosib          2972.500
        54   03 Jun 2027 04:23:25.669   03 Jun 2027 04:23:59.361            33.692                Novosib          1358.000
        55   03 Jun 2027 04:24:10.757   03 Jun 2027 04:24:37.701            26.944                Norilsk          3368.000
        56   03 Jun 2027 04:24:38.981   03 Jun 2027 04:24:46.961             7.980                Novosib           997.500
        57   03 Jun 2027 04:25:10.146   03 Jun 2027 04:25:42.914            32.768                Norilsk          4096.000
        58   03 Jun 2027 04:25:49.095   03 Jun 2027 04:27:31.300           102.205                 Moscow         12559.500
        59   03 Jun 2027 04:27:34.696   03 Jun 2027 04:28:01.534            26.838              Murmansk2          1698.000
        60   03 Jun 2027 05:59:31.600   03 Jun 2027 06:00:18.359            46.759              Murmansk2          4952.000
        61   03 Jun 2027 06:00:27.205   03 Jun 2027 06:01:24.734            57.529                Novosib          4423.000
        62   03 Jun 2027 06:01:31.268   03 Jun 2027 06:02:23.929            52.661                 Moscow          3267.000
        63   03 Jun 2027 06:02:26.756   03 Jun 2027 06:02:36.252             9.496                Norilsk          1187.000
        64   03 Jun 2027 06:02:59.414   03 Jun 2027 06:04:55.907           116.493              Murmansk1         11807.500
        65   03 Jun 2027 07:33:05.382   03 Jun 2027 07:34:22.751            77.369                 Moscow          3068.000
        66   03 Jun 2027 07:34:24.423   03 Jun 2027 07:35:17.895            53.472              Murmansk2           836.000
        67   03 Jun 2027 07:35:36.361   03 Jun 2027 07:36:51.710            75.349              Murmansk2          9233.000
        68   03 Jun 2027 07:36:54.292   03 Jun 2027 07:37:19.826            25.534              Murmansk2          1291.000
        69   03 Jun 2027 07:37:22.258   03 Jun 2027 07:37:46.253            23.995                 Moscow          1216.000
        70   03 Jun 2027 07:37:48.474   03 Jun 2027 07:38:14.232            25.758                Norilsk          1110.500
        71   03 Jun 2027 07:38:17.193   03 Jun 2027 07:38:19.582             2.389              Murmansk1           298.625
        72   03 Jun 2027 07:38:25.167   03 Jun 2027 07:39:15.127            49.960                 Moscow          3974.375
        73   03 Jun 2027 07:39:21.813   03 Jun 2027 07:39:34.414            12.601              Murmansk2          1575.125
        74   03 Jun 2027 07:39:34.414   03 Jun 2027 07:40:12.716            38.302              Murmansk1          1767.875
        75   03 Jun 2027 07:40:17.041   03 Jun 2027 07:41:10.306            53.265              Murmansk2          2162.500
        76   04 Jun 2027 03:00:02.282   04 Jun 2027 03:00:19.506            17.224                Novosib          1141.000
        77   04 Jun 2027 03:00:30.035   04 Jun 2027 03:01:15.592            45.557               Magadan1          5264.500
        78   04 Jun 2027 03:01:28.099   04 Jun 2027 03:02:39.267            71.168                Irkutsk          6253.500
        79   04 Jun 2027 03:02:45.525   04 Jun 2027 03:03:29.389            43.864                Irkutsk          3129.000
        80   04 Jun 2027 03:03:34.846   04 Jun 2027 03:03:58.277            23.431                Irkutsk          2728.500
        81   04 Jun 2027 04:33:36.015   04 Jun 2027 04:35:25.625           109.610                Novosib         10360.000
        82   04 Jun 2027 04:35:26.642   04 Jun 2027 04:35:41.251            14.609                Norilsk           508.500
        83   04 Jun 2027 04:35:42.834   04 Jun 2027 04:36:15.531            32.697              Murmansk2           791.500
        84   04 Jun 2027 04:36:19.339   04 Jun 2027 04:36:56.760            37.421                Novosib          1904.000
        85   04 Jun 2027 04:37:05.709   04 Jun 2027 04:37:44.606            38.897                Norilsk          4474.500
        86   04 Jun 2027 04:37:46.831   04 Jun 2027 04:38:54.874            68.043                 Moscow          1112.500
        87   04 Jun 2027 04:38:55.648   04 Jun 2027 04:39:11.287            15.639                 Moscow           387.000
        88   04 Jun 2027 04:39:20.273   04 Jun 2027 04:39:29.416             9.143                Novosib          1142.875
        89   04 Jun 2027 04:39:31.761   04 Jun 2027 04:40:02.429            30.668                 Moscow          2942.625
        90   04 Jun 2027 06:11:26.352   04 Jun 2027 06:11:36.116             9.764              Murmansk2           875.500
        91   04 Jun 2027 06:11:37.637   04 Jun 2027 06:11:54.149            16.512                 Moscow           760.500
        92   04 Jun 2027 06:12:02.910   04 Jun 2027 06:12:40.826            37.916                 Moscow          4380.500
        93   04 Jun 2027 06:12:42.469   04 Jun 2027 06:13:04.956            22.487                Novosib           821.500
        94   04 Jun 2027 06:13:17.734   04 Jun 2027 06:14:07.342            49.608                Norilsk          6201.000
        95   04 Jun 2027 06:14:16.337   04 Jun 2027 06:15:20.147            63.810              Murmansk1          4685.500
        96   04 Jun 2027 06:15:20.700   04 Jun 2027 06:15:39.397            18.697                Novosib           276.500
        97   04 Jun 2027 07:45:24.255   04 Jun 2027 07:46:05.130            40.875                 Moscow          3924.000
        98   04 Jun 2027 07:46:11.933   04 Jun 2027 07:47:09.535            57.602              Murmansk2          3401.500
        99   04 Jun 2027 07:47:32.102   04 Jun 2027 07:49:07.114            95.012              Murmansk1         11283.500
       100   04 Jun 2027 07:49:19.120   04 Jun 2027 07:50:29.383            70.263                 Moscow          6003.000
       101   04 Jun 2027 07:50:29.439   04 Jun 2027 07:51:34.650            65.211                Norilsk            28.000
       102   05 Jun 2027 03:08:51.777   05 Jun 2027 03:10:23.971            92.194                Novosib          6945.500
       103   05 Jun 2027 03:10:26.016   05 Jun 2027 03:10:29.461             3.445                Norilsk           430.625
       104   05 Jun 2027 03:10:32.690   05 Jun 2027 03:10:52.246            19.556               Magadan1          2206.375
       105   05 Jun 2027 03:11:01.193   05 Jun 2027 03:11:43.607            42.414                Irkutsk          4473.500
       106   05 Jun 2027 03:11:57.799   05 Jun 2027 03:12:56.692            58.893               Magadan2          7096.000
       107   05 Jun 2027 03:13:08.317   05 Jun 2027 03:13:31.310            22.993                Norilsk          2874.125
       108   05 Jun 2027 03:13:37.766   05 Jun 2027 03:14:33.973            56.207                Novosib          6166.375
       109   05 Jun 2027 03:14:37.406   05 Jun 2027 03:15:29.192            51.786                Novosib          1716.500
       110   05 Jun 2027 03:15:29.814   05 Jun 2027 03:15:40.809            10.995                Norilsk           311.000
       111   05 Jun 2027 03:15:43.557   05 Jun 2027 03:15:53.361             9.804              Murmansk1          1225.500
       112   05 Jun 2027 03:15:53.361   05 Jun 2027 03:15:55.059             1.698              Murmansk2           148.500
       113   05 Jun 2027 03:16:02.147   05 Jun 2027 03:16:32.156            30.009              Murmansk2           828.500
       114   05 Jun 2027 04:46:17.830   05 Jun 2027 04:48:13.357           115.527                Norilsk         14440.875
       115   05 Jun 2027 04:48:21.898   05 Jun 2027 04:49:49.767            87.869                 Moscow          7783.125
       116   05 Jun 2027 04:49:51.736   05 Jun 2027 04:50:48.604            56.868                 Moscow           984.500
       117   05 Jun 2027 04:50:49.422   05 Jun 2027 04:51:35.711            46.289                 Moscow           409.000
       118   05 Jun 2027 04:51:37.991   05 Jun 2027 04:51:50.914            12.923              Murmansk2          1140.000
       119   05 Jun 2027 06:22:40.123   05 Jun 2027 06:22:45.779             5.656                 Moscow           707.000
       120   05 Jun 2027 06:22:54.951   05 Jun 2027 06:23:49.133            54.182                Norilsk          6428.000
       121   05 Jun 2027 06:23:55.002   05 Jun 2027 06:24:35.431            40.429              Murmansk1          2934.500
       122   05 Jun 2027 06:24:36.700   05 Jun 2027 06:25:00.939            24.239              Murmansk1           634.500
       123   05 Jun 2027 06:25:10.358   05 Jun 2027 06:25:59.588            49.230                Novosib          4709.500
       124   05 Jun 2027 06:26:05.193   05 Jun 2027 06:26:41.220            36.027                Norilsk          2802.500
       125   05 Jun 2027 06:26:41.506   05 Jun 2027 06:27:14.211            32.705                 Moscow           143.000
       126   05 Jun 2027 06:27:14.331   05 Jun 2027 06:27:46.121            31.790              Murmansk1            60.000
       127   05 Jun 2027 07:57:59.777   05 Jun 2027 07:59:01.928            62.151              Murmansk2          6880.000
       128   05 Jun 2027 07:59:47.385   05 Jun 2027 08:01:28.253           100.868                 Moscow         12608.500
       129   05 Jun 2027 08:01:31.627   05 Jun 2027 08:01:54.445            22.818              Murmansk2          2637.000
       130   05 Jun 2027 08:02:34.178   05 Jun 2027 08:05:42.292           188.114                Norilsk         18390.000
       131   06 Jun 2027 03:21:12.339   06 Jun 2027 03:21:45.051            32.712                Novosib          4088.000
       132   06 Jun 2027 03:22:00.920   06 Jun 2027 03:22:15.975            15.055                Norilsk          1881.875
       133   06 Jun 2027 03:22:25.955   06 Jun 2027 03:23:22.455            56.500                Novosib          7062.500
       134   06 Jun 2027 03:23:23.599   06 Jun 2027 03:24:08.045            44.446                Norilsk          4552.125
       135   06 Jun 2027 03:24:11.627   06 Jun 2027 03:24:44.372            32.745                Norilsk          1791.000
       136   06 Jun 2027 03:25:02.793   06 Jun 2027 03:26:18.299            75.506                Norilsk          9210.500
       137   06 Jun 2027 03:26:19.206   06 Jun 2027 03:26:25.247             6.041              Murmansk1           453.500
       138   06 Jun 2027 03:26:43.802   06 Jun 2027 03:28:06.132            82.330                Novosib          9277.500
       139   06 Jun 2027 04:58:07.082   06 Jun 2027 04:58:17.667            10.585                Norilsk           456.500
       140   06 Jun 2027 04:58:26.378   06 Jun 2027 04:58:57.309            30.931                Irkutsk          3866.375
       141   06 Jun 2027 04:59:09.834   06 Jun 2027 05:00:14.246            64.412                Norilsk          6751.625
       142   06 Jun 2027 05:00:16.991   06 Jun 2027 05:00:29.146            12.155                 Moscow          1372.500
       143   06 Jun 2027 05:00:29.883   06 Jun 2027 05:00:38.105             8.222                Novosib           368.500
       144   06 Jun 2027 05:00:38.181   06 Jun 2027 05:01:17.669            39.488              Murmansk1            38.000
       145   06 Jun 2027 05:01:22.006   06 Jun 2027 05:01:44.758            22.752                Norilsk          2168.500
       146   06 Jun 2027 05:01:46.822   06 Jun 2027 05:02:05.287            18.465              Murmansk1          1032.000
       147   06 Jun 2027 05:02:15.597   06 Jun 2027 05:03:09.167            53.570                Novosib          5155.000
       148   06 Jun 2027 05:03:19.889   06 Jun 2027 05:04:04.186            44.297                Norilsk          5361.000
       149   06 Jun 2027 06:34:55.558   06 Jun 2027 06:35:20.012            24.454                 Moscow          2749.000
       150   06 Jun 2027 06:35:20.187   06 Jun 2027 06:35:43.224            23.037              Murmansk1            87.500
       151   06 Jun 2027 06:35:44.155   06 Jun 2027 06:35:58.450            14.295                 Moscow           465.500
       152   06 Jun 2027 06:36:01.939   06 Jun 2027 06:36:24.620            22.681              Murmansk1          1744.500
       153   06 Jun 2027 06:36:26.758   06 Jun 2027 06:37:02.905            36.147                Norilsk          1069.000
       154   06 Jun 2027 06:37:04.754   06 Jun 2027 06:37:30.597            25.843                Norilsk           924.500
       155   06 Jun 2027 06:37:30.959   06 Jun 2027 06:37:47.527            16.568              Murmansk2           181.000
       156   06 Jun 2027 06:37:53.182   06 Jun 2027 06:39:12.588            79.406                 Moscow          2827.500
       157   06 Jun 2027 06:39:31.621   06 Jun 2027 06:40:02.731            31.110                Norilsk          3710.000
       158   06 Jun 2027 08:13:04.954   06 Jun 2027 08:14:07.216            62.262                 Moscow          2854.500
       159   06 Jun 2027 08:14:46.146   06 Jun 2027 08:14:56.929            10.783              Murmansk1           262.500
       160   07 Jun 2027 03:33:28.666   07 Jun 2027 03:33:50.379            21.713                Novosib           305.500
       161   07 Jun 2027 03:34:00.068   07 Jun 2027 03:34:50.192            50.124                Irkutsk          4844.500
       162   07 Jun 2027 03:35:00.596   07 Jun 2027 03:35:42.028            41.432                Novosib          5179.000
       163   07 Jun 2027 03:36:01.156   07 Jun 2027 03:37:24.122            82.966                Norilsk          9587.000
       164   07 Jun 2027 03:37:35.736   07 Jun 2027 03:38:00.171            24.435                Irkutsk          3054.375
       165   07 Jun 2027 03:38:00.621   07 Jun 2027 03:38:22.451            21.830                Novosib          2728.750
       166   07 Jun 2027 03:38:26.889   07 Jun 2027 03:38:55.270            28.381              Murmansk2          2467.875
       167   07 Jun 2027 03:38:55.373   07 Jun 2027 03:38:57.270             1.897                Novosib            51.500
       168   07 Jun 2027 03:39:17.423   07 Jun 2027 03:40:02.766            45.343                Irkutsk          5667.875
       169   07 Jun 2027 03:40:07.695   07 Jun 2027 03:40:45.401            37.706                Novosib          4408.625
       170   07 Jun 2027 05:11:06.756   07 Jun 2027 05:11:46.372            39.616              Murmansk2          4124.000
       171   07 Jun 2027 05:11:48.584   07 Jun 2027 05:12:14.834            26.250                Norilsk          1106.000
       172   07 Jun 2027 05:12:19.691   07 Jun 2027 05:12:40.219            20.528              Murmansk1          2428.500
       173   07 Jun 2027 05:12:48.122   07 Jun 2027 05:13:30.751            42.629                Irkutsk          3951.500
       174   07 Jun 2027 05:13:34.808   07 Jun 2027 05:13:55.560            20.752                Norilsk          2028.500
       175   07 Jun 2027 05:13:58.292   07 Jun 2027 05:14:07.743             9.451              Murmansk1          1181.375
       176   07 Jun 2027 05:14:07.743   07 Jun 2027 05:14:25.717            17.974              Murmansk2           184.625
       177   07 Jun 2027 05:14:28.563   07 Jun 2027 05:15:21.908            53.345              Murmansk1          1423.000
       178   07 Jun 2027 05:15:27.747   07 Jun 2027 05:15:35.469             7.722              Murmansk2           244.000
       179   07 Jun 2027 06:47:04.036   07 Jun 2027 06:47:11.115             7.079              Murmansk1            73.000
       180   07 Jun 2027 06:47:11.443   07 Jun 2027 06:47:16.748             5.305                 Moscow           164.000
       181   07 Jun 2027 06:47:22.956   07 Jun 2027 06:48:01.439            38.483                 Moscow          3104.000
       182   07 Jun 2027 06:48:03.122   07 Jun 2027 06:48:13.007             9.885              Murmansk1           841.500
       183   07 Jun 2027 06:48:17.617   07 Jun 2027 06:48:39.160            21.543                Novosib          2305.000
       184   07 Jun 2027 06:48:39.234   07 Jun 2027 06:49:02.021            22.787              Murmansk2            37.000
       185   07 Jun 2027 06:49:11.515   07 Jun 2027 06:49:45.610            34.095                Norilsk          4261.875
       186   07 Jun 2027 06:49:50.635   07 Jun 2027 06:50:19.326            28.691                Norilsk          2997.625
       187   07 Jun 2027 06:50:22.680   07 Jun 2027 06:50:48.598            25.918              Murmansk1          1677.000
       188   07 Jun 2027 06:50:53.412   07 Jun 2027 06:51:26.940            33.528                Norilsk          2407.000
       189   08 Jun 2027 03:45:45.729   08 Jun 2027 03:46:04.217            18.488                Norilsk          1780.500
       190   08 Jun 2027 03:46:18.848   08 Jun 2027 03:46:27.292             8.444                Irkutsk          1055.500
       191   08 Jun 2027 03:46:31.611   08 Jun 2027 03:47:44.200            72.589                Novosib          8419.500
       192   08 Jun 2027 03:47:50.259   08 Jun 2027 03:48:13.825            23.566                Norilsk          2945.750
       193   08 Jun 2027 03:48:21.885   08 Jun 2027 03:48:55.015            33.130                Norilsk          4113.750
       194   08 Jun 2027 03:49:09.683   08 Jun 2027 03:50:14.662            64.979              Murmansk2          7334.000
       195   08 Jun 2027 03:50:18.958   08 Jun 2027 03:51:00.101            41.143                Irkutsk          2148.000
       196   08 Jun 2027 03:51:06.929   08 Jun 2027 03:51:42.941            36.012                Norilsk          3414.000
       197   08 Jun 2027 03:51:44.950   08 Jun 2027 03:52:10.915            25.965                Norilsk          1004.500
       198   08 Jun 2027 05:23:03.314   08 Jun 2027 05:23:56.915            53.601                 Moscow          1695.500
       199   08 Jun 2027 05:24:11.105   08 Jun 2027 05:25:19.991            68.886                Irkutsk          7095.000
       200   08 Jun 2027 05:25:21.129   08 Jun 2027 05:26:46.496            85.367                Irkutsk           569.000
       201   08 Jun 2027 05:26:55.863   08 Jun 2027 05:27:41.176            45.313                 Moscow          4683.500
       202   08 Jun 2027 06:59:17.924   08 Jun 2027 07:00:01.221            43.297              Murmansk2          2984.500
       203   08 Jun 2027 07:00:01.930   08 Jun 2027 07:00:10.818             8.888              Murmansk2           354.500
       204   08 Jun 2027 07:00:11.517   08 Jun 2027 07:00:29.468            17.951                Novosib           349.500
       205   08 Jun 2027 07:00:35.967   08 Jun 2027 07:01:21.797            45.830                Norilsk          3249.500
       206   08 Jun 2027 07:01:23.481   08 Jun 2027 07:01:35.182            11.701                Novosib           842.000
       207   08 Jun 2027 07:01:36.766   08 Jun 2027 07:01:57.009            20.243                 Moscow           792.000
       208   08 Jun 2027 07:02:01.500   08 Jun 2027 07:02:46.624            45.124                Norilsk          2245.500
       209   08 Jun 2027 07:02:47.423   08 Jun 2027 07:03:40.030            52.607              Murmansk1           399.500
       210   08 Jun 2027 07:04:00.150   08 Jun 2027 07:05:26.696            86.546              Murmansk1         10060.000
       211   09 Jun 2027 03:57:32.313   09 Jun 2027 03:58:29.992            57.679                Irkutsk          6729.000
       212   09 Jun 2027 03:58:34.919   09 Jun 2027 03:59:11.688            36.769                Norilsk          2463.500
       213   09 Jun 2027 03:59:14.599   09 Jun 2027 03:59:27.716            13.117                Irkutsk          1455.500
       214   09 Jun 2027 03:59:29.574   09 Jun 2027 03:59:39.040             9.466                Norilsk           929.000
       215   09 Jun 2027 03:59:57.389   09 Jun 2027 04:01:14.446            77.057                Norilsk          9174.500
       216   09 Jun 2027 04:01:17.348   09 Jun 2027 04:01:38.307            20.959              Murmansk1          1451.000
       217   09 Jun 2027 04:01:44.324   09 Jun 2027 04:02:19.928            35.604                Norilsk          3008.500
       218   09 Jun 2027 04:02:30.583   09 Jun 2027 04:03:28.130            57.547              Murmansk1          5327.500
       219   09 Jun 2027 04:03:34.782   09 Jun 2027 04:03:40.069             5.287                Norilsk           660.875
       220   09 Jun 2027 04:03:41.395   09 Jun 2027 04:04:14.267            32.872              Murmansk1          3328.125
       221   09 Jun 2027 05:35:48.989   09 Jun 2027 05:36:47.637            58.648                Norilsk          6707.000
       222   09 Jun 2027 05:36:50.069   09 Jun 2027 05:37:25.887            35.818                 Moscow          1216.000
       223   09 Jun 2027 05:37:28.363   09 Jun 2027 05:37:58.728            30.365                 Moscow          1238.000
       224   09 Jun 2027 05:38:00.559   09 Jun 2027 05:38:24.499            23.940                 Moscow           915.500
       225   09 Jun 2027 05:38:29.129   09 Jun 2027 05:39:06.892            37.763              Murmansk1          2315.000
       226   09 Jun 2027 05:39:09.538   09 Jun 2027 05:39:56.580            47.042                 Moscow          1323.000
       227   09 Jun 2027 07:11:05.056   09 Jun 2027 07:11:51.470            46.414              Murmansk2          1685.000
       228   09 Jun 2027 07:11:58.236   09 Jun 2027 07:12:50.777            52.541                 Moscow          3383.000
       229   09 Jun 2027 07:13:03.470   09 Jun 2027 07:13:23.018            19.548                Norilsk          2443.500
       230   09 Jun 2027 07:13:26.900   09 Jun 2027 07:14:17.111            50.211                Novosib          5844.000
       231   09 Jun 2027 07:14:17.412   09 Jun 2027 07:14:23.169             5.757              Murmansk2           150.500
       232   09 Jun 2027 07:14:31.256   09 Jun 2027 07:15:31.640            60.384              Murmansk1          4043.500
       233   09 Jun 2027 07:15:34.046   09 Jun 2027 07:15:58.585            24.539              Murmansk1          1203.000
       234   09 Jun 2027 07:16:01.207   09 Jun 2027 07:16:48.055            46.848                 Moscow          1311.000
       235   10 Jun 2027 04:09:41.587   10 Jun 2027 04:09:42.846             1.259                Norilsk           157.375
       236   10 Jun 2027 04:09:48.612   10 Jun 2027 04:10:24.163            35.551                Novosib          4326.625
       237   10 Jun 2027 04:11:01.642   10 Jun 2027 04:15:19.474           257.832                Irkutsk         18739.500
       238   10 Jun 2027 04:15:29.432   10 Jun 2027 04:15:58.711            29.279                Irkutsk          3659.875
       239   10 Jun 2027 04:16:03.587   10 Jun 2027 04:16:27.198            23.611                 Moscow          2115.625
       240   10 Jun 2027 05:47:42.326   10 Jun 2027 05:48:44.003            61.677              Murmansk1          3059.500
       241   10 Jun 2027 05:48:46.688   10 Jun 2027 05:49:16.571            29.883              Murmansk1          1342.500
       242   10 Jun 2027 05:49:22.796   10 Jun 2027 05:49:58.413            35.617                Norilsk          3112.500
       243   10 Jun 2027 05:50:01.497   10 Jun 2027 05:50:07.733             6.236              Murmansk1           779.500
       244   10 Jun 2027 05:50:09.470   10 Jun 2027 05:50:35.626            26.156                 Moscow          1631.000
       245   10 Jun 2027 05:50:57.479   10 Jun 2027 05:52:35.676            98.197              Murmansk1         10926.500
       246   10 Jun 2027 07:20:51.267   10 Jun 2027 07:21:12.657            21.390                 Moscow          2673.750
       247   10 Jun 2027 07:21:35.231   10 Jun 2027 07:23:43.294           128.063                 Moscow         13332.250
       248   10 Jun 2027 07:23:52.589   10 Jun 2027 07:24:48.512            55.923                Novosib          4647.500
       249   10 Jun 2027 07:24:51.952   10 Jun 2027 07:25:11.594            19.642                Norilsk          1720.000
       250   10 Jun 2027 07:25:19.891   10 Jun 2027 07:25:47.642            27.751                Norilsk          3468.875
       251   10 Jun 2027 07:25:47.742   10 Jun 2027 07:25:53.870             6.128              Murmansk2           729.625
       252   10 Jun 2027 07:25:55.678   10 Jun 2027 07:26:13.311            17.633                 Moscow           904.000
       253   10 Jun 2027 07:26:16.505   10 Jun 2027 07:26:33.327            16.822              Murmansk2          1597.000
       254   10 Jun 2027 07:26:37.475   10 Jun 2027 07:27:24.003            46.528              Murmansk1          2074.000
       255   10 Jun 2027 07:27:46.384   10 Jun 2027 07:28:29.573            43.189              Murmansk2          1673.000
       256   10 Jun 2027 07:28:33.792   10 Jun 2027 07:28:56.282            22.490                Norilsk          2109.500
       257   11 Jun 2027 04:21:39.867   11 Jun 2027 04:21:42.354             2.487                Novosib           310.875
       258   11 Jun 2027 04:21:59.129   11 Jun 2027 04:22:29.812            30.683                Norilsk          3835.375
       259   11 Jun 2027 04:22:43.918   11 Jun 2027 04:23:40.168            56.250                Novosib          7031.250
       260   11 Jun 2027 04:24:00.629   11 Jun 2027 04:24:28.806            28.177                Norilsk          3522.125
       261   11 Jun 2027 04:24:29.913   11 Jun 2027 04:26:23.762           113.849              Murmansk2         12212.875
       262   11 Jun 2027 04:26:25.389   11 Jun 2027 04:26:31.521             6.132                Novosib           766.500
       263   11 Jun 2027 04:26:34.576   11 Jun 2027 04:26:45.318            10.742              Murmansk1          1342.750
       264   11 Jun 2027 04:26:45.318   11 Jun 2027 04:27:08.850            23.532              Murmansk2           231.750
       265   11 Jun 2027 04:27:13.756   11 Jun 2027 04:27:44.419            30.663                 Moscow          2453.000
       266   11 Jun 2027 04:27:46.148   11 Jun 2027 04:28:17.215            31.067                 Moscow           864.500
       267   11 Jun 2027 05:59:47.430   11 Jun 2027 06:00:35.442            48.012                Irkutsk          5347.000
       268   11 Jun 2027 06:00:36.452   11 Jun 2027 06:00:43.217             6.765                Novosib           505.000
       269   11 Jun 2027 06:00:48.856   11 Jun 2027 06:01:16.006            27.150              Murmansk2          2819.500
       270   11 Jun 2027 06:01:16.478   11 Jun 2027 06:01:37.526            21.048              Murmansk2           236.000
       271   11 Jun 2027 06:01:46.224   11 Jun 2027 06:02:38.212            51.988                 Moscow          4349.000
       272   11 Jun 2027 06:02:43.815   11 Jun 2027 06:03:20.324            36.509                Norilsk          2801.500
       273   11 Jun 2027 06:03:26.880   11 Jun 2027 06:04:00.644            33.764                 Moscow          3278.000
       274   11 Jun 2027 07:33:20.163   11 Jun 2027 07:34:40.457            80.294                 Moscow          3006.500
       275   11 Jun 2027 07:34:49.346   11 Jun 2027 07:35:30.993            41.647                 Moscow          4444.500
       276   11 Jun 2027 07:35:32.595   11 Jun 2027 07:35:52.143            19.548              Murmansk1           801.000
       277   11 Jun 2027 07:36:12.534   11 Jun 2027 07:37:35.253            82.719              Murmansk2         10195.500
       278   11 Jun 2027 07:37:37.254   11 Jun 2027 07:38:00.537            23.283                 Moscow          1000.500
       279   11 Jun 2027 07:38:01.236   11 Jun 2027 07:38:03.321             2.085                Norilsk           260.625
       280   11 Jun 2027 07:38:03.368   11 Jun 2027 07:38:17.088            13.720                 Moscow           112.375
       281   11 Jun 2027 07:38:22.904   11 Jun 2027 07:39:29.156            66.252                 Moscow          2908.000
       282   11 Jun 2027 07:39:36.331   11 Jun 2027 07:40:29.878            53.547              Murmansk2          3587.500
       283   11 Jun 2027 07:40:32.978   11 Jun 2027 07:40:48.431            15.453              Murmansk2          1550.000
       284   12 Jun 2027 03:00:17.235   12 Jun 2027 03:01:57.458           100.223                Novosib          8617.500
       285   12 Jun 2027 03:02:06.901   12 Jun 2027 03:03:27.164            80.263                Norilsk          4721.500
       286   12 Jun 2027 03:03:34.794   12 Jun 2027 03:04:13.694            38.900              Murmansk2          3815.000
       287   12 Jun 2027 04:33:52.847   12 Jun 2027 04:34:02.782             9.935                  Delhi          1241.875
       288   12 Jun 2027 04:34:32.169   12 Jun 2027 04:37:58.045           205.876                Irkutsk         24769.125
       289   12 Jun 2027 04:38:00.534   12 Jun 2027 04:38:18.298            17.764                Norilsk          1244.500
       290   12 Jun 2027 04:38:24.269   12 Jun 2027 04:38:50.555            26.286                Novosib          2985.500
       291   12 Jun 2027 04:38:58.067   12 Jun 2027 04:39:53.155            55.088              Murmansk2          3756.000
       292   12 Jun 2027 04:40:15.716   12 Jun 2027 04:41:42.147            86.431                Norilsk         10439.000
       293   12 Jun 2027 06:11:42.326   12 Jun 2027 06:12:04.837            22.511              Murmansk1          1113.500
       294   12 Jun 2027 06:12:11.976   12 Jun 2027 06:12:55.774            43.798                 Moscow          3569.500
       295   12 Jun 2027 06:12:57.142   12 Jun 2027 06:13:19.679            22.537                Novosib           684.000
       296   12 Jun 2027 06:13:34.003   12 Jun 2027 06:14:32.965            58.962              Murmansk1          7162.000
       297   12 Jun 2027 06:14:34.236   12 Jun 2027 06:14:39.715             5.479                Norilsk           635.500
       298   12 Jun 2027 06:15:06.768   12 Jun 2027 06:17:18.446           131.678                 Moscow         13526.500
       299   12 Jun 2027 07:47:21.350   12 Jun 2027 07:48:23.930            62.580                 Moscow          1505.000
       300   12 Jun 2027 07:48:41.639   12 Jun 2027 07:49:57.808            76.169                 Moscow          8854.500
       301   12 Jun 2027 07:50:02.782   12 Jun 2027 07:50:26.150            23.368                Norilsk          2487.000
       302   12 Jun 2027 07:50:32.589   12 Jun 2027 07:51:10.963            38.374              Murmansk1          3219.500
       303   12 Jun 2027 07:51:27.105   12 Jun 2027 07:52:35.622            68.517              Murmansk2          8071.000
       304   13 Jun 2027 03:09:05.698   13 Jun 2027 03:09:55.419            49.721                Novosib          6215.125
       305   13 Jun 2027 03:09:59.912   13 Jun 2027 03:10:47.341            47.429               Magadan1          2406.875
       306   13 Jun 2027 03:10:50.330   13 Jun 2027 03:11:05.521            15.191                Novosib          1494.500
       307   13 Jun 2027 03:11:06.820   13 Jun 2027 03:11:32.281            25.461               Magadan1           649.500
       308   13 Jun 2027 03:11:36.512   13 Jun 2027 03:12:12.787            36.275               Magadan2          2115.500
       309   13 Jun 2027 03:12:24.478   13 Jun 2027 03:12:49.756            25.278               Magadan2          3159.750
       310   13 Jun 2027 03:12:49.756   13 Jun 2027 03:13:14.589            24.833               Magadan1          2685.750
       311   13 Jun 2027 03:13:27.366   13 Jun 2027 03:13:57.071            29.705               Magadan2          3713.125
       312   13 Jun 2027 03:14:00.799   13 Jun 2027 03:14:50.324            49.525                Novosib          4539.375
       313   13 Jun 2027 03:14:53.225   13 Jun 2027 03:15:43.794            50.569                Novosib          1450.500
       314   13 Jun 2027 03:15:48.402   13 Jun 2027 03:15:56.102             7.700                Norilsk           962.500
       315   13 Jun 2027 03:15:58.135   13 Jun 2027 03:16:22.903            24.768              Murmansk2          2358.000
       316   13 Jun 2027 04:46:53.121   13 Jun 2027 04:49:49.318           176.197                Norilsk         22024.625
       317   13 Jun 2027 04:49:54.892   13 Jun 2027 04:50:44.400            49.508              Murmansk2          5481.375
       318   13 Jun 2027 04:50:57.664   13 Jun 2027 04:52:05.375            67.711                Novosib          4024.500
       319   13 Jun 2027 06:22:56.282   13 Jun 2027 06:22:59.952             3.670                 Moscow           458.750
       320   13 Jun 2027 06:23:10.185   13 Jun 2027 06:24:10.015            59.830                Norilsk          7478.750
       321   13 Jun 2027 06:24:10.488   13 Jun 2027 06:24:21.393            10.905              Murmansk1           585.000
       322   13 Jun 2027 06:24:40.041   13 Jun 2027 06:26:02.374            82.333                Novosib          9324.000
       323   13 Jun 2027 06:26:07.139   13 Jun 2027 06:26:33.659            26.520              Murmansk2          2382.500
       324   13 Jun 2027 06:26:33.792   13 Jun 2027 06:26:40.458             6.666              Murmansk1            66.500
       325   13 Jun 2027 06:26:55.916   13 Jun 2027 06:28:07.699            71.783                 Moscow          7729.000
       326   13 Jun 2027 07:58:14.851   13 Jun 2027 07:59:16.654            61.803              Murmansk1          6859.500
       327   13 Jun 2027 07:59:42.867   13 Jun 2027 08:00:36.626            53.759              Murmansk1          3825.000
       328   13 Jun 2027 08:00:46.035   13 Jun 2027 08:01:36.635            50.600              Murmansk1          4704.500
       329   13 Jun 2027 08:01:46.225   13 Jun 2027 08:03:05.541            79.316              Murmansk1          4795.000
