uniorb/output/strategy_2/Drop/Drop_KinoSat_111508.txt

KinoSat_111508
-------------------------
    Access    *     Start Time (UTCG)     *     Stop Time (UTCG)  *   Duration (s)        *       Station  *  Data (Mbytes)
         1   01 Jun 2027 04:29:10.629   01 Jun 2027 04:30:44.770            94.141                Novosib          2941.906
         2   01 Jun 2027 04:33:10.756   01 Jun 2027 04:34:08.098            57.342              Murmansk1          1791.938
         3   01 Jun 2027 05:52:37.476   01 Jun 2027 05:54:00.169            82.693                Anadyr1          2584.156
         4   01 Jun 2027 05:54:05.711   01 Jun 2027 05:55:46.350           100.639               Magadan2          3144.969
         5   01 Jun 2027 07:30:53.077   01 Jun 2027 07:32:24.966            91.889                Anadyr1          2871.531
         6   01 Jun 2027 07:32:24.966   01 Jun 2027 07:33:59.792            94.826                Anadyr2          2963.313
         7   01 Jun 2027 07:40:44.966   01 Jun 2027 07:41:33.132            48.166                 Moscow          1505.187
         8   01 Jun 2027 09:03:23.555   01 Jun 2027 09:06:39.508           195.953               Magadan2          6123.531
         9   01 Jun 2027 09:06:50.610   01 Jun 2027 09:09:29.985           159.375               Magadan1          4980.469
        10   01 Jun 2027 10:40:15.979   01 Jun 2027 10:42:34.793           138.814               Magadan1          4337.937
        11   01 Jun 2027 10:43:20.527   01 Jun 2027 10:45:28.570           128.043                Irkutsk          4001.344
        12   01 Jun 2027 11:21:41.476   01 Jun 2027 11:22:13.760            32.284            RioGallegos          1008.875
        13   01 Jun 2027 11:24:26.939   01 Jun 2027 11:25:25.378            58.439            RioGallegos          1826.219
        14   01 Jun 2027 11:55:10.907   01 Jun 2027 11:55:27.782            16.875                Sumatra           527.344
        15   01 Jun 2027 11:57:20.820   01 Jun 2027 11:59:38.066           137.246                Sumatra          4288.937
        16   01 Jun 2027 12:09:58.721   01 Jun 2027 12:10:35.266            36.545                Irkutsk          1142.031
        17   01 Jun 2027 12:11:26.331   01 Jun 2027 12:11:52.355            26.024                Irkutsk           813.250
        18   01 Jun 2027 12:12:37.528   01 Jun 2027 12:13:53.505            75.977                Irkutsk          2374.281
        19   01 Jun 2027 13:39:48.093   01 Jun 2027 13:40:27.387            39.294                  Delhi          1227.938
        20   01 Jun 2027 13:41:51.090   01 Jun 2027 13:44:12.359           141.269                  Delhi          4414.656
        21   01 Jun 2027 13:47:58.622   01 Jun 2027 13:48:37.297            38.675                Novosib          1208.594
        22   01 Jun 2027 13:52:03.621   01 Jun 2027 13:53:07.402            63.781                Novosib          1993.156
        23   01 Jun 2027 13:54:44.708   01 Jun 2027 13:54:53.456             8.748                Novosib           273.375
        24   01 Jun 2027 13:55:46.413   01 Jun 2027 13:57:11.045            84.632                Novosib          2644.750
        25   01 Jun 2027 14:00:42.262   01 Jun 2027 14:01:44.282            62.020                Norilsk          1938.125
        26   01 Jun 2027 15:24:42.061   01 Jun 2027 15:25:06.568            24.507                 Moscow           765.844
        27   01 Jun 2027 15:25:46.272   01 Jun 2027 15:26:28.526            42.254                 Moscow          1320.438
        28   01 Jun 2027 15:28:31.380   01 Jun 2027 15:28:43.022            11.642              Murmansk2           363.812
        29   01 Jun 2027 15:29:38.452   01 Jun 2027 15:30:17.779            39.327              Murmansk1          1228.969
        30   01 Jun 2027 15:32:30.815   01 Jun 2027 15:32:56.776            25.961              Murmansk1           811.281
        31   01 Jun 2027 15:34:25.778   01 Jun 2027 15:37:09.010           163.232                Norilsk          5101.000
        32   01 Jun 2027 16:43:08.346   01 Jun 2027 16:43:39.467            31.121               CapeTown           972.531
        33   01 Jun 2027 16:47:33.992   01 Jun 2027 16:48:36.191            62.199               CapeTown          1943.719
        34   01 Jun 2027 17:02:13.476   01 Jun 2027 17:02:21.520             8.044                 Moscow           251.375
        35   01 Jun 2027 17:02:57.876   01 Jun 2027 17:03:36.884            39.008                 Moscow          1219.000
        36   01 Jun 2027 17:06:24.997   01 Jun 2027 17:07:07.729            42.732              Murmansk1          1335.375
        37   01 Jun 2027 17:08:29.646   01 Jun 2027 17:10:05.042            95.396              Murmansk1          2981.125
        38   01 Jun 2027 17:20:15.761   01 Jun 2027 17:20:30.895            15.134                Anadyr1           472.937
        39   01 Jun 2027 17:20:56.743   01 Jun 2027 17:21:36.271            39.528                Anadyr1          1235.250
        40   01 Jun 2027 17:23:33.807   01 Jun 2027 17:23:38.993             5.186                Anadyr2           162.063
        41   01 Jun 2027 17:24:07.730   01 Jun 2027 17:24:54.339            46.609                Anadyr1          1456.531
        42   01 Jun 2027 18:20:26.798   01 Jun 2027 18:21:02.204            35.406               CapeTown          1106.437
        43   01 Jun 2027 18:22:43.099   01 Jun 2027 18:23:07.696            24.597               CapeTown           768.656
        44   01 Jun 2027 18:44:43.747   01 Jun 2027 18:49:30.926           287.179              Murmansk1          8974.344
        45   01 Jun 2027 18:49:37.361   01 Jun 2027 18:49:46.273             8.912              Murmansk2           278.500
        46   01 Jun 2027 19:02:50.992   01 Jun 2027 19:02:55.288             4.296               Magadan2           134.250
        47   01 Jun 2027 19:02:55.288   01 Jun 2027 19:03:03.309             8.021               Magadan1           250.656
        48   01 Jun 2027 19:03:40.161   01 Jun 2027 19:04:13.518            33.357               Magadan1          1042.406
        49   01 Jun 2027 20:29:37.436   01 Jun 2027 20:32:56.089           198.653                Anadyr2          6207.906
        50   01 Jun 2027 20:32:56.089   01 Jun 2027 20:33:01.142             5.053                Anadyr1           157.906
        51   01 Jun 2027 20:33:06.923   01 Jun 2027 20:34:39.294            92.371               Magadan2          2886.594
        52   01 Jun 2027 20:35:53.056   01 Jun 2027 20:36:01.633             8.577               Magadan1           268.031
        53   01 Jun 2027 20:36:07.036   01 Jun 2027 20:36:34.637            27.601               Magadan1           862.531
        54   01 Jun 2027 20:36:44.327   01 Jun 2027 20:37:13.645            29.318               Magadan2           916.188
        55   01 Jun 2027 20:40:05.207   01 Jun 2027 20:40:07.750             2.543               Magadan1            79.469
        56   01 Jun 2027 20:40:10.816   01 Jun 2027 20:40:11.653             0.837               Magadan1            26.156
        57   01 Jun 2027 20:40:32.897   01 Jun 2027 20:41:15.752            42.855               Magadan1          1339.219
        58   01 Jun 2027 21:25:17.289   01 Jun 2027 21:26:31.820            74.531            RioGallegos          2329.094
        59   01 Jun 2027 21:27:15.299   01 Jun 2027 21:27:39.824            24.525            RioGallegos           766.406
        60   01 Jun 2027 21:30:25.254   01 Jun 2027 21:30:43.797            18.543            RioGallegos           579.469
        61   01 Jun 2027 21:30:57.924   01 Jun 2027 21:31:19.450            21.526            RioGallegos           672.687
        62   01 Jun 2027 22:05:25.157   01 Jun 2027 22:06:36.533            71.376                Anadyr2          2230.500
        63   01 Jun 2027 22:06:48.389   01 Jun 2027 22:06:56.563             8.174                Anadyr1           255.438
        64   01 Jun 2027 22:07:22.722   01 Jun 2027 22:07:36.715            13.993                Anadyr2           437.281
        65   01 Jun 2027 22:07:49.545   01 Jun 2027 22:08:03.639            14.094                Norilsk           440.437
        66   01 Jun 2027 22:08:26.981   01 Jun 2027 22:09:04.918            37.937                Norilsk          1185.531
        67   01 Jun 2027 22:10:22.588   01 Jun 2027 22:10:27.802             5.214               Magadan2           162.938
        68   01 Jun 2027 22:10:37.313   01 Jun 2027 22:10:43.174             5.861               Magadan1           183.156
        69   01 Jun 2027 22:10:52.629   01 Jun 2027 22:11:11.884            19.255                Norilsk           601.719
        70   01 Jun 2027 22:13:25.261   01 Jun 2027 22:13:53.767            28.506               Magadan1           890.812
        71   01 Jun 2027 22:15:55.804   01 Jun 2027 22:15:58.531             2.727               Magadan2            85.219
        72   01 Jun 2027 22:16:00.535   01 Jun 2027 22:16:05.009             4.474               Magadan2           139.813
        73   01 Jun 2027 22:16:11.948   01 Jun 2027 22:16:47.897            35.949               Magadan2          1123.406
        74   01 Jun 2027 22:18:03.779   01 Jun 2027 22:18:41.302            37.523                Irkutsk          1172.594
        75   01 Jun 2027 22:21:29.473   01 Jun 2027 22:21:39.859            10.386                Irkutsk           324.562
        76   01 Jun 2027 22:29:57.540   01 Jun 2027 22:30:23.417            25.877                Sumatra           808.656
        77   01 Jun 2027 22:31:06.775   01 Jun 2027 22:31:30.997            24.222                Sumatra           756.938
        78   01 Jun 2027 22:33:19.385   01 Jun 2027 22:33:58.350            38.965                Sumatra          1217.656
        79   01 Jun 2027 22:35:55.505   01 Jun 2027 22:35:58.480             2.975                Sumatra            92.969
        80   01 Jun 2027 23:10:17.998   01 Jun 2027 23:10:42.496            24.498            RioGallegos           765.563
        81   01 Jun 2027 23:40:37.049   01 Jun 2027 23:40:53.244            16.195                Anadyr2           506.094
        82   01 Jun 2027 23:41:09.754   01 Jun 2027 23:42:51.727           101.973                Anadyr1          3186.656
        83   01 Jun 2027 23:43:06.845   01 Jun 2027 23:43:10.950             4.105                Anadyr1           128.281
        84   01 Jun 2027 23:43:21.297   01 Jun 2027 23:43:49.701            28.404                Norilsk           887.625
        85   01 Jun 2027 23:43:59.148   01 Jun 2027 23:45:08.999            69.851               Magadan1          2182.844
        86   01 Jun 2027 23:45:32.016   01 Jun 2027 23:45:49.422            17.406               Magadan1           543.938
        87   01 Jun 2027 23:46:48.761   01 Jun 2027 23:47:04.901            16.140               Magadan1           504.375
        88   01 Jun 2027 23:47:48.106   01 Jun 2027 23:48:22.577            34.471                Novosib          1077.219
        89   01 Jun 2027 23:49:54.907   01 Jun 2027 23:50:06.044            11.137                Novosib           348.031
        90   01 Jun 2027 23:50:18.676   01 Jun 2027 23:51:00.807            42.131                Novosib          1316.594
        91   01 Jun 2027 23:53:45.642   01 Jun 2027 23:53:58.651            13.009                Novosib           406.531
        92   01 Jun 2027 23:55:21.591   01 Jun 2027 23:56:00.131            38.540                Novosib          1204.375
        93   01 Jun 2027 23:57:40.735   01 Jun 2027 23:58:23.146            42.411                Novosib          1325.344
        94   02 Jun 2027 00:04:18.814   02 Jun 2027 00:04:28.256             9.442                  Delhi           295.063
        95   02 Jun 2027 00:11:37.031   02 Jun 2027 00:11:57.037            20.006                Sumatra           625.188
        96   02 Jun 2027 00:40:36.577   02 Jun 2027 00:40:56.640            20.063            RioGallegos           626.969
        97   02 Jun 2027 00:42:15.620   02 Jun 2027 00:42:33.070            17.450            RioGallegos           545.313
        98   02 Jun 2027 00:44:46.329   02 Jun 2027 00:45:03.391            17.062            RioGallegos           533.188
        99   02 Jun 2027 00:46:24.247   02 Jun 2027 00:46:29.873             5.626            RioGallegos           175.812
       100   02 Jun 2027 01:14:37.677   02 Jun 2027 01:15:21.861            44.184                Anadyr1          1380.750
       101   02 Jun 2027 01:15:33.168   02 Jun 2027 01:16:12.216            39.048                Anadyr1          1220.250
       102   02 Jun 2027 01:16:43.513   02 Jun 2027 01:16:52.407             8.894                Anadyr1           277.938
       103   02 Jun 2027 01:16:58.867   02 Jun 2027 01:17:15.400            16.533                Anadyr1           516.656
       104   02 Jun 2027 01:19:22.009   02 Jun 2027 01:21:24.353           122.344                Norilsk          3823.250
       105   02 Jun 2027 01:21:26.835   02 Jun 2027 01:22:38.975            72.140               Magadan1          2254.375
       106   02 Jun 2027 01:23:14.694   02 Jun 2027 01:23:28.934            14.240              Murmansk2           445.000
       107   02 Jun 2027 01:26:31.514   02 Jun 2027 01:27:11.868            40.354                Irkutsk          1261.062
       108   02 Jun 2027 01:30:32.294   02 Jun 2027 01:30:38.292             5.998                Novosib           187.438
       109   02 Jun 2027 01:30:51.150   02 Jun 2027 01:33:00.756           129.606                  Delhi          4050.188
       110   02 Jun 2027 02:12:38.840   02 Jun 2027 02:13:33.466            54.626            RioGallegos          1707.062
       111   02 Jun 2027 02:13:50.925   02 Jun 2027 02:14:26.651            35.726            RioGallegos          1116.438
       112   02 Jun 2027 02:16:53.172   02 Jun 2027 02:17:20.439            27.267            RioGallegos           852.094
       113   02 Jun 2027 02:47:54.403   02 Jun 2027 02:47:55.049             0.646                Anadyr1            20.187
       114   02 Jun 2027 02:48:18.799   02 Jun 2027 02:48:37.881            19.082                Anadyr2           596.313
       115   02 Jun 2027 02:51:16.807   02 Jun 2027 02:51:17.709             0.902                Anadyr2            28.187
       116   02 Jun 2027 02:53:52.528   02 Jun 2027 02:54:39.274            46.746               Magadan2          1460.812
       117   02 Jun 2027 02:55:16.574   02 Jun 2027 02:56:05.115            48.541                Norilsk          1516.906
       118   02 Jun 2027 02:56:56.666   02 Jun 2027 02:57:23.757            27.091                Norilsk           846.594
       119   02 Jun 2027 02:57:30.927   02 Jun 2027 02:58:41.299            70.372              Murmansk1          2199.125
       120   02 Jun 2027 03:01:06.103   02 Jun 2027 03:01:19.333            13.230                Irkutsk           413.437
       121   02 Jun 2027 03:02:27.725   02 Jun 2027 03:02:28.932             1.207                 Moscow            37.719
       122   02 Jun 2027 03:02:54.910   02 Jun 2027 03:03:03.026             8.116                Irkutsk           253.625
       123   02 Jun 2027 03:03:04.934   02 Jun 2027 03:03:43.813            38.879              Murmansk1          1214.969
       124   02 Jun 2027 03:03:45.618   02 Jun 2027 03:04:11.552            25.934                 Moscow           810.437
       125   02 Jun 2027 03:04:12.926   02 Jun 2027 03:04:49.105            36.179                Novosib          1130.594
       126   02 Jun 2027 03:04:51.186   02 Jun 2027 03:04:57.707             6.521                Norilsk           203.781
       127   02 Jun 2027 03:05:00.826   02 Jun 2027 03:05:28.201            27.375              Murmansk1           855.469
       128   02 Jun 2027 03:05:46.391   02 Jun 2027 03:05:55.703             9.312                Norilsk           291.000
       129   02 Jun 2027 03:05:55.777   02 Jun 2027 03:06:23.726            27.949                Novosib           873.406
       130   02 Jun 2027 03:06:49.360   02 Jun 2027 03:07:15.789            26.429                 Moscow           825.906
       131   02 Jun 2027 03:07:18.081   02 Jun 2027 03:07:27.080             8.999              Murmansk1           281.219
       132   02 Jun 2027 03:08:11.003   02 Jun 2027 03:08:14.529             3.526              Murmansk1           110.187
       133   02 Jun 2027 03:08:18.606   02 Jun 2027 03:08:20.545             1.939                 Moscow            60.594
       134   02 Jun 2027 03:08:28.812   02 Jun 2027 03:08:34.801             5.989              Murmansk2           187.156
       135   02 Jun 2027 03:08:47.694   02 Jun 2027 03:08:56.906             9.212                Novosib           287.875
       136   02 Jun 2027 03:08:58.727   02 Jun 2027 03:10:53.023           114.296                  Delhi          3571.750
       137   02 Jun 2027 04:21:50.585   02 Jun 2027 04:23:03.983            73.398                Anadyr1          2293.688
       138   02 Jun 2027 04:26:53.951   02 Jun 2027 04:27:14.575            20.624               Magadan2           644.500
       139   02 Jun 2027 04:41:08.690   02 Jun 2027 04:41:17.051             8.361                Novosib           261.281
       140   02 Jun 2027 04:41:17.702   02 Jun 2027 04:41:41.929            24.227                 Moscow           757.094
       141   02 Jun 2027 04:42:09.881   02 Jun 2027 04:43:08.684            58.803              Murmansk1          1837.594
       142   02 Jun 2027 04:43:08.684   02 Jun 2027 04:44:20.822            72.138              Murmansk2          2254.313
       143   02 Jun 2027 04:44:41.888   02 Jun 2027 04:44:46.546             4.658              Murmansk2           145.563
       144   02 Jun 2027 04:45:06.746   02 Jun 2027 04:45:45.269            38.523              Murmansk2          1203.844
       145   02 Jun 2027 05:01:22.661   02 Jun 2027 05:02:11.017            48.356               CapeTown          1511.125
       146   02 Jun 2027 06:03:43.818   02 Jun 2027 06:05:19.547            95.729                Anadyr1          2991.531
       147   02 Jun 2027 06:05:26.619   02 Jun 2027 06:05:47.290            20.671               Magadan2           645.969
       148   02 Jun 2027 06:05:47.290   02 Jun 2027 06:06:32.467            45.177               Magadan1          1411.781
       149   02 Jun 2027 07:42:20.066   02 Jun 2027 07:42:54.733            34.667                Anadyr2          1083.344
       150   02 Jun 2027 07:42:54.733   02 Jun 2027 07:44:26.299            91.566                Anadyr1          2861.438
       151   02 Jun 2027 07:44:56.366   02 Jun 2027 07:45:27.004            30.638               Magadan1           957.438
       152   02 Jun 2027 09:15:19.898   02 Jun 2027 09:18:36.183           196.285               Magadan2          6133.906
       153   02 Jun 2027 09:18:36.183   02 Jun 2027 09:21:06.528           150.345               Magadan1          4698.281
       154   02 Jun 2027 09:21:29.889   02 Jun 2027 09:22:17.491            47.602                Novosib          1487.563
       155   02 Jun 2027 09:24:24.195   02 Jun 2027 09:24:37.520            13.325              Murmansk1           416.406
       156   02 Jun 2027 09:56:22.217   02 Jun 2027 09:57:24.612            62.395            RioGallegos          1949.844
       157   02 Jun 2027 09:58:03.067   02 Jun 2027 09:58:19.939            16.872            RioGallegos           527.250
       158   02 Jun 2027 10:32:34.204   02 Jun 2027 10:32:53.162            18.958                Sumatra           592.438
       159   02 Jun 2027 10:37:15.901   02 Jun 2027 10:37:17.939             2.038                Sumatra            63.688
       160   02 Jun 2027 10:39:09.459   02 Jun 2027 10:39:39.527            30.068                Sumatra           939.625
       161   02 Jun 2027 10:50:50.363   02 Jun 2027 10:51:17.506            27.143                Norilsk           848.219
       162   02 Jun 2027 10:51:32.767   02 Jun 2027 10:52:50.852            78.085                Norilsk          2440.156
       163   02 Jun 2027 10:53:03.193   02 Jun 2027 10:53:34.375            31.182                Novosib           974.437
       164   02 Jun 2027 10:53:48.158   02 Jun 2027 10:54:16.332            28.174                Irkutsk           880.437
       165   02 Jun 2027 10:54:38.824   02 Jun 2027 10:55:13.552            34.728              Murmansk1          1085.250
       166   02 Jun 2027 10:55:16.373   02 Jun 2027 10:55:27.559            11.186                Norilsk           349.562
       167   02 Jun 2027 10:55:30.458   02 Jun 2027 10:55:46.897            16.439                Norilsk           513.719
       168   02 Jun 2027 10:55:54.527   02 Jun 2027 10:56:45.580            51.053              Murmansk1          1595.406
       169   02 Jun 2027 10:56:50.956   02 Jun 2027 10:57:05.406            14.450                Norilsk           451.563
       170   02 Jun 2027 10:57:11.056   02 Jun 2027 10:57:56.754            45.698                Norilsk          1428.063
       171   02 Jun 2027 11:33:08.216   02 Jun 2027 11:33:16.159             7.943            RioGallegos           248.219
       172   02 Jun 2027 11:33:44.164   02 Jun 2027 11:34:19.762            35.598            RioGallegos          1112.437
       173   02 Jun 2027 11:36:19.398   02 Jun 2027 11:37:30.839            71.441            RioGallegos          2232.531
       174   02 Jun 2027 12:07:25.791   02 Jun 2027 12:07:53.864            28.073                Sumatra           877.281
       175   02 Jun 2027 12:15:53.768   02 Jun 2027 12:16:26.809            33.041                  Delhi          1032.531
       176   02 Jun 2027 12:22:10.715   02 Jun 2027 12:23:47.585            96.870                Novosib          3027.188
       177   02 Jun 2027 12:24:10.673   02 Jun 2027 12:25:09.496            58.823                Novosib          1838.219
       178   02 Jun 2027 12:26:01.298   02 Jun 2027 12:26:46.528            45.230                Norilsk          1413.438
       179   02 Jun 2027 12:34:29.562   02 Jun 2027 12:34:36.783             7.221              Murmansk1           225.656
       180   02 Jun 2027 13:52:14.480   02 Jun 2027 13:54:30.288           135.808                  Delhi          4244.000
       181   02 Jun 2027 13:57:14.524   02 Jun 2027 13:57:39.442            24.918                  Delhi           778.688
       182   02 Jun 2027 14:00:30.951   02 Jun 2027 14:01:26.243            55.292                 Moscow          1727.875
       183   02 Jun 2027 14:01:27.920   02 Jun 2027 14:03:16.837           108.917                Novosib          3403.656
       184   02 Jun 2027 14:03:21.682   02 Jun 2027 14:03:37.722            16.040              Murmansk2           501.250
       185   02 Jun 2027 14:04:19.987   02 Jun 2027 14:05:33.750            73.763                Norilsk          2305.094
       186   02 Jun 2027 14:06:15.063   02 Jun 2027 14:06:57.947            42.884                Norilsk          1340.125
       187   02 Jun 2027 14:08:34.363   02 Jun 2027 14:08:51.605            17.242                Norilsk           538.812
       188   02 Jun 2027 15:35:46.740   02 Jun 2027 15:37:49.178           122.438                 Moscow          3826.188
       189   02 Jun 2027 15:39:18.240   02 Jun 2027 15:41:10.993           112.753              Murmansk2          3523.531
       190   02 Jun 2027 15:43:18.890   02 Jun 2027 15:43:30.398            11.508              Murmansk2           359.625
       191   02 Jun 2027 15:44:12.221   02 Jun 2027 15:44:32.573            20.352              Murmansk1           636.000
       192   02 Jun 2027 15:45:29.114   02 Jun 2027 15:48:21.217           172.103                Norilsk          5378.219
       193   02 Jun 2027 15:49:20.205   02 Jun 2027 15:49:35.913            15.708                Norilsk           490.875
       194   02 Jun 2027 16:49:27.361   02 Jun 2027 16:49:50.969            23.608               CapeTown           737.750
       195   02 Jun 2027 16:51:46.476   02 Jun 2027 16:51:56.893            10.417               CapeTown           325.531
       196   02 Jun 2027 16:56:37.364   02 Jun 2027 16:56:42.585             5.221               CapeTown           163.156
       197   02 Jun 2027 16:58:47.492   02 Jun 2027 16:58:55.711             8.219               CapeTown           256.844
       198   02 Jun 2027 16:59:58.891   02 Jun 2027 17:00:30.235            31.344               CapeTown           979.500
       199   02 Jun 2027 17:14:38.595   02 Jun 2027 17:15:00.252            21.657                 Moscow           676.781
       200   02 Jun 2027 17:16:44.617   02 Jun 2027 17:18:54.435           129.818                 Moscow          4056.812
       201   02 Jun 2027 17:25:47.503   02 Jun 2027 17:26:18.568            31.065              Murmansk1           970.781
       202   02 Jun 2027 17:29:56.754   02 Jun 2027 17:30:13.166            16.412                Anadyr2           512.875
       203   02 Jun 2027 17:31:03.526   02 Jun 2027 17:32:16.414            72.888                Anadyr1          2277.750
       204   02 Jun 2027 17:36:51.662   02 Jun 2027 17:37:18.409            26.747                Anadyr1           835.844
       205   02 Jun 2027 18:25:36.555   02 Jun 2027 18:26:30.883            54.328               CapeTown          1697.750
       206   02 Jun 2027 18:29:50.118   02 Jun 2027 18:30:08.890            18.772               CapeTown           586.625
       207   02 Jun 2027 18:57:33.211   02 Jun 2027 19:02:12.713           279.502              Murmansk1          8734.437
       208   02 Jun 2027 19:08:30.141   02 Jun 2027 19:08:42.460            12.319               Magadan2           384.969
       209   02 Jun 2027 19:08:42.460   02 Jun 2027 19:09:38.624            56.164               Magadan1          1755.125
       210   02 Jun 2027 19:12:02.305   02 Jun 2027 19:12:28.078            25.773               Magadan2           805.406
       211   02 Jun 2027 19:14:37.369   02 Jun 2027 19:14:57.966            20.597               Magadan2           643.656
       212   02 Jun 2027 20:41:38.855   02 Jun 2027 20:45:13.745           214.890                Anadyr1          6715.313
       213   02 Jun 2027 20:45:13.745   02 Jun 2027 20:45:39.513            25.768                Anadyr2           805.250
       214   02 Jun 2027 20:45:39.877   02 Jun 2027 20:47:43.415           123.538               Magadan2          3860.562
       215   02 Jun 2027 20:47:43.415   02 Jun 2027 20:48:26.290            42.875               Magadan1          1339.844
       216   02 Jun 2027 20:49:13.717   02 Jun 2027 20:49:38.866            25.149               Magadan1           785.906
       217   02 Jun 2027 21:36:48.331   02 Jun 2027 21:39:50.380           182.049            RioGallegos          5689.031
       218   02 Jun 2027 21:42:18.482   02 Jun 2027 21:43:11.432            52.950            RioGallegos          1654.688
       219   02 Jun 2027 22:17:23.923   02 Jun 2027 22:17:40.730            16.807                Anadyr1           525.219
       220   02 Jun 2027 22:18:57.855   02 Jun 2027 22:19:13.088            15.233                Anadyr1           476.031
       221   02 Jun 2027 22:19:26.904   02 Jun 2027 22:19:37.313            10.409                Anadyr1           325.281
       222   02 Jun 2027 22:19:42.797   02 Jun 2027 22:21:06.670            83.873                Norilsk          2621.031
       223   02 Jun 2027 22:21:26.612   02 Jun 2027 22:21:44.987            18.375               Magadan2           574.219
       224   02 Jun 2027 22:21:50.606   02 Jun 2027 22:22:10.779            20.173               Magadan1           630.406
       225   02 Jun 2027 22:22:39.331   02 Jun 2027 22:23:12.270            32.939                Norilsk          1029.344
       226   02 Jun 2027 22:23:50.685   02 Jun 2027 22:23:56.522             5.837               Magadan1           182.406
       227   02 Jun 2027 22:24:02.994   02 Jun 2027 22:25:03.964            60.970                Irkutsk          1905.313
       228   02 Jun 2027 22:26:21.794   02 Jun 2027 22:26:37.640            15.846                Irkutsk           495.188
       229   02 Jun 2027 22:27:33.465   02 Jun 2027 22:27:47.032            13.567                Irkutsk           423.969
       230   02 Jun 2027 22:38:17.633   02 Jun 2027 22:41:10.212           172.579                Sumatra          5393.094
       231   02 Jun 2027 23:52:28.474   02 Jun 2027 23:54:50.926           142.452                Anadyr1          4451.625
       232   02 Jun 2027 23:56:02.081   02 Jun 2027 23:57:43.384           101.303               Magadan1          3165.719
       233   02 Jun 2027 23:59:15.863   03 Jun 2027 00:01:29.687           133.824                Irkutsk          4182.000
       234   03 Jun 2027 00:08:18.619   03 Jun 2027 00:09:00.545            41.926                  Delhi          1310.187
       235   03 Jun 2027 00:10:22.366   03 Jun 2027 00:10:58.889            36.523                  Delhi          1141.344
       236   03 Jun 2027 00:12:33.070   03 Jun 2027 00:12:46.280            13.210                  Delhi           412.812
       237   03 Jun 2027 00:15:09.242   03 Jun 2027 00:15:33.193            23.951                  Delhi           748.469
       238   03 Jun 2027 00:24:45.514   03 Jun 2027 00:24:56.876            11.362                Sumatra           355.063
       239   03 Jun 2027 00:48:50.803   03 Jun 2027 00:49:07.520            16.717            RioGallegos           522.406
       240   03 Jun 2027 00:51:29.379   03 Jun 2027 00:52:33.446            64.067            RioGallegos          2002.094
       241   03 Jun 2027 01:26:19.939   03 Jun 2027 01:26:29.583             9.644                Anadyr1           301.375
       242   03 Jun 2027 01:26:48.572   03 Jun 2027 01:27:23.160            34.588                Anadyr1          1080.875
       243   03 Jun 2027 01:28:20.603   03 Jun 2027 01:29:11.702            51.099                Anadyr2          1596.844
       244   03 Jun 2027 01:31:24.018   03 Jun 2027 01:33:26.713           122.695                Norilsk          3834.219
       245   03 Jun 2027 01:33:58.930   03 Jun 2027 01:35:23.032            84.102              Murmansk1          2628.187
       246   03 Jun 2027 01:35:24.286   03 Jun 2027 01:35:59.839            35.553                Novosib          1111.031
       247   03 Jun 2027 01:37:00.803   03 Jun 2027 01:38:24.489            83.686              Murmansk2          2615.188
       248   03 Jun 2027 01:50:59.693   03 Jun 2027 01:51:33.867            34.174                  Delhi          1067.937
       249   03 Jun 2027 02:25:06.893   03 Jun 2027 02:28:12.906           186.013            RioGallegos          5812.906
       250   03 Jun 2027 02:59:43.681   03 Jun 2027 02:59:44.939             1.258                Anadyr2            39.312
       251   03 Jun 2027 03:00:39.283   03 Jun 2027 03:00:42.089             2.806                Anadyr1            87.687
       252   03 Jun 2027 03:16:38.670   03 Jun 2027 03:17:46.525            67.855                 Moscow          2120.469
       253   03 Jun 2027 03:18:12.388   03 Jun 2027 03:19:01.386            48.998                 Moscow          1531.187
       254   03 Jun 2027 03:19:07.351   03 Jun 2027 03:19:53.144            45.793              Murmansk1          1431.031
       255   03 Jun 2027 03:19:53.144   03 Jun 2027 03:20:31.966            38.822              Murmansk2          1213.188
       256   03 Jun 2027 03:20:31.966   03 Jun 2027 03:20:51.136            19.170              Murmansk1           599.063
       257   03 Jun 2027 03:21:02.040   03 Jun 2027 03:21:32.907            30.867                 Moscow           964.594
       258   03 Jun 2027 03:38:16.691   03 Jun 2027 03:40:59.847           163.156               CapeTown          5098.625
       259   03 Jun 2027 03:44:07.942   03 Jun 2027 03:44:09.514             1.572               CapeTown            49.125
       260   03 Jun 2027 04:33:43.065   03 Jun 2027 04:35:38.348           115.283                Anadyr1          3602.594
       261   03 Jun 2027 04:54:24.086   03 Jun 2027 04:54:53.465            29.379              Murmansk2           918.094
       262   03 Jun 2027 04:54:53.465   03 Jun 2027 04:55:09.294            15.829              Murmansk1           494.656
       263   03 Jun 2027 04:55:10.910   03 Jun 2027 04:55:39.037            28.127              Murmansk1           878.969
       264   03 Jun 2027 04:56:20.580   03 Jun 2027 04:56:41.581            21.001                 Moscow           656.281
       265   03 Jun 2027 04:58:16.786   03 Jun 2027 04:58:18.698             1.912                 Moscow            59.750
       266   03 Jun 2027 04:58:45.755   03 Jun 2027 04:59:23.096            37.341                 Moscow          1166.906
       267   03 Jun 2027 05:12:44.230   03 Jun 2027 05:14:50.684           126.454               CapeTown          3951.688
       268   03 Jun 2027 06:15:30.476   03 Jun 2027 06:16:23.240            52.764                Anadyr1          1648.875
       269   03 Jun 2027 06:16:23.240   03 Jun 2027 06:17:38.180            74.940                Anadyr2          2341.875
       270   03 Jun 2027 06:17:53.117   03 Jun 2027 06:18:04.470            11.353               Magadan1           354.781
       271   03 Jun 2027 06:18:30.986   03 Jun 2027 06:19:06.155            35.169                Anadyr1          1099.031
       272   03 Jun 2027 06:20:59.713   03 Jun 2027 06:21:31.469            31.756                Anadyr2           992.375
       273   03 Jun 2027 06:24:59.148   03 Jun 2027 06:25:20.994            21.846                 Moscow           682.688
       274   03 Jun 2027 06:32:59.600   03 Jun 2027 06:33:16.522            16.922                 Moscow           528.813
       275   03 Jun 2027 07:51:54.953   03 Jun 2027 07:52:37.137            42.184                Anadyr1          1318.250
       276   03 Jun 2027 07:52:37.953   03 Jun 2027 07:52:49.290            11.337                Anadyr1           354.281
       277   03 Jun 2027 07:52:55.595   03 Jun 2027 07:53:11.830            16.235               Magadan2           507.344
       278   03 Jun 2027 07:53:11.830   03 Jun 2027 07:53:14.339             2.509               Magadan1            78.406
       279   03 Jun 2027 07:53:19.771   03 Jun 2027 07:54:08.343            48.572               Magadan1          1517.875
       280   03 Jun 2027 07:54:19.352   03 Jun 2027 07:54:58.384            39.032                Anadyr1          1219.750
       281   03 Jun 2027 07:54:58.384   03 Jun 2027 07:55:16.343            17.959                Anadyr2           561.219
       282   03 Jun 2027 07:56:27.386   03 Jun 2027 07:57:36.590            69.204                Anadyr2          2162.625
       283   03 Jun 2027 08:41:09.601   03 Jun 2027 08:41:22.045            12.444            RioGallegos           388.875
       284   03 Jun 2027 09:27:05.248   03 Jun 2027 09:27:59.141            53.893                Novosib          1684.156
       285   03 Jun 2027 09:28:05.128   03 Jun 2027 09:28:14.417             9.289               Magadan1           290.281
       286   03 Jun 2027 09:29:03.446   03 Jun 2027 09:32:03.582           180.136               Magadan2          5629.250
       287   03 Jun 2027 09:32:23.810   03 Jun 2027 09:33:05.826            42.016              Murmansk1          1313.000
       288   03 Jun 2027 09:33:14.941   03 Jun 2027 09:33:33.352            18.411              Murmansk1           575.344
       289   03 Jun 2027 09:34:34.267   03 Jun 2027 09:35:00.360            26.093              Murmansk2           815.406
       290   03 Jun 2027 09:36:26.356   03 Jun 2027 09:36:33.957             7.601              Murmansk2           237.531
       291   03 Jun 2027 10:08:17.907   03 Jun 2027 10:09:23.811            65.904            RioGallegos          2059.500
       292   03 Jun 2027 10:44:03.569   03 Jun 2027 10:45:03.501            59.932                Sumatra          1872.875
       293   03 Jun 2027 11:03:40.781   03 Jun 2027 11:05:05.668            84.887                Irkutsk          2652.719
       294   03 Jun 2027 11:05:15.077   03 Jun 2027 11:05:44.843            29.766                Novosib           930.187
       295   03 Jun 2027 11:05:50.680   03 Jun 2027 11:06:21.702            31.022                Irkutsk           969.437
       296   03 Jun 2027 11:06:26.407   03 Jun 2027 11:07:02.123            35.716              Murmansk1          1116.125
       297   03 Jun 2027 11:07:13.281   03 Jun 2027 11:08:30.251            76.970                Irkutsk          2405.313
       298   03 Jun 2027 11:08:41.786   03 Jun 2027 11:08:52.310            10.524                Norilsk           328.875
       299   03 Jun 2027 11:08:55.560   03 Jun 2027 11:09:02.416             6.856                Novosib           214.250
       300   03 Jun 2027 11:09:04.746   03 Jun 2027 11:09:18.144            13.398                Norilsk           418.687
       301   03 Jun 2027 11:09:27.070   03 Jun 2027 11:09:34.385             7.315                Novosib           228.594
       302   03 Jun 2027 11:09:41.383   03 Jun 2027 11:09:49.072             7.689              Murmansk2           240.281
       303   03 Jun 2027 11:09:58.583   03 Jun 2027 11:10:12.882            14.299              Murmansk1           446.844
       304   03 Jun 2027 11:45:34.618   03 Jun 2027 11:46:15.524            40.906            RioGallegos          1278.313
       305   03 Jun 2027 11:47:28.136   03 Jun 2027 11:48:15.103            46.967            RioGallegos          1467.719
       306   03 Jun 2027 12:19:48.103   03 Jun 2027 12:21:10.782            82.679                Sumatra          2583.719
       307   03 Jun 2027 12:34:17.899   03 Jun 2027 12:35:07.108            49.209                Novosib          1537.781
       308   03 Jun 2027 12:35:08.690   03 Jun 2027 12:35:24.643            15.953                Irkutsk           498.531
       309   03 Jun 2027 12:35:48.483   03 Jun 2027 12:37:15.953            87.470                Novosib          2733.437
       310   03 Jun 2027 12:39:09.906   03 Jun 2027 12:39:45.386            35.480                Norilsk          1108.750
       311   03 Jun 2027 12:39:56.699   03 Jun 2027 12:40:48.479            51.780                Irkutsk          1618.125
       312   03 Jun 2027 14:04:50.229   03 Jun 2027 14:07:36.174           165.945                  Delhi          5185.781
       313   03 Jun 2027 14:08:30.359   03 Jun 2027 14:09:52.828            82.469                  Delhi          2577.156
       314   03 Jun 2027 14:14:14.740   03 Jun 2027 14:15:13.146            58.406                Novosib          1825.188
       315   03 Jun 2027 14:15:18.311   03 Jun 2027 14:15:42.703            24.392              Murmansk1           762.250
       316   03 Jun 2027 14:16:49.323   03 Jun 2027 14:18:07.534            78.211                Norilsk          2444.094
       317   03 Jun 2027 14:18:52.084   03 Jun 2027 14:18:59.978             7.894                Norilsk           246.688
       318   03 Jun 2027 14:20:04.477   03 Jun 2027 14:20:33.693            29.216                Norilsk           913.000
       319   03 Jun 2027 14:20:59.411   03 Jun 2027 14:21:48.869            49.458                Norilsk          1545.562
       320   03 Jun 2027 15:47:56.444   03 Jun 2027 15:49:47.259           110.815                 Moscow          3462.969
       321   03 Jun 2027 15:51:27.078   03 Jun 2027 15:53:49.749           142.671              Murmansk1          4458.469
       322   03 Jun 2027 15:54:30.913   03 Jun 2027 15:54:38.668             7.755              Murmansk1           242.344
       323   03 Jun 2027 15:58:44.521   03 Jun 2027 16:00:38.723           114.202                Norilsk          3568.813
       324   03 Jun 2027 16:07:08.939   03 Jun 2027 16:07:47.373            38.434                Anadyr1          1201.062
       325   03 Jun 2027 17:01:20.172   03 Jun 2027 17:03:04.954           104.782               CapeTown          3274.437
       326   03 Jun 2027 17:27:53.229   03 Jun 2027 17:28:39.740            46.511                 Moscow          1453.469
       327   03 Jun 2027 17:29:30.603   03 Jun 2027 17:30:34.117            63.514              Murmansk1          1984.812
       328   03 Jun 2027 17:31:46.350   03 Jun 2027 17:32:33.551            47.201              Murmansk2          1475.031
       329   03 Jun 2027 17:34:28.277   03 Jun 2027 17:34:49.210            20.933              Murmansk1           654.156
       330   03 Jun 2027 17:41:55.448   03 Jun 2027 17:42:59.896            64.448                Anadyr2          2014.000
       331   03 Jun 2027 17:43:30.478   03 Jun 2027 17:43:44.188            13.710                Anadyr2           428.438
       332   03 Jun 2027 17:43:44.188   03 Jun 2027 17:44:07.181            22.993                Anadyr1           718.531
       333   03 Jun 2027 18:37:54.851   03 Jun 2027 18:39:16.845            81.994               CapeTown          2562.313
       334   03 Jun 2027 18:41:03.810   03 Jun 2027 18:41:17.144            13.334               CapeTown           416.688
       335   03 Jun 2027 18:47:15.312   03 Jun 2027 18:47:47.716            32.404               CapeTown          1012.625
       336   03 Jun 2027 19:10:30.416   03 Jun 2027 19:14:59.145           268.729              Murmansk2          8397.781
       337   03 Jun 2027 19:20:23.776   03 Jun 2027 19:20:47.368            23.592               Magadan2           737.250
       338   03 Jun 2027 19:20:58.863   03 Jun 2027 19:21:11.878            13.015               Magadan2           406.719
       339   03 Jun 2027 19:24:21.268   03 Jun 2027 19:24:33.107            11.839               Magadan2           369.969
       340   03 Jun 2027 19:24:50.354   03 Jun 2027 19:25:39.226            48.872               Magadan2          1527.250
       341   03 Jun 2027 20:53:40.119   03 Jun 2027 20:57:41.248           241.129                Anadyr2          7535.281
       342   03 Jun 2027 20:57:58.531   03 Jun 2027 21:00:28.793           150.262               Magadan1          4695.687
       343   03 Jun 2027 21:00:43.891   03 Jun 2027 21:00:45.545             1.654               Magadan1            51.687
       344   03 Jun 2027 21:01:14.578   03 Jun 2027 21:01:22.441             7.863               Magadan1           245.719
       345   03 Jun 2027 21:02:57.425   03 Jun 2027 21:03:18.986            21.561               Magadan1           673.781
       346   03 Jun 2027 21:06:50.191   03 Jun 2027 21:07:04.379            14.188               Magadan1           443.375
       347   03 Jun 2027 21:07:07.542   03 Jun 2027 21:08:18.387            70.845               Magadan2          2213.906
       348   03 Jun 2027 21:48:28.035   03 Jun 2027 21:50:31.875           123.840            RioGallegos          3870.000
       349   03 Jun 2027 21:53:29.545   03 Jun 2027 21:53:53.932            24.387            RioGallegos           762.094
       350   03 Jun 2027 22:29:22.076   03 Jun 2027 22:29:42.580            20.504                Anadyr1           640.750
       351   03 Jun 2027 22:31:30.611   03 Jun 2027 22:34:04.892           154.281                Norilsk          4821.281
       352   03 Jun 2027 22:34:58.172   03 Jun 2027 22:35:16.338            18.166               Magadan2           567.687
       353   03 Jun 2027 22:35:52.692   03 Jun 2027 22:36:14.143            21.451                Irkutsk           670.344
       354   03 Jun 2027 22:37:01.144   03 Jun 2027 22:37:03.881             2.737                Irkutsk            85.531
       355   03 Jun 2027 22:38:05.846   03 Jun 2027 22:39:08.610            62.764                Irkutsk          1961.375
       356   03 Jun 2027 22:49:51.686   03 Jun 2027 22:53:00.734           189.048                Sumatra          5907.750
       357   04 Jun 2027 00:04:18.618   04 Jun 2027 00:06:36.111           137.493                Anadyr2          4296.656
       358   04 Jun 2027 00:07:25.504   04 Jun 2027 00:07:37.283            11.779                Norilsk           368.094
       359   04 Jun 2027 00:08:04.856   04 Jun 2027 00:08:48.106            43.250               Magadan2          1351.562
       360   04 Jun 2027 00:08:48.106   04 Jun 2027 00:09:49.861            61.755               Magadan1          1929.844
       361   04 Jun 2027 00:11:17.473   04 Jun 2027 00:12:31.431            73.958                Irkutsk          2311.188
       362   04 Jun 2027 00:13:15.458   04 Jun 2027 00:14:05.822            50.364                Novosib          1573.875
       363   04 Jun 2027 00:14:19.698   04 Jun 2027 00:14:31.654            11.956                Novosib           373.625
       364   04 Jun 2027 00:19:32.512   04 Jun 2027 00:20:01.358            28.846                Novosib           901.437
       365   04 Jun 2027 00:20:02.285   04 Jun 2027 00:22:44.180           161.895                  Delhi          5059.219
       366   04 Jun 2027 01:07:52.106   04 Jun 2027 01:08:23.736            31.630            RioGallegos           988.438
       367   04 Jun 2027 01:38:01.593   04 Jun 2027 01:38:10.558             8.965                Anadyr2           280.156
       368   04 Jun 2027 01:38:30.501   04 Jun 2027 01:38:46.627            16.126                Anadyr1           503.938
       369   04 Jun 2027 01:39:24.500   04 Jun 2027 01:40:21.289            56.789                Anadyr1          1774.656
       370   04 Jun 2027 01:40:24.332   04 Jun 2027 01:40:25.969             1.637                Anadyr1            51.156
       371   04 Jun 2027 01:43:27.169   04 Jun 2027 01:43:42.176            15.007                Anadyr2           468.969
       372   04 Jun 2027 01:43:50.050   04 Jun 2027 01:44:58.416            68.366               Magadan2          2136.437
       373   04 Jun 2027 01:45:07.154   04 Jun 2027 01:45:29.043            21.889                Norilsk           684.031
       374   04 Jun 2027 01:45:53.645   04 Jun 2027 01:48:19.808           146.163              Murmansk2          4567.594
       375   04 Jun 2027 01:50:18.967   04 Jun 2027 01:50:31.234            12.267                Irkutsk           383.344
       376   04 Jun 2027 01:51:05.059   04 Jun 2027 01:51:14.646             9.587                Irkutsk           299.594
       377   04 Jun 2027 01:51:47.872   04 Jun 2027 01:52:17.154            29.282                 Moscow           915.063
       378   04 Jun 2027 01:54:38.645   04 Jun 2027 01:55:12.515            33.870                  Delhi          1058.438
       379   04 Jun 2027 01:55:36.450   04 Jun 2027 01:56:43.089            66.639                  Delhi          2082.469
       380   04 Jun 2027 02:37:55.306   04 Jun 2027 02:38:26.389            31.083            RioGallegos           971.344
       381   04 Jun 2027 02:39:15.709   04 Jun 2027 02:40:25.446            69.737            RioGallegos          2179.281
       382   04 Jun 2027 03:29:04.518   04 Jun 2027 03:30:28.308            83.790              Murmansk2          2618.438
       383   04 Jun 2027 03:30:31.322   04 Jun 2027 03:31:03.183            31.861              Murmansk1           995.656
       384   04 Jun 2027 03:31:08.872   04 Jun 2027 03:31:12.275             3.403              Murmansk1           106.344
       385   04 Jun 2027 03:31:31.254   04 Jun 2027 03:31:36.033             4.779                Novosib           149.344
       386   04 Jun 2027 03:31:42.489   04 Jun 2027 03:33:15.256            92.767              Murmansk1          2898.969
       387   04 Jun 2027 03:35:34.450   04 Jun 2027 03:36:21.412            46.962                 Moscow          1467.563
       388   04 Jun 2027 03:49:47.591   04 Jun 2027 03:50:26.348            38.757               CapeTown          1211.156
       389   04 Jun 2027 04:45:37.165   04 Jun 2027 04:46:05.499            28.334                Anadyr1           885.438
       390   04 Jun 2027 04:46:39.957   04 Jun 2027 04:46:49.982            10.025                Anadyr1           313.281
       391   04 Jun 2027 05:05:58.444   04 Jun 2027 05:06:05.743             7.299              Murmansk2           228.094
       392   04 Jun 2027 05:06:32.901   04 Jun 2027 05:06:58.801            25.900              Murmansk1           809.375
       393   04 Jun 2027 05:07:55.449   04 Jun 2027 05:08:20.033            24.584              Murmansk1           768.250
       394   04 Jun 2027 05:08:48.315   04 Jun 2027 05:09:28.399            40.084              Murmansk1          1252.625
       395   04 Jun 2027 05:24:58.466   04 Jun 2027 05:25:52.772            54.306               CapeTown          1697.063
       396   04 Jun 2027 06:28:05.949   04 Jun 2027 06:29:53.520           107.571               Magadan1          3361.594
       397   04 Jun 2027 06:30:07.573   04 Jun 2027 06:31:07.535            59.962               Magadan2          1873.812
       398   04 Jun 2027 06:31:22.767   04 Jun 2027 06:31:29.349             6.582                Anadyr2           205.688
       399   04 Jun 2027 06:32:05.290   04 Jun 2027 06:32:33.892            28.602                Anadyr1           893.813
       400   04 Jun 2027 08:03:48.286   04 Jun 2027 08:04:38.617            50.331                Anadyr2          1572.844
       401   04 Jun 2027 08:04:46.959   04 Jun 2027 08:04:59.534            12.575                Norilsk           392.969
       402   04 Jun 2027 08:05:04.620   04 Jun 2027 08:05:11.604             6.984               Magadan2           218.250
       403   04 Jun 2027 08:05:15.572   04 Jun 2027 08:05:56.761            41.189                Anadyr2          1287.156
       404   04 Jun 2027 08:06:09.953   04 Jun 2027 08:06:46.489            36.536               Magadan1          1141.750
       405   04 Jun 2027 08:07:01.105   04 Jun 2027 08:08:28.164            87.059                Anadyr1          2720.594
       406   04 Jun 2027 08:47:08.791   04 Jun 2027 08:47:26.837            18.046            RioGallegos           563.938
       407   04 Jun 2027 09:37:47.275   04 Jun 2027 09:38:10.544            23.269                Irkutsk           727.156
       408   04 Jun 2027 09:39:00.343   04 Jun 2027 09:40:15.618            75.275               Magadan2          2352.344
       409   04 Jun 2027 09:40:20.439   04 Jun 2027 09:41:22.706            62.267                Irkutsk          1945.844
       410   04 Jun 2027 09:41:33.661   04 Jun 2027 09:41:34.084             0.423                Irkutsk            13.219
       411   04 Jun 2027 09:41:45.671   04 Jun 2027 09:42:36.781            51.110               Magadan2          1597.188
       412   04 Jun 2027 09:42:36.781   04 Jun 2027 09:44:03.480            86.699               Magadan1          2709.344
       413   04 Jun 2027 09:44:24.742   04 Jun 2027 09:45:00.102            35.360              Murmansk1          1105.000
       414   04 Jun 2027 09:45:13.817   04 Jun 2027 09:45:23.388             9.571              Murmansk1           299.094
       415   04 Jun 2027 09:45:32.538   04 Jun 2027 09:46:13.934            41.396              Murmansk1          1293.625
       416   04 Jun 2027 09:46:57.309   04 Jun 2027 09:47:31.068            33.759              Murmansk1          1054.969
       417   04 Jun 2027 10:20:16.858   04 Jun 2027 10:21:21.804            64.946            RioGallegos          2029.563
       418   04 Jun 2027 10:55:41.765   04 Jun 2027 10:56:13.316            31.551                Sumatra           985.969
       419   04 Jun 2027 10:57:53.813   04 Jun 2027 10:58:58.202            64.389                Sumatra          2012.156
       420   04 Jun 2027 11:15:14.874   04 Jun 2027 11:15:20.211             5.337                Novosib           166.781
       421   04 Jun 2027 11:15:20.837   04 Jun 2027 11:15:21.265             0.428                Norilsk            13.375
       422   04 Jun 2027 11:15:24.969   04 Jun 2027 11:15:36.994            12.025                Irkutsk           375.781
       423   04 Jun 2027 11:15:53.892   04 Jun 2027 11:16:54.401            60.509                Norilsk          1890.906
       424   04 Jun 2027 11:16:56.779   04 Jun 2027 11:17:52.383            55.604                Irkutsk          1737.625
       425   04 Jun 2027 11:18:12.878   04 Jun 2027 11:18:43.241            30.363                Norilsk           948.844
       426   04 Jun 2027 11:18:51.248   04 Jun 2027 11:19:27.402            36.154              Murmansk1          1129.813
       427   04 Jun 2027 11:19:36.605   04 Jun 2027 11:19:56.308            19.703              Murmansk1           615.719
       428   04 Jun 2027 11:20:02.672   04 Jun 2027 11:21:17.701            75.029                Irkutsk          2344.656
       429   04 Jun 2027 11:58:06.768   04 Jun 2027 11:58:42.842            36.074            RioGallegos          1127.313
       430   04 Jun 2027 12:32:19.904   04 Jun 2027 12:33:14.337            54.433                Sumatra          1701.031
       431   04 Jun 2027 12:34:47.100   04 Jun 2027 12:35:39.088            51.988                Sumatra          1624.625
       432   04 Jun 2027 12:46:28.290   04 Jun 2027 12:47:01.940            33.650                Novosib          1051.562
       433   04 Jun 2027 12:47:29.021   04 Jun 2027 12:49:21.811           112.790                Novosib          3524.688
       434   04 Jun 2027 12:50:28.600   04 Jun 2027 12:50:36.209             7.609                Norilsk           237.781
       435   04 Jun 2027 12:50:54.271   04 Jun 2027 12:51:12.015            17.744                Norilsk           554.500
       436   04 Jun 2027 12:51:57.204   04 Jun 2027 12:53:03.648            66.444                Irkutsk          2076.375
       437   04 Jun 2027 14:17:38.911   04 Jun 2027 14:20:24.196           165.285                  Delhi          5165.156
       438   04 Jun 2027 14:24:51.284   04 Jun 2027 14:24:55.734             4.450                 Moscow           139.063
       439   04 Jun 2027 14:25:00.357   04 Jun 2027 14:25:08.849             8.492                 Moscow           265.375
       440   04 Jun 2027 14:26:10.167   04 Jun 2027 14:29:23.704           193.537                Novosib          6048.031
       441   04 Jun 2027 14:31:01.817   04 Jun 2027 14:31:30.139            28.322                Norilsk           885.062
       442   04 Jun 2027 14:32:32.081   04 Jun 2027 14:32:56.489            24.408                Norilsk           762.750
       443   04 Jun 2027 14:33:18.663   04 Jun 2027 14:34:46.773            88.110                Norilsk          2753.437
       444   04 Jun 2027 15:40:53.546   04 Jun 2027 15:42:27.634            94.088               CapeTown          2940.250
       445   04 Jun 2027 16:00:09.502   04 Jun 2027 16:00:33.916            24.414                 Moscow           762.937
       446   04 Jun 2027 16:01:17.625   04 Jun 2027 16:01:48.217            30.592                 Moscow           956.000
       447   04 Jun 2027 16:03:37.726   04 Jun 2027 16:04:27.911            50.185              Murmansk1          1568.281
       448   04 Jun 2027 16:04:47.724   04 Jun 2027 16:05:17.504            29.780              Murmansk2           930.625
       449   04 Jun 2027 16:18:50.436   04 Jun 2027 16:19:45.323            54.887                Anadyr1          1715.219
       450   04 Jun 2027 16:20:01.230   04 Jun 2027 16:21:44.741           103.511                Anadyr2          3234.719
       451   04 Jun 2027 17:13:16.259   04 Jun 2027 17:14:03.725            47.466               CapeTown          1483.312
       452   04 Jun 2027 17:16:02.638   04 Jun 2027 17:16:09.258             6.620               CapeTown           206.875
       453   04 Jun 2027 17:16:23.691   04 Jun 2027 17:16:59.151            35.460               CapeTown          1108.125
       454   04 Jun 2027 17:40:32.044   04 Jun 2027 17:43:48.300           196.256                 Moscow          6133.000
       455   04 Jun 2027 17:46:30.499   04 Jun 2027 17:46:54.564            24.065              Murmansk2           752.031
       456   04 Jun 2027 17:53:54.812   04 Jun 2027 17:54:43.467            48.655                Anadyr1          1520.469
       457   04 Jun 2027 17:54:50.653   04 Jun 2027 17:55:08.170            17.517                Anadyr1           547.406
       458   04 Jun 2027 17:55:22.708   04 Jun 2027 17:55:31.758             9.050                Anadyr1           282.812
       459   04 Jun 2027 18:50:18.899   04 Jun 2027 18:51:24.672            65.773               CapeTown          2055.406
       460   04 Jun 2027 18:59:05.426   04 Jun 2027 18:59:22.958            17.532               CapeTown           547.875
       461   04 Jun 2027 19:23:42.739   04 Jun 2027 19:26:37.914           175.175              Murmansk1          5474.219
       462   04 Jun 2027 19:29:45.869   04 Jun 2027 19:31:27.455           101.586                Anadyr1          3174.562
       463   04 Jun 2027 19:32:19.104   04 Jun 2027 19:33:37.105            78.001               Magadan1          2437.531
       464   04 Jun 2027 19:33:37.105   04 Jun 2027 19:34:41.419            64.314               Magadan2          2009.813
       465   04 Jun 2027 19:37:24.645   04 Jun 2027 19:37:55.735            31.090               Magadan2           971.562
       466   04 Jun 2027 21:05:41.169   04 Jun 2027 21:09:23.245           222.076                Anadyr1          6939.875
       467   04 Jun 2027 21:09:26.619   04 Jun 2027 21:12:01.165           154.546               Magadan1          4829.562
       468   04 Jun 2027 21:12:15.236   04 Jun 2027 21:12:17.761             2.525               Magadan2            78.906
       469   04 Jun 2027 21:12:59.949   04 Jun 2027 21:13:34.994            35.045               Magadan2          1095.156
       470   04 Jun 2027 21:18:07.776   04 Jun 2027 21:18:24.873            17.097               Magadan1           534.281
       471   04 Jun 2027 21:18:32.440   04 Jun 2027 21:18:35.981             3.541               Magadan2           110.656
       472   04 Jun 2027 21:18:54.573   04 Jun 2027 21:20:01.795            67.222               Magadan2          2100.688
       473   04 Jun 2027 22:00:13.170   04 Jun 2027 22:02:27.847           134.677            RioGallegos          4208.656
       474   04 Jun 2027 22:41:19.525   04 Jun 2027 22:41:44.328            24.803                Anadyr1           775.094
       475   04 Jun 2027 22:43:30.897   04 Jun 2027 22:45:05.690            94.793                Norilsk          2962.281
       476   04 Jun 2027 22:45:08.702   04 Jun 2027 22:46:05.930            57.228               Magadan1          1788.375
       477   04 Jun 2027 22:47:08.865   04 Jun 2027 22:47:28.467            19.602               Magadan1           612.563
       478   04 Jun 2027 22:47:45.032   04 Jun 2027 22:48:24.611            39.579                Irkutsk          1236.844
       479   04 Jun 2027 22:49:01.534   04 Jun 2027 22:49:05.530             3.996               Magadan2           124.875
       480   04 Jun 2027 22:49:05.530   04 Jun 2027 22:49:27.937            22.407               Magadan1           700.219
       481   04 Jun 2027 22:49:29.930   04 Jun 2027 22:50:04.635            34.705                Irkutsk          1084.531
       482   04 Jun 2027 22:50:16.414   04 Jun 2027 22:50:52.424            36.010                Novosib          1125.313
