uniorb/output/strategy_2/Drop/Drop_KinoSat_111704.txt

KinoSat_111704
-------------------------
    Access    *     Start Time (UTCG)     *     Stop Time (UTCG)  *   Duration (s)        *       Station  *  Data (Mbytes)
         1   01 Jun 2027 03:23:03.785   01 Jun 2027 03:24:51.034           107.249                 Moscow          3351.531
         2   01 Jun 2027 03:25:01.310   01 Jun 2027 03:28:13.888           192.578                 Moscow          6018.062
         3   01 Jun 2027 03:29:25.193   01 Jun 2027 03:29:32.378             7.185                 Moscow           224.531
         4   01 Jun 2027 03:48:15.205   01 Jun 2027 03:48:55.929            40.724               CapeTown          1272.625
         5   01 Jun 2027 04:41:10.140   01 Jun 2027 04:41:27.324            17.184                Anadyr2           537.000
         6   01 Jun 2027 04:59:41.370   01 Jun 2027 05:00:08.999            27.629                Novosib           863.406
         7   01 Jun 2027 05:00:53.947   01 Jun 2027 05:01:08.715            14.768              Murmansk1           461.500
         8   01 Jun 2027 05:01:08.715   01 Jun 2027 05:01:52.438            43.723              Murmansk2          1366.344
         9   01 Jun 2027 05:01:52.438   01 Jun 2027 05:03:57.151           124.713              Murmansk1          3897.281
        10   01 Jun 2027 05:04:11.619   01 Jun 2027 05:05:01.745            50.126                 Moscow          1566.438
        11   01 Jun 2027 06:22:34.509   01 Jun 2027 06:25:43.462           188.953                Anadyr2          5904.781
        12   01 Jun 2027 07:59:01.848   01 Jun 2027 07:59:42.887            41.039                Anadyr1          1282.469
        13   01 Jun 2027 07:59:54.365   01 Jun 2027 08:01:10.490            76.125                Anadyr1          2378.906
        14   01 Jun 2027 08:01:20.342   01 Jun 2027 08:02:33.635            73.293               Magadan1          2290.406
        15   01 Jun 2027 08:02:35.732   01 Jun 2027 08:02:45.864            10.132               Magadan1           316.625
        16   01 Jun 2027 08:03:00.676   01 Jun 2027 08:03:54.909            54.233                Anadyr2          1694.781
        17   01 Jun 2027 09:32:14.129   01 Jun 2027 09:33:04.569            50.440                Irkutsk          1576.250
        18   01 Jun 2027 09:33:08.933   01 Jun 2027 09:38:49.340           340.407                Anadyr1         10637.719
        19   01 Jun 2027 11:08:49.185   01 Jun 2027 11:14:19.931           330.746               Magadan1         10335.813
        20   01 Jun 2027 13:31:45.768   01 Jun 2027 13:34:53.438           187.670            RioGallegos          5864.687
        21   01 Jun 2027 14:18:08.861   01 Jun 2027 14:18:19.476            10.615                Novosib           331.719
        22   01 Jun 2027 14:19:45.050   01 Jun 2027 14:22:06.654           141.604                Novosib          4425.125
        23   01 Jun 2027 14:25:16.330   01 Jun 2027 14:25:35.682            19.352                Norilsk           604.750
        24   01 Jun 2027 15:54:30.128   01 Jun 2027 15:56:58.303           148.175                 Moscow          4630.469
        25   01 Jun 2027 15:57:57.647   01 Jun 2027 15:58:59.710            62.063              Murmansk1          1939.469
        26   01 Jun 2027 15:58:59.710   01 Jun 2027 15:59:30.801            31.091              Murmansk2           971.594
        27   01 Jun 2027 16:02:10.712   01 Jun 2027 16:04:13.375           122.663                Norilsk          3833.219
        28   01 Jun 2027 16:05:20.754   01 Jun 2027 16:07:55.178           154.424                Norilsk          4825.750
        29   01 Jun 2027 17:32:00.991   01 Jun 2027 17:32:34.022            33.031                 Moscow          1032.219
        30   01 Jun 2027 17:33:20.301   01 Jun 2027 17:36:40.168           199.867                 Moscow          6245.844
        31   01 Jun 2027 17:41:20.135   01 Jun 2027 17:42:00.143            40.008                 Moscow          1250.250
        32   01 Jun 2027 17:48:57.600   01 Jun 2027 17:49:00.478             2.878                Anadyr1            89.938
        33   01 Jun 2027 17:50:19.008   01 Jun 2027 17:50:43.614            24.606                Anadyr2           768.937
        34   01 Jun 2027 18:44:02.304   01 Jun 2027 18:45:25.755            83.451               CapeTown          2607.844
        35   01 Jun 2027 18:45:58.076   01 Jun 2027 18:46:57.519            59.443               CapeTown          1857.594
        36   01 Jun 2027 19:14:32.603   01 Jun 2027 19:20:49.393           376.790              Murmansk2         11774.688
        37   01 Jun 2027 19:28:57.567   01 Jun 2027 19:29:37.036            39.469               Magadan1          1233.406
        38   01 Jun 2027 21:00:29.198   01 Jun 2027 21:03:41.610           192.412                Anadyr2          6012.875
        39   01 Jun 2027 21:03:55.303   01 Jun 2027 21:07:41.769           226.466               Magadan2          7077.063
        40   01 Jun 2027 21:07:51.456   01 Jun 2027 21:08:11.758            20.302               Magadan2           634.438
        41   01 Jun 2027 21:57:34.773   01 Jun 2027 21:59:27.843           113.070            RioGallegos          3533.438
        42   01 Jun 2027 22:36:20.396   01 Jun 2027 22:37:37.023            76.627                Anadyr1          2394.594
        43   01 Jun 2027 22:37:47.466   01 Jun 2027 22:38:22.477            35.011                Anadyr2          1094.094
        44   01 Jun 2027 22:38:29.416   01 Jun 2027 22:40:04.707            95.291                Norilsk          2977.844
        45   01 Jun 2027 22:40:10.361   01 Jun 2027 22:41:40.955            90.594               Magadan1          2831.063
        46   01 Jun 2027 22:42:00.643   01 Jun 2027 22:42:22.710            22.067               Magadan2           689.594
        47   01 Jun 2027 22:43:40.840   01 Jun 2027 22:44:00.649            19.809                Irkutsk           619.031
        48   01 Jun 2027 22:44:34.495   01 Jun 2027 22:45:04.697            30.202                Irkutsk           943.812
        49   01 Jun 2027 22:46:31.380   01 Jun 2027 22:46:40.818             9.438                Irkutsk           294.938
        50   01 Jun 2027 22:59:12.358   01 Jun 2027 23:00:58.471           106.113                Sumatra          3316.031
        51   01 Jun 2027 23:05:54.170   01 Jun 2027 23:06:16.092            21.922                Sumatra           685.063
        52   02 Jun 2027 00:11:42.252   02 Jun 2027 00:14:02.063           139.811                Anadyr2          4369.094
        53   02 Jun 2027 00:14:12.149   02 Jun 2027 00:15:55.597           103.448                Norilsk          3232.750
        54   02 Jun 2027 00:16:06.869   02 Jun 2027 00:16:34.517            27.648               Magadan2           864.000
        55   02 Jun 2027 00:17:14.378   02 Jun 2027 00:17:44.902            30.524               Magadan1           953.875
        56   02 Jun 2027 00:18:09.755   02 Jun 2027 00:19:17.543            67.788                Irkutsk          2118.375
        57   02 Jun 2027 00:19:27.006   02 Jun 2027 00:22:04.210           157.204                Novosib          4912.625
        58   02 Jun 2027 00:33:38.860   02 Jun 2027 00:34:24.110            45.250                Sumatra          1414.063
        59   02 Jun 2027 01:06:10.998   02 Jun 2027 01:07:27.473            76.475            RioGallegos          2389.844
        60   02 Jun 2027 01:11:19.391   02 Jun 2027 01:11:55.055            35.664            RioGallegos          1114.500
        61   02 Jun 2027 01:16:48.840   02 Jun 2027 01:17:30.232            41.392            RioGallegos          1293.500
        62   02 Jun 2027 01:46:46.005   02 Jun 2027 01:47:14.492            28.487                Anadyr2           890.219
        63   02 Jun 2027 01:48:03.681   02 Jun 2027 01:48:23.631            19.950                Anadyr2           623.438
        64   02 Jun 2027 01:48:26.248   02 Jun 2027 01:48:32.418             6.170                Anadyr2           192.813
        65   02 Jun 2027 01:50:12.758   02 Jun 2027 01:52:05.747           112.989                Norilsk          3530.906
        66   02 Jun 2027 01:53:20.951   02 Jun 2027 01:54:11.506            50.555              Murmansk1          1579.844
        67   02 Jun 2027 01:54:11.949   02 Jun 2027 01:55:58.239           106.290                Irkutsk          3321.563
        68   02 Jun 2027 01:56:25.411   02 Jun 2027 01:56:48.536            23.125                Novosib           722.656
        69   02 Jun 2027 01:57:11.868   02 Jun 2027 01:57:55.335            43.467                Novosib          1358.344
        70   02 Jun 2027 02:01:24.380   02 Jun 2027 02:02:05.107            40.727                  Delhi          1272.719
        71   02 Jun 2027 02:43:04.885   02 Jun 2027 02:43:49.761            44.876            RioGallegos          1402.375
        72   02 Jun 2027 02:44:14.884   02 Jun 2027 02:47:30.932           196.048            RioGallegos          6126.500
        73   02 Jun 2027 03:35:52.526   02 Jun 2027 03:36:58.378            65.852              Murmansk1          2057.875
        74   02 Jun 2027 03:37:01.853   02 Jun 2027 03:37:34.027            32.174                 Moscow          1005.438
        75   02 Jun 2027 03:37:36.983   02 Jun 2027 03:38:51.793            74.810              Murmansk2          2337.813
        76   02 Jun 2027 03:41:51.214   02 Jun 2027 03:42:24.898            33.684                 Moscow          1052.625
        77   02 Jun 2027 05:12:41.261   02 Jun 2027 05:13:31.001            49.740                Norilsk          1554.375
        78   02 Jun 2027 05:13:45.028   02 Jun 2027 05:13:58.216            13.188                Novosib           412.125
        79   02 Jun 2027 05:14:08.102   02 Jun 2027 05:16:57.507           169.405              Murmansk1          5293.906
        80   02 Jun 2027 05:31:26.545   02 Jun 2027 05:34:18.870           172.325               CapeTown          5385.156
        81   02 Jun 2027 06:34:36.912   02 Jun 2027 06:34:51.662            14.750               Magadan2           460.937
        82   02 Jun 2027 06:35:10.002   02 Jun 2027 06:37:34.687           144.685                Anadyr1          4521.406
        83   02 Jun 2027 06:37:47.224   02 Jun 2027 06:39:46.857           119.633                Anadyr2          3738.531
        84   02 Jun 2027 06:39:50.262   02 Jun 2027 06:40:23.772            33.510               Magadan1          1047.188
        85   02 Jun 2027 06:45:26.025   02 Jun 2027 06:45:48.429            22.404                 Moscow           700.125
        86   02 Jun 2027 08:12:19.823   02 Jun 2027 08:12:53.572            33.749               Magadan1          1054.656
        87   02 Jun 2027 08:12:59.401   02 Jun 2027 08:13:23.630            24.229               Magadan1           757.156
        88   02 Jun 2027 08:13:23.630   02 Jun 2027 08:14:36.171            72.541               Magadan2          2266.906
        89   02 Jun 2027 08:15:02.413   02 Jun 2027 08:15:19.988            17.575                Anadyr2           549.219
        90   02 Jun 2027 08:15:52.761   02 Jun 2027 08:16:43.121            50.360               Magadan1          1573.750
        91   02 Jun 2027 08:24:43.459   02 Jun 2027 08:24:49.641             6.182                 Moscow           193.187
        92   02 Jun 2027 09:44:29.510   02 Jun 2027 09:44:44.038            14.528                Irkutsk           454.000
        93   02 Jun 2027 09:44:58.651   02 Jun 2027 09:45:25.558            26.907               Magadan2           840.844
        94   02 Jun 2027 09:45:39.481   02 Jun 2027 09:45:50.557            11.076                Norilsk           346.125
        95   02 Jun 2027 09:45:51.977   02 Jun 2027 09:46:04.807            12.830               Magadan2           400.937
        96   02 Jun 2027 09:46:06.168   02 Jun 2027 09:48:32.173           146.005                Anadyr1          4562.656
        97   02 Jun 2027 09:48:32.173   02 Jun 2027 09:51:41.154           188.981                Anadyr2          5905.656
        98   02 Jun 2027 09:52:09.648   02 Jun 2027 09:52:16.415             6.767              Murmansk2           211.469
        99   02 Jun 2027 09:52:25.123   02 Jun 2027 09:52:34.373             9.250                Novosib           289.063
       100   02 Jun 2027 09:52:36.712   02 Jun 2027 09:52:55.013            18.301              Murmansk2           571.906
       101   02 Jun 2027 09:56:15.642   02 Jun 2027 09:56:44.897            29.255              Murmansk2           914.219
       102   02 Jun 2027 10:27:28.847   02 Jun 2027 10:27:58.406            29.559            RioGallegos           923.719
       103   02 Jun 2027 10:30:42.789   02 Jun 2027 10:30:54.657            11.868            RioGallegos           370.875
       104   02 Jun 2027 10:32:53.782   02 Jun 2027 10:33:11.382            17.600            RioGallegos           550.000
       105   02 Jun 2027 11:04:38.274   02 Jun 2027 11:06:33.506           115.232                Sumatra          3601.000
       106   02 Jun 2027 11:21:36.098   02 Jun 2027 11:22:24.453            48.355                Irkutsk          1511.094
       107   02 Jun 2027 11:22:29.247   02 Jun 2027 11:23:42.333            73.086                Novosib          2283.938
       108   02 Jun 2027 11:23:47.220   02 Jun 2027 11:24:07.049            19.829                Norilsk           619.656
       109   02 Jun 2027 11:24:33.281   02 Jun 2027 11:24:36.876             3.595                Irkutsk           112.344
       110   02 Jun 2027 11:24:50.935   02 Jun 2027 11:25:01.330            10.395                Novosib           324.844
       111   02 Jun 2027 11:25:03.719   02 Jun 2027 11:26:01.494            57.775               Magadan2          1805.469
       112   02 Jun 2027 11:26:01.494   02 Jun 2027 11:26:11.165             9.671               Magadan1           302.219
       113   02 Jun 2027 11:26:14.489   02 Jun 2027 11:26:28.332            13.843              Murmansk1           432.594
       114   02 Jun 2027 11:26:51.684   02 Jun 2027 11:27:05.145            13.461              Murmansk1           420.656
       115   02 Jun 2027 11:27:18.650   02 Jun 2027 11:28:02.391            43.741              Murmansk2          1366.906
       116   02 Jun 2027 11:28:20.706   02 Jun 2027 11:29:10.051            49.345                Novosib          1542.031
       117   02 Jun 2027 12:03:31.819   02 Jun 2027 12:04:57.267            85.448            RioGallegos          2670.250
       118   02 Jun 2027 12:38:00.034   02 Jun 2027 12:38:57.371            57.337                Sumatra          1791.781
       119   02 Jun 2027 12:50:16.972   02 Jun 2027 12:51:00.963            43.991                  Delhi          1374.719
       120   02 Jun 2027 12:52:38.992   02 Jun 2027 12:53:31.816            52.824                Irkutsk          1650.750
       121   02 Jun 2027 12:54:06.469   02 Jun 2027 12:55:36.751            90.282                Novosib          2821.312
       122   02 Jun 2027 12:56:39.511   02 Jun 2027 12:57:22.473            42.962                Norilsk          1342.563
       123   02 Jun 2027 12:57:44.048   02 Jun 2027 12:57:53.160             9.112                Irkutsk           284.750
       124   02 Jun 2027 13:04:21.593   02 Jun 2027 13:04:49.721            28.128              Murmansk1           879.000
       125   02 Jun 2027 13:45:42.882   02 Jun 2027 13:47:45.468           122.586            RioGallegos          3830.813
       126   02 Jun 2027 14:22:31.921   02 Jun 2027 14:22:45.411            13.490                  Delhi           421.563
       127   02 Jun 2027 14:25:03.684   02 Jun 2027 14:27:14.977           131.293                  Delhi          4102.906
       128   02 Jun 2027 14:30:36.741   02 Jun 2027 14:31:16.593            39.852                Novosib          1245.375
       129   02 Jun 2027 14:34:06.075   02 Jun 2027 14:35:44.281            98.206                Novosib          3068.937
       130   02 Jun 2027 14:36:06.168   02 Jun 2027 14:37:14.280            68.112                Norilsk          2128.500
       131   02 Jun 2027 16:06:32.192   02 Jun 2027 16:09:27.609           175.417                 Moscow          5481.781
       132   02 Jun 2027 16:10:02.303   02 Jun 2027 16:10:57.703            55.400              Murmansk2          1731.250
       133   02 Jun 2027 16:11:16.716   02 Jun 2027 16:11:55.225            38.509              Murmansk2          1203.406
       134   02 Jun 2027 16:14:58.118   02 Jun 2027 16:19:34.025           275.907                Norilsk          8622.094
       135   02 Jun 2027 17:44:32.951   02 Jun 2027 17:45:44.772            71.821                 Moscow          2244.406
       136   02 Jun 2027 17:47:25.856   02 Jun 2027 17:49:13.822           107.966              Murmansk1          3373.938
       137   02 Jun 2027 17:51:14.019   02 Jun 2027 17:52:45.489            91.470              Murmansk1          2858.438
       138   02 Jun 2027 18:06:03.882   02 Jun 2027 18:06:24.195            20.313                Anadyr2           634.781
       139   02 Jun 2027 18:56:11.282   02 Jun 2027 18:57:55.494           104.212               CapeTown          3256.625
       140   02 Jun 2027 19:01:36.397   02 Jun 2027 19:01:48.445            12.048               CapeTown           376.500
       141   02 Jun 2027 19:04:28.964   02 Jun 2027 19:05:15.891            46.927               CapeTown          1466.469
       142   02 Jun 2027 19:27:14.529   02 Jun 2027 19:32:50.667           336.138              Murmansk2         10504.313
       143   02 Jun 2027 19:48:32.388   02 Jun 2027 19:48:46.016            13.628               Magadan2           425.875
       144   02 Jun 2027 21:12:30.901   02 Jun 2027 21:14:06.406            95.505                Anadyr1          2984.531
       145   02 Jun 2027 21:14:09.912   02 Jun 2027 21:16:40.216           150.304                Anadyr2          4697.000
       146   02 Jun 2027 21:16:45.678   02 Jun 2027 21:18:21.725            96.047               Magadan1          3001.469
       147   02 Jun 2027 21:18:36.142   02 Jun 2027 21:20:05.050            88.908               Magadan2          2778.375
       148   02 Jun 2027 21:23:03.859   02 Jun 2027 21:23:27.779            23.920               Magadan2           747.500
       149   02 Jun 2027 21:25:02.640   02 Jun 2027 21:25:35.787            33.147               Magadan1          1035.844
       150   02 Jun 2027 22:08:29.998   02 Jun 2027 22:11:06.631           156.633            RioGallegos          4894.781
       151   02 Jun 2027 22:48:20.050   02 Jun 2027 22:49:32.079            72.029                Anadyr1          2250.906
       152   02 Jun 2027 22:49:50.339   02 Jun 2027 22:50:21.992            31.653                Anadyr2           989.156
       153   02 Jun 2027 22:50:26.485   02 Jun 2027 22:52:09.629           103.144                Norilsk          3223.250
       154   02 Jun 2027 22:52:11.139   02 Jun 2027 22:52:28.557            17.418               Magadan1           544.313
       155   02 Jun 2027 22:52:37.175   02 Jun 2027 22:53:12.239            35.064               Magadan2          1095.750
       156   02 Jun 2027 22:54:05.033   02 Jun 2027 22:55:03.418            58.385               Magadan2          1824.531
       157   02 Jun 2027 22:55:18.860   02 Jun 2027 22:55:34.786            15.926                Irkutsk           497.687
       158   02 Jun 2027 22:57:06.645   02 Jun 2027 22:57:41.841            35.196                Irkutsk          1099.875
       159   02 Jun 2027 23:10:10.591   02 Jun 2027 23:12:07.182           116.591                Sumatra          3643.469
       160   02 Jun 2027 23:49:13.078   02 Jun 2027 23:49:43.186            30.108            RioGallegos           940.875
       161   02 Jun 2027 23:50:26.386   02 Jun 2027 23:50:38.397            12.011            RioGallegos           375.344
       162   03 Jun 2027 00:23:35.577   03 Jun 2027 00:25:32.191           116.614                Anadyr2          3644.187
       163   03 Jun 2027 00:26:14.097   03 Jun 2027 00:27:57.774           103.677                Norilsk          3239.906
       164   03 Jun 2027 00:28:09.351   03 Jun 2027 00:28:13.118             3.767               Magadan2           117.719
       165   03 Jun 2027 00:28:26.711   03 Jun 2027 00:28:47.262            20.551               Magadan1           642.219
       166   03 Jun 2027 00:29:15.315   03 Jun 2027 00:29:41.175            25.860               Magadan1           808.125
       167   03 Jun 2027 00:30:09.132   03 Jun 2027 00:30:52.828            43.696                Irkutsk          1365.500
       168   03 Jun 2027 00:30:58.728   03 Jun 2027 00:32:18.191            79.463                Novosib          2483.219
       169   03 Jun 2027 00:35:37.119   03 Jun 2027 00:36:25.139            48.020                Novosib          1500.625
       170   03 Jun 2027 00:40:31.150   03 Jun 2027 00:41:23.782            52.632                  Delhi          1644.750
       171   03 Jun 2027 00:44:05.127   03 Jun 2027 00:46:08.692           123.565                Sumatra          3861.406
       172   03 Jun 2027 01:25:45.699   03 Jun 2027 01:26:14.582            28.883            RioGallegos           902.594
       173   03 Jun 2027 01:30:06.852   03 Jun 2027 01:30:20.498            13.646            RioGallegos           426.437
       174   03 Jun 2027 01:57:44.237   03 Jun 2027 01:57:55.781            11.544                Anadyr1           360.750
       175   03 Jun 2027 01:58:17.996   03 Jun 2027 01:58:50.538            32.542                Anadyr2          1016.937
       176   03 Jun 2027 01:59:41.424   03 Jun 2027 02:00:14.427            33.003                Anadyr1          1031.344
       177   03 Jun 2027 02:02:15.013   03 Jun 2027 02:04:08.192           113.179                Norilsk          3536.844
       178   03 Jun 2027 02:05:05.229   03 Jun 2027 02:05:51.971            46.742              Murmansk1          1460.688
       179   03 Jun 2027 02:06:02.549   03 Jun 2027 02:06:16.780            14.231                Novosib           444.719
       180   03 Jun 2027 02:06:18.033   03 Jun 2027 02:07:21.918            63.885                Irkutsk          1996.406
       181   03 Jun 2027 02:12:16.783   03 Jun 2027 02:13:05.196            48.413                Novosib          1512.906
       182   03 Jun 2027 02:16:34.794   03 Jun 2027 02:17:13.850            39.056                  Delhi          1220.500
       183   03 Jun 2027 02:22:58.002   03 Jun 2027 02:23:13.347            15.345                  Delhi           479.531
       184   03 Jun 2027 02:25:19.274   03 Jun 2027 02:25:39.685            20.411                  Delhi           637.844
       185   03 Jun 2027 02:55:23.114   03 Jun 2027 02:59:07.573           224.459            RioGallegos          7014.344
       186   03 Jun 2027 03:48:16.442   03 Jun 2027 03:48:46.572            30.130              Murmansk1           941.563
       187   03 Jun 2027 03:48:58.717   03 Jun 2027 03:51:17.456           138.739              Murmansk2          4335.594
       188   03 Jun 2027 05:24:46.400   03 Jun 2027 05:24:57.529            11.129              Murmansk1           347.781
       189   03 Jun 2027 05:24:59.453   03 Jun 2027 05:25:49.663            50.210              Murmansk1          1569.063
       190   03 Jun 2027 05:25:56.692   03 Jun 2027 05:25:58.022             1.330              Murmansk1            41.562
       191   03 Jun 2027 05:26:33.672   03 Jun 2027 05:27:57.230            83.558                 Moscow          2611.188
       192   03 Jun 2027 05:28:34.070   03 Jun 2027 05:29:09.580            35.510                 Moscow          1109.688
       193   03 Jun 2027 05:43:27.449   03 Jun 2027 05:45:58.437           150.988               CapeTown          4718.375
       194   03 Jun 2027 06:46:25.736   03 Jun 2027 06:47:35.026            69.290                Anadyr1          2165.312
       195   03 Jun 2027 06:47:39.077   03 Jun 2027 06:48:15.297            36.220               Magadan1          1131.875
       196   03 Jun 2027 06:48:21.985   03 Jun 2027 06:48:38.306            16.321               Magadan2           510.031
       197   03 Jun 2027 06:48:46.827   03 Jun 2027 06:49:19.212            32.385                Anadyr1          1012.031
       198   03 Jun 2027 06:51:22.109   03 Jun 2027 06:52:24.360            62.251               Magadan2          1945.344
       199   03 Jun 2027 07:23:44.242   03 Jun 2027 07:27:00.739           196.497               CapeTown          6140.531
       200   03 Jun 2027 08:22:50.736   03 Jun 2027 08:23:18.818            28.082               Magadan1           877.563
       201   03 Jun 2027 08:23:18.818   03 Jun 2027 08:23:45.361            26.543               Magadan2           829.469
       202   03 Jun 2027 08:23:58.025   03 Jun 2027 08:25:11.377            73.352                Anadyr1          2292.250
       203   03 Jun 2027 08:25:11.377   03 Jun 2027 08:26:26.296            74.919                Anadyr2          2341.219
       204   03 Jun 2027 09:56:24.523   03 Jun 2027 09:57:02.489            37.966                Irkutsk          1186.437
       205   03 Jun 2027 09:57:58.015   03 Jun 2027 09:58:55.376            57.361               Magadan1          1792.531
       206   03 Jun 2027 09:59:18.846   03 Jun 2027 10:02:45.695           206.849                Anadyr2          6464.031
       207   03 Jun 2027 10:03:01.643   03 Jun 2027 10:03:16.857            15.214               Magadan2           475.437
       208   03 Jun 2027 10:03:16.857   03 Jun 2027 10:03:41.989            25.132               Magadan1           785.375
       209   03 Jun 2027 10:03:50.264   03 Jun 2027 10:04:42.866            52.602                Novosib          1643.812
       210   03 Jun 2027 10:39:19.760   03 Jun 2027 10:40:19.272            59.512            RioGallegos          1859.750
       211   03 Jun 2027 11:15:47.521   03 Jun 2027 11:17:35.136           107.615                Sumatra          3362.969
       212   03 Jun 2027 11:33:44.082   03 Jun 2027 11:33:56.439            12.357                Norilsk           386.156
       213   03 Jun 2027 11:34:03.731   03 Jun 2027 11:34:33.628            29.897                Novosib           934.281
       214   03 Jun 2027 11:34:36.200   03 Jun 2027 11:34:56.709            20.509                Irkutsk           640.906
       215   03 Jun 2027 11:35:29.403   03 Jun 2027 11:35:48.567            19.164                Norilsk           598.875
       216   03 Jun 2027 11:36:03.133   03 Jun 2027 11:36:12.808             9.675                Norilsk           302.344
       217   03 Jun 2027 11:36:13.734   03 Jun 2027 11:36:37.752            24.018                Novosib           750.563
       218   03 Jun 2027 11:36:55.324   03 Jun 2027 11:37:09.054            13.730                Irkutsk           429.062
       219   03 Jun 2027 11:37:25.550   03 Jun 2027 11:37:26.630             1.080                Norilsk            33.750
       220   03 Jun 2027 11:37:29.764   03 Jun 2027 11:37:37.830             8.066                Norilsk           252.062
       221   03 Jun 2027 11:37:47.455   03 Jun 2027 11:38:22.957            35.502                Norilsk          1109.438
       222   03 Jun 2027 11:38:40.853   03 Jun 2027 11:39:12.893            32.040                Novosib          1001.250
       223   03 Jun 2027 11:39:13.391   03 Jun 2027 11:39:19.385             5.994              Murmansk2           187.312
       224   03 Jun 2027 11:39:29.755   03 Jun 2027 11:40:01.429            31.674                Irkutsk           989.812
       225   03 Jun 2027 11:40:02.708   03 Jun 2027 11:41:16.643            73.935                Norilsk          2310.469
       226   03 Jun 2027 12:16:20.599   03 Jun 2027 12:17:00.896            40.297            RioGallegos          1259.281
       227   03 Jun 2027 12:50:11.809   03 Jun 2027 12:52:03.428           111.619                Sumatra          3488.094
       228   03 Jun 2027 12:58:52.809   03 Jun 2027 13:00:00.212            67.403                Sumatra          2106.344
       229   03 Jun 2027 13:05:07.882   03 Jun 2027 13:05:42.837            34.955                Irkutsk          1092.344
       230   03 Jun 2027 13:06:46.891   03 Jun 2027 13:07:12.384            25.493                Novosib           796.656
       231   03 Jun 2027 13:08:38.914   03 Jun 2027 13:09:28.744            49.830                Irkutsk          1557.187
       232   03 Jun 2027 13:09:44.785   03 Jun 2027 13:10:21.372            36.587                Norilsk          1143.344
       233   03 Jun 2027 13:11:47.551   03 Jun 2027 13:12:03.589            16.038                Norilsk           501.188
       234   03 Jun 2027 13:18:33.281   03 Jun 2027 13:18:47.536            14.255                Norilsk           445.469
       235   03 Jun 2027 13:20:58.672   03 Jun 2027 13:21:23.707            25.035                Norilsk           782.344
       236   03 Jun 2027 14:34:54.523   03 Jun 2027 14:36:10.263            75.740                  Delhi          2366.875
       237   03 Jun 2027 14:39:18.309   03 Jun 2027 14:40:07.042            48.733                  Delhi          1522.906
       238   03 Jun 2027 14:42:58.951   03 Jun 2027 14:44:52.529           113.578                  Delhi          3549.312
       239   03 Jun 2027 14:46:04.535   03 Jun 2027 14:48:09.358           124.823                Novosib          3900.719
       240   03 Jun 2027 14:49:10.781   03 Jun 2027 14:49:42.426            31.645                Norilsk           988.906
       241   03 Jun 2027 14:50:57.643   03 Jun 2027 14:51:30.484            32.841                Norilsk          1026.281
       242   03 Jun 2027 16:18:37.250   03 Jun 2027 16:21:55.625           198.375                 Moscow          6199.219
       243   03 Jun 2027 16:22:08.616   03 Jun 2027 16:22:54.498            45.882              Murmansk2          1433.813
       244   03 Jun 2027 16:22:54.498   03 Jun 2027 16:23:18.662            24.164              Murmansk1           755.125
       245   03 Jun 2027 16:23:55.904   03 Jun 2027 16:24:22.120            26.216              Murmansk2           819.250
       246   03 Jun 2027 16:27:51.684   03 Jun 2027 16:32:18.574           266.890                Norilsk          8340.313
       247   03 Jun 2027 17:42:07.853   03 Jun 2027 17:42:38.981            31.128               CapeTown           972.750
       248   03 Jun 2027 17:57:10.944   03 Jun 2027 18:00:03.558           172.614                 Moscow          5394.187
       249   03 Jun 2027 18:01:33.659   03 Jun 2027 18:02:03.024            29.365                 Moscow           917.656
       250   03 Jun 2027 18:03:16.179   03 Jun 2027 18:04:30.688            74.509              Murmansk1          2328.406
       251   03 Jun 2027 18:14:14.036   03 Jun 2027 18:14:20.412             6.376                Anadyr1           199.250
       252   03 Jun 2027 18:15:28.509   03 Jun 2027 18:15:37.224             8.715                Anadyr1           272.344
       253   03 Jun 2027 18:18:05.197   03 Jun 2027 18:18:06.553             1.356                Anadyr2            42.375
       254   03 Jun 2027 18:18:26.842   03 Jun 2027 18:18:27.886             1.044                Anadyr2            32.625
       255   03 Jun 2027 18:19:50.359   03 Jun 2027 18:20:02.013            11.654                Anadyr1           364.188
       256   03 Jun 2027 19:08:23.577   03 Jun 2027 19:09:55.819            92.242               CapeTown          2882.562
       257   03 Jun 2027 19:16:43.374   03 Jun 2027 19:18:08.490            85.116               CapeTown          2659.875
       258   03 Jun 2027 19:40:01.116   03 Jun 2027 19:44:38.534           277.418              Murmansk1          8669.313
       259   03 Jun 2027 19:44:51.571   03 Jun 2027 19:46:21.636            90.065              Murmansk2          2814.531
       260   03 Jun 2027 21:24:32.499   03 Jun 2027 21:28:17.506           225.007                Anadyr2          7031.469
       261   03 Jun 2027 21:28:21.047   03 Jun 2027 21:30:52.491           151.444               Magadan2          4732.625
       262   03 Jun 2027 21:31:33.390   03 Jun 2027 21:31:46.207            12.817               Magadan2           400.531
       263   03 Jun 2027 21:32:54.359   03 Jun 2027 21:33:22.895            28.536               Magadan2           891.750
       264   03 Jun 2027 21:35:17.901   03 Jun 2027 21:35:29.989            12.088               Magadan2           377.750
       265   03 Jun 2027 22:19:54.611   03 Jun 2027 22:22:51.175           176.564            RioGallegos          5517.625
       266   03 Jun 2027 22:25:22.329   03 Jun 2027 22:25:47.788            25.459            RioGallegos           795.594
       267   03 Jun 2027 23:00:19.203   03 Jun 2027 23:02:12.746           113.543                Anadyr2          3548.219
       268   03 Jun 2027 23:02:24.902   03 Jun 2027 23:03:19.065            54.163                Norilsk          1692.594
       269   03 Jun 2027 23:03:24.200   03 Jun 2027 23:03:59.625            35.425                Norilsk          1107.031
       270   03 Jun 2027 23:05:19.098   03 Jun 2027 23:05:51.637            32.539               Magadan2          1016.844
       271   03 Jun 2027 23:07:02.974   03 Jun 2027 23:07:56.093            53.119                Irkutsk          1659.969
       272   03 Jun 2027 23:09:30.517   03 Jun 2027 23:10:22.193            51.676                Irkutsk          1614.875
       273   03 Jun 2027 23:14:56.350   03 Jun 2027 23:15:49.721            53.371                Irkutsk          1667.844
       274   03 Jun 2027 23:21:28.050   03 Jun 2027 23:21:47.604            19.554                Sumatra           611.063
       275   03 Jun 2027 23:24:47.581   03 Jun 2027 23:26:00.307            72.726                Sumatra          2272.687
       276   04 Jun 2027 00:00:32.559   04 Jun 2027 00:01:17.612            45.053            RioGallegos          1407.906
       277   04 Jun 2027 00:35:27.703   04 Jun 2027 00:37:37.226           129.523                Anadyr1          4047.594
       278   04 Jun 2027 00:38:16.205   04 Jun 2027 00:38:43.566            27.361                Norilsk           855.031
       279   04 Jun 2027 00:38:55.421   04 Jun 2027 00:39:25.482            30.061               Magadan1           939.406
       280   04 Jun 2027 00:39:44.786   04 Jun 2027 00:40:11.712            26.926               Magadan2           841.437
       281   04 Jun 2027 00:40:29.357   04 Jun 2027 00:40:36.480             7.123               Magadan2           222.594
       282   04 Jun 2027 00:41:16.788   04 Jun 2027 00:41:39.780            22.992               Magadan1           718.500
       283   04 Jun 2027 00:42:09.524   04 Jun 2027 00:44:17.574           128.050                Irkutsk          4001.563
       284   04 Jun 2027 00:47:00.293   04 Jun 2027 00:48:10.998            70.705                Novosib          2209.531
       285   04 Jun 2027 00:51:32.890   04 Jun 2027 00:51:54.931            22.041                  Delhi           688.781
       286   04 Jun 2027 00:54:54.786   04 Jun 2027 00:55:13.157            18.371                  Delhi           574.094
       287   04 Jun 2027 00:59:06.357   04 Jun 2027 00:59:19.113            12.756                  Delhi           398.625
       288   04 Jun 2027 00:59:52.673   04 Jun 2027 00:59:54.863             2.190                  Delhi            68.437
       289   04 Jun 2027 01:01:26.323   04 Jun 2027 01:01:49.317            22.994                Sumatra           718.562
       290   04 Jun 2027 01:06:18.565   04 Jun 2027 01:07:30.955            72.390                Sumatra          2262.188
       291   04 Jun 2027 01:37:46.332   04 Jun 2027 01:38:17.035            30.703            RioGallegos           959.469
       292   04 Jun 2027 02:09:23.589   04 Jun 2027 02:10:16.258            52.669                Anadyr2          1645.906
       293   04 Jun 2027 02:10:36.986   04 Jun 2027 02:11:14.742            37.756                Anadyr2          1179.875
       294   04 Jun 2027 02:14:17.179   04 Jun 2027 02:15:32.282            75.103                Norilsk          2346.969
       295   04 Jun 2027 02:16:55.555   04 Jun 2027 02:18:17.175            81.620              Murmansk1          2550.625
       296   04 Jun 2027 02:18:25.006   04 Jun 2027 02:19:33.058            68.052                Irkutsk          2126.625
       297   04 Jun 2027 02:20:04.196   04 Jun 2027 02:20:04.948             0.752                Irkutsk            23.500
       298   04 Jun 2027 02:21:08.808   04 Jun 2027 02:21:20.433            11.625                Novosib           363.281
       299   04 Jun 2027 02:22:48.680   04 Jun 2027 02:22:59.211            10.531                Irkutsk           329.094
       300   04 Jun 2027 02:25:02.218   04 Jun 2027 02:25:12.487            10.269                Novosib           320.906
       301   04 Jun 2027 02:25:24.436   04 Jun 2027 02:26:29.243            64.807                Novosib          2025.219
       302   04 Jun 2027 02:36:50.908   04 Jun 2027 02:37:08.878            17.970                  Delhi           561.563
       303   04 Jun 2027 03:07:47.113   04 Jun 2027 03:12:12.682           265.569            RioGallegos          8299.031
       304   04 Jun 2027 03:58:11.577   04 Jun 2027 03:58:28.532            16.955                Irkutsk           529.844
       305   04 Jun 2027 03:58:56.978   04 Jun 2027 03:59:16.589            19.611              Murmansk2           612.844
       306   04 Jun 2027 04:01:16.801   04 Jun 2027 04:03:12.766           115.965                 Moscow          3623.906
       307   04 Jun 2027 04:03:35.394   04 Jun 2027 04:04:50.037            74.643                Novosib          2332.594
       308   04 Jun 2027 04:05:31.542   04 Jun 2027 04:07:53.423           141.881                  Delhi          4433.781
       309   04 Jun 2027 05:34:29.120   04 Jun 2027 05:34:57.446            28.326                Novosib           885.187
       310   04 Jun 2027 05:35:50.160   04 Jun 2027 05:36:12.229            22.069                Novosib           689.656
       311   04 Jun 2027 05:37:21.579   04 Jun 2027 05:38:25.621            64.042                 Moscow          2001.313
       312   04 Jun 2027 05:38:28.492   04 Jun 2027 05:38:44.969            16.477                 Moscow           514.906
       313   04 Jun 2027 05:39:13.363   04 Jun 2027 05:40:11.807            58.444                 Moscow          1826.375
       314   04 Jun 2027 05:40:24.116   04 Jun 2027 05:40:33.385             9.269              Murmansk2           289.656
       315   04 Jun 2027 05:41:06.049   04 Jun 2027 05:41:22.073            16.024                 Moscow           500.750
       316   04 Jun 2027 05:55:33.502   04 Jun 2027 05:57:43.648           130.146               CapeTown          4067.062
       317   04 Jun 2027 06:58:01.336   04 Jun 2027 06:59:18.514            77.178                Anadyr2          2411.812
       318   04 Jun 2027 06:59:33.436   04 Jun 2027 07:00:01.590            28.154               Magadan1           879.813
       319   04 Jun 2027 07:00:03.288   04 Jun 2027 07:00:42.204            38.916                Anadyr1          1216.125
       320   04 Jun 2027 07:01:21.023   04 Jun 2027 07:02:00.982            39.959                Anadyr1          1248.719
       321   04 Jun 2027 07:07:50.722   04 Jun 2027 07:08:46.349            55.627                 Moscow          1738.344
       322   04 Jun 2027 08:31:07.137   04 Jun 2027 08:31:18.947            11.810                Anadyr2           369.062
       323   04 Jun 2027 08:34:43.487   04 Jun 2027 08:35:05.001            21.514                Irkutsk           672.313
       324   04 Jun 2027 08:35:15.193   04 Jun 2027 08:35:26.402            11.209                Anadyr2           350.281
       325   04 Jun 2027 08:35:33.773   04 Jun 2027 08:36:07.801            34.028                Irkutsk          1063.375
       326   04 Jun 2027 08:36:08.930   04 Jun 2027 08:37:11.115            62.185                Anadyr1          1943.281
       327   04 Jun 2027 08:37:29.538   04 Jun 2027 08:38:43.281            73.743               Magadan1          2304.469
       328   04 Jun 2027 08:38:43.281   04 Jun 2027 08:39:30.831            47.550               Magadan2          1485.937
       329   04 Jun 2027 08:47:47.160   04 Jun 2027 08:48:02.050            14.890                 Moscow           465.312
       330   04 Jun 2027 10:10:13.761   04 Jun 2027 10:11:33.367            79.606               Magadan1          2487.687
       331   04 Jun 2027 10:11:39.892   04 Jun 2027 10:12:10.214            30.322                Irkutsk           947.563
       332   04 Jun 2027 10:12:43.077   04 Jun 2027 10:13:22.736            39.659               Magadan2          1239.344
       333   04 Jun 2027 10:13:22.736   04 Jun 2027 10:14:42.110            79.374               Magadan1          2480.438
       334   04 Jun 2027 10:15:05.816   04 Jun 2027 10:15:33.929            28.113              Murmansk1           878.531
       335   04 Jun 2027 10:15:35.730   04 Jun 2027 10:15:46.566            10.836              Murmansk1           338.625
       336   04 Jun 2027 10:15:50.822   04 Jun 2027 10:16:36.465            45.643              Murmansk1          1426.344
       337   04 Jun 2027 10:17:33.281   04 Jun 2027 10:17:35.497             2.216              Murmansk2            69.250
       338   04 Jun 2027 10:51:13.889   04 Jun 2027 10:52:19.133            65.244            RioGallegos          2038.875
       339   04 Jun 2027 11:27:11.529   04 Jun 2027 11:27:21.369             9.840                Sumatra           307.500
       340   04 Jun 2027 11:27:57.305   04 Jun 2027 11:28:06.950             9.645                Sumatra           301.406
       341   04 Jun 2027 11:30:44.261   04 Jun 2027 11:32:13.015            88.754                Sumatra          2773.563
       342   04 Jun 2027 11:46:28.479   04 Jun 2027 11:47:31.411            62.932                Norilsk          1966.625
       343   04 Jun 2027 11:47:35.222   04 Jun 2027 11:48:16.904            41.682                Novosib          1302.562
       344   04 Jun 2027 11:48:40.251   04 Jun 2027 11:50:17.121            96.870                Irkutsk          3027.187
       345   04 Jun 2027 11:50:35.938   04 Jun 2027 11:51:23.415            47.477              Murmansk1          1483.656
       346   04 Jun 2027 11:51:35.734   04 Jun 2027 11:52:15.753            40.019              Murmansk2          1250.594
       347   04 Jun 2027 11:52:52.942   04 Jun 2027 11:53:05.837            12.895              Murmansk1           402.969
       348   04 Jun 2027 11:59:15.666   04 Jun 2027 11:59:36.796            21.130              Murmansk1           660.313
       349   04 Jun 2027 12:28:14.981   04 Jun 2027 12:28:38.571            23.590            RioGallegos           737.187
       350   04 Jun 2027 12:29:59.844   04 Jun 2027 12:32:16.580           136.736            RioGallegos          4273.000
       351   04 Jun 2027 13:02:30.411   04 Jun 2027 13:03:43.965            73.554                Sumatra          2298.563
       352   04 Jun 2027 13:12:25.249   04 Jun 2027 13:13:30.927            65.678                Sumatra          2052.438
       353   04 Jun 2027 13:17:08.153   04 Jun 2027 13:18:04.043            55.890                Novosib          1746.562
       354   04 Jun 2027 13:20:20.911   04 Jun 2027 13:20:31.508            10.597                Novosib           331.156
       355   04 Jun 2027 13:20:36.786   04 Jun 2027 13:22:39.878           123.092                Irkutsk          3846.625
       356   04 Jun 2027 13:33:51.204   04 Jun 2027 13:34:03.287            12.083              Murmansk2           377.594
       357   04 Jun 2027 14:47:25.449   04 Jun 2027 14:51:18.297           232.848                  Delhi          7276.500
       358   04 Jun 2027 14:55:49.329   04 Jun 2027 14:58:27.358           158.029                Novosib          4938.406
       359   04 Jun 2027 14:59:28.345   04 Jun 2027 14:59:31.959             3.614                Norilsk           112.938
       360   04 Jun 2027 15:00:59.074   04 Jun 2027 15:01:42.146            43.072                Novosib          1346.000
       361   04 Jun 2027 15:07:06.769   04 Jun 2027 15:07:23.971            17.202                Norilsk           537.563
       362   04 Jun 2027 15:08:25.158   04 Jun 2027 15:09:15.052            49.894                Norilsk          1559.188
       363   04 Jun 2027 16:30:45.436   04 Jun 2027 16:31:49.984            64.548                 Moscow          2017.125
       364   04 Jun 2027 16:32:34.094   04 Jun 2027 16:33:51.569            77.475                 Moscow          2421.094
       365   04 Jun 2027 16:34:49.648   04 Jun 2027 16:35:20.522            30.874              Murmansk1           964.812
       366   04 Jun 2027 16:39:04.922   04 Jun 2027 16:39:18.929            14.007              Murmansk1           437.719
       367   04 Jun 2027 16:39:57.516   04 Jun 2027 16:40:26.232            28.716                 Moscow           897.375
       368   04 Jun 2027 16:40:55.701   04 Jun 2027 16:42:35.055            99.354                Norilsk          3104.812
       369   04 Jun 2027 16:43:18.526   04 Jun 2027 16:44:20.682            62.156                Norilsk          1942.375
       370   04 Jun 2027 17:44:17.361   04 Jun 2027 17:45:29.659            72.298               CapeTown          2259.312
       371   04 Jun 2027 17:50:04.147   04 Jun 2027 17:50:18.863            14.716               CapeTown           459.875
       372   04 Jun 2027 17:52:15.741   04 Jun 2027 17:53:19.584            63.843               CapeTown          1995.094
       373   04 Jun 2027 18:09:56.498   04 Jun 2027 18:11:29.359            92.861                 Moscow          2901.906
       374   04 Jun 2027 18:12:11.774   04 Jun 2027 18:12:39.161            27.387              Murmansk2           855.844
       375   04 Jun 2027 18:14:42.372   04 Jun 2027 18:15:18.256            35.884              Murmansk1          1121.375
       376   04 Jun 2027 18:15:18.256   04 Jun 2027 18:16:06.034            47.778              Murmansk2          1493.063
       377   04 Jun 2027 18:17:04.061   04 Jun 2027 18:17:24.287            20.226              Murmansk1           632.062
       378   04 Jun 2027 18:24:49.846   04 Jun 2027 18:24:59.127             9.281                Anadyr2           290.031
       379   04 Jun 2027 18:25:30.977   04 Jun 2027 18:25:57.640            26.663                Anadyr2           833.219
       380   04 Jun 2027 18:26:21.515   04 Jun 2027 18:26:29.434             7.919                Anadyr2           247.469
       381   04 Jun 2027 18:31:18.487   04 Jun 2027 18:31:23.331             4.844                Anadyr1           151.375
       382   04 Jun 2027 18:35:50.609   04 Jun 2027 18:36:01.021            10.412                Anadyr2           325.375
       383   04 Jun 2027 19:20:39.791   04 Jun 2027 19:21:58.948            79.157               CapeTown          2473.656
       384   04 Jun 2027 19:24:22.067   04 Jun 2027 19:25:07.888            45.821               CapeTown          1431.906
       385   04 Jun 2027 19:27:38.549   04 Jun 2027 19:28:28.995            50.446               CapeTown          1576.437
       386   04 Jun 2027 19:52:53.919   04 Jun 2027 19:57:22.189           268.270              Murmansk2          8383.437
       387   04 Jun 2027 20:06:44.026   04 Jun 2027 20:06:57.239            13.213               Magadan1           412.906
       388   04 Jun 2027 20:07:36.576   04 Jun 2027 20:07:52.155            15.579               Magadan1           486.844
       389   04 Jun 2027 20:08:45.729   04 Jun 2027 20:08:53.111             7.382               Magadan1           230.687
       390   04 Jun 2027 20:09:19.986   04 Jun 2027 20:09:24.740             4.754               Magadan1           148.563
       391   04 Jun 2027 20:09:30.734   04 Jun 2027 20:10:08.585            37.851               Magadan2          1182.844
       392   04 Jun 2027 21:36:33.956   04 Jun 2027 21:41:43.521           309.565                Anadyr2          9673.906
       393   04 Jun 2027 21:42:05.379   04 Jun 2027 21:44:52.992           167.613               Magadan1          5237.906
       394   04 Jun 2027 21:49:46.593   04 Jun 2027 21:49:48.378             1.785               Magadan2            55.781
       395   04 Jun 2027 21:49:51.953   04 Jun 2027 21:50:08.037            16.084               Magadan2           502.625
       396   04 Jun 2027 22:31:30.820   04 Jun 2027 22:33:13.859           103.039            RioGallegos          3219.969
       397   04 Jun 2027 22:33:49.999   04 Jun 2027 22:34:21.995            31.996            RioGallegos           999.875
       398   04 Jun 2027 22:36:56.884   04 Jun 2027 22:37:53.380            56.496            RioGallegos          1765.500
       399   04 Jun 2027 23:12:17.771   04 Jun 2027 23:13:18.996            61.225                Anadyr2          1913.281
       400   04 Jun 2027 23:14:08.516   04 Jun 2027 23:14:23.493            14.977                Anadyr1           468.031
       401   04 Jun 2027 23:14:24.292   04 Jun 2027 23:16:01.436            97.144                Norilsk          3035.750
       402   04 Jun 2027 23:16:05.884   04 Jun 2027 23:17:20.940            75.056               Magadan1          2345.500
       403   04 Jun 2027 23:17:59.411   04 Jun 2027 23:18:28.771            29.360               Magadan2           917.500
       404   04 Jun 2027 23:19:01.896   04 Jun 2027 23:19:39.349            37.453                Irkutsk          1170.406
       405   04 Jun 2027 23:25:16.274   04 Jun 2027 23:25:50.195            33.921                Irkutsk          1060.031
       406   04 Jun 2027 23:32:57.520   04 Jun 2027 23:33:48.397            50.877                Sumatra          1589.906
       407   04 Jun 2027 23:36:39.462   04 Jun 2027 23:38:51.642           132.180                Sumatra          4130.625
       408   05 Jun 2027 00:16:26.785   05 Jun 2027 00:16:49.626            22.841            RioGallegos           713.781
       409   05 Jun 2027 00:47:18.556   05 Jun 2027 00:47:54.767            36.211                Anadyr1          1131.594
       410   05 Jun 2027 00:48:34.410   05 Jun 2027 00:49:37.723            63.313                Anadyr2          1978.531
       411   05 Jun 2027 00:50:18.430   05 Jun 2027 00:51:12.685            54.255                Norilsk          1695.469
       412   05 Jun 2027 00:51:43.587   05 Jun 2027 00:52:13.814            30.227               Magadan2           944.594
       413   05 Jun 2027 00:52:32.038   05 Jun 2027 00:52:58.810            26.772               Magadan2           836.625
       414   05 Jun 2027 00:54:10.840   05 Jun 2027 00:56:14.482           123.642                Irkutsk          3863.812
       415   05 Jun 2027 00:58:51.624   05 Jun 2027 00:59:06.309            14.685                Novosib           458.906
       416   05 Jun 2027 00:59:39.219   05 Jun 2027 01:00:14.549            35.330                Novosib          1104.062
       417   05 Jun 2027 01:02:54.887   05 Jun 2027 01:03:09.088            14.201                  Delhi           443.781
       418   05 Jun 2027 01:03:37.741   05 Jun 2027 01:05:45.676           127.935                  Delhi          3997.969
       419   05 Jun 2027 01:43:33.869   05 Jun 2027 01:43:49.797            15.928            RioGallegos           497.750
       420   05 Jun 2027 01:46:30.522   05 Jun 2027 01:46:56.508            25.986            RioGallegos           812.062
       421   05 Jun 2027 01:48:08.343   05 Jun 2027 01:48:55.833            47.490            RioGallegos          1484.063
       422   05 Jun 2027 02:21:05.529   05 Jun 2027 02:21:32.227            26.698                Anadyr1           834.313
       423   05 Jun 2027 02:22:46.344   05 Jun 2027 02:23:15.338            28.994                Anadyr1           906.063
       424   05 Jun 2027 02:26:19.227   05 Jun 2027 02:27:56.811            97.584                Norilsk          3049.500
       425   05 Jun 2027 02:28:49.288   05 Jun 2027 02:30:18.828            89.540              Murmansk2          2798.125
       426   05 Jun 2027 02:30:33.002   05 Jun 2027 02:31:04.951            31.949                Irkutsk           998.406
       427   05 Jun 2027 02:32:23.156   05 Jun 2027 02:34:18.162           115.006                Irkutsk          3593.937
       428   05 Jun 2027 02:47:44.868   05 Jun 2027 02:49:02.630            77.762                  Delhi          2430.063
       429   05 Jun 2027 03:20:23.086   05 Jun 2027 03:20:52.723            29.637            RioGallegos           926.156
       430   05 Jun 2027 03:22:30.899   05 Jun 2027 03:24:07.470            96.571            RioGallegos          3017.844
       431   05 Jun 2027 04:11:23.658   05 Jun 2027 04:11:58.133            34.475              Murmansk1          1077.344
       432   05 Jun 2027 04:12:10.561   05 Jun 2027 04:12:24.568            14.007              Murmansk1           437.719
       433   05 Jun 2027 04:13:12.222   05 Jun 2027 04:14:02.050            49.828              Murmansk2          1557.125
       434   05 Jun 2027 04:14:44.192   05 Jun 2027 04:14:52.878             8.686                Novosib           271.437
       435   05 Jun 2027 04:14:59.528   05 Jun 2027 04:16:01.692            62.164              Murmansk2          1942.625
       436   05 Jun 2027 04:16:30.273   05 Jun 2027 04:16:45.071            14.798                Novosib           462.437
       437   05 Jun 2027 04:18:26.306   05 Jun 2027 04:19:46.361            80.055                 Moscow          2501.719
       438   05 Jun 2027 04:32:55.436   05 Jun 2027 04:34:58.868           123.432               CapeTown          3857.250
       439   05 Jun 2027 04:35:46.694   05 Jun 2027 04:36:26.700            40.006               CapeTown          1250.188
       440   05 Jun 2027 04:37:22.466   05 Jun 2027 04:38:21.138            58.672               CapeTown          1833.500
       441   05 Jun 2027 04:39:42.153   05 Jun 2027 04:42:08.828           146.675               CapeTown          4583.594
       442   05 Jun 2027 05:38:41.817   05 Jun 2027 05:39:39.292            57.475               Magadan2          1796.094
       443   05 Jun 2027 05:46:27.734   05 Jun 2027 05:46:32.778             5.044                Novosib           157.625
       444   05 Jun 2027 05:48:26.600   05 Jun 2027 05:49:19.273            52.673              Murmansk1          1646.031
       445   05 Jun 2027 05:49:24.763   05 Jun 2027 05:50:01.018            36.255                 Moscow          1132.969
       446   05 Jun 2027 05:50:20.430   05 Jun 2027 05:51:15.451            55.021              Murmansk1          1719.406
       447   05 Jun 2027 05:51:34.203   05 Jun 2027 05:52:19.362            45.159                 Moscow          1411.219
       448   05 Jun 2027 05:54:04.207   05 Jun 2027 05:54:50.868            46.661                 Moscow          1458.156
       449   05 Jun 2027 06:07:44.983   05 Jun 2027 06:09:34.130           109.147               CapeTown          3410.844
       450   05 Jun 2027 07:10:33.873   05 Jun 2027 07:11:30.103            56.230               Magadan2          1757.188
       451   05 Jun 2027 07:11:42.500   05 Jun 2027 07:12:40.329            57.829               Magadan1          1807.156
       452   05 Jun 2027 07:12:56.537   05 Jun 2027 07:13:12.978            16.441               Magadan1           513.781
       453   05 Jun 2027 07:13:22.752   05 Jun 2027 07:14:11.147            48.395                Anadyr2          1512.344
       454   05 Jun 2027 07:20:26.866   05 Jun 2027 07:20:41.395            14.529                 Moscow           454.031
       455   05 Jun 2027 08:41:58.456   05 Jun 2027 08:42:59.674            61.218               Magadan1          1913.062
       456   05 Jun 2027 08:46:47.934   05 Jun 2027 08:47:50.978            63.044                Anadyr1          1970.125
       457   05 Jun 2027 08:47:54.528   05 Jun 2027 08:49:10.232            75.704                Anadyr2          2365.750
       458   05 Jun 2027 08:49:27.806   05 Jun 2027 08:49:36.393             8.587               Magadan1           268.344
       459   05 Jun 2027 08:50:05.127   05 Jun 2027 08:51:46.460           101.333                Anadyr1          3166.656
       460   05 Jun 2027 09:29:57.710   05 Jun 2027 09:30:07.598             9.888            RioGallegos           309.000
       461   05 Jun 2027 09:30:55.546   05 Jun 2027 09:31:08.019            12.473            RioGallegos           389.781
       462   05 Jun 2027 10:20:58.569   05 Jun 2027 10:22:02.987            64.418               Magadan2          2013.063
       463   05 Jun 2027 10:23:06.815   05 Jun 2027 10:23:19.835            13.020               Magadan2           406.875
       464   05 Jun 2027 10:23:19.835   05 Jun 2027 10:24:58.517            98.682               Magadan1          3083.812
       465   05 Jun 2027 10:25:25.468   05 Jun 2027 10:25:25.682             0.214                Irkutsk             6.688
       466   05 Jun 2027 10:25:32.056   05 Jun 2027 10:26:09.162            37.106                Irkutsk          1159.563
       467   05 Jun 2027 10:26:28.173   05 Jun 2027 10:26:55.955            27.782                Irkutsk           868.188
       468   05 Jun 2027 10:26:57.881   05 Jun 2027 10:27:03.099             5.218              Murmansk1           163.063
       469   05 Jun 2027 10:27:11.856   05 Jun 2027 10:27:16.727             4.871                Norilsk           152.219
       470   05 Jun 2027 10:27:24.618   05 Jun 2027 10:27:44.128            19.510                Norilsk           609.688
       471   05 Jun 2027 10:27:59.755   05 Jun 2027 10:28:28.304            28.549              Murmansk1           892.156
       472   05 Jun 2027 10:29:34.295   05 Jun 2027 10:29:45.425            11.130              Murmansk2           347.812
       473   05 Jun 2027 10:31:15.760   05 Jun 2027 10:31:29.933            14.173              Murmansk2           442.906
       474   05 Jun 2027 11:03:11.278   05 Jun 2027 11:04:04.222            52.944            RioGallegos          1654.500
       475   05 Jun 2027 11:10:12.774   05 Jun 2027 11:10:32.869            20.095            RioGallegos           627.969
       476   05 Jun 2027 11:38:45.697   05 Jun 2027 11:40:01.976            76.279                Sumatra          2383.719
       477   05 Jun 2027 11:58:37.415   05 Jun 2027 11:59:33.327            55.912                Norilsk          1747.250
       478   05 Jun 2027 11:59:40.217   05 Jun 2027 11:59:58.776            18.559                Novosib           579.969
       479   05 Jun 2027 12:00:11.441   05 Jun 2027 12:01:47.985            96.544                Novosib          3017.000
       480   05 Jun 2027 12:02:05.465   05 Jun 2027 12:04:28.424           142.959                Irkutsk          4467.469
       481   05 Jun 2027 12:08:22.970   05 Jun 2027 12:09:09.194            46.224                Norilsk          1444.500
       482   05 Jun 2027 12:45:50.105   05 Jun 2027 12:46:02.591            12.486            RioGallegos           390.188
