uniorb/output/strategy_2/Drop/Drop_KinoSat_111601.txt

KinoSat_111601
-------------------------
    Access    *     Start Time (UTCG)     *     Stop Time (UTCG)  *   Duration (s)        *       Station  *  Data (Mbytes)
         1   01 Jun 2027 03:55:14.407   01 Jun 2027 03:55:17.110             2.703                Novosib            84.469
         2   01 Jun 2027 03:55:29.333   01 Jun 2027 03:55:47.754            18.421                Norilsk           575.656
         3   01 Jun 2027 03:56:07.222   01 Jun 2027 03:56:09.195             1.973                Norilsk            61.656
         4   01 Jun 2027 03:56:23.616   01 Jun 2027 03:56:43.331            19.715              Murmansk2           616.094
         5   01 Jun 2027 03:57:42.865   01 Jun 2027 03:58:13.604            30.739              Murmansk1           960.594
         6   01 Jun 2027 03:58:54.191   01 Jun 2027 04:01:07.191           133.000                 Moscow          4156.250
         7   01 Jun 2027 04:03:22.862   01 Jun 2027 04:03:28.501             5.639                 Moscow           176.219
         8   01 Jun 2027 05:21:50.521   01 Jun 2027 05:22:06.876            16.355               Magadan1           511.094
         9   01 Jun 2027 05:32:36.608   01 Jun 2027 05:32:45.712             9.104                Norilsk           284.500
        10   01 Jun 2027 05:33:52.519   01 Jun 2027 05:36:26.877           154.358              Murmansk2          4823.688
        11   01 Jun 2027 05:36:26.877   01 Jun 2027 05:36:38.641            11.764              Murmansk1           367.625
        12   01 Jun 2027 05:37:27.629   01 Jun 2027 05:37:31.882             4.253              Murmansk2           132.906
        13   01 Jun 2027 05:39:40.336   01 Jun 2027 05:40:05.835            25.499                 Moscow           796.844
        14   01 Jun 2027 06:56:27.167   01 Jun 2027 06:59:24.085           176.918                Anadyr2          5528.688
        15   01 Jun 2027 07:00:32.402   01 Jun 2027 07:01:35.936            63.534                Anadyr1          1985.438
        16   01 Jun 2027 08:33:19.161   01 Jun 2027 08:33:51.863            32.702                Irkutsk          1021.937
        17   01 Jun 2027 08:34:16.345   01 Jun 2027 08:37:09.923           173.578                Anadyr2          5424.312
        18   01 Jun 2027 10:06:16.694   01 Jun 2027 10:07:24.172            67.478               Magadan2          2108.688
        19   01 Jun 2027 10:08:34.116   01 Jun 2027 10:09:30.587            56.471                Novosib          1764.719
        20   01 Jun 2027 10:10:21.309   01 Jun 2027 10:10:29.382             8.073                Novosib           252.281
        21   01 Jun 2027 10:11:16.092   01 Jun 2027 10:12:29.390            73.298               Magadan1          2290.563
        22   01 Jun 2027 10:12:29.639   01 Jun 2027 10:13:57.967            88.328                Novosib          2760.250
        23   01 Jun 2027 10:14:19.400   01 Jun 2027 10:14:42.944            23.544                Norilsk           735.750
        24   01 Jun 2027 10:15:51.688   01 Jun 2027 10:16:01.604             9.916                Norilsk           309.875
        25   01 Jun 2027 10:16:16.943   01 Jun 2027 10:16:24.959             8.016              Murmansk2           250.500
        26   01 Jun 2027 10:17:21.665   01 Jun 2027 10:17:22.047             0.382              Murmansk1            11.937
        27   01 Jun 2027 10:17:49.319   01 Jun 2027 10:17:53.442             4.123              Murmansk1           128.844
        28   01 Jun 2027 10:47:36.386   01 Jun 2027 10:50:04.299           147.913            RioGallegos          4622.281
        29   01 Jun 2027 10:54:13.150   01 Jun 2027 10:54:36.366            23.216            RioGallegos           725.500
        30   01 Jun 2027 10:55:29.221   01 Jun 2027 10:55:30.820             1.599            RioGallegos            49.969
        31   01 Jun 2027 11:22:57.000   01 Jun 2027 11:24:41.098           104.098                Sumatra          3253.062
        32   01 Jun 2027 11:26:17.048   01 Jun 2027 11:26:30.464            13.416                Sumatra           419.250
        33   01 Jun 2027 11:43:56.076   01 Jun 2027 11:50:25.936           389.860                Novosib         12183.125
        34   01 Jun 2027 12:25:34.384   01 Jun 2027 12:27:21.167           106.783            RioGallegos          3336.969
        35   01 Jun 2027 12:59:48.498   01 Jun 2027 13:02:48.045           179.547                Sumatra          5610.844
        36   01 Jun 2027 13:03:34.074   01 Jun 2027 13:04:51.485            77.411                Sumatra          2419.094
        37   01 Jun 2027 13:15:54.273   01 Jun 2027 13:16:28.471            34.198                Irkutsk          1068.687
        38   01 Jun 2027 13:16:58.716   01 Jun 2027 13:19:05.786           127.070                Irkutsk          3970.938
        39   01 Jun 2027 14:45:12.106   01 Jun 2027 14:49:38.537           266.431                  Delhi          8325.969
        40   01 Jun 2027 14:54:35.310   01 Jun 2027 14:55:02.627            27.317              Murmansk1           853.656
        41   01 Jun 2027 14:56:32.327   01 Jun 2027 14:58:13.892           101.565                Novosib          3173.906
        42   01 Jun 2027 15:00:05.076   01 Jun 2027 15:01:50.504           105.428                Norilsk          3294.625
        43   01 Jun 2027 16:07:51.204   01 Jun 2027 16:08:59.198            67.994               CapeTown          2124.812
        44   01 Jun 2027 16:09:11.084   01 Jun 2027 16:09:42.844            31.760               CapeTown           992.500
        45   01 Jun 2027 16:27:32.309   01 Jun 2027 16:28:30.362            58.053                 Moscow          1814.156
        46   01 Jun 2027 16:30:59.017   01 Jun 2027 16:32:00.276            61.259                 Moscow          1914.344
        47   01 Jun 2027 16:32:00.417   01 Jun 2027 16:33:25.848            85.431              Murmansk1          2669.719
        48   01 Jun 2027 16:39:41.782   01 Jun 2027 16:40:29.276            47.494              Murmansk2          1484.187
        49   01 Jun 2027 16:42:58.310   01 Jun 2027 16:43:28.711            30.401              Murmansk2           950.031
        50   01 Jun 2027 16:46:05.849   01 Jun 2027 16:47:39.859            94.010                Anadyr2          2937.812
        51   01 Jun 2027 16:50:15.629   01 Jun 2027 16:50:32.584            16.955                Anadyr1           529.844
        52   01 Jun 2027 16:51:29.804   01 Jun 2027 16:51:59.506            29.702                Anadyr1           928.187
        53   01 Jun 2027 16:52:49.428   01 Jun 2027 16:52:57.228             7.800                Anadyr2           243.750
        54   01 Jun 2027 17:40:35.048   01 Jun 2027 17:41:19.779            44.731               CapeTown          1397.844
        55   01 Jun 2027 17:42:50.053   01 Jun 2027 17:43:15.669            25.616               CapeTown           800.500
        56   01 Jun 2027 17:46:33.349   01 Jun 2027 17:47:26.618            53.269               CapeTown          1664.656
        57   01 Jun 2027 17:48:19.689   01 Jun 2027 17:49:16.470            56.781               CapeTown          1774.406
        58   01 Jun 2027 18:08:08.523   01 Jun 2027 18:11:56.154           227.631                 Moscow          7113.469
        59   01 Jun 2027 18:13:43.868   01 Jun 2027 18:14:33.240            49.372              Murmansk1          1542.875
        60   01 Jun 2027 18:18:32.694   01 Jun 2027 18:19:21.267            48.573              Murmansk2          1517.906
        61   01 Jun 2027 18:26:36.903   01 Jun 2027 18:28:20.646           103.743               Magadan2          3241.969
        62   01 Jun 2027 18:32:59.318   01 Jun 2027 18:33:07.412             8.094                Anadyr1           252.937
        63   01 Jun 2027 19:19:05.023   01 Jun 2027 19:20:21.990            76.967               CapeTown          2405.219
        64   01 Jun 2027 19:23:00.151   01 Jun 2027 19:23:22.356            22.205               CapeTown           693.906
        65   01 Jun 2027 19:24:16.423   01 Jun 2027 19:26:31.067           134.644               CapeTown          4207.625
        66   01 Jun 2027 19:51:22.247   01 Jun 2027 19:53:47.767           145.520              Murmansk2          4547.500
        67   01 Jun 2027 19:59:49.397   01 Jun 2027 19:59:50.963             1.566               Magadan2            48.937
        68   01 Jun 2027 20:00:12.414   01 Jun 2027 20:00:34.525            22.111               Magadan2           690.969
        69   01 Jun 2027 20:01:08.140   01 Jun 2027 20:01:35.006            26.866               Magadan1           839.563
        70   01 Jun 2027 20:03:00.483   01 Jun 2027 20:03:04.099             3.616               Magadan1           113.000
        71   01 Jun 2027 20:04:02.420   01 Jun 2027 20:04:16.359            13.939               Magadan1           435.594
        72   01 Jun 2027 20:04:59.807   01 Jun 2027 20:05:04.935             5.128               Magadan2           160.250
        73   01 Jun 2027 20:05:13.730   01 Jun 2027 20:05:36.534            22.804               Magadan2           712.625
        74   01 Jun 2027 20:06:06.433   01 Jun 2027 20:06:18.857            12.424               Magadan2           388.250
        75   01 Jun 2027 20:06:34.094   01 Jun 2027 20:07:02.993            28.899               Magadan1           903.094
        76   01 Jun 2027 20:07:35.742   01 Jun 2027 20:07:38.378             2.636                Anadyr1            82.375
        77   01 Jun 2027 20:07:56.035   01 Jun 2027 20:08:26.632            30.597               Magadan2           956.156
        78   01 Jun 2027 20:08:57.431   01 Jun 2027 20:09:45.733            48.302                Anadyr1          1509.437
        79   01 Jun 2027 20:09:55.976   01 Jun 2027 20:10:10.677            14.701               Magadan1           459.406
        80   01 Jun 2027 21:33:00.820   01 Jun 2027 21:36:51.587           230.767                Anadyr2          7211.469
        81   01 Jun 2027 21:37:02.242   01 Jun 2027 21:38:57.731           115.489                Norilsk          3609.031
        82   01 Jun 2027 21:39:06.914   01 Jun 2027 21:40:35.275            88.361               Magadan1          2761.281
        83   01 Jun 2027 21:41:38.444   01 Jun 2027 21:42:33.762            55.318                Anadyr2          1728.687
        84   01 Jun 2027 21:43:40.519   01 Jun 2027 21:44:23.534            43.015               Magadan1          1344.219
        85   01 Jun 2027 21:45:34.253   01 Jun 2027 21:45:39.238             4.985               Magadan2           155.781
        86   01 Jun 2027 21:45:39.238   01 Jun 2027 21:45:41.687             2.449               Magadan1            76.531
        87   01 Jun 2027 21:45:43.227   01 Jun 2027 21:46:37.834            54.607               Magadan1          1706.469
        88   01 Jun 2027 21:47:33.878   01 Jun 2027 21:48:12.122            38.244               Magadan1          1195.125
        89   01 Jun 2027 22:30:50.680   01 Jun 2027 22:31:13.114            22.434            RioGallegos           701.062
        90   01 Jun 2027 22:32:14.295   01 Jun 2027 22:32:46.300            32.005            RioGallegos          1000.156
        91   01 Jun 2027 22:33:44.631   01 Jun 2027 22:34:22.712            38.081            RioGallegos          1190.031
        92   01 Jun 2027 22:35:31.495   01 Jun 2027 22:36:07.936            36.441            RioGallegos          1138.781
        93   01 Jun 2027 22:36:53.387   01 Jun 2027 22:37:15.986            22.599            RioGallegos           706.219
        94   01 Jun 2027 22:38:02.826   01 Jun 2027 22:38:03.903             1.077            RioGallegos            33.656
        95   01 Jun 2027 23:08:38.404   01 Jun 2027 23:11:16.967           158.563                Anadyr2          4955.094
        96   01 Jun 2027 23:11:20.684   01 Jun 2027 23:11:44.371            23.687               Magadan2           740.219
        97   01 Jun 2027 23:11:48.869   01 Jun 2027 23:12:36.399            47.530               Magadan2          1485.312
        98   01 Jun 2027 23:13:44.363   01 Jun 2027 23:14:27.815            43.452               Magadan1          1357.875
        99   01 Jun 2027 23:16:20.104   01 Jun 2027 23:16:28.842             8.738               Magadan1           273.063
       100   01 Jun 2027 23:16:57.326   01 Jun 2027 23:17:36.454            39.128               Magadan1          1222.750
       101   01 Jun 2027 23:17:54.180   01 Jun 2027 23:18:14.264            20.084                Novosib           627.625
       102   01 Jun 2027 23:19:08.751   01 Jun 2027 23:19:35.923            27.172               Magadan1           849.125
       103   01 Jun 2027 23:20:46.674   01 Jun 2027 23:21:06.178            19.504               Magadan2           609.500
       104   01 Jun 2027 23:21:36.019   01 Jun 2027 23:21:57.757            21.738                Novosib           679.313
       105   01 Jun 2027 23:22:02.308   01 Jun 2027 23:22:13.056            10.748                Irkutsk           335.875
       106   01 Jun 2027 23:23:16.975   01 Jun 2027 23:24:28.339            71.364                Irkutsk          2230.125
       107   01 Jun 2027 23:26:39.100   01 Jun 2027 23:26:47.908             8.808                Irkutsk           275.250
       108   01 Jun 2027 23:38:15.619   01 Jun 2027 23:40:51.721           156.102                Sumatra          4878.188
       109   02 Jun 2027 00:12:55.195   02 Jun 2027 00:13:32.556            37.361            RioGallegos          1167.531
       110   02 Jun 2027 00:14:25.560   02 Jun 2027 00:15:35.846            70.286            RioGallegos          2196.438
       111   02 Jun 2027 00:45:09.955   02 Jun 2027 00:45:14.324             4.369                Anadyr2           136.531
       112   02 Jun 2027 00:45:38.673   02 Jun 2027 00:46:10.393            31.720                Anadyr1           991.250
       113   02 Jun 2027 00:46:47.448   02 Jun 2027 00:47:58.106            70.658                Norilsk          2208.062
       114   02 Jun 2027 00:48:30.408   02 Jun 2027 00:49:43.207            72.799               Magadan1          2274.969
       115   02 Jun 2027 00:51:31.899   02 Jun 2027 00:52:36.322            64.423               Magadan2          2013.219
       116   02 Jun 2027 00:55:22.542   02 Jun 2027 00:55:51.269            28.727                Irkutsk           897.719
       117   02 Jun 2027 00:57:13.670   02 Jun 2027 00:58:31.025            77.355                Irkutsk          2417.344
       118   02 Jun 2027 01:02:24.476   02 Jun 2027 01:03:00.397            35.921                Irkutsk          1122.531
       119   02 Jun 2027 01:05:51.619   02 Jun 2027 01:08:00.506           128.887                  Delhi          4027.719
       120   02 Jun 2027 01:46:24.467   02 Jun 2027 01:46:39.955            15.488            RioGallegos           484.000
       121   02 Jun 2027 01:47:34.827   02 Jun 2027 01:48:49.575            74.748            RioGallegos          2335.875
       122   02 Jun 2027 02:19:24.605   02 Jun 2027 02:19:28.562             3.957                Anadyr2           123.656
       123   02 Jun 2027 02:19:51.466   02 Jun 2027 02:20:17.973            26.507                Anadyr1           828.344
       124   02 Jun 2027 02:20:42.160   02 Jun 2027 02:21:33.334            51.174                Anadyr1          1599.188
       125   02 Jun 2027 02:22:47.342   02 Jun 2027 02:23:23.022            35.680                Norilsk          1115.000
       126   02 Jun 2027 02:24:40.995   02 Jun 2027 02:25:33.273            52.278                Norilsk          1633.688
       127   02 Jun 2027 02:27:44.517   02 Jun 2027 02:28:47.615            63.098                Irkutsk          1971.813
       128   02 Jun 2027 02:32:29.003   02 Jun 2027 02:32:37.134             8.131              Murmansk1           254.094
       129   02 Jun 2027 02:32:50.375   02 Jun 2027 02:33:07.429            17.054              Murmansk1           532.937
       130   02 Jun 2027 02:33:29.390   02 Jun 2027 02:33:38.765             9.375                Irkutsk           292.969
       131   02 Jun 2027 02:34:27.218   02 Jun 2027 02:34:42.716            15.498                Irkutsk           484.312
       132   02 Jun 2027 02:36:10.835   02 Jun 2027 02:36:40.212            29.377                Novosib           918.031
       133   02 Jun 2027 02:37:56.629   02 Jun 2027 02:38:10.313            13.684                Novosib           427.625
       134   02 Jun 2027 02:39:03.254   02 Jun 2027 02:39:12.423             9.169                Novosib           286.531
       135   02 Jun 2027 02:39:17.366   02 Jun 2027 02:39:46.517            29.151                  Delhi           910.969
       136   02 Jun 2027 02:42:46.366   02 Jun 2027 02:43:49.667            63.301                  Delhi          1978.156
       137   02 Jun 2027 04:07:23.071   02 Jun 2027 04:07:43.504            20.433                Norilsk           638.531
       138   02 Jun 2027 04:09:22.129   02 Jun 2027 04:09:26.864             4.735                Norilsk           147.969
       139   02 Jun 2027 04:09:45.848   02 Jun 2027 04:10:47.764            61.916              Murmansk1          1934.875
       140   02 Jun 2027 04:11:26.626   02 Jun 2027 04:12:57.590            90.964              Murmansk2          2842.625
       141   02 Jun 2027 04:13:36.611   02 Jun 2027 04:16:40.659           184.048                 Moscow          5751.500
       142   02 Jun 2027 04:28:39.903   02 Jun 2027 04:35:29.524           409.621               CapeTown         12800.656
       143   02 Jun 2027 04:36:04.165   02 Jun 2027 04:40:40.138           275.973               CapeTown          8624.156
       144   02 Jun 2027 05:32:20.235   02 Jun 2027 05:32:42.685            22.450                Anadyr2           701.562
       145   02 Jun 2027 05:33:47.023   02 Jun 2027 05:35:06.687            79.664               Magadan2          2489.500
       146   02 Jun 2027 05:44:09.427   02 Jun 2027 05:45:05.590            56.163                Norilsk          1755.094
       147   02 Jun 2027 05:45:49.642   02 Jun 2027 05:47:23.480            93.838              Murmansk2          2932.437
       148   02 Jun 2027 05:47:23.480   02 Jun 2027 05:49:14.716           111.236              Murmansk1          3476.125
       149   02 Jun 2027 05:49:14.716   02 Jun 2027 05:49:39.580            24.864              Murmansk2           777.000
       150   02 Jun 2027 05:51:42.082   02 Jun 2027 05:52:13.848            31.766                 Moscow           992.688
       151   02 Jun 2027 07:07:28.342   02 Jun 2027 07:09:07.640            99.298               Magadan1          3103.062
       152   02 Jun 2027 07:09:29.111   02 Jun 2027 07:10:39.090            69.979               Magadan2          2186.844
       153   02 Jun 2027 07:10:39.090   02 Jun 2027 07:13:17.908           158.818               Magadan1          4963.063
       154   02 Jun 2027 08:44:12.023   02 Jun 2027 08:46:52.802           160.779               Magadan2          5024.344
       155   02 Jun 2027 08:47:02.437   02 Jun 2027 08:47:45.673            43.236                Irkutsk          1351.125
       156   02 Jun 2027 08:47:57.630   02 Jun 2027 08:49:12.515            74.885               Magadan2          2340.156
       157   02 Jun 2027 09:25:01.850   02 Jun 2027 09:25:22.324            20.474            RioGallegos           639.813
       158   02 Jun 2027 09:27:05.039   02 Jun 2027 09:27:29.043            24.004            RioGallegos           750.125
       159   02 Jun 2027 10:17:45.820   02 Jun 2027 10:17:52.402             6.582                Irkutsk           205.688
       160   02 Jun 2027 10:17:57.692   02 Jun 2027 10:23:15.319           317.627               Magadan1          9925.844
       161   02 Jun 2027 10:23:43.718   02 Jun 2027 10:23:49.129             5.411              Murmansk2           169.094
       162   02 Jun 2027 10:23:50.027   02 Jun 2027 10:24:22.104            32.077                Irkutsk          1002.406
       163   02 Jun 2027 10:24:28.055   02 Jun 2027 10:25:21.353            53.298                Novosib          1665.562
       164   02 Jun 2027 10:31:49.073   02 Jun 2027 10:31:52.524             3.451              Murmansk1           107.844
       165   02 Jun 2027 10:32:41.994   02 Jun 2027 10:33:07.858            25.864              Murmansk2           808.250
       166   02 Jun 2027 10:59:39.492   02 Jun 2027 11:00:36.407            56.915            RioGallegos          1778.594
       167   02 Jun 2027 11:34:43.948   02 Jun 2027 11:35:23.826            39.878                Sumatra          1246.187
       168   02 Jun 2027 11:44:47.946   02 Jun 2027 11:46:06.867            78.921                Sumatra          2466.281
       169   02 Jun 2027 11:54:46.630   02 Jun 2027 11:57:11.335           144.705                Irkutsk          4522.031
       170   02 Jun 2027 11:57:26.331   02 Jun 2027 11:58:05.812            39.481                Irkutsk          1233.781
       171   02 Jun 2027 11:58:11.334   02 Jun 2027 11:58:38.487            27.153                Novosib           848.531
       172   02 Jun 2027 11:58:44.506   02 Jun 2027 11:59:55.102            70.596              Murmansk1          2206.125
       173   02 Jun 2027 12:00:00.101   02 Jun 2027 12:00:53.772            53.671                Norilsk          1677.219
       174   02 Jun 2027 12:01:11.656   02 Jun 2027 12:01:45.975            34.319                Novosib          1072.469
       175   02 Jun 2027 12:02:12.079   02 Jun 2027 12:02:13.033             0.954                Novosib            29.813
       176   02 Jun 2027 12:03:25.926   02 Jun 2027 12:03:41.730            15.804              Murmansk1           493.875
       177   02 Jun 2027 12:03:41.730   02 Jun 2027 12:03:54.166            12.436              Murmansk2           388.625
       178   02 Jun 2027 12:04:06.049   02 Jun 2027 12:04:31.290            25.241                Norilsk           788.781
       179   02 Jun 2027 12:05:12.991   02 Jun 2027 12:05:42.124            29.133                Norilsk           910.406
       180   02 Jun 2027 12:06:25.245   02 Jun 2027 12:06:58.294            33.049              Murmansk2          1032.781
       181   02 Jun 2027 12:07:19.351   02 Jun 2027 12:07:59.082            39.731              Murmansk1          1241.594
       182   02 Jun 2027 12:42:42.027   02 Jun 2027 12:43:37.948            55.921            RioGallegos          1747.531
       183   02 Jun 2027 12:46:32.188   02 Jun 2027 12:47:15.304            43.116            RioGallegos          1347.375
       184   02 Jun 2027 13:12:38.713   02 Jun 2027 13:14:33.345           114.632                Sumatra          3582.250
       185   02 Jun 2027 13:28:29.709   02 Jun 2027 13:31:05.350           155.641                Irkutsk          4863.781
       186   02 Jun 2027 13:32:07.179   02 Jun 2027 13:32:37.096            29.917                Irkutsk           934.906
       187   02 Jun 2027 13:40:03.129   02 Jun 2027 13:40:53.966            50.837                Norilsk          1588.656
       188   02 Jun 2027 14:58:30.641   02 Jun 2027 15:01:43.259           192.618                  Delhi          6019.312
       189   02 Jun 2027 15:06:35.019   02 Jun 2027 15:07:33.011            57.992              Murmansk1          1812.250
       190   02 Jun 2027 15:08:31.236   02 Jun 2027 15:11:02.964           151.728                Novosib          4741.500
       191   02 Jun 2027 15:13:56.949   02 Jun 2027 15:14:32.538            35.589                Norilsk          1112.156
       192   02 Jun 2027 16:18:50.039   02 Jun 2027 16:19:20.350            30.311               CapeTown           947.219
       193   02 Jun 2027 16:20:47.186   02 Jun 2027 16:21:18.397            31.211               CapeTown           975.344
       194   02 Jun 2027 16:22:22.113   02 Jun 2027 16:22:26.852             4.739               CapeTown           148.094
       195   02 Jun 2027 16:24:25.896   02 Jun 2027 16:24:50.098            24.202               CapeTown           756.313
       196   02 Jun 2027 16:26:08.023   02 Jun 2027 16:26:42.628            34.605               CapeTown          1081.406
       197   02 Jun 2027 16:39:49.861   02 Jun 2027 16:40:33.036            43.175                 Moscow          1349.219
       198   02 Jun 2027 16:43:12.715   02 Jun 2027 16:43:48.532            35.817              Murmansk2          1119.281
       199   02 Jun 2027 16:45:54.808   02 Jun 2027 16:47:03.269            68.461              Murmansk2          2139.406
       200   02 Jun 2027 16:54:54.561   02 Jun 2027 16:55:30.666            36.105              Murmansk2          1128.281
       201   02 Jun 2027 16:57:54.553   02 Jun 2027 16:59:20.185            85.632                Anadyr2          2676.000
       202   02 Jun 2027 17:00:37.322   02 Jun 2027 17:00:43.848             6.526                Anadyr2           203.937
       203   02 Jun 2027 17:01:07.829   02 Jun 2027 17:01:20.648            12.819                Anadyr2           400.594
       204   02 Jun 2027 17:02:32.216   02 Jun 2027 17:02:35.951             3.735                Anadyr1           116.719
       205   02 Jun 2027 17:04:06.721   02 Jun 2027 17:04:20.454            13.733                Anadyr1           429.156
       206   02 Jun 2027 17:53:04.027   02 Jun 2027 17:55:01.613           117.586               CapeTown          3674.563
       207   02 Jun 2027 18:21:53.134   02 Jun 2027 18:24:23.529           150.395                 Moscow          4699.844
       208   02 Jun 2027 18:25:23.800   02 Jun 2027 18:27:00.928            97.128              Murmansk1          3035.250
       209   02 Jun 2027 18:31:15.177   02 Jun 2027 18:31:20.519             5.342              Murmansk2           166.937
       210   02 Jun 2027 18:35:23.606   02 Jun 2027 18:35:24.599             0.993                Anadyr1            31.031
       211   02 Jun 2027 18:35:25.041   02 Jun 2027 18:35:36.824            11.783                Anadyr1           368.219
       212   02 Jun 2027 18:36:05.236   02 Jun 2027 18:36:56.675            51.439                Anadyr1          1607.469
       213   02 Jun 2027 18:38:16.393   02 Jun 2027 18:38:31.114            14.721               Magadan1           460.031
       214   02 Jun 2027 18:38:31.114   02 Jun 2027 18:38:35.022             3.908               Magadan2           122.125
       215   02 Jun 2027 18:40:11.208   02 Jun 2027 18:40:12.816             1.608               Magadan1            50.250
       216   02 Jun 2027 18:41:52.761   02 Jun 2027 18:42:17.179            24.418               Magadan1           763.063
       217   02 Jun 2027 19:30:20.694   02 Jun 2027 19:30:53.523            32.829               CapeTown          1025.906
       218   02 Jun 2027 19:33:46.875   02 Jun 2027 19:35:22.360            95.485               CapeTown          2983.906
       219   02 Jun 2027 20:09:07.302   02 Jun 2027 20:09:57.487            50.185                Anadyr1          1568.281
       220   02 Jun 2027 20:10:02.690   02 Jun 2027 20:12:31.019           148.329                Anadyr2          4635.281
       221   02 Jun 2027 20:12:36.157   02 Jun 2027 20:13:35.773            59.616               Magadan2          1863.000
       222   02 Jun 2027 20:13:55.771   02 Jun 2027 20:14:00.262             4.491               Magadan1           140.344
       223   02 Jun 2027 20:14:02.294   02 Jun 2027 20:14:11.854             9.560               Magadan1           298.750
       224   02 Jun 2027 20:15:48.533   02 Jun 2027 20:16:21.202            32.669               Magadan1          1020.906
       225   02 Jun 2027 20:23:14.411   02 Jun 2027 20:23:26.473            12.062               Magadan1           376.937
       226   02 Jun 2027 21:45:01.618   02 Jun 2027 21:47:05.153           123.535                Anadyr1          3860.469
       227   02 Jun 2027 21:47:10.416   02 Jun 2027 21:48:42.957            92.541                Anadyr2          2891.906
       228   02 Jun 2027 21:48:55.240   02 Jun 2027 21:50:52.922           117.682                Norilsk          3677.563
       229   02 Jun 2027 21:51:09.485   02 Jun 2027 21:52:28.678            79.193               Magadan1          2474.781
       230   02 Jun 2027 21:53:28.187   02 Jun 2027 21:53:42.506            14.319               Magadan2           447.469
       231   02 Jun 2027 21:54:10.766   02 Jun 2027 21:54:22.548            11.782               Magadan2           368.187
       232   02 Jun 2027 21:54:24.490   02 Jun 2027 21:55:36.171            71.681                Irkutsk          2240.031
       233   02 Jun 2027 22:39:19.090   02 Jun 2027 22:41:30.413           131.323            RioGallegos          4103.844
       234   02 Jun 2027 22:45:13.851   02 Jun 2027 22:45:28.409            14.558            RioGallegos           454.937
       235   02 Jun 2027 23:20:34.923   02 Jun 2027 23:22:50.658           135.735                Anadyr2          4241.719
       236   02 Jun 2027 23:22:51.012   02 Jun 2027 23:24:32.145           101.133                Norilsk          3160.406
       237   02 Jun 2027 23:26:57.621   02 Jun 2027 23:27:53.842            56.221                Irkutsk          1756.906
       238   02 Jun 2027 23:28:26.899   02 Jun 2027 23:29:36.514            69.615                Novosib          2175.469
       239   02 Jun 2027 23:30:44.236   02 Jun 2027 23:31:20.619            36.383                Novosib          1136.969
       240   02 Jun 2027 23:35:06.140   02 Jun 2027 23:35:16.568            10.428                Novosib           325.875
       241   02 Jun 2027 23:40:39.753   02 Jun 2027 23:41:17.851            38.098                Sumatra          1190.563
       242   02 Jun 2027 23:47:24.793   02 Jun 2027 23:47:59.369            34.576                Sumatra          1080.500
       243   02 Jun 2027 23:49:08.795   02 Jun 2027 23:49:49.760            40.965                Sumatra          1280.156
       244   03 Jun 2027 00:19:49.624   03 Jun 2027 00:20:10.248            20.624            RioGallegos           644.500
       245   03 Jun 2027 00:22:27.719   03 Jun 2027 00:22:42.399            14.680            RioGallegos           458.750
       246   03 Jun 2027 00:24:40.001   03 Jun 2027 00:24:52.221            12.220            RioGallegos           381.875
       247   03 Jun 2027 00:25:10.710   03 Jun 2027 00:25:16.679             5.969            RioGallegos           186.531
       248   03 Jun 2027 00:26:24.407   03 Jun 2027 00:26:27.593             3.186            RioGallegos            99.562
       249   03 Jun 2027 00:55:11.557   03 Jun 2027 00:55:36.287            24.730                Anadyr1           772.813
       250   03 Jun 2027 00:56:05.672   03 Jun 2027 00:56:49.831            44.159                Anadyr1          1379.969
       251   03 Jun 2027 00:57:14.485   03 Jun 2027 00:57:47.897            33.412                Anadyr1          1044.125
       252   03 Jun 2027 00:58:49.760   03 Jun 2027 01:01:36.330           166.570                Norilsk          5205.313
       253   03 Jun 2027 01:02:43.422   03 Jun 2027 01:04:42.266           118.844                Irkutsk          3713.875
       254   03 Jun 2027 01:09:35.698   03 Jun 2027 01:10:12.697            36.999                Novosib          1156.219
       255   03 Jun 2027 01:13:31.672   03 Jun 2027 01:13:36.782             5.110                Irkutsk           159.688
       256   03 Jun 2027 01:13:53.782   03 Jun 2027 01:14:39.836            46.054                Irkutsk          1439.188
       257   03 Jun 2027 01:19:13.740   03 Jun 2027 01:20:28.413            74.673                Sumatra          2333.531
       258   03 Jun 2027 01:53:41.917   03 Jun 2027 01:54:11.530            29.613            RioGallegos           925.406
       259   03 Jun 2027 01:57:31.572   03 Jun 2027 01:57:48.257            16.685            RioGallegos           521.406
       260   03 Jun 2027 01:58:05.330   03 Jun 2027 01:58:18.969            13.639            RioGallegos           426.219
       261   03 Jun 2027 01:58:31.512   03 Jun 2027 02:00:01.984            90.472            RioGallegos          2827.250
       262   03 Jun 2027 02:34:30.303   03 Jun 2027 02:34:45.182            14.879                Anadyr1           464.969
       263   03 Jun 2027 02:34:48.907   03 Jun 2027 02:35:44.614            55.707                Norilsk          1740.844
       264   03 Jun 2027 02:36:03.901   03 Jun 2027 02:36:21.830            17.929                Norilsk           560.281
       265   03 Jun 2027 02:37:06.776   03 Jun 2027 02:38:23.323            76.547              Murmansk1          2392.094
       266   03 Jun 2027 02:38:38.145   03 Jun 2027 02:39:07.928            29.783                Novosib           930.719
       267   03 Jun 2027 02:41:43.755   03 Jun 2027 02:42:12.576            28.821                 Moscow           900.656
       268   03 Jun 2027 02:44:00.282   03 Jun 2027 02:44:39.618            39.336                Novosib          1229.250
       269   03 Jun 2027 02:48:13.917   03 Jun 2027 02:50:13.341           119.424                  Delhi          3732.000
       270   03 Jun 2027 04:21:17.290   03 Jun 2027 04:21:19.854             2.564                Norilsk            80.125
       271   03 Jun 2027 04:21:47.301   03 Jun 2027 04:22:32.105            44.804              Murmansk2          1400.125
       272   03 Jun 2027 04:23:11.695   03 Jun 2027 04:25:49.095           157.400                 Moscow          4918.750
       273   03 Jun 2027 04:27:31.300   03 Jun 2027 04:28:52.827            81.527                 Moscow          2547.719
       274   03 Jun 2027 04:42:36.343   03 Jun 2027 04:42:50.407            14.064               CapeTown           439.500
       275   03 Jun 2027 04:43:07.799   03 Jun 2027 04:43:49.293            41.494               CapeTown          1296.687
       276   03 Jun 2027 04:46:43.135   03 Jun 2027 04:47:08.061            24.926               CapeTown           778.938
       277   03 Jun 2027 04:47:41.422   03 Jun 2027 04:49:50.138           128.716               CapeTown          4022.375
       278   03 Jun 2027 05:43:53.247   03 Jun 2027 05:45:18.034            84.787                Anadyr2          2649.594
       279   03 Jun 2027 05:56:16.988   03 Jun 2027 05:56:54.174            37.186                Norilsk          1162.063
       280   03 Jun 2027 05:56:55.945   03 Jun 2027 05:58:04.357            68.412              Murmansk1          2137.875
       281   03 Jun 2027 05:58:30.912   03 Jun 2027 05:59:31.600            60.688              Murmansk1          1896.500
       282   03 Jun 2027 06:00:18.359   03 Jun 2027 06:00:31.235            12.876              Murmansk2           402.375
       283   03 Jun 2027 06:17:13.900   03 Jun 2027 06:18:04.616            50.716               CapeTown          1584.875
       284   03 Jun 2027 07:17:31.642   03 Jun 2027 07:18:06.141            34.499                Anadyr1          1078.094
       285   03 Jun 2027 07:18:08.363   03 Jun 2027 07:18:27.488            19.125               Magadan1           597.656
       286   03 Jun 2027 07:18:45.954   03 Jun 2027 07:18:50.087             4.133               Magadan2           129.156
       287   03 Jun 2027 07:18:50.087   03 Jun 2027 07:19:22.163            32.076               Magadan1          1002.375
       288   03 Jun 2027 07:19:30.431   03 Jun 2027 07:21:06.911            96.480               Magadan1          3015.000
       289   03 Jun 2027 07:21:32.054   03 Jun 2027 07:21:47.425            15.371               Magadan2           480.344
       290   03 Jun 2027 07:21:51.680   03 Jun 2027 07:22:38.964            47.284                Norilsk          1477.625
       291   03 Jun 2027 07:23:15.798   03 Jun 2027 07:23:50.344            34.546                Anadyr1          1079.562
       292   03 Jun 2027 07:34:34.227   03 Jun 2027 07:34:48.993            14.766                 Moscow           461.437
       293   03 Jun 2027 08:05:28.163   03 Jun 2027 08:06:00.691            32.528            RioGallegos          1016.500
       294   03 Jun 2027 08:52:29.452   03 Jun 2027 08:52:45.001            15.549               Magadan1           485.906
       295   03 Jun 2027 08:52:50.860   03 Jun 2027 08:53:09.463            18.603               Magadan1           581.344
       296   03 Jun 2027 08:53:10.357   03 Jun 2027 08:54:42.034            91.677                Anadyr1          2864.906
       297   03 Jun 2027 08:54:48.739   03 Jun 2027 08:55:16.037            27.298               Magadan1           853.063
       298   03 Jun 2027 08:55:29.931   03 Jun 2027 08:56:09.628            39.697               Magadan1          1240.531
       299   03 Jun 2027 08:56:23.312   03 Jun 2027 08:57:43.728            80.416                Anadyr1          2513.000
       300   03 Jun 2027 08:57:49.342   03 Jun 2027 09:00:55.812           186.470                Anadyr2          5827.187
       301   03 Jun 2027 10:30:11.490   03 Jun 2027 10:30:15.930             4.440                Irkutsk           138.750
       302   03 Jun 2027 10:30:25.318   03 Jun 2027 10:30:46.012            20.694                Irkutsk           646.688
       303   03 Jun 2027 10:30:51.510   03 Jun 2027 10:31:45.705            54.195                Norilsk          1693.594
       304   03 Jun 2027 10:31:54.702   03 Jun 2027 10:32:42.989            48.287                Irkutsk          1508.969
       305   03 Jun 2027 10:32:50.752   03 Jun 2027 10:35:13.731           142.979               Magadan2          4468.094
       306   03 Jun 2027 10:35:22.981   03 Jun 2027 10:36:22.040            59.059                Novosib          1845.594
       307   03 Jun 2027 10:36:32.979   03 Jun 2027 10:36:38.898             5.919                Norilsk           184.969
       308   03 Jun 2027 10:36:48.587   03 Jun 2027 10:37:11.050            22.463              Murmansk2           701.969
       309   03 Jun 2027 10:40:26.177   03 Jun 2027 10:41:10.505            44.328              Murmansk1          1385.250
       310   03 Jun 2027 11:11:46.083   03 Jun 2027 11:11:50.660             4.577            RioGallegos           143.031
       311   03 Jun 2027 11:12:59.025   03 Jun 2027 11:13:47.913            48.888            RioGallegos          1527.750
       312   03 Jun 2027 11:46:37.025   03 Jun 2027 11:48:13.709            96.684                Sumatra          3021.375
       313   03 Jun 2027 12:06:32.052   03 Jun 2027 12:07:01.814            29.762                Norilsk           930.063
       314   03 Jun 2027 12:09:21.878   03 Jun 2027 12:09:43.208            21.330              Murmansk2           666.563
       315   03 Jun 2027 12:10:50.207   03 Jun 2027 12:12:00.505            70.298                Norilsk          2196.812
       316   03 Jun 2027 12:18:28.951   03 Jun 2027 12:18:48.779            19.828              Murmansk2           619.625
       317   03 Jun 2027 12:51:06.170   03 Jun 2027 12:51:52.490            46.320            RioGallegos          1447.500
       318   03 Jun 2027 12:52:34.454   03 Jun 2027 12:54:42.612           128.158            RioGallegos          4004.938
       319   03 Jun 2027 13:26:01.835   03 Jun 2027 13:27:11.747            69.912                Sumatra          2184.750
       320   03 Jun 2027 13:38:23.464   03 Jun 2027 13:39:03.003            39.539                Novosib          1235.594
       321   03 Jun 2027 13:39:39.537   03 Jun 2027 13:40:41.039            61.502                Novosib          1921.937
       322   03 Jun 2027 13:42:00.256   03 Jun 2027 13:43:03.772            63.516                Irkutsk          1984.875
       323   03 Jun 2027 13:50:12.082   03 Jun 2027 13:51:45.543            93.461                Norilsk          2920.656
       324   03 Jun 2027 15:15:13.499   03 Jun 2027 15:16:20.710            67.211                 Moscow          2100.344
       325   03 Jun 2027 15:17:01.450   03 Jun 2027 15:17:34.070            32.620                 Moscow          1019.375
       326   03 Jun 2027 15:17:54.400   03 Jun 2027 15:18:55.505            61.105                 Moscow          1909.531
       327   03 Jun 2027 15:19:32.802   03 Jun 2027 15:19:52.620            19.818              Murmansk2           619.313
       328   03 Jun 2027 15:20:10.456   03 Jun 2027 15:20:49.016            38.560              Murmansk1          1205.000
       329   03 Jun 2027 15:21:05.615   03 Jun 2027 15:22:27.792            82.177                Novosib          2568.031
       330   03 Jun 2027 15:25:53.864   03 Jun 2027 15:26:56.408            62.544                Norilsk          1954.500
       331   03 Jun 2027 16:30:11.347   03 Jun 2027 16:31:07.379            56.032               CapeTown          1751.000
       332   03 Jun 2027 16:33:32.112   03 Jun 2027 16:33:58.950            26.838               CapeTown           838.688
       333   03 Jun 2027 16:35:57.448   03 Jun 2027 16:36:18.429            20.981               CapeTown           655.656
       334   03 Jun 2027 16:38:19.509   03 Jun 2027 16:38:31.713            12.204               CapeTown           381.375
       335   03 Jun 2027 16:39:10.206   03 Jun 2027 16:39:23.443            13.237               CapeTown           413.656
       336   03 Jun 2027 16:52:11.362   03 Jun 2027 16:52:35.136            23.774                 Moscow           742.937
       337   03 Jun 2027 16:54:08.602   03 Jun 2027 16:55:01.213            52.611                 Moscow          1644.094
       338   03 Jun 2027 16:57:56.744   03 Jun 2027 16:58:22.514            25.770              Murmansk1           805.313
       339   03 Jun 2027 17:00:46.624   03 Jun 2027 17:00:57.436            10.812              Murmansk2           337.875
       340   03 Jun 2027 17:03:12.948   03 Jun 2027 17:03:46.017            33.069              Murmansk1          1033.406
       341   03 Jun 2027 17:05:24.579   03 Jun 2027 17:05:40.335            15.756              Murmansk2           492.375
       342   03 Jun 2027 17:06:48.917   03 Jun 2027 17:07:32.510            43.593              Murmansk1          1362.281
       343   03 Jun 2027 17:09:46.557   03 Jun 2027 17:10:11.614            25.057                Anadyr1           783.031
       344   03 Jun 2027 17:10:37.172   03 Jun 2027 17:11:00.273            23.101                Anadyr2           721.906
       345   03 Jun 2027 17:12:31.936   03 Jun 2027 17:12:53.750            21.814                Anadyr1           681.688
       346   03 Jun 2027 17:15:31.854   03 Jun 2027 17:16:04.731            32.877                Anadyr2          1027.406
       347   03 Jun 2027 18:04:37.417   03 Jun 2027 18:04:42.617             5.200               CapeTown           162.500
       348   03 Jun 2027 18:06:51.924   03 Jun 2027 18:07:07.573            15.649               CapeTown           489.031
       349   03 Jun 2027 18:08:27.672   03 Jun 2027 18:08:35.194             7.522               CapeTown           235.063
       350   03 Jun 2027 18:08:52.643   03 Jun 2027 18:09:29.345            36.702               CapeTown          1146.937
       351   03 Jun 2027 18:16:04.642   03 Jun 2027 18:16:21.115            16.473               CapeTown           514.781
       352   03 Jun 2027 18:34:29.523   03 Jun 2027 18:35:05.058            35.535              Murmansk2          1110.469
       353   03 Jun 2027 18:35:09.979   03 Jun 2027 18:39:39.531           269.552              Murmansk1          8423.500
       354   03 Jun 2027 18:48:57.126   03 Jun 2027 18:49:59.978            62.852               Magadan2          1964.125
       355   03 Jun 2027 19:44:23.303   03 Jun 2027 19:44:42.734            19.431               CapeTown           607.219
       356   03 Jun 2027 19:47:05.026   03 Jun 2027 19:47:52.043            47.017               CapeTown          1469.281
       357   03 Jun 2027 20:21:09.060   03 Jun 2027 20:24:53.826           224.766                Anadyr2          7023.937
       358   03 Jun 2027 20:25:23.833   03 Jun 2027 20:27:30.341           126.508               Magadan1          3953.375
       359   03 Jun 2027 21:57:02.100   03 Jun 2027 22:00:42.454           220.354                Anadyr2          6886.063
       360   03 Jun 2027 22:00:44.137   03 Jun 2027 22:03:20.438           156.301                Norilsk          4884.406
       361   03 Jun 2027 22:03:44.268   03 Jun 2027 22:04:18.766            34.498                Norilsk          1078.063
       362   03 Jun 2027 22:04:45.170   03 Jun 2027 22:05:05.400            20.230                Norilsk           632.187
       363   03 Jun 2027 22:05:38.007   03 Jun 2027 22:05:51.637            13.630               Magadan1           425.937
       364   03 Jun 2027 22:06:09.329   03 Jun 2027 22:06:25.963            16.634                Irkutsk           519.812
       365   03 Jun 2027 22:06:42.540   03 Jun 2027 22:07:25.448            42.908                Irkutsk          1340.875
       366   03 Jun 2027 22:09:43.039   03 Jun 2027 22:09:51.997             8.958                Irkutsk           279.937
       367   03 Jun 2027 22:22:32.150   03 Jun 2027 22:24:07.184            95.034                Sumatra          2969.812
       368   03 Jun 2027 22:51:11.504   03 Jun 2027 22:51:53.261            41.757            RioGallegos          1304.906
       369   03 Jun 2027 23:00:18.277   03 Jun 2027 23:00:41.332            23.055            RioGallegos           720.469
       370   03 Jun 2027 23:32:30.532   03 Jun 2027 23:34:51.325           140.793                Anadyr1          4399.781
       371   03 Jun 2027 23:34:52.346   03 Jun 2027 23:36:34.268           101.922                Norilsk          3185.062
       372   03 Jun 2027 23:36:44.120   03 Jun 2027 23:37:40.470            56.350               Magadan2          1760.937
       373   03 Jun 2027 23:39:16.101   03 Jun 2027 23:39:29.064            12.963                Irkutsk           405.094
       374   03 Jun 2027 23:40:01.645   03 Jun 2027 23:41:42.891           101.246                Novosib          3163.938
       375   03 Jun 2027 23:45:36.474   03 Jun 2027 23:46:23.728            47.254                Novosib          1476.687
       376   04 Jun 2027 00:01:21.636   04 Jun 2027 00:02:10.877            49.241                Sumatra          1538.781
       377   04 Jun 2027 00:27:40.367   04 Jun 2027 00:27:46.212             5.845            RioGallegos           182.656
       378   04 Jun 2027 00:28:50.061   04 Jun 2027 00:28:55.078             5.017            RioGallegos           156.781
       379   04 Jun 2027 00:29:57.810   04 Jun 2027 00:30:39.148            41.338            RioGallegos          1291.812
       380   04 Jun 2027 00:38:24.282   04 Jun 2027 00:38:37.426            13.144            RioGallegos           410.750
       381   04 Jun 2027 01:06:57.518   04 Jun 2027 01:07:30.035            32.517                Anadyr2          1016.156
       382   04 Jun 2027 01:08:04.703   04 Jun 2027 01:08:42.180            37.477                Anadyr1          1171.156
       383   04 Jun 2027 01:09:09.477   04 Jun 2027 01:09:36.669            27.192                Anadyr2           849.750
       384   04 Jun 2027 01:10:52.060   04 Jun 2027 01:12:50.765           118.705                Norilsk          3709.531
       385   04 Jun 2027 01:13:53.717   04 Jun 2027 01:14:20.553            26.836               Magadan1           838.625
       386   04 Jun 2027 01:14:44.597   04 Jun 2027 01:16:36.668           112.071                Novosib          3502.219
       387   04 Jun 2027 01:17:30.484   04 Jun 2027 01:17:38.497             8.013                Novosib           250.406
       388   04 Jun 2027 01:18:30.788   04 Jun 2027 01:18:38.109             7.321                Novosib           228.781
       389   04 Jun 2027 01:22:13.308   04 Jun 2027 01:23:02.200            48.892                  Delhi          1527.875
       390   04 Jun 2027 01:26:15.705   04 Jun 2027 01:28:08.172           112.467                  Delhi          3514.594
       391   04 Jun 2027 02:03:29.213   04 Jun 2027 02:04:49.243            80.030            RioGallegos          2500.937
       392   04 Jun 2027 02:40:20.116   04 Jun 2027 02:40:38.799            18.683                Anadyr1           583.844
       393   04 Jun 2027 02:43:10.470   04 Jun 2027 02:43:18.133             7.663                Anadyr1           239.469
       394   04 Jun 2027 02:45:31.511   04 Jun 2027 02:46:32.909            61.398                Anadyr1          1918.688
       395   04 Jun 2027 02:46:34.209   04 Jun 2027 02:47:14.074            39.865               Magadan1          1245.781
       396   04 Jun 2027 02:47:38.822   04 Jun 2027 02:47:43.864             5.042                Norilsk           157.563
       397   04 Jun 2027 02:48:12.137   04 Jun 2027 02:48:21.133             8.996                Norilsk           281.125
       398   04 Jun 2027 02:49:05.946   04 Jun 2027 02:49:56.923            50.977              Murmansk2          1593.031
       399   04 Jun 2027 02:50:25.979   04 Jun 2027 02:50:41.218            15.239              Murmansk1           476.219
       400   04 Jun 2027 02:50:41.880   04 Jun 2027 02:51:19.855            37.975                Novosib          1186.719
       401   04 Jun 2027 02:51:38.458   04 Jun 2027 02:52:38.086            59.628                Novosib          1863.375
       402   04 Jun 2027 02:58:13.248   04 Jun 2027 02:58:40.209            26.961                Irkutsk           842.531
       403   04 Jun 2027 02:59:46.703   04 Jun 2027 03:00:00.927            14.224                  Delhi           444.500
       404   04 Jun 2027 04:34:16.889   04 Jun 2027 04:34:24.246             7.357              Murmansk2           229.906
       405   04 Jun 2027 04:34:24.246   04 Jun 2027 04:34:34.117             9.871              Murmansk1           308.469
       406   04 Jun 2027 04:35:10.701   04 Jun 2027 04:35:42.834            32.133              Murmansk2          1004.156
       407   04 Jun 2027 04:35:47.060   04 Jun 2027 04:37:25.997            98.937              Murmansk1          3091.781
       408   04 Jun 2027 04:37:33.868   04 Jun 2027 04:37:46.831            12.963                 Moscow           405.094
       409   04 Jun 2027 04:38:54.874   04 Jun 2027 04:38:55.648             0.774                 Moscow            24.188
       410   04 Jun 2027 04:39:11.287   04 Jun 2027 04:39:31.761            20.474                 Moscow           639.813
       411   04 Jun 2027 04:40:02.429   04 Jun 2027 04:41:01.680            59.251                 Moscow          1851.594
       412   04 Jun 2027 04:52:14.127   04 Jun 2027 04:56:22.688           248.561               CapeTown          7767.531
       413   04 Jun 2027 05:48:49.414   04 Jun 2027 05:49:36.747            47.333                Anadyr2          1479.156
       414   04 Jun 2027 05:55:21.134   04 Jun 2027 05:56:41.236            80.102               Magadan2          2503.188
       415   04 Jun 2027 05:57:01.827   04 Jun 2027 05:57:49.251            47.424               Magadan1          1482.000
       416   04 Jun 2027 05:57:59.526   04 Jun 2027 05:59:55.654           116.128                Anadyr2          3629.000
       417   04 Jun 2027 06:07:24.760   04 Jun 2027 06:07:55.684            30.924              Murmansk1           966.375
       418   04 Jun 2027 06:08:15.844   04 Jun 2027 06:08:16.075             0.231                Norilsk             7.219
       419   04 Jun 2027 06:08:17.832   04 Jun 2027 06:08:23.949             6.117              Murmansk2           191.156
       420   04 Jun 2027 06:08:40.839   04 Jun 2027 06:08:46.597             5.758              Murmansk2           179.937
       421   04 Jun 2027 06:09:24.118   04 Jun 2027 06:10:05.029            40.911              Murmansk1          1278.469
       422   04 Jun 2027 06:29:53.428   04 Jun 2027 06:32:03.230           129.802               CapeTown          4056.313
       423   04 Jun 2027 07:29:17.984   04 Jun 2027 07:30:07.696            49.712                Anadyr2          1553.500
       424   04 Jun 2027 07:30:09.189   04 Jun 2027 07:30:16.737             7.548                Anadyr1           235.875
       425   04 Jun 2027 07:30:27.728   04 Jun 2027 07:30:37.003             9.275               Magadan1           289.844
       426   04 Jun 2027 07:30:49.683   04 Jun 2027 07:31:25.566            35.883               Magadan1          1121.344
       427   04 Jun 2027 07:31:32.253   04 Jun 2027 07:33:05.465            93.212               Magadan2          2912.875
       428   04 Jun 2027 07:33:29.940   04 Jun 2027 07:33:34.855             4.915               Magadan2           153.594
       429   04 Jun 2027 07:33:43.957   04 Jun 2027 07:34:39.774            55.817                Norilsk          1744.281
       430   04 Jun 2027 07:42:05.529   04 Jun 2027 07:42:28.860            23.331                 Moscow           729.094
       431   04 Jun 2027 08:18:40.273   04 Jun 2027 08:19:35.847            55.574            RioGallegos          1736.688
       432   04 Jun 2027 09:04:23.431   04 Jun 2027 09:04:35.125            11.694               Magadan1           365.438
       433   04 Jun 2027 09:05:32.394   04 Jun 2027 09:05:44.933            12.539               Magadan2           391.844
       434   04 Jun 2027 09:05:44.933   04 Jun 2027 09:06:33.190            48.257               Magadan1          1508.031
       435   04 Jun 2027 09:07:13.221   04 Jun 2027 09:07:32.643            19.422               Magadan1           606.937
       436   04 Jun 2027 09:07:36.614   04 Jun 2027 09:09:30.576           113.962               Magadan1          3561.313
       437   04 Jun 2027 09:10:10.963   04 Jun 2027 09:10:48.893            37.930                Irkutsk          1185.313
       438   04 Jun 2027 09:10:52.034   04 Jun 2027 09:11:29.444            37.410               Magadan2          1169.063
       439   04 Jun 2027 09:11:34.760   04 Jun 2027 09:12:07.580            32.820               Magadan2          1025.625
       440   04 Jun 2027 09:12:07.872   04 Jun 2027 09:12:30.513            22.641              Murmansk1           707.531
       441   04 Jun 2027 09:12:41.493   04 Jun 2027 09:12:53.120            11.627              Murmansk1           363.344
       442   04 Jun 2027 09:13:11.575   04 Jun 2027 09:13:18.856             7.281              Murmansk2           227.531
       443   04 Jun 2027 09:14:40.235   04 Jun 2027 09:15:12.595            32.360              Murmansk1          1011.250
       444   04 Jun 2027 09:48:26.014   04 Jun 2027 09:49:06.835            40.821            RioGallegos          1275.656
       445   04 Jun 2027 09:50:52.686   04 Jun 2027 09:51:41.688            49.002            RioGallegos          1531.312
       446   04 Jun 2027 10:27:01.533   04 Jun 2027 10:27:34.216            32.683                Sumatra          1021.344
       447   04 Jun 2027 10:42:16.728   04 Jun 2027 10:42:20.417             3.689                Norilsk           115.281
       448   04 Jun 2027 10:42:26.713   04 Jun 2027 10:42:32.265             5.552                Irkutsk           173.500
       449   04 Jun 2027 10:42:35.362   04 Jun 2027 10:42:39.250             3.888                Novosib           121.500
       450   04 Jun 2027 10:42:45.553   04 Jun 2027 10:43:10.895            25.342                Novosib           791.938
       451   04 Jun 2027 10:43:13.785   04 Jun 2027 10:43:46.251            32.466                Irkutsk          1014.563
       452   04 Jun 2027 10:43:48.124   04 Jun 2027 10:44:33.681            45.557                Novosib          1423.656
       453   04 Jun 2027 10:44:38.213   04 Jun 2027 10:45:12.228            34.015                Irkutsk          1062.969
       454   04 Jun 2027 10:45:28.929   04 Jun 2027 10:47:39.700           130.771               Magadan1          4086.594
       455   04 Jun 2027 10:47:55.847   04 Jun 2027 10:48:04.093             8.246                Irkutsk           257.688
       456   04 Jun 2027 10:48:06.664   04 Jun 2027 10:48:11.591             4.927                Norilsk           153.969
       457   04 Jun 2027 10:48:17.816   04 Jun 2027 10:48:21.485             3.669              Murmansk2           114.656
       458   04 Jun 2027 10:48:26.216   04 Jun 2027 10:48:59.468            33.252                Novosib          1039.125
       459   04 Jun 2027 10:49:05.901   04 Jun 2027 10:50:18.414            72.513                Novosib          2266.031
       460   04 Jun 2027 11:23:56.321   04 Jun 2027 11:23:57.282             0.961            RioGallegos            30.031
       461   04 Jun 2027 11:25:04.263   04 Jun 2027 11:25:44.582            40.319            RioGallegos          1259.969
       462   04 Jun 2027 11:58:35.839   04 Jun 2027 11:59:06.352            30.513                Sumatra           953.531
       463   04 Jun 2027 12:01:04.666   04 Jun 2027 12:01:23.695            19.029                Sumatra           594.656
       464   04 Jun 2027 12:09:12.910   04 Jun 2027 12:11:18.029           125.119                  Delhi          3909.969
       465   04 Jun 2027 12:14:50.032   04 Jun 2027 12:15:38.221            48.189                Novosib          1505.906
       466   04 Jun 2027 12:20:08.998   04 Jun 2027 12:20:24.373            15.375                Norilsk           480.469
       467   04 Jun 2027 12:21:49.998   04 Jun 2027 12:22:01.833            11.835              Murmansk1           369.844
       468   04 Jun 2027 12:23:07.075   04 Jun 2027 12:23:50.659            43.584              Murmansk1          1362.000
       469   04 Jun 2027 13:04:11.899   04 Jun 2027 13:06:42.093           150.194            RioGallegos          4693.563
       470   04 Jun 2027 13:44:57.212   04 Jun 2027 13:45:54.353            57.141                  Delhi          1785.656
       471   04 Jun 2027 13:50:45.848   04 Jun 2027 13:51:47.706            61.858                Novosib          1933.062
       472   04 Jun 2027 13:52:34.220   04 Jun 2027 13:54:54.054           139.834                Novosib          4369.813
       473   04 Jun 2027 14:00:40.338   04 Jun 2027 14:01:04.695            24.357                Novosib           761.156
       474   04 Jun 2027 14:03:51.298   04 Jun 2027 14:04:07.989            16.691                Norilsk           521.594
       475   04 Jun 2027 15:27:12.052   04 Jun 2027 15:31:00.858           228.806                 Moscow          7150.188
       476   04 Jun 2027 15:31:53.506   04 Jun 2027 15:33:02.391            68.885              Murmansk2          2152.656
       477   04 Jun 2027 15:34:44.096   04 Jun 2027 15:36:24.750           100.654                Norilsk          3145.437
       478   04 Jun 2027 15:37:52.033   04 Jun 2027 15:39:22.534            90.501                Norilsk          2828.156
       479   04 Jun 2027 16:45:30.616   04 Jun 2027 16:45:34.667             4.051               CapeTown           126.594
       480   04 Jun 2027 16:46:46.139   04 Jun 2027 16:47:05.962            19.823               CapeTown           619.469
       481   04 Jun 2027 16:51:53.249   04 Jun 2027 16:51:57.679             4.430               CapeTown           138.438
       482   04 Jun 2027 17:04:37.226   04 Jun 2027 17:05:00.698            23.472                 Moscow           733.500
