uniorb/output/strategy_2/Drop/Drop_KinoSat_110206.txt

KinoSat_110206
-------------------------
    Access    *     Start Time (UTCG)     *     Stop Time (UTCG)  *   Duration (s)        *       Station  *  Data (Mbytes)
         1   01 Jun 2027 03:51:43.589   01 Jun 2027 03:52:37.137            53.548                Novosib          3060.500
         2   01 Jun 2027 03:52:49.054   01 Jun 2027 03:53:51.932            62.878                Norilsk          5958.500
         3   01 Jun 2027 03:53:53.041   01 Jun 2027 03:54:07.391            14.350                Irkutsk           554.500
         4   01 Jun 2027 03:54:12.440   01 Jun 2027 03:54:36.146            23.706               Magadan1          2524.500
         5   01 Jun 2027 03:54:40.696   01 Jun 2027 03:55:05.690            24.994               Magadan1          2275.000
         6   01 Jun 2027 03:55:05.785   01 Jun 2027 03:55:14.407             8.622                Novosib            47.500
         7   01 Jun 2027 03:55:17.110   01 Jun 2027 03:55:44.067            26.957                Novosib          1351.500
         8   01 Jun 2027 03:55:47.754   01 Jun 2027 03:56:07.222            19.468                Norilsk          1843.500
         9   01 Jun 2027 03:56:09.195   01 Jun 2027 03:56:33.484            24.289                Norilsk           986.500
        10   01 Jun 2027 03:56:33.612   01 Jun 2027 03:56:42.660             9.048                Novosib            64.000
        11   01 Jun 2027 03:56:43.331   01 Jun 2027 03:57:25.103            41.772              Murmansk1           335.500
        12   01 Jun 2027 03:57:27.437   01 Jun 2027 03:57:42.865            15.428              Murmansk1          1167.000
        13   01 Jun 2027 03:57:46.196   01 Jun 2027 03:58:17.414            31.218                Norilsk          1665.500
        14   01 Jun 2027 03:58:19.444   01 Jun 2027 03:58:26.676             7.232                Novosib           904.000
        15   01 Jun 2027 03:58:28.379   01 Jun 2027 03:59:00.151            31.772              Murmansk1           962.500
        16   01 Jun 2027 05:28:53.154   01 Jun 2027 05:30:01.428            68.274                Irkutsk           554.500
        17   01 Jun 2027 05:30:01.433   01 Jun 2027 05:30:12.623            11.190                Norilsk             2.500
        18   01 Jun 2027 05:30:18.874   01 Jun 2027 05:31:00.460            41.586                Norilsk          3125.500
        19   01 Jun 2027 05:31:02.602   01 Jun 2027 05:31:23.199            20.597                Irkutsk          1071.000
        20   01 Jun 2027 05:31:27.513   01 Jun 2027 05:31:53.845            26.332                 Moscow          2157.000
        21   01 Jun 2027 05:31:58.335   01 Jun 2027 05:32:21.253            22.918              Murmansk2          2245.000
        22   01 Jun 2027 05:32:22.540   01 Jun 2027 05:32:36.608            14.068                Norilsk           643.500
        23   01 Jun 2027 05:32:45.712   01 Jun 2027 05:33:39.190            53.478                Norilsk          4552.000
        24   01 Jun 2027 05:33:52.519   01 Jun 2027 05:35:07.545            75.026              Murmansk1          6664.500
        25   01 Jun 2027 07:05:47.260   01 Jun 2027 07:07:09.920            82.660              Murmansk2          6683.000
        26   01 Jun 2027 07:07:26.536   01 Jun 2027 07:08:53.394            86.858                 Moscow          8308.000
        27   01 Jun 2027 07:08:59.652   01 Jun 2027 07:09:52.352            52.700                Norilsk          3129.000
        28   01 Jun 2027 07:09:53.893   01 Jun 2027 07:10:22.778            28.885                Norilsk           770.500
        29   01 Jun 2027 07:10:28.778   01 Jun 2027 07:10:50.011            21.233              Murmansk1          1465.000
        30   01 Jun 2027 08:40:48.788   01 Jun 2027 08:41:04.200            15.412              Murmansk1          1514.000
        31   01 Jun 2027 08:42:27.127   01 Jun 2027 08:43:33.849            66.722              Murmansk2          3237.000
        32   01 Jun 2027 08:43:53.971   01 Jun 2027 08:45:56.269           122.298              Murmansk2         10061.000
        33   02 Jun 2027 04:04:27.201   02 Jun 2027 04:06:22.672           115.471                Norilsk         12196.500
        34   02 Jun 2027 04:06:28.621   02 Jun 2027 04:07:23.071            54.450                Norilsk          2974.500
        35   02 Jun 2027 04:07:23.979   02 Jun 2027 04:07:47.259            23.280                Novosib           454.000
        36   02 Jun 2027 04:07:54.854   02 Jun 2027 04:09:22.129            87.275                Norilsk          3797.500
        37   02 Jun 2027 04:09:26.864   02 Jun 2027 04:10:18.155            51.291                Norilsk          2367.500
        38   02 Jun 2027 04:10:30.183   02 Jun 2027 04:11:26.626            56.443              Murmansk2          6014.000
        39   02 Jun 2027 05:41:22.413   02 Jun 2027 05:42:53.321            90.908                Norilsk         10185.500
        40   02 Jun 2027 05:42:59.635   02 Jun 2027 05:43:41.758            42.123                 Moscow          3157.000
        41   02 Jun 2027 05:43:42.207   02 Jun 2027 05:43:54.739            12.532                Irkutsk           224.500
        42   02 Jun 2027 05:43:54.934   02 Jun 2027 05:44:59.216            64.282                Irkutsk            97.500
        43   02 Jun 2027 05:45:02.148   02 Jun 2027 05:45:24.797            22.649                 Moscow          1466.000
        44   02 Jun 2027 05:45:37.503   02 Jun 2027 05:46:36.337            58.834                 Moscow          6353.000
        45   02 Jun 2027 07:17:59.918   02 Jun 2027 07:19:12.434            72.516                Novosib          5624.000
        46   02 Jun 2027 07:19:21.834   02 Jun 2027 07:19:59.911            38.077              Murmansk2          4700.000
        47   02 Jun 2027 07:20:00.393   02 Jun 2027 07:20:24.825            24.432              Murmansk1           241.000
        48   02 Jun 2027 07:20:25.672   02 Jun 2027 07:20:51.817            26.145                Norilsk           423.500
        49   02 Jun 2027 07:20:58.730   02 Jun 2027 07:21:20.198            21.468                 Moscow          2683.500
        50   02 Jun 2027 07:21:33.220   02 Jun 2027 07:22:51.074            77.854                Novosib          7284.000
        51   02 Jun 2027 08:56:07.321   02 Jun 2027 08:56:51.940            44.619              Murmansk1          4144.500
        52   02 Jun 2027 08:56:54.341   02 Jun 2027 08:58:09.334            74.993              Murmansk2          1200.500
        53   03 Jun 2027 04:16:38.901   03 Jun 2027 04:18:13.441            94.540                Novosib          5062.000
        54   03 Jun 2027 04:18:15.225   03 Jun 2027 04:18:43.410            28.185                Irkutsk           892.000
        55   03 Jun 2027 04:18:47.551   03 Jun 2027 04:19:10.628            23.077                Irkutsk          2070.500
        56   03 Jun 2027 04:19:15.866   03 Jun 2027 04:19:39.848            23.982                Norilsk          2619.000
        57   03 Jun 2027 04:19:45.415   03 Jun 2027 04:20:08.161            22.746                Norilsk          2783.500
        58   03 Jun 2027 04:20:11.256   03 Jun 2027 04:21:17.290            66.034                Norilsk          1547.500
        59   03 Jun 2027 04:21:18.457   03 Jun 2027 04:21:47.301            28.844              Murmansk2           583.500
        60   03 Jun 2027 04:21:55.162   03 Jun 2027 04:22:25.821            30.659                Novosib          3832.375
        61   03 Jun 2027 04:22:32.105   03 Jun 2027 04:23:19.153            47.048              Murmansk1          3240.125
        62   03 Jun 2027 05:54:04.774   03 Jun 2027 05:54:14.599             9.825              Murmansk2           898.500
        63   03 Jun 2027 05:54:33.975   03 Jun 2027 05:56:02.149            88.174                 Moscow          9688.000
        64   03 Jun 2027 05:56:02.769   03 Jun 2027 05:56:08.072             5.303                 Moscow           310.000
        65   03 Jun 2027 05:56:16.189   03 Jun 2027 05:57:10.021            53.832                Novosib          4058.500
        66   03 Jun 2027 05:57:19.223   03 Jun 2027 05:58:01.749            42.526                Irkutsk          4601.000
        67   03 Jun 2027 05:58:04.357   03 Jun 2027 05:58:30.912            26.555              Murmansk1          1304.000
        68   03 Jun 2027 07:30:06.726   03 Jun 2027 07:30:13.761             7.035                 Moscow           350.000
        69   03 Jun 2027 07:30:14.515   03 Jun 2027 07:30:19.426             4.911                Norilsk           377.000
        70   03 Jun 2027 07:30:35.264   03 Jun 2027 07:32:07.072            91.808                Novosib          7919.000
        71   03 Jun 2027 07:32:10.032   03 Jun 2027 07:32:49.010            38.978                 Moscow          1480.000
        72   03 Jun 2027 07:32:49.847   03 Jun 2027 07:33:05.382            15.535                 Moscow           418.500
        73   03 Jun 2027 07:33:10.493   03 Jun 2027 07:33:35.231            24.738              Murmansk1          2555.500
        74   03 Jun 2027 07:33:42.112   03 Jun 2027 07:34:02.086            19.974                Norilsk          2496.750
        75   03 Jun 2027 07:34:06.483   03 Jun 2027 07:35:17.895            71.412              Murmansk1          3142.250
        76   04 Jun 2027 04:28:53.232   04 Jun 2027 04:30:01.190            67.958                Novosib          6103.000
        77   04 Jun 2027 04:30:04.510   04 Jun 2027 04:30:12.323             7.813                Irkutsk           976.625
        78   04 Jun 2027 04:30:13.135   04 Jun 2027 04:30:27.984            14.849                Novosib          1089.375
        79   04 Jun 2027 04:30:28.247   04 Jun 2027 04:31:21.220            52.973                Novosib           131.500
        80   04 Jun 2027 04:31:21.491   04 Jun 2027 04:31:35.711            14.220                Novosib           135.500
        81   04 Jun 2027 04:31:46.715   04 Jun 2027 04:32:43.923            57.208              Murmansk1          5502.000
        82   04 Jun 2027 04:32:50.701   04 Jun 2027 04:33:45.931            55.230              Murmansk2          3389.000
        83   04 Jun 2027 04:33:47.285   04 Jun 2027 04:34:16.889            29.604              Murmansk2           677.000
        84   04 Jun 2027 04:34:18.668   04 Jun 2027 04:34:28.125             9.457                Norilsk           889.500
        85   04 Jun 2027 04:34:34.117   04 Jun 2027 04:35:10.701            36.584              Murmansk2          2996.000
        86   04 Jun 2027 06:06:02.474   04 Jun 2027 06:06:46.442            43.968              Murmansk1          2377.500
        87   04 Jun 2027 06:06:55.314   04 Jun 2027 06:07:55.684            60.370              Murmansk2          4436.000
        88   04 Jun 2027 06:08:01.415   04 Jun 2027 06:08:29.412            27.997                 Moscow          2865.500
        89   04 Jun 2027 06:08:30.081   04 Jun 2027 06:08:42.937            12.856                Norilsk           334.500
        90   04 Jun 2027 06:08:46.597   04 Jun 2027 06:09:01.424            14.827              Murmansk2          1830.000
        91   04 Jun 2027 06:09:11.155   04 Jun 2027 06:09:51.728            40.573                 Moscow          4865.500
        92   04 Jun 2027 06:10:01.885   04 Jun 2027 06:11:04.868            62.983                 Moscow          5078.500
        93   04 Jun 2027 07:42:28.860   04 Jun 2027 07:44:01.854            92.994                 Moscow          9302.000
        94   04 Jun 2027 07:44:01.950   04 Jun 2027 07:44:04.551             2.601              Murmansk2            48.000
        95   04 Jun 2027 07:44:07.486   04 Jun 2027 07:44:51.105            43.619                Novosib          1467.500
        96   04 Jun 2027 07:44:58.220   04 Jun 2027 07:46:01.867            63.647                Novosib          3557.500
        97   04 Jun 2027 07:46:02.028   04 Jun 2027 07:47:04.079            62.051                Novosib            80.500
        98   05 Jun 2027 03:03:57.745   05 Jun 2027 03:04:47.062            49.317                Irkutsk          3724.500
        99   05 Jun 2027 03:04:51.783   05 Jun 2027 03:05:13.322            21.539               Magadan1          2360.500
       100   05 Jun 2027 03:05:14.711   05 Jun 2027 03:06:10.375            55.664                Novosib           694.500
       101   05 Jun 2027 03:06:14.169   05 Jun 2027 03:06:14.910             0.741                Norilsk            92.625
       102   05 Jun 2027 03:06:17.831   05 Jun 2027 03:06:46.349            28.518               Magadan2          3264.875
       103   05 Jun 2027 03:06:50.872   05 Jun 2027 03:07:41.532            50.660                Novosib          2261.500
       104   05 Jun 2027 03:07:50.284   05 Jun 2027 03:08:43.155            52.871               Magadan1          4376.000
       105   05 Jun 2027 03:08:49.841   05 Jun 2027 03:09:29.617            39.776               Magadan2          3343.000
       106   05 Jun 2027 03:09:30.525   05 Jun 2027 03:09:47.603            17.078              Murmansk1           454.000
       107   05 Jun 2027 03:09:53.199   05 Jun 2027 03:10:26.016            32.817                Norilsk          2798.000
       108   05 Jun 2027 03:10:26.383   05 Jun 2027 03:10:40.424            14.041              Murmansk2           183.500
       109   05 Jun 2027 03:10:42.655   05 Jun 2027 03:11:26.381            43.726              Murmansk1          1115.500
       110   05 Jun 2027 04:40:26.699   05 Jun 2027 04:41:24.378            57.679                Norilsk          3422.500
       111   05 Jun 2027 04:41:27.829   05 Jun 2027 04:41:42.115            14.286                Novosib          1725.500
       112   05 Jun 2027 04:41:50.151   05 Jun 2027 04:42:32.310            42.159                Novosib          4018.000
       113   05 Jun 2027 04:42:41.132   05 Jun 2027 04:42:58.960            17.828                Norilsk          2228.500
       114   05 Jun 2027 04:43:06.191   05 Jun 2027 04:44:03.852            57.661                Irkutsk          5798.000
       115   05 Jun 2027 04:44:14.464   05 Jun 2027 04:45:01.221            46.757                Norilsk          5306.000
       116   05 Jun 2027 04:45:04.900   05 Jun 2027 04:45:34.232            29.332                Novosib          1839.500
       117   05 Jun 2027 04:45:45.851   05 Jun 2027 04:46:36.183            50.332              Murmansk1          5809.500
       118   05 Jun 2027 04:46:36.466   05 Jun 2027 04:46:48.595            12.129                Novosib           141.500
       119   05 Jun 2027 06:18:40.508   05 Jun 2027 06:19:27.736            47.228                Irkutsk          1495.000
       120   05 Jun 2027 06:19:38.223   05 Jun 2027 06:20:24.301            46.078              Murmansk1          5243.500
       121   05 Jun 2027 06:20:28.845   05 Jun 2027 06:21:04.282            35.437                Norilsk          2272.000
       122   05 Jun 2027 06:21:10.942   05 Jun 2027 06:21:48.760            37.818                Novosib          3330.000
       123   05 Jun 2027 06:21:58.466   05 Jun 2027 06:23:19.955            81.489              Murmansk1          4853.000
       124   05 Jun 2027 07:54:07.195   05 Jun 2027 07:54:35.912            28.717                 Moscow          1576.000
       125   05 Jun 2027 07:54:38.354   05 Jun 2027 07:55:24.110            45.756              Murmansk2          1221.000
       126   05 Jun 2027 07:56:03.045   05 Jun 2027 07:57:59.777           116.732              Murmansk2         14591.500
       127   05 Jun 2027 07:57:59.777   05 Jun 2027 07:59:01.928            62.151              Murmansk1          4876.000
       128   05 Jun 2027 07:59:09.479   05 Jun 2027 07:59:49.332            39.853              Murmansk2          3775.500
       129   06 Jun 2027 03:15:38.476   06 Jun 2027 03:15:48.552            10.076               Magadan2          1259.500
       130   06 Jun 2027 03:15:54.700   06 Jun 2027 03:16:43.285            48.585                Novosib          4378.500
       131   06 Jun 2027 03:16:44.827   06 Jun 2027 03:16:52.879             8.052               Magadan1           771.000
       132   06 Jun 2027 03:16:59.790   06 Jun 2027 03:17:50.986            51.196                Novosib          3455.500
       133   06 Jun 2027 03:17:57.119   06 Jun 2027 03:18:35.247            38.128                Norilsk          3066.500
       134   06 Jun 2027 03:18:39.556   06 Jun 2027 03:19:04.421            24.865                Norilsk          2154.500
       135   06 Jun 2027 03:19:05.287   06 Jun 2027 03:19:46.678            41.391                Novosib           433.000
       136   06 Jun 2027 03:19:46.705   06 Jun 2027 03:20:15.087            28.382                Irkutsk            13.500
       137   06 Jun 2027 03:20:18.887   06 Jun 2027 03:20:48.311            29.424                Norilsk          1900.000
       138   06 Jun 2027 03:20:49.935   06 Jun 2027 03:20:51.384             1.449               Magadan2           181.125
       139   06 Jun 2027 03:20:51.384   06 Jun 2027 03:20:56.935             5.551               Magadan1           630.875
       140   06 Jun 2027 03:20:59.567   06 Jun 2027 03:21:06.583             7.016               Magadan1           877.000
       141   06 Jun 2027 03:21:06.583   06 Jun 2027 03:21:29.676            23.093               Magadan2           439.000
       142   06 Jun 2027 03:21:36.155   06 Jun 2027 03:21:40.344             4.189                Irkutsk           523.625
       143   06 Jun 2027 03:21:45.051   06 Jun 2027 03:22:25.955            40.904                Novosib          5069.375
       144   06 Jun 2027 03:22:39.971   06 Jun 2027 03:23:05.685            25.714                Irkutsk          3214.250
       145   06 Jun 2027 03:23:28.454   06 Jun 2027 03:24:00.044            31.590              Murmansk1          3857.750
       146   06 Jun 2027 04:52:48.508   06 Jun 2027 04:53:24.392            35.884                Novosib          4325.000
       147   06 Jun 2027 04:53:25.673   06 Jun 2027 04:54:07.952            42.279                Novosib           640.500
       148   06 Jun 2027 04:54:21.200   06 Jun 2027 04:55:46.485            85.285                Irkutsk          6624.000
       149   06 Jun 2027 04:55:54.846   06 Jun 2027 04:56:25.795            30.949                Novosib          3868.625
       150   06 Jun 2027 04:56:46.532   06 Jun 2027 04:58:17.910            91.378              Murmansk2         10680.375
       151   06 Jun 2027 04:58:26.393   06 Jun 2027 04:59:09.834            43.441                Norilsk          4241.500
       152   06 Jun 2027 06:30:36.547   06 Jun 2027 06:31:00.288            23.741                Norilsk           674.500
       153   06 Jun 2027 06:31:07.304   06 Jun 2027 06:32:02.426            55.122                 Moscow          3508.000
       154   06 Jun 2027 06:32:03.472   06 Jun 2027 06:32:10.944             7.472                Novosib           523.000
       155   06 Jun 2027 06:32:15.468   06 Jun 2027 06:32:45.267            29.799              Murmansk1          2262.000
       156   06 Jun 2027 06:32:51.582   06 Jun 2027 06:33:51.342            59.760              Murmansk1          3157.500
       157   06 Jun 2027 06:33:53.032   06 Jun 2027 06:34:10.142            17.110              Murmansk1           845.000
       158   06 Jun 2027 06:34:10.209   06 Jun 2027 06:34:55.558            45.349                 Moscow            33.500
       159   06 Jun 2027 08:03:49.388   06 Jun 2027 08:04:26.060            36.672                 Moscow          4517.000
       160   06 Jun 2027 08:04:42.952   06 Jun 2027 08:06:17.412            94.460              Murmansk2          8446.000
       161   06 Jun 2027 08:06:30.767   06 Jun 2027 08:08:03.239            92.472              Murmansk1          6677.500
       162   06 Jun 2027 08:08:04.301   06 Jun 2027 08:08:20.623            16.322              Murmansk2           531.000
       163   06 Jun 2027 08:08:40.704   06 Jun 2027 08:10:16.698            95.994              Murmansk1         10040.500
       164   06 Jun 2027 08:10:45.446   06 Jun 2027 08:10:59.114            13.668                Norilsk          1345.000
       165   06 Jun 2027 08:11:03.150   06 Jun 2027 08:12:18.446            75.296                 Moscow          2018.000
       166   07 Jun 2027 03:27:52.839   07 Jun 2027 03:28:16.844            24.005                Norilsk           765.000
       167   07 Jun 2027 03:28:20.540   07 Jun 2027 03:28:44.215            23.675                Norilsk          1848.000
       168   07 Jun 2027 03:28:54.401   07 Jun 2027 03:29:35.708            41.307                Irkutsk          5093.000
       169   07 Jun 2027 03:29:38.580   07 Jun 2027 03:30:11.206            32.626                Irkutsk          1436.000
       170   07 Jun 2027 03:30:27.810   07 Jun 2027 03:31:54.677            86.867                Irkutsk          8302.000
       171   07 Jun 2027 03:31:55.620   07 Jun 2027 03:32:03.754             8.134                Norilsk           471.500
       172   07 Jun 2027 03:32:06.160   07 Jun 2027 03:32:29.141            22.981                Irkutsk          1203.000
       173   07 Jun 2027 03:32:31.335   07 Jun 2027 03:32:40.636             9.301                Novosib          1097.000
       174   07 Jun 2027 03:32:50.901   07 Jun 2027 03:34:01.941            71.040               Magadan1          5132.500
       175   07 Jun 2027 03:34:03.281   07 Jun 2027 03:34:32.646            29.365                Norilsk           670.000
       176   07 Jun 2027 03:34:42.335   07 Jun 2027 03:35:40.157            57.822              Murmansk1          4844.500
       177   07 Jun 2027 05:04:42.401   07 Jun 2027 05:05:11.866            29.465                Novosib          3250.000
       178   07 Jun 2027 05:05:14.986   07 Jun 2027 05:06:42.474            87.488                Novosib          1560.000
       179   07 Jun 2027 05:06:58.244   07 Jun 2027 05:08:04.509            66.265                Irkutsk          7885.000
       180   07 Jun 2027 05:08:09.533   07 Jun 2027 05:08:47.507            37.974              Murmansk2          2512.000
       181   07 Jun 2027 05:08:48.238   07 Jun 2027 05:09:39.000            50.762              Murmansk2           365.500
       182   07 Jun 2027 05:09:44.512   07 Jun 2027 05:10:07.450            22.938                 Moscow          2756.000
       183   07 Jun 2027 05:10:17.975   07 Jun 2027 05:11:46.372            88.397              Murmansk1          5262.500
       184   07 Jun 2027 06:42:38.367   07 Jun 2027 06:43:15.837            37.470                Norilsk          1957.000
       185   07 Jun 2027 06:43:16.296   07 Jun 2027 06:43:42.416            26.120                Norilsk           229.500
       186   07 Jun 2027 06:43:48.001   07 Jun 2027 06:44:14.121            26.120                Novosib          2792.500
       187   07 Jun 2027 06:44:14.904   07 Jun 2027 06:44:45.720            30.816              Murmansk1           391.500
       188   07 Jun 2027 06:44:47.408   07 Jun 2027 06:45:48.800            61.392              Murmansk2           844.000
       189   07 Jun 2027 06:46:08.168   07 Jun 2027 06:47:30.686            82.518              Murmansk2          9684.000
       190   07 Jun 2027 08:16:33.730   07 Jun 2027 08:17:36.324            62.594                 Moscow          7824.250
       191   07 Jun 2027 08:17:39.140   07 Jun 2027 08:18:18.457            39.317              Murmansk2          4352.750
       192   07 Jun 2027 08:18:19.503   07 Jun 2027 08:18:27.279             7.776                 Moscow           523.000
       193   07 Jun 2027 08:18:33.567   07 Jun 2027 08:20:17.567           104.000                 Moscow          3144.000
       194   07 Jun 2027 08:20:19.188   07 Jun 2027 08:21:03.709            44.521                 Moscow           810.500
       195   07 Jun 2027 08:21:13.999   07 Jun 2027 08:22:14.538            60.539              Murmansk1          5145.000
       196   07 Jun 2027 08:22:26.597   07 Jun 2027 08:23:20.958            54.361                Norilsk          6029.500
       197   07 Jun 2027 08:23:38.671   07 Jun 2027 08:24:56.327            77.656              Murmansk2          7862.000
       198   08 Jun 2027 03:39:44.727   08 Jun 2027 03:40:09.780            25.053               Magadan1            22.000
       199   08 Jun 2027 03:40:12.977   08 Jun 2027 03:40:45.003            32.026                Norilsk          1598.500
       200   08 Jun 2027 03:40:50.555   08 Jun 2027 03:41:20.131            29.576                Novosib          2776.000
       201   08 Jun 2027 03:41:23.609   08 Jun 2027 03:41:53.337            29.728                Novosib          1739.000
       202   08 Jun 2027 03:41:59.680   08 Jun 2027 03:42:38.448            38.768               Magadan2          3171.500
       203   08 Jun 2027 03:42:43.376   08 Jun 2027 03:43:22.754            39.378                Norilsk          2464.000
       204   08 Jun 2027 03:43:24.210   08 Jun 2027 03:43:34.495            10.285                Novosib           728.000
       205   08 Jun 2027 03:43:51.390   08 Jun 2027 03:45:00.034            68.644                Norilsk          8447.500
       206   08 Jun 2027 03:45:02.159   08 Jun 2027 03:45:49.859            47.700              Murmansk1          1062.500
       207   08 Jun 2027 03:45:51.330   08 Jun 2027 03:46:27.643            36.313              Murmansk1           735.500
       208   08 Jun 2027 03:46:33.910   08 Jun 2027 03:47:19.283            45.373                Norilsk          3133.500
       209   08 Jun 2027 05:16:43.184   08 Jun 2027 05:17:05.775            22.591                Norilsk          2823.875
       210   08 Jun 2027 05:17:19.640   08 Jun 2027 05:19:23.461           123.821                Norilsk         11338.125
       211   08 Jun 2027 05:19:27.410   08 Jun 2027 05:19:52.816            25.406                Novosib          1974.500
       212   08 Jun 2027 05:19:54.198   08 Jun 2027 05:20:00.010             5.812                Norilsk           691.000
       213   08 Jun 2027 05:20:03.013   08 Jun 2027 05:20:58.827            55.814                Irkutsk          1501.500
       214   08 Jun 2027 05:21:11.371   08 Jun 2027 05:21:21.581            10.210                Norilsk          1276.250
       215   08 Jun 2027 05:21:23.155   08 Jun 2027 05:21:35.613            12.458                Novosib          1557.250
       216   08 Jun 2027 05:21:43.796   08 Jun 2027 05:22:47.683            63.887                Irkutsk          7985.875
       217   08 Jun 2027 05:22:48.564   08 Jun 2027 05:23:03.314            14.750                 Moscow           771.625
       218   08 Jun 2027 05:23:12.085   08 Jun 2027 05:23:55.993            43.908              Murmansk1          4385.500
       219   08 Jun 2027 06:54:26.132   08 Jun 2027 06:54:52.864            26.732              Murmansk2          1975.500
       220   08 Jun 2027 06:55:05.737   08 Jun 2027 06:56:06.148            60.411                 Moscow          6436.500
       221   08 Jun 2027 06:56:07.415   08 Jun 2027 06:56:14.699             7.284              Murmansk1           633.500
       222   08 Jun 2027 06:56:16.813   08 Jun 2027 06:56:56.154            39.341                Novosib          1057.000
       223   08 Jun 2027 06:56:59.409   08 Jun 2027 06:57:18.828            19.419                Norilsk          1627.500
       224   08 Jun 2027 06:57:29.146   08 Jun 2027 06:58:20.537            51.391                 Moscow          5159.000
       225   08 Jun 2027 06:58:24.560   08 Jun 2027 06:58:56.084            31.524                Novosib          2011.500
       226   08 Jun 2027 08:30:24.515   08 Jun 2027 08:30:30.406             5.891                 Moscow           736.375
       227   08 Jun 2027 08:30:35.516   08 Jun 2027 08:30:59.509            23.993              Murmansk1          2999.125
       228   08 Jun 2027 08:30:59.509   08 Jun 2027 08:31:41.935            42.426              Murmansk2          1163.000
       229   08 Jun 2027 08:31:56.481   08 Jun 2027 08:32:41.773            45.292              Murmansk1          5661.500
       230   08 Jun 2027 08:32:41.773   08 Jun 2027 08:33:03.931            22.158              Murmansk2          1611.500
       231   08 Jun 2027 08:33:05.300   08 Jun 2027 08:33:20.169            14.869                Norilsk           684.500
       232   08 Jun 2027 08:33:24.783   08 Jun 2027 08:34:55.223            90.440                 Moscow          2307.000
       233   09 Jun 2027 03:51:58.882   09 Jun 2027 03:52:54.935            56.053                Novosib          3094.000
       234   09 Jun 2027 03:53:05.090   09 Jun 2027 03:54:08.061            62.971                Norilsk          5077.500
       235   09 Jun 2027 03:54:22.164   09 Jun 2027 03:55:57.306            95.142                Irkutsk          7051.500
       236   09 Jun 2027 03:55:57.504   09 Jun 2027 03:57:32.313            94.809                Irkutsk            99.000
       237   09 Jun 2027 03:57:39.677   09 Jun 2027 03:58:45.393            65.716              Murmansk1          3682.000
       238   09 Jun 2027 03:58:58.014   09 Jun 2027 04:00:03.907            65.893                Novosib          6310.500
       239   09 Jun 2027 05:29:07.707   09 Jun 2027 05:30:15.779            68.072                Irkutsk           226.500
       240   09 Jun 2027 05:30:19.153   09 Jun 2027 05:30:48.091            28.938                Irkutsk          1687.000
       241   09 Jun 2027 05:30:48.093   09 Jun 2027 05:31:17.447            29.354                Irkutsk             1.000
       242   09 Jun 2027 05:31:26.712   09 Jun 2027 05:31:53.714            27.002                Novosib          3375.250
       243   09 Jun 2027 05:31:55.885   09 Jun 2027 05:32:02.405             6.520                Novosib           815.000
       244   09 Jun 2027 05:32:03.635   09 Jun 2027 05:32:37.106            33.471                Norilsk          2142.750
       245   09 Jun 2027 05:32:39.806   09 Jun 2027 05:32:52.172            12.366              Murmansk2          1350.000
       246   09 Jun 2027 05:33:01.507   09 Jun 2027 05:34:10.502            68.995                 Moscow          4667.500
       247   09 Jun 2027 05:34:16.629   09 Jun 2027 05:34:53.301            36.672                 Moscow          3063.500
       248   09 Jun 2027 05:35:00.471   09 Jun 2027 05:35:05.371             4.900                Novosib           612.500
       249   09 Jun 2027 05:35:22.046   09 Jun 2027 05:35:54.537            32.491              Murmansk2          2318.000
       250   09 Jun 2027 07:06:02.797   09 Jun 2027 07:07:25.997            83.200              Murmansk2          7150.500
       251   09 Jun 2027 07:07:41.153   09 Jun 2027 07:08:43.963            62.810                 Moscow          7578.000
       252   09 Jun 2027 07:08:51.409   09 Jun 2027 07:09:44.227            52.818              Murmansk1          3723.000
       253   09 Jun 2027 07:09:54.101   09 Jun 2027 07:10:37.229            43.128              Murmansk2          4937.000
       254   09 Jun 2027 07:10:39.365   09 Jun 2027 07:11:03.484            24.119                Norilsk          1068.000
       255   09 Jun 2027 08:41:03.469   09 Jun 2027 08:41:10.179             6.710              Murmansk1           838.750
       256   09 Jun 2027 08:41:10.179   09 Jun 2027 08:41:20.842            10.663              Murmansk2           484.250
       257   09 Jun 2027 08:42:41.639   09 Jun 2027 08:43:51.226            69.587              Murmansk1          2502.500
       258   09 Jun 2027 08:44:08.826   09 Jun 2027 08:46:08.456           119.630              Murmansk2          8800.000
       259   10 Jun 2027 04:04:18.750   10 Jun 2027 04:04:59.812            41.062                Novosib           467.000
       260   10 Jun 2027 04:05:17.534   10 Jun 2027 04:06:32.042            74.508                Irkutsk          8861.000
       261   10 Jun 2027 04:06:37.514   10 Jun 2027 04:06:46.425             8.911                Norilsk          1113.875
       262   10 Jun 2027 04:06:56.984   10 Jun 2027 04:07:58.103            61.119                Norilsk          6901.625
       263   10 Jun 2027 04:08:02.300   10 Jun 2027 04:08:57.299            54.999                Novosib          2098.500
       264   10 Jun 2027 04:09:00.653   10 Jun 2027 04:09:28.775            28.122              Murmansk2          1677.000
       265   10 Jun 2027 04:09:33.599   10 Jun 2027 04:10:01.630            28.031              Murmansk1          2412.000
       266   10 Jun 2027 04:10:24.163   10 Jun 2027 04:11:23.164            59.001                Novosib          7375.125
       267   10 Jun 2027 04:11:41.481   10 Jun 2027 04:12:28.140            46.659              Murmansk2          3891.375
       268   10 Jun 2027 05:41:37.470   10 Jun 2027 05:42:26.577            49.107                Norilsk          6138.375
       269   10 Jun 2027 05:42:27.770   10 Jun 2027 05:42:28.831             1.061                Norilsk           132.625
       270   10 Jun 2027 05:42:30.944   10 Jun 2027 05:43:34.277            63.333              Murmansk2          5959.500
       271   10 Jun 2027 05:43:51.576   10 Jun 2027 05:45:30.004            98.428                Novosib          8649.500
       272   10 Jun 2027 05:45:42.526   10 Jun 2027 05:46:40.594            58.068                 Moscow          6261.000
       273   10 Jun 2027 07:18:17.825   10 Jun 2027 07:19:26.655            68.830                Novosib          7257.500
       274   10 Jun 2027 07:19:37.057   10 Jun 2027 07:20:20.365            43.308              Murmansk1          5201.000
       275   10 Jun 2027 07:20:20.643   10 Jun 2027 07:21:05.539            44.896                Novosib           139.000
       276   10 Jun 2027 07:21:12.657   10 Jun 2027 07:21:35.231            22.574                 Moscow          2821.750
       277   10 Jun 2027 07:21:47.996   10 Jun 2027 07:23:07.057            79.061                Novosib          7119.750
       278   10 Jun 2027 08:56:21.967   10 Jun 2027 08:57:07.115            45.148              Murmansk2          4072.000
       279   10 Jun 2027 08:57:08.976   10 Jun 2027 08:58:04.446            55.470              Murmansk1           930.500
       280   11 Jun 2027 04:16:45.424   11 Jun 2027 04:17:07.073            21.649                Norilsk           850.000
       281   11 Jun 2027 04:17:27.881   11 Jun 2027 04:18:37.295            69.414                Novosib          8676.750
       282   11 Jun 2027 04:18:38.668   11 Jun 2027 04:19:01.840            23.172                Norilsk          2413.750
       283   11 Jun 2027 04:19:08.784   11 Jun 2027 04:20:01.456            52.672                Irkutsk          3472.000
       284   11 Jun 2027 04:20:01.492   11 Jun 2027 04:20:14.919            13.427                Norilsk            18.000
       285   11 Jun 2027 04:20:17.172   11 Jun 2027 04:20:26.366             9.194                Norilsk          1126.500
       286   11 Jun 2027 04:20:43.934   11 Jun 2027 04:22:03.026            79.092              Murmansk1          8784.000
       287   11 Jun 2027 04:22:09.767   11 Jun 2027 04:22:43.918            34.151                Novosib          3370.500
       288   11 Jun 2027 04:22:49.130   11 Jun 2027 04:23:33.990            44.860              Murmansk1          2606.000
       289   11 Jun 2027 05:54:19.413   11 Jun 2027 05:54:29.500            10.087              Murmansk1           835.500
       290   11 Jun 2027 05:54:30.318   11 Jun 2027 05:54:48.746            18.428                 Moscow           409.000
       291   11 Jun 2027 05:54:53.219   11 Jun 2027 05:55:11.834            18.615                Irkutsk          2236.500
       292   11 Jun 2027 05:55:15.962   11 Jun 2027 05:56:19.627            63.665                 Moscow          2064.000
       293   11 Jun 2027 05:56:19.806   11 Jun 2027 05:56:22.565             2.759                 Moscow            89.500
       294   11 Jun 2027 05:56:31.586   11 Jun 2027 05:57:10.307            38.721                Norilsk          4510.500
       295   11 Jun 2027 05:57:11.309   11 Jun 2027 05:57:21.967            10.658              Murmansk1           501.000
       296   11 Jun 2027 05:57:24.470   11 Jun 2027 05:57:37.994            13.524                Novosib          1251.500
       297   11 Jun 2027 05:57:40.885   11 Jun 2027 05:58:15.860            34.975                 Moscow          1445.500
       298   11 Jun 2027 05:58:21.835   11 Jun 2027 05:58:47.900            26.065              Murmansk1          2987.500
       299   11 Jun 2027 07:30:21.652   11 Jun 2027 07:30:27.981             6.329                 Moscow           301.500
       300   11 Jun 2027 07:30:29.866   11 Jun 2027 07:30:52.029            22.163                Novosib           942.500
       301   11 Jun 2027 07:30:52.190   11 Jun 2027 07:31:36.006            43.816                Novosib            80.500
       302   11 Jun 2027 07:31:36.200   11 Jun 2027 07:32:28.961            52.761                Norilsk            97.000
       303   11 Jun 2027 07:32:31.497   11 Jun 2027 07:32:49.921            18.424                Norilsk          1268.000
       304   11 Jun 2027 07:32:54.847   11 Jun 2027 07:33:42.965            48.118              Murmansk1          2463.000
       305   11 Jun 2027 07:33:47.738   11 Jun 2027 07:33:57.134             9.396                Norilsk          1174.500
       306   11 Jun 2027 07:34:00.603   11 Jun 2027 07:35:20.397            79.794                Novosib          2946.500
       307   12 Jun 2027 04:29:11.152   12 Jun 2027 04:30:15.612            64.460                Novosib          7935.000
       308   12 Jun 2027 04:30:19.400   12 Jun 2027 04:30:27.384             7.984                Irkutsk           998.000
       309   12 Jun 2027 04:30:32.748   12 Jun 2027 04:31:43.746            70.998                Irkutsk          3578.000
       310   12 Jun 2027 04:31:49.769   12 Jun 2027 04:32:14.128            24.359                Norilsk          3011.500
       311   12 Jun 2027 04:32:15.795   12 Jun 2027 04:32:23.187             7.392                Norilsk           833.500
       312   12 Jun 2027 04:32:27.930   12 Jun 2027 04:33:22.025            54.095                Irkutsk          2371.500
       313   12 Jun 2027 04:33:24.056   12 Jun 2027 04:33:28.260             4.204                Norilsk           525.500
       314   12 Jun 2027 04:33:28.289   12 Jun 2027 04:34:02.955            34.666              Murmansk2           504.500
       315   12 Jun 2027 04:34:05.889   12 Jun 2027 04:34:32.345            26.456              Murmansk1          1467.000
       316   12 Jun 2027 04:34:36.089   12 Jun 2027 04:34:44.335             8.246                Norilsk          1030.750
       317   12 Jun 2027 04:34:49.015   12 Jun 2027 04:35:40.146            51.131                Novosib          3181.250
       318   12 Jun 2027 06:06:21.989   12 Jun 2027 06:06:27.805             5.816                Novosib           322.000
       319   12 Jun 2027 06:06:29.930   12 Jun 2027 06:07:03.752            33.822              Murmansk1          1062.500
       320   12 Jun 2027 06:07:04.112   12 Jun 2027 06:08:00.028            55.916                 Moscow           180.000
       321   12 Jun 2027 06:08:02.047   12 Jun 2027 06:08:17.828            15.781                Novosib          1009.500
       322   12 Jun 2027 06:08:19.309   12 Jun 2027 06:08:35.942            16.633                 Moscow           740.500
       323   12 Jun 2027 06:08:40.242   12 Jun 2027 06:08:58.728            18.486              Murmansk2          2150.000
       324   12 Jun 2027 06:08:59.087   12 Jun 2027 06:09:27.710            28.623                Norilsk           179.500
       325   12 Jun 2027 06:09:38.856   12 Jun 2027 06:10:25.184            46.328              Murmansk2          5573.000
       326   12 Jun 2027 06:10:28.117   12 Jun 2027 06:10:43.883            15.766                 Moscow          1466.500
       327   12 Jun 2027 06:10:49.366   12 Jun 2027 06:11:42.326            52.960              Murmansk1          2741.500
       328   12 Jun 2027 07:42:46.817   12 Jun 2027 07:44:20.169            93.352                 Moscow         10851.000
       329   12 Jun 2027 07:44:22.102   12 Jun 2027 07:45:05.608            43.506                Novosib           966.500
       330   12 Jun 2027 07:45:12.988   12 Jun 2027 07:46:16.732            63.744                Novosib          3690.000
       331   12 Jun 2027 07:46:20.036   12 Jun 2027 07:46:48.638            28.602                 Moscow          1652.000
       332   12 Jun 2027 07:46:51.602   12 Jun 2027 07:47:21.350            29.748                 Moscow          1482.000
       333   13 Jun 2027 03:04:15.897   13 Jun 2027 03:05:02.166            46.269                Irkutsk          5639.000
       334   13 Jun 2027 03:05:06.380   13 Jun 2027 03:05:29.744            23.364               Magadan1          2107.000
       335   13 Jun 2027 03:05:30.671   13 Jun 2027 03:06:24.934            54.263                Novosib           463.500
       336   13 Jun 2027 03:06:32.492   13 Jun 2027 03:07:13.021            40.529               Magadan2          3779.000
       337   13 Jun 2027 03:07:22.137   13 Jun 2027 03:08:17.607            55.470                Norilsk          4558.000
       338   13 Jun 2027 03:08:21.337   13 Jun 2027 03:08:40.277            18.940                Norilsk          1865.000
       339   13 Jun 2027 03:08:41.656   13 Jun 2027 03:09:12.007            30.351                Irkutsk           689.500
       340   13 Jun 2027 03:09:16.250   13 Jun 2027 03:09:49.729            33.479                Norilsk          2121.500
       341   13 Jun 2027 03:09:55.419   13 Jun 2027 03:10:41.809            46.390                Novosib          2845.000
       342   13 Jun 2027 03:10:47.042   13 Jun 2027 03:11:37.640            50.598                Norilsk          2616.500
       343   13 Jun 2027 04:40:43.754   13 Jun 2027 04:41:39.240            55.486                Norilsk          4458.000
       344   13 Jun 2027 04:41:40.554   13 Jun 2027 04:41:56.573            16.019                Novosib           657.000
       345   13 Jun 2027 04:42:05.612   13 Jun 2027 04:42:50.634            45.022                Novosib          4519.500
       346   13 Jun 2027 04:43:02.498   13 Jun 2027 04:44:01.028            58.530                Irkutsk          5932.000
       347   13 Jun 2027 04:44:05.676   13 Jun 2027 04:44:29.632            23.956                Norilsk          2324.000
       348   13 Jun 2027 04:44:31.285   13 Jun 2027 04:44:38.819             7.534                Irkutsk           826.500
       349   13 Jun 2027 04:44:42.885   13 Jun 2027 04:45:13.513            30.628                Novosib          2033.000
       350   13 Jun 2027 04:45:15.741   13 Jun 2027 04:45:21.303             5.562                Norilsk           695.250
       351   13 Jun 2027 04:45:21.603   13 Jun 2027 04:45:48.924            27.321                Novosib           568.750
       352   13 Jun 2027 04:45:49.797   13 Jun 2027 04:46:34.006            44.209                Norilsk           436.500
       353   13 Jun 2027 04:46:53.208   13 Jun 2027 04:48:26.360            93.152              Murmansk1          9601.000
       354   13 Jun 2027 06:18:54.397   13 Jun 2027 06:19:29.151            34.754                Novosib           938.500
       355   13 Jun 2027 06:19:37.366   13 Jun 2027 06:20:21.950            44.584                Novosib          4107.500
       356   13 Jun 2027 06:20:30.672   13 Jun 2027 06:21:31.485            60.813                 Moscow          4361.000
       357   13 Jun 2027 06:21:39.757   13 Jun 2027 06:22:23.261            43.504                 Moscow          4136.000
       358   13 Jun 2027 06:22:26.975   13 Jun 2027 06:23:35.870            68.895              Murmansk2          1857.000
       359   13 Jun 2027 07:54:22.244   13 Jun 2027 07:54:51.880            29.636                 Moscow          1953.500
       360   13 Jun 2027 07:54:53.922   13 Jun 2027 07:55:14.119            20.197                 Moscow          1021.000
       361   13 Jun 2027 07:55:15.928   13 Jun 2027 07:56:24.935            69.007                 Moscow           904.500
       362   13 Jun 2027 07:56:25.554   13 Jun 2027 07:56:31.150             5.596                Norilsk           309.500
       363   13 Jun 2027 07:56:35.698   13 Jun 2027 07:56:57.500            21.802              Murmansk1          2274.000
       364   13 Jun 2027 07:57:14.179   13 Jun 2027 07:58:45.378            91.199                Norilsk          8339.500
       365   13 Jun 2027 07:58:46.211   13 Jun 2027 07:58:50.967             4.756                Norilsk           416.500
       366   13 Jun 2027 07:58:57.901   13 Jun 2027 08:00:01.475            63.574                 Moscow          3467.000
