uniorb/output/strategy_2/Drop/Drop_KinoSat_111007.txt

KinoSat_111007
-------------------------
    Access    *     Start Time (UTCG)     *     Stop Time (UTCG)  *   Duration (s)        *       Station  *  Data (Mbytes)
         1   01 Jun 2027 03:09:19.636   01 Jun 2027 03:09:22.741             3.105                Anadyr2            97.031
         2   01 Jun 2027 03:09:22.741   01 Jun 2027 03:10:54.378            91.637                Anadyr1          2863.656
         3   01 Jun 2027 03:11:02.121   01 Jun 2027 03:11:04.285             2.164                Anadyr1            67.625
         4   01 Jun 2027 03:11:07.687   01 Jun 2027 03:11:13.181             5.494               Magadan1           171.687
         5   01 Jun 2027 03:11:34.269   01 Jun 2027 03:13:02.893            88.624                Anadyr1          2769.500
         6   01 Jun 2027 03:13:34.003   01 Jun 2027 03:13:36.351             2.348               Magadan1            73.375
         7   01 Jun 2027 03:14:19.730   01 Jun 2027 03:14:58.918            39.188                Anadyr1          1224.625
         8   01 Jun 2027 04:45:12.037   01 Jun 2027 04:45:35.310            23.273                Anadyr2           727.281
         9   01 Jun 2027 04:45:37.121   01 Jun 2027 04:46:59.583            82.462                Anadyr2          2576.937
        10   01 Jun 2027 04:47:04.276   01 Jun 2027 04:47:18.040            13.764               Magadan1           430.125
        11   01 Jun 2027 04:47:18.315   01 Jun 2027 04:47:21.044             2.729                Anadyr2            85.281
        12   01 Jun 2027 04:47:46.184   01 Jun 2027 04:49:04.545            78.361               Magadan2          2448.781
        13   01 Jun 2027 04:49:04.545   01 Jun 2027 04:50:35.350            90.805               Magadan1          2837.656
        14   01 Jun 2027 05:30:57.517   01 Jun 2027 05:32:19.893            82.376            RioGallegos          2574.250
        15   01 Jun 2027 06:21:06.628   01 Jun 2027 06:22:47.962           101.334                Anadyr1          3166.688
        16   01 Jun 2027 06:22:48.587   01 Jun 2027 06:23:45.434            56.847               Magadan1          1776.469
        17   01 Jun 2027 06:23:57.053   01 Jun 2027 06:26:25.874           148.821               Magadan1          4650.656
        18   01 Jun 2027 07:57:32.391   01 Jun 2027 07:59:15.178           102.787                Irkutsk          3212.094
        19   01 Jun 2027 07:59:24.178   01 Jun 2027 08:01:20.342           116.164               Magadan1          3630.125
        20   01 Jun 2027 08:01:58.432   01 Jun 2027 08:02:18.180            19.748                Norilsk           617.125
        21   01 Jun 2027 08:02:37.367   01 Jun 2027 08:02:44.042             6.675                Novosib           208.594
        22   01 Jun 2027 08:02:50.798   01 Jun 2027 08:03:37.459            46.661                Norilsk          1458.156
        23   01 Jun 2027 08:03:46.284   01 Jun 2027 08:04:00.126            13.842              Murmansk2           432.562
        24   01 Jun 2027 08:04:00.126   01 Jun 2027 08:04:43.996            43.870              Murmansk1          1370.938
        25   01 Jun 2027 08:05:28.973   01 Jun 2027 08:05:31.129             2.156              Murmansk2            67.375
        26   01 Jun 2027 08:05:47.904   01 Jun 2027 08:06:58.709            70.805              Murmansk1          2212.656
        27   01 Jun 2027 08:36:59.245   01 Jun 2027 08:39:45.593           166.348            RioGallegos          5198.375
        28   01 Jun 2027 08:39:59.296   01 Jun 2027 08:40:10.771            11.475            RioGallegos           358.594
        29   01 Jun 2027 09:11:53.843   01 Jun 2027 09:14:11.258           137.415                Sumatra          4294.219
        30   01 Jun 2027 09:14:55.647   01 Jun 2027 09:15:09.720            14.073                Sumatra           439.781
        31   01 Jun 2027 09:33:04.569   01 Jun 2027 09:33:06.085             1.516                Irkutsk            47.375
        32   01 Jun 2027 09:34:11.268   01 Jun 2027 09:36:10.707           119.439                Novosib          3732.469
        33   01 Jun 2027 09:36:33.332   01 Jun 2027 09:37:32.130            58.798                Novosib          1837.438
        34   01 Jun 2027 09:37:35.512   01 Jun 2027 09:37:57.215            21.703              Murmansk2           678.219
        35   01 Jun 2027 09:38:00.437   01 Jun 2027 09:39:08.323            67.886                Norilsk          2121.437
        36   01 Jun 2027 09:39:10.458   01 Jun 2027 09:39:46.739            36.281                Novosib          1133.781
        37   01 Jun 2027 09:40:20.292   01 Jun 2027 09:41:29.089            68.797              Murmansk2          2149.906
        38   01 Jun 2027 09:41:41.056   01 Jun 2027 09:43:12.648            91.592                Norilsk          2862.250
        39   01 Jun 2027 10:16:06.960   01 Jun 2027 10:16:46.810            39.850            RioGallegos          1245.312
        40   01 Jun 2027 10:17:41.623   01 Jun 2027 10:18:11.773            30.150            RioGallegos           942.187
        41   01 Jun 2027 10:18:59.425   01 Jun 2027 10:19:41.189            41.764            RioGallegos          1305.125
        42   01 Jun 2027 10:50:46.368   01 Jun 2027 10:51:44.642            58.274                Sumatra          1821.062
        43   01 Jun 2027 10:53:56.561   01 Jun 2027 10:54:42.842            46.281                Sumatra          1446.281
        44   01 Jun 2027 10:58:59.698   01 Jun 2027 10:59:13.014            13.316                  Delhi           416.125
        45   01 Jun 2027 11:11:07.685   01 Jun 2027 11:11:22.392            14.707                Irkutsk           459.594
        46   01 Jun 2027 11:11:40.727   01 Jun 2027 11:12:14.157            33.430              Murmansk2          1044.687
        47   01 Jun 2027 11:12:32.316   01 Jun 2027 11:13:36.277            63.961                Norilsk          1998.781
        48   01 Jun 2027 11:13:37.524   01 Jun 2027 11:15:27.962           110.438                Novosib          3451.187
        49   01 Jun 2027 11:15:47.678   01 Jun 2027 11:17:03.305            75.627                 Moscow          2363.344
        50   01 Jun 2027 12:37:36.714   01 Jun 2027 12:39:41.153           124.439                  Delhi          3888.719
        51   01 Jun 2027 12:41:28.367   01 Jun 2027 12:41:47.270            18.903                 Moscow           590.719
        52   01 Jun 2027 12:42:09.306   01 Jun 2027 12:43:58.320           109.014                 Moscow          3406.687
        53   01 Jun 2027 12:44:25.846   01 Jun 2027 12:46:18.821           112.975              Murmansk1          3530.469
        54   01 Jun 2027 12:47:07.897   01 Jun 2027 12:48:35.774            87.877                Norilsk          2746.156
        55   01 Jun 2027 12:52:22.168   01 Jun 2027 12:53:03.963            41.795                Norilsk          1306.094
        56   01 Jun 2027 13:55:37.794   01 Jun 2027 13:58:29.883           172.089               CapeTown          5377.781
        57   01 Jun 2027 14:17:20.465   01 Jun 2027 14:18:16.426            55.961                 Moscow          1748.781
        58   01 Jun 2027 14:20:38.900   01 Jun 2027 14:21:47.946            69.046              Murmansk1          2157.688
        59   01 Jun 2027 14:22:16.572   01 Jun 2027 14:23:39.994            83.422              Murmansk2          2606.937
        60   01 Jun 2027 14:35:06.006   01 Jun 2027 14:37:14.698           128.692                Anadyr2          4021.625
        61   01 Jun 2027 14:37:20.336   01 Jun 2027 14:38:29.794            69.458                Anadyr1          2170.562
        62   01 Jun 2027 15:29:51.567   01 Jun 2027 15:32:02.232           130.665               CapeTown          4083.281
        63   01 Jun 2027 15:59:36.158   01 Jun 2027 16:00:57.084            80.926              Murmansk1          2528.938
        64   01 Jun 2027 16:04:44.922   01 Jun 2027 16:05:04.925            20.003              Murmansk2           625.094
        65   01 Jun 2027 16:10:30.208   01 Jun 2027 16:12:13.374           103.166                Anadyr2          3223.937
        66   01 Jun 2027 16:12:55.289   01 Jun 2027 16:13:07.561            12.272                Anadyr1           383.500
        67   01 Jun 2027 16:14:23.363   01 Jun 2027 16:17:43.407           200.044               Magadan1          6251.375
        68   01 Jun 2027 17:46:23.685   01 Jun 2027 17:50:19.008           235.323                Anadyr2          7353.844
        69   01 Jun 2027 17:50:24.590   01 Jun 2027 17:51:04.982            40.392               Magadan1          1262.250
        70   01 Jun 2027 17:51:05.325   01 Jun 2027 17:54:17.916           192.591               Magadan2          6018.469
        71   01 Jun 2027 19:22:16.401   01 Jun 2027 19:26:10.759           234.358                Anadyr1          7323.688
        72   01 Jun 2027 19:26:11.969   01 Jun 2027 19:26:36.842            24.873               Magadan1           777.281
        73   01 Jun 2027 19:26:52.854   01 Jun 2027 19:28:21.446            88.592                Norilsk          2768.500
        74   01 Jun 2027 19:30:23.692   01 Jun 2027 19:30:34.005            10.313                Norilsk           322.281
        75   01 Jun 2027 19:30:37.533   01 Jun 2027 19:30:56.521            18.988                Irkutsk           593.375
        76   01 Jun 2027 19:31:25.104   01 Jun 2027 19:33:10.185           105.081                Irkutsk          3283.781
        77   01 Jun 2027 19:34:23.491   01 Jun 2027 19:34:59.278            35.787                Irkutsk          1118.344
        78   01 Jun 2027 20:16:29.634   01 Jun 2027 20:17:48.080            78.446            RioGallegos          2451.438
        79   01 Jun 2027 20:58:03.320   01 Jun 2027 20:58:23.574            20.254                Anadyr2           632.937
        80   01 Jun 2027 20:59:50.408   01 Jun 2027 20:59:55.514             5.106                Anadyr1           159.562
        81   01 Jun 2027 21:00:08.446   01 Jun 2027 21:02:50.897           162.451                Norilsk          5076.594
        82   01 Jun 2027 21:03:26.384   01 Jun 2027 21:04:07.892            41.508                Norilsk          1297.125
        83   01 Jun 2027 21:05:25.634   01 Jun 2027 21:06:45.624            79.990                Novosib          2499.688
        84   01 Jun 2027 21:07:17.199   01 Jun 2027 21:08:56.379            99.180                Novosib          3099.375
        85   01 Jun 2027 21:17:51.586   01 Jun 2027 21:19:21.518            89.932                Sumatra          2810.375
        86   01 Jun 2027 22:32:15.048   01 Jun 2027 22:32:24.250             9.202                Anadyr2           287.563
        87   01 Jun 2027 22:33:28.828   01 Jun 2027 22:34:04.226            35.398                Anadyr1          1106.188
        88   01 Jun 2027 22:36:07.040   01 Jun 2027 22:36:40.629            33.589                Norilsk          1049.656
        89   01 Jun 2027 22:36:43.789   01 Jun 2027 22:37:50.063            66.274               Magadan2          2071.062
        90   01 Jun 2027 22:40:00.609   01 Jun 2027 22:42:03.673           123.064                Novosib          3845.750
        91   01 Jun 2027 22:47:31.487   01 Jun 2027 22:51:14.957           223.470                  Delhi          6983.438
        92   02 Jun 2027 00:07:19.520   02 Jun 2027 00:08:07.626            48.106                Anadyr1          1503.312
        93   02 Jun 2027 00:11:48.688   02 Jun 2027 00:12:48.904            60.216               Magadan1          1881.750
        94   02 Jun 2027 00:12:52.638   02 Jun 2027 00:14:21.144            88.506               Magadan2          2765.813
        95   02 Jun 2027 00:14:23.017   02 Jun 2027 00:18:18.148           235.131              Murmansk1          7347.844
        96   02 Jun 2027 00:18:39.906   02 Jun 2027 00:20:02.090            82.184                 Moscow          2568.250
        97   02 Jun 2027 00:46:59.687   02 Jun 2027 00:47:52.895            53.208               CapeTown          1662.750
        98   02 Jun 2027 00:49:35.200   02 Jun 2027 00:50:22.471            47.271               CapeTown          1477.219
        99   02 Jun 2027 01:39:12.712   02 Jun 2027 01:39:29.909            17.197                Anadyr1           537.406
       100   02 Jun 2027 01:41:26.001   02 Jun 2027 01:41:40.058            14.057                Anadyr1           439.281
       101   02 Jun 2027 01:41:40.058   02 Jun 2027 01:41:51.001            10.943                Anadyr2           341.969
       102   02 Jun 2027 01:42:19.233   02 Jun 2027 01:42:37.508            18.275                Anadyr1           571.094
       103   02 Jun 2027 01:43:49.024   02 Jun 2027 01:45:22.161            93.137               Magadan1          2910.531
       104   02 Jun 2027 01:50:13.441   02 Jun 2027 01:52:55.473           162.032              Murmansk2          5063.500
       105   02 Jun 2027 01:53:30.388   02 Jun 2027 01:55:10.510           100.122                 Moscow          3128.813
       106   02 Jun 2027 02:17:31.669   02 Jun 2027 02:19:07.396            95.727               CapeTown          2991.469
       107   02 Jun 2027 02:20:29.036   02 Jun 2027 02:20:57.994            28.958               CapeTown           904.938
       108   02 Jun 2027 03:20:49.469   02 Jun 2027 03:22:12.481            83.012               Magadan2          2594.125
       109   02 Jun 2027 03:22:15.129   02 Jun 2027 03:22:35.880            20.751                Anadyr2           648.469
       110   02 Jun 2027 03:22:35.880   02 Jun 2027 03:22:53.600            17.720                Anadyr1           553.750
       111   02 Jun 2027 03:22:53.600   02 Jun 2027 03:25:03.808           130.208                Anadyr2          4069.000
       112   02 Jun 2027 03:26:00.168   02 Jun 2027 03:26:08.077             7.909               Magadan1           247.156
       113   02 Jun 2027 04:57:01.613   02 Jun 2027 04:57:07.721             6.108               Magadan1           190.875
       114   02 Jun 2027 04:57:10.788   02 Jun 2027 04:57:40.391            29.603                Anadyr2           925.094
       115   02 Jun 2027 04:57:40.391   02 Jun 2027 04:59:00.355            79.964                Anadyr1          2498.875
       116   02 Jun 2027 04:59:07.728   02 Jun 2027 04:59:19.741            12.013                Anadyr2           375.406
       117   02 Jun 2027 04:59:22.677   02 Jun 2027 04:59:39.976            17.299               Magadan1           540.594
       118   02 Jun 2027 04:59:39.976   02 Jun 2027 05:00:32.905            52.929               Magadan2          1654.031
       119   02 Jun 2027 05:01:04.974   02 Jun 2027 05:01:53.516            48.542               Magadan1          1516.937
       120   02 Jun 2027 06:31:24.538   02 Jun 2027 06:32:21.287            56.749                Irkutsk          1773.406
       121   02 Jun 2027 06:32:43.510   02 Jun 2027 06:33:13.483            29.973                Irkutsk           936.656
       122   02 Jun 2027 06:33:25.578   02 Jun 2027 06:34:32.329            66.751                Anadyr2          2085.969
       123   02 Jun 2027 06:34:36.912   02 Jun 2027 06:34:51.662            14.750               Magadan1           460.937
       124   02 Jun 2027 06:34:51.662   02 Jun 2027 06:36:46.665           115.003               Magadan2          3593.844
       125   02 Jun 2027 06:37:08.322   02 Jun 2027 06:38:25.471            77.149               Magadan1          2410.906
       126   02 Jun 2027 08:08:44.026   02 Jun 2027 08:10:12.562            88.536                Irkutsk          2766.750
       127   02 Jun 2027 08:10:17.020   02 Jun 2027 08:11:06.361            49.341                Irkutsk          1541.906
       128   02 Jun 2027 08:11:51.545   02 Jun 2027 08:14:00.058           128.513                Irkutsk          4016.031
       129   02 Jun 2027 08:14:10.053   02 Jun 2027 08:14:24.859            14.806                Norilsk           462.687
       130   02 Jun 2027 08:14:38.814   02 Jun 2027 08:14:49.651            10.837              Murmansk2           338.656
       131   02 Jun 2027 08:14:49.651   02 Jun 2027 08:15:06.693            17.042              Murmansk1           532.563
       132   02 Jun 2027 08:15:34.153   02 Jun 2027 08:16:33.117            58.964              Murmansk2          1842.625
       133   02 Jun 2027 08:49:08.216   02 Jun 2027 08:50:06.443            58.227            RioGallegos          1819.594
       134   02 Jun 2027 08:50:44.842   02 Jun 2027 08:50:50.497             5.655            RioGallegos           176.719
       135   02 Jun 2027 08:52:09.728   02 Jun 2027 08:53:14.533            64.805            RioGallegos          2025.156
       136   02 Jun 2027 09:24:23.723   02 Jun 2027 09:24:44.370            20.647                Sumatra           645.219
       137   02 Jun 2027 09:27:51.773   02 Jun 2027 09:28:06.249            14.476                Sumatra           452.375
       138   02 Jun 2027 09:34:09.478   02 Jun 2027 09:34:49.626            40.148                  Delhi          1254.625
       139   02 Jun 2027 09:38:20.132   02 Jun 2027 09:38:56.202            36.070                  Delhi          1127.188
       140   02 Jun 2027 09:44:05.690   02 Jun 2027 09:44:29.510            23.820                Irkutsk           744.375
       141   02 Jun 2027 09:44:38.004   02 Jun 2027 09:44:51.772            13.768                Novosib           430.250
       142   02 Jun 2027 09:45:01.804   02 Jun 2027 09:45:41.458            39.654                Novosib          1239.187
       143   02 Jun 2027 09:46:09.969   02 Jun 2027 09:46:48.089            38.120              Murmansk2          1191.250
       144   02 Jun 2027 09:47:14.146   02 Jun 2027 09:47:16.354             2.208              Murmansk1            69.000
       145   02 Jun 2027 09:47:19.671   02 Jun 2027 09:47:21.486             1.815                Novosib            56.719
       146   02 Jun 2027 09:47:25.081   02 Jun 2027 09:47:27.987             2.906                Norilsk            90.812
       147   02 Jun 2027 09:47:31.241   02 Jun 2027 09:47:44.515            13.274                Irkutsk           414.813
       148   02 Jun 2027 09:47:46.564   02 Jun 2027 09:47:53.664             7.100                Irkutsk           221.875
       149   02 Jun 2027 09:48:18.950   02 Jun 2027 09:48:43.028            24.078                Irkutsk           752.437
       150   02 Jun 2027 09:48:44.348   02 Jun 2027 09:49:38.737            54.389              Murmansk2          1699.656
       151   02 Jun 2027 09:49:58.165   02 Jun 2027 09:50:18.554            20.389                Norilsk           637.156
       152   02 Jun 2027 09:50:56.592   02 Jun 2027 09:51:23.238            26.646                Novosib           832.687
       153   02 Jun 2027 09:52:09.648   02 Jun 2027 09:52:16.415             6.767              Murmansk1           211.469
       154   02 Jun 2027 10:29:07.551   02 Jun 2027 10:30:17.169            69.618            RioGallegos          2175.563
       155   02 Jun 2027 11:08:32.765   02 Jun 2027 11:08:34.619             1.854                  Delhi            57.938
       156   02 Jun 2027 11:09:13.916   02 Jun 2027 11:10:14.240            60.324                  Delhi          1885.125
       157   02 Jun 2027 11:11:10.491   02 Jun 2027 11:12:51.342           100.851                  Delhi          3151.594
       158   02 Jun 2027 11:21:59.613   02 Jun 2027 11:22:13.899            14.286                 Moscow           446.437
       159   02 Jun 2027 11:22:14.661   02 Jun 2027 11:23:06.683            52.022              Murmansk2          1625.688
       160   02 Jun 2027 11:23:22.300   02 Jun 2027 11:23:30.084             7.784              Murmansk2           243.250
       161   02 Jun 2027 11:23:33.553   02 Jun 2027 11:23:39.399             5.846                 Moscow           182.688
       162   02 Jun 2027 11:23:42.333   02 Jun 2027 11:23:59.856            17.523                Novosib           547.594
       163   02 Jun 2027 11:24:09.021   02 Jun 2027 11:24:13.024             4.003              Murmansk1           125.094
       164   02 Jun 2027 11:24:17.528   02 Jun 2027 11:24:40.096            22.568              Murmansk1           705.250
       165   02 Jun 2027 11:24:44.297   02 Jun 2027 11:24:50.935             6.638                Novosib           207.438
       166   02 Jun 2027 11:24:58.281   02 Jun 2027 11:25:06.937             8.656                Norilsk           270.500
       167   02 Jun 2027 11:25:22.821   02 Jun 2027 11:25:57.844            35.023              Murmansk1          1094.469
       168   02 Jun 2027 11:26:26.142   02 Jun 2027 11:27:10.416            44.274                 Moscow          1383.563
       169   02 Jun 2027 12:52:27.197   02 Jun 2027 12:56:30.583           243.386                 Moscow          7605.813
       170   02 Jun 2027 12:56:37.715   02 Jun 2027 12:58:14.038            96.323              Murmansk1          3010.094
       171   02 Jun 2027 12:59:30.873   02 Jun 2027 12:59:55.336            24.463              Murmansk2           764.469
       172   02 Jun 2027 14:07:07.514   02 Jun 2027 14:09:04.718           117.204               CapeTown          3662.625
       173   02 Jun 2027 14:10:17.205   02 Jun 2027 14:11:02.930            45.725               CapeTown          1428.906
       174   02 Jun 2027 14:11:45.141   02 Jun 2027 14:12:36.325            51.184               CapeTown          1599.500
       175   02 Jun 2027 14:13:20.762   02 Jun 2027 14:13:53.404            32.642               CapeTown          1020.063
       176   02 Jun 2027 14:32:55.069   02 Jun 2027 14:33:56.171            61.102              Murmansk2          1909.437
       177   02 Jun 2027 14:35:00.736   02 Jun 2027 14:35:41.816            41.080              Murmansk1          1283.750
       178   02 Jun 2027 14:37:25.270   02 Jun 2027 14:37:42.164            16.894              Murmansk2           527.937
       179   02 Jun 2027 14:44:45.046   02 Jun 2027 14:44:47.889             2.843              Murmansk2            88.844
       180   02 Jun 2027 14:46:59.224   02 Jun 2027 14:49:14.917           135.693                Anadyr1          4240.406
       181   02 Jun 2027 14:52:35.733   02 Jun 2027 14:52:51.373            15.640                Anadyr2           488.750
       182   02 Jun 2027 14:52:51.373   02 Jun 2027 14:52:56.215             4.842                Anadyr1           151.312
       183   02 Jun 2027 15:41:55.722   02 Jun 2027 15:43:19.239            83.517               CapeTown          2609.906
       184   02 Jun 2027 16:12:12.382   02 Jun 2027 16:14:01.932           109.550              Murmansk1          3423.438
       185   02 Jun 2027 16:14:40.246   02 Jun 2027 16:15:01.871            21.625              Murmansk1           675.781
       186   02 Jun 2027 16:15:15.289   02 Jun 2027 16:16:44.426            89.137              Murmansk1          2785.531
       187   02 Jun 2027 16:22:30.626   02 Jun 2027 16:22:53.452            22.826                Anadyr2           713.313
       188   02 Jun 2027 16:22:53.452   02 Jun 2027 16:23:28.146            34.694                Anadyr1          1084.187
       189   02 Jun 2027 16:25:55.178   02 Jun 2027 16:26:45.045            49.867                Anadyr2          1558.344
       190   02 Jun 2027 16:27:32.067   02 Jun 2027 16:29:51.276           139.209               Magadan2          4350.281
       191   02 Jun 2027 16:31:00.357   02 Jun 2027 16:31:43.781            43.424               Magadan1          1357.000
       192   02 Jun 2027 16:32:20.390   02 Jun 2027 16:33:32.659            72.269               Magadan1          2258.406
       193   02 Jun 2027 17:58:25.112   02 Jun 2027 17:59:30.143            65.031                Anadyr2          2032.219
       194   02 Jun 2027 17:59:30.143   02 Jun 2027 18:00:25.154            55.011                Anadyr1          1719.094
       195   02 Jun 2027 18:00:47.152   02 Jun 2027 18:02:28.807           101.655               Magadan1          3176.719
       196   02 Jun 2027 18:02:28.807   02 Jun 2027 18:02:49.338            20.531               Magadan2           641.594
       197   02 Jun 2027 18:03:39.365   02 Jun 2027 18:03:45.675             6.310               Magadan1           197.187
       198   02 Jun 2027 19:34:16.331   02 Jun 2027 19:36:11.173           114.842                Anadyr2          3588.812
       199   02 Jun 2027 19:36:11.271   02 Jun 2027 19:38:09.429           118.158                Anadyr1          3692.437
       200   02 Jun 2027 19:38:34.152   02 Jun 2027 19:38:58.784            24.632                Anadyr1           769.750
       201   02 Jun 2027 19:38:58.894   02 Jun 2027 19:40:19.411            80.517                Norilsk          2516.156
       202   02 Jun 2027 19:40:23.195   02 Jun 2027 19:41:43.903            80.708               Magadan2          2522.125
       203   02 Jun 2027 19:41:55.335   02 Jun 2027 19:44:54.541           179.206                Irkutsk          5600.188
       204   02 Jun 2027 19:46:34.393   02 Jun 2027 19:47:11.017            36.624                Irkutsk          1144.500
       205   02 Jun 2027 19:57:53.949   02 Jun 2027 19:59:44.694           110.745                Sumatra          3460.781
       206   02 Jun 2027 20:03:32.066   02 Jun 2027 20:03:32.954             0.888                Sumatra            27.750
       207   02 Jun 2027 21:12:50.032   02 Jun 2027 21:13:10.616            20.584                Norilsk           643.250
       208   02 Jun 2027 21:13:17.002   02 Jun 2027 21:13:26.929             9.927                Norilsk           310.219
       209   02 Jun 2027 21:13:31.104   02 Jun 2027 21:14:01.334            30.230                Norilsk           944.688
       210   02 Jun 2027 21:16:08.041   02 Jun 2027 21:17:46.209            98.168                Irkutsk          3067.750
       211   02 Jun 2027 21:17:48.610   02 Jun 2027 21:19:37.229           108.619                Novosib          3394.344
       212   02 Jun 2027 21:21:44.972   02 Jun 2027 21:22:27.318            42.346                Novosib          1323.313
       213   02 Jun 2027 21:29:51.272   02 Jun 2027 21:30:14.591            23.319                Sumatra           728.719
       214   02 Jun 2027 21:34:06.685   02 Jun 2027 21:34:14.973             8.288                Sumatra           259.000
       215   02 Jun 2027 21:36:32.155   02 Jun 2027 21:38:10.294            98.139                Sumatra          3066.844
       216   02 Jun 2027 22:48:09.017   02 Jun 2027 22:48:14.157             5.140                Norilsk           160.625
       217   02 Jun 2027 22:48:44.631   02 Jun 2027 22:49:19.235            34.604               Magadan1          1081.375
       218   02 Jun 2027 22:49:57.056   02 Jun 2027 22:50:10.130            13.074               Magadan1           408.562
       219   02 Jun 2027 22:50:18.603   02 Jun 2027 22:50:34.742            16.139               Magadan1           504.344
       220   02 Jun 2027 22:51:37.929   02 Jun 2027 22:54:50.245           192.316              Murmansk2          6009.875
       221   02 Jun 2027 22:59:23.897   02 Jun 2027 23:00:41.852            77.955                  Delhi          2436.094
       222   02 Jun 2027 23:02:19.804   02 Jun 2027 23:02:27.117             7.313                  Delhi           228.531
       223   02 Jun 2027 23:03:16.715   02 Jun 2027 23:03:33.474            16.759                  Delhi           523.719
       224   02 Jun 2027 23:04:59.757   02 Jun 2027 23:05:23.729            23.972                  Delhi           749.125
       225   02 Jun 2027 23:06:18.534   02 Jun 2027 23:06:26.853             8.319                  Delhi           259.969
       226   02 Jun 2027 23:07:33.546   02 Jun 2027 23:08:54.998            81.452                  Delhi          2545.375
       227   03 Jun 2027 00:19:51.792   03 Jun 2027 00:20:05.781            13.989                Anadyr1           437.156
       228   03 Jun 2027 00:20:32.721   03 Jun 2027 00:20:37.810             5.089                Anadyr2           159.031
       229   03 Jun 2027 00:23:29.457   03 Jun 2027 00:25:49.791           140.334               Magadan2          4385.437
       230   03 Jun 2027 00:26:22.296   03 Jun 2027 00:29:36.627           194.331              Murmansk1          6072.844
       231   03 Jun 2027 00:30:24.312   03 Jun 2027 00:31:15.824            51.512                 Moscow          1609.750
       232   03 Jun 2027 00:57:30.931   03 Jun 2027 00:59:13.416           102.485               CapeTown          3202.656
       233   03 Jun 2027 01:00:30.178   03 Jun 2027 01:01:00.899            30.721               CapeTown           960.031
       234   03 Jun 2027 01:03:31.821   03 Jun 2027 01:04:13.595            41.774               CapeTown          1305.438
       235   03 Jun 2027 01:53:31.632   03 Jun 2027 01:53:37.136             5.504                Anadyr1           172.000
       236   03 Jun 2027 01:54:09.639   03 Jun 2027 01:54:18.656             9.017                Anadyr1           281.781
       237   03 Jun 2027 01:55:17.560   03 Jun 2027 01:56:55.726            98.166               Magadan2          3067.687
       238   03 Jun 2027 01:56:55.726   03 Jun 2027 01:57:42.928            47.202               Magadan1          1475.063
       239   03 Jun 2027 02:02:15.127   03 Jun 2027 02:02:32.289            17.162              Murmansk2           536.313
       240   03 Jun 2027 02:02:51.475   03 Jun 2027 02:04:06.347            74.872              Murmansk1          2339.750
       241   03 Jun 2027 02:04:34.221   03 Jun 2027 02:05:12.661            38.440                Novosib          1201.250
       242   03 Jun 2027 02:09:18.778   03 Jun 2027 02:09:48.338            29.560                Novosib           923.750
       243   03 Jun 2027 02:13:59.258   03 Jun 2027 02:14:06.432             7.174                 Moscow           224.187
       244   03 Jun 2027 02:14:07.029   03 Jun 2027 02:14:35.916            28.887                 Moscow           902.719
       245   03 Jun 2027 02:29:24.874   03 Jun 2027 02:30:11.858            46.984               CapeTown          1468.250
       246   03 Jun 2027 02:38:18.018   03 Jun 2027 02:38:57.489            39.471               CapeTown          1233.469
       247   03 Jun 2027 03:33:25.210   03 Jun 2027 03:33:59.629            34.419                Anadyr1          1075.594
       248   03 Jun 2027 03:34:13.250   03 Jun 2027 03:34:13.514             0.264               Magadan2             8.250
       249   03 Jun 2027 03:34:35.008   03 Jun 2027 03:35:07.178            32.170                Anadyr1          1005.313
       250   03 Jun 2027 03:35:32.027   03 Jun 2027 03:37:04.938            92.911                Anadyr1          2903.469
       251   03 Jun 2027 03:37:09.885   03 Jun 2027 03:37:39.844            29.959               Magadan2           936.219
       252   03 Jun 2027 03:37:39.844   03 Jun 2027 03:37:46.316             6.472               Magadan1           202.250
       253   03 Jun 2027 03:38:34.365   03 Jun 2027 03:38:35.345             0.980               Magadan2            30.625
       254   03 Jun 2027 05:08:46.733   03 Jun 2027 05:09:02.787            16.054               Magadan2           501.688
       255   03 Jun 2027 05:09:08.787   03 Jun 2027 05:10:55.708           106.921                Anadyr1          3341.281
       256   03 Jun 2027 05:10:55.708   03 Jun 2027 05:11:00.833             5.125                Anadyr2           160.156
       257   03 Jun 2027 05:11:12.555   03 Jun 2027 05:12:44.504            91.949               Magadan2          2873.406
       258   03 Jun 2027 05:12:58.090   03 Jun 2027 05:13:51.050            52.960                Anadyr2          1655.000
       259   03 Jun 2027 05:13:51.050   03 Jun 2027 05:14:50.897            59.847                Anadyr1          1870.219
       260   03 Jun 2027 06:41:10.337   03 Jun 2027 06:41:48.093            37.756                Irkutsk          1179.875
       261   03 Jun 2027 06:42:11.004   03 Jun 2027 06:42:49.498            38.494               Magadan2          1202.938
       262   03 Jun 2027 06:42:56.921   03 Jun 2027 06:43:17.693            20.772                Irkutsk           649.125
       263   03 Jun 2027 06:43:36.338   03 Jun 2027 06:44:14.103            37.765                Anadyr1          1180.156
       264   03 Jun 2027 06:44:19.807   03 Jun 2027 06:44:38.377            18.570               Magadan1           580.313
       265   03 Jun 2027 06:44:52.211   03 Jun 2027 06:44:54.446             2.235               Magadan2            69.844
       266   03 Jun 2027 06:44:54.446   03 Jun 2027 06:45:18.617            24.171               Magadan1           755.344
       267   03 Jun 2027 06:45:25.075   03 Jun 2027 06:45:30.192             5.117                Novosib           159.906
       268   03 Jun 2027 06:45:30.342   03 Jun 2027 06:46:09.331            38.989                Irkutsk          1218.406
       269   03 Jun 2027 06:46:36.583   03 Jun 2027 06:46:54.642            18.059               Magadan2           564.344
       270   03 Jun 2027 06:46:56.501   03 Jun 2027 06:47:47.282            50.781                Irkutsk          1586.906
       271   03 Jun 2027 06:47:51.470   03 Jun 2027 06:48:02.656            11.186                Anadyr1           349.562
       272   03 Jun 2027 06:48:10.244   03 Jun 2027 06:48:27.638            17.394                Novosib           543.563
       273   03 Jun 2027 06:48:38.306   03 Jun 2027 06:49:14.197            35.891               Magadan2          1121.594
       274   03 Jun 2027 06:49:19.212   03 Jun 2027 06:49:44.297            25.085                Anadyr2           783.906
       275   03 Jun 2027 06:49:51.556   03 Jun 2027 06:49:52.084             0.528                Irkutsk            16.500
       276   03 Jun 2027 06:49:54.808   03 Jun 2027 06:50:11.127            16.319                Norilsk           509.969
       277   03 Jun 2027 06:50:14.923   03 Jun 2027 06:50:41.156            26.233              Murmansk1           819.781
       278   03 Jun 2027 06:50:41.156   03 Jun 2027 06:50:46.760             5.604              Murmansk2           175.125
       279   03 Jun 2027 06:51:33.489   03 Jun 2027 06:53:01.944            88.455              Murmansk1          2764.219
       280   03 Jun 2027 07:27:19.869   03 Jun 2027 07:28:00.880            41.011            RioGallegos          1281.594
       281   03 Jun 2027 08:03:09.929   03 Jun 2027 08:03:53.067            43.138                Sumatra          1348.063
       282   03 Jun 2027 08:05:44.283   03 Jun 2027 08:07:30.400           106.117                Sumatra          3316.156
       283   03 Jun 2027 08:19:25.810   03 Jun 2027 08:19:40.753            14.943               Magadan1           466.969
       284   03 Jun 2027 08:20:41.040   03 Jun 2027 08:21:02.376            21.336               Magadan2           666.750
       285   03 Jun 2027 08:21:18.829   03 Jun 2027 08:21:23.519             4.690                Norilsk           146.563
       286   03 Jun 2027 08:22:46.275   03 Jun 2027 08:23:06.299            20.024                Irkutsk           625.750
       287   03 Jun 2027 08:23:06.448   03 Jun 2027 08:23:32.973            26.525                Norilsk           828.906
       288   03 Jun 2027 08:23:45.361   03 Jun 2027 08:24:10.046            24.685               Magadan1           771.406
       289   03 Jun 2027 08:24:16.317   03 Jun 2027 08:24:27.013            10.696               Magadan1           334.250
       290   03 Jun 2027 08:24:44.307   03 Jun 2027 08:25:00.545            16.238                Irkutsk           507.437
       291   03 Jun 2027 08:25:14.354   03 Jun 2027 08:25:59.183            44.829                Novosib          1400.906
       292   03 Jun 2027 08:26:14.333   03 Jun 2027 08:26:32.489            18.156              Murmansk1           567.375
       293   03 Jun 2027 08:26:58.215   03 Jun 2027 08:27:15.528            17.313              Murmansk2           541.031
       294   03 Jun 2027 08:28:21.736   03 Jun 2027 08:28:28.023             6.287              Murmansk1           196.469
       295   03 Jun 2027 08:30:55.270   03 Jun 2027 08:31:04.714             9.444              Murmansk1           295.125
       296   03 Jun 2027 08:31:04.714   03 Jun 2027 08:31:25.153            20.439              Murmansk2           638.719
       297   03 Jun 2027 09:01:20.948   03 Jun 2027 09:01:45.689            24.741            RioGallegos           773.156
       298   03 Jun 2027 09:03:30.760   03 Jun 2027 09:04:03.777            33.017            RioGallegos          1031.781
       299   03 Jun 2027 09:36:00.655   03 Jun 2027 09:38:19.110           138.455                Sumatra          4326.719
       300   03 Jun 2027 09:51:15.385   03 Jun 2027 09:52:07.836            52.451                  Delhi          1639.094
       301   03 Jun 2027 09:56:07.793   03 Jun 2027 09:57:23.181            75.388                Norilsk          2355.875
       302   03 Jun 2027 09:57:47.902   03 Jun 2027 09:58:12.380            24.478                Novosib           764.937
       303   03 Jun 2027 09:58:14.514   03 Jun 2027 09:58:26.570            12.056                Irkutsk           376.750
       304   03 Jun 2027 09:58:39.560   03 Jun 2027 09:59:08.965            29.405              Murmansk1           918.906
       305   03 Jun 2027 09:59:24.031   03 Jun 2027 09:59:29.510             5.479                Norilsk           171.219
       306   03 Jun 2027 09:59:30.171   03 Jun 2027 09:59:36.760             6.589                Novosib           205.906
       307   03 Jun 2027 09:59:37.770   03 Jun 2027 09:59:43.021             5.251              Murmansk2           164.094
       308   03 Jun 2027 09:59:49.118   03 Jun 2027 10:00:46.031            56.913              Murmansk1          1778.531
       309   03 Jun 2027 10:00:52.751   03 Jun 2027 10:01:41.306            48.555                Norilsk          1517.344
       310   03 Jun 2027 10:01:42.713   03 Jun 2027 10:02:09.540            26.827                Novosib           838.344
       311   03 Jun 2027 10:02:12.420   03 Jun 2027 10:02:46.149            33.729                 Moscow          1054.031
       312   03 Jun 2027 10:03:06.738   03 Jun 2027 10:03:20.336            13.598              Murmansk1           424.938
       313   03 Jun 2027 10:04:02.075   03 Jun 2027 10:04:03.710             1.635                 Moscow            51.094
       314   03 Jun 2027 10:42:33.717   03 Jun 2027 10:42:53.155            19.438            RioGallegos           607.437
       315   03 Jun 2027 10:43:57.972   03 Jun 2027 10:44:35.180            37.208            RioGallegos          1162.750
       316   03 Jun 2027 11:20:20.126   03 Jun 2027 11:21:36.254            76.128                  Delhi          2379.000
       317   03 Jun 2027 11:25:02.994   03 Jun 2027 11:25:23.472            20.478                  Delhi           639.938
       318   03 Jun 2027 11:33:21.403   03 Jun 2027 11:33:22.908             1.505                Novosib            47.031
       319   03 Jun 2027 11:33:25.073   03 Jun 2027 11:34:16.901            51.828                 Moscow          1619.625
       320   03 Jun 2027 11:34:19.653   03 Jun 2027 11:34:46.756            27.103                Norilsk           846.969
       321   03 Jun 2027 11:34:55.949   03 Jun 2027 11:36:00.680            64.731              Murmansk2          2022.844
       322   03 Jun 2027 11:36:05.101   03 Jun 2027 11:36:07.646             2.545              Murmansk1            79.531
       323   03 Jun 2027 11:36:07.646   03 Jun 2027 11:36:08.828             1.182              Murmansk2            36.937
       324   03 Jun 2027 11:36:12.808   03 Jun 2027 11:37:25.550            72.742                Norilsk          2273.188
       325   03 Jun 2027 11:37:30.452   03 Jun 2027 11:38:38.076            67.624                 Moscow          2113.250
       326   03 Jun 2027 13:04:27.619   03 Jun 2027 13:07:46.511           198.892                 Moscow          6215.375
       327   03 Jun 2027 13:07:56.703   03 Jun 2027 13:11:15.677           198.974              Murmansk2          6217.937
       328   03 Jun 2027 13:15:59.043   03 Jun 2027 13:17:14.536            75.493                Norilsk          2359.156
       329   03 Jun 2027 14:18:45.635   03 Jun 2027 14:20:44.344           118.709               CapeTown          3709.656
       330   03 Jun 2027 14:21:32.772   03 Jun 2027 14:22:08.528            35.756               CapeTown          1117.375
       331   03 Jun 2027 14:42:13.857   03 Jun 2027 14:42:37.048            23.191                 Moscow           724.719
       332   03 Jun 2027 14:45:13.309   03 Jun 2027 14:47:13.665           120.356              Murmansk1          3761.125
       333   03 Jun 2027 14:47:38.699   03 Jun 2027 14:49:03.680            84.981              Murmansk1          2655.656
       334   03 Jun 2027 14:58:54.305   03 Jun 2027 15:00:21.065            86.760                Anadyr1          2711.250
       335   03 Jun 2027 15:01:03.413   03 Jun 2027 15:02:34.000            90.587                Anadyr1          2830.844
       336   03 Jun 2027 16:24:52.220   03 Jun 2027 16:27:03.493           131.273              Murmansk2          4102.281
       337   03 Jun 2027 16:29:09.077   03 Jun 2027 16:29:27.463            18.386              Murmansk1           574.563
       338   03 Jun 2027 16:34:31.338   03 Jun 2027 16:35:17.311            45.973                Anadyr2          1436.656
       339   03 Jun 2027 16:35:33.867   03 Jun 2027 16:37:10.224            96.357                Anadyr1          3011.156
       340   03 Jun 2027 16:37:42.962   03 Jun 2027 16:39:30.802           107.840               Magadan1          3370.000
       341   03 Jun 2027 16:40:04.796   03 Jun 2027 16:41:51.548           106.752               Magadan2          3336.000
       342   03 Jun 2027 18:10:26.493   03 Jun 2027 18:13:00.000           153.507                Anadyr1          4797.094
       343   03 Jun 2027 18:13:17.999   03 Jun 2027 18:15:37.564           139.565               Magadan1          4361.406
       344   03 Jun 2027 18:19:12.560   03 Jun 2027 18:19:32.778            20.218               Magadan1           631.812
       345   03 Jun 2027 18:23:39.961   03 Jun 2027 18:23:54.550            14.589               Magadan1           455.906
       346   03 Jun 2027 19:06:57.865   03 Jun 2027 19:09:21.625           143.760            RioGallegos          4492.500
       347   03 Jun 2027 19:46:15.854   03 Jun 2027 19:46:31.225            15.371                Anadyr1           480.344
       348   03 Jun 2027 19:46:43.577   03 Jun 2027 19:47:25.976            42.399                Anadyr2          1324.969
       349   03 Jun 2027 19:48:07.046   03 Jun 2027 19:48:12.130             5.084                Anadyr2           158.875
       350   03 Jun 2027 19:48:27.662   03 Jun 2027 19:52:18.360           230.698                Norilsk          7209.312
       351   03 Jun 2027 19:53:28.206   03 Jun 2027 19:53:56.763            28.557                Irkutsk           892.406
       352   03 Jun 2027 19:54:37.081   03 Jun 2027 19:56:42.824           125.743                Irkutsk          3929.469
       353   03 Jun 2027 19:57:35.661   03 Jun 2027 19:58:40.083            64.422                Irkutsk          2013.188
       354   03 Jun 2027 19:59:29.270   03 Jun 2027 20:00:08.991            39.721                Irkutsk          1241.281
       355   03 Jun 2027 20:08:35.883   03 Jun 2027 20:10:45.507           129.624                Sumatra          4050.750
       356   03 Jun 2027 20:14:05.447   03 Jun 2027 20:15:10.230            64.783                Sumatra          2024.469
       357   03 Jun 2027 21:28:50.887   03 Jun 2027 21:29:46.337            55.450                Novosib          1732.812
       358   03 Jun 2027 21:30:32.723   03 Jun 2027 21:30:52.861            20.138                Novosib           629.312
       359   03 Jun 2027 21:34:56.422   03 Jun 2027 21:35:14.505            18.083                Novosib           565.094
       360   03 Jun 2027 21:36:16.387   03 Jun 2027 21:36:32.913            16.526                Novosib           516.437
       361   03 Jun 2027 21:39:17.755   03 Jun 2027 21:40:42.971            85.216                  Delhi          2663.000
       362   03 Jun 2027 21:46:29.622   03 Jun 2027 21:47:34.624            65.002                Sumatra          2031.312
       363   03 Jun 2027 23:00:10.946   03 Jun 2027 23:00:30.139            19.193                Norilsk           599.781
       364   03 Jun 2027 23:00:44.667   03 Jun 2027 23:01:29.058            44.391               Magadan1          1387.219
       365   03 Jun 2027 23:01:47.702   03 Jun 2027 23:01:58.964            11.262                Norilsk           351.938
       366   03 Jun 2027 23:02:25.568   03 Jun 2027 23:02:37.133            11.565               Magadan1           361.406
       367   03 Jun 2027 23:03:14.256   03 Jun 2027 23:05:06.769           112.513              Murmansk1          3516.031
       368   03 Jun 2027 23:05:33.537   03 Jun 2027 23:06:17.294            43.757                Novosib          1367.406
       369   03 Jun 2027 23:06:39.896   03 Jun 2027 23:06:43.558             3.662              Murmansk2           114.437
       370   03 Jun 2027 23:06:52.890   03 Jun 2027 23:08:09.990            77.100              Murmansk1          2409.375
       371   03 Jun 2027 23:11:20.016   03 Jun 2027 23:11:36.885            16.869                  Delhi           527.156
       372   03 Jun 2027 23:12:18.873   03 Jun 2027 23:12:57.564            38.691                  Delhi          1209.094
       373   03 Jun 2027 23:15:25.513   03 Jun 2027 23:17:12.966           107.453                  Delhi          3357.906
       374   04 Jun 2027 00:29:02.261   04 Jun 2027 00:29:19.457            17.196                Anadyr1           537.375
       375   04 Jun 2027 00:30:42.077   04 Jun 2027 00:30:55.601            13.524                Anadyr2           422.625
       376   04 Jun 2027 00:31:22.124   04 Jun 2027 00:31:37.066            14.942                Anadyr2           466.937
       377   04 Jun 2027 00:31:50.333   04 Jun 2027 00:32:06.575            16.242                Anadyr2           507.563
       378   04 Jun 2027 00:34:48.902   04 Jun 2027 00:35:05.292            16.390                Anadyr2           512.187
       379   04 Jun 2027 00:35:06.100   04 Jun 2027 00:36:53.462           107.362               Magadan2          3355.063
       380   04 Jun 2027 00:38:22.188   04 Jun 2027 00:42:39.640           257.452              Murmansk1          8045.375
       381   04 Jun 2027 01:08:30.377   04 Jun 2027 01:10:42.041           131.664               CapeTown          4114.500
       382   04 Jun 2027 02:02:50.128   04 Jun 2027 02:03:02.784            12.656                Anadyr2           395.500
       383   04 Jun 2027 02:03:45.794   04 Jun 2027 02:04:42.574            56.780                Anadyr2          1774.375
       384   04 Jun 2027 02:06:46.877   04 Jun 2027 02:08:06.394            79.517               Magadan1          2484.906
       385   04 Jun 2027 02:08:11.452   04 Jun 2027 02:08:29.610            18.158               Magadan1           567.438
       386   04 Jun 2027 02:11:44.150   04 Jun 2027 02:11:49.682             5.532                Norilsk           172.875
       387   04 Jun 2027 02:11:53.901   04 Jun 2027 02:12:13.308            19.407                Norilsk           606.469
       388   04 Jun 2027 02:14:16.876   04 Jun 2027 02:14:30.604            13.728              Murmansk1           429.000
       389   04 Jun 2027 02:14:47.247   04 Jun 2027 02:15:59.024            71.777              Murmansk2          2243.031
       390   04 Jun 2027 02:15:59.024   04 Jun 2027 02:16:08.198             9.174              Murmansk1           286.687
       391   04 Jun 2027 02:16:44.815   04 Jun 2027 02:17:24.132            39.317                Novosib          1228.656
       392   04 Jun 2027 02:20:47.360   04 Jun 2027 02:21:28.467            41.107                 Moscow          1284.594
       393   04 Jun 2027 02:28:17.114   04 Jun 2027 02:28:18.763             1.649                 Moscow            51.531
       394   04 Jun 2027 02:41:23.042   04 Jun 2027 02:42:29.847            66.805               CapeTown          2087.656
       395   04 Jun 2027 02:50:14.054   04 Jun 2027 02:50:35.325            21.271               CapeTown           664.719
       396   04 Jun 2027 03:44:44.277   04 Jun 2027 03:44:51.971             7.694               Magadan1           240.437
       397   04 Jun 2027 03:45:21.436   04 Jun 2027 03:45:58.081            36.645                Anadyr2          1145.156
       398   04 Jun 2027 03:46:05.918   04 Jun 2027 03:48:33.635           147.717               Magadan1          4616.156
       399   04 Jun 2027 03:48:33.635   04 Jun 2027 03:49:12.081            38.446               Magadan2          1201.438
       400   04 Jun 2027 03:49:17.938   04 Jun 2027 03:49:24.345             6.407               Magadan2           200.219
       401   04 Jun 2027 03:49:28.790   04 Jun 2027 03:51:03.071            94.281                Anadyr1          2946.281
       402   04 Jun 2027 05:23:22.961   04 Jun 2027 05:24:50.659            87.698                Anadyr2          2740.562
       403   04 Jun 2027 05:25:02.097   04 Jun 2027 05:26:33.575            91.478                Anadyr2          2858.687
       404   04 Jun 2027 06:52:50.811   04 Jun 2027 06:53:16.453            25.642                Irkutsk           801.313
       405   04 Jun 2027 06:54:49.991   04 Jun 2027 06:55:08.400            18.409               Magadan1           575.281
       406   04 Jun 2027 06:55:30.660   04 Jun 2027 06:56:11.723            41.063                Irkutsk          1283.219
       407   04 Jun 2027 06:56:14.948   04 Jun 2027 06:56:30.876            15.928               Magadan2           497.750
       408   04 Jun 2027 06:56:35.233   04 Jun 2027 06:57:43.967            68.734                Irkutsk          2147.938
       409   04 Jun 2027 06:58:01.336   04 Jun 2027 06:59:18.514            77.178                Anadyr1          2411.812
       410   04 Jun 2027 06:59:33.436   04 Jun 2027 07:00:01.590            28.154               Magadan2           879.813
       411   04 Jun 2027 07:00:01.590   04 Jun 2027 07:00:39.513            37.923               Magadan1          1185.094
       412   04 Jun 2027 07:00:42.204   04 Jun 2027 07:00:44.664             2.460                Anadyr2            76.875
       413   04 Jun 2027 07:00:44.664   04 Jun 2027 07:01:19.119            34.455                Anadyr1          1076.719
       414   04 Jun 2027 07:01:24.159   04 Jun 2027 07:01:25.957             1.798                Norilsk            56.187
       415   04 Jun 2027 07:01:27.993   04 Jun 2027 07:02:03.409            35.416                Novosib          1106.750
       416   04 Jun 2027 07:02:03.828   04 Jun 2027 07:02:20.032            16.204              Murmansk2           506.375
       417   04 Jun 2027 07:02:20.032   04 Jun 2027 07:02:28.343             8.311              Murmansk1           259.719
       418   04 Jun 2027 07:02:30.618   04 Jun 2027 07:02:36.267             5.649                Novosib           176.531
       419   04 Jun 2027 07:10:30.789   04 Jun 2027 07:10:37.123             6.334              Murmansk1           197.937
       420   04 Jun 2027 07:37:20.357   04 Jun 2027 07:38:31.114            70.757            RioGallegos          2211.156
       421   04 Jun 2027 08:14:08.162   04 Jun 2027 08:14:42.395            34.233                Sumatra          1069.781
       422   04 Jun 2027 08:17:15.985   04 Jun 2027 08:17:39.265            23.280                Sumatra           727.500
       423   04 Jun 2027 08:18:32.633   04 Jun 2027 08:19:59.374            86.741                Sumatra          2710.656
       424   04 Jun 2027 08:32:45.417   04 Jun 2027 08:33:21.783            36.366                Irkutsk          1136.437
       425   04 Jun 2027 08:33:39.511   04 Jun 2027 08:34:55.160            75.649               Magadan2          2364.031
       426   04 Jun 2027 08:35:11.663   04 Jun 2027 08:35:39.347            27.684                Novosib           865.125
       427   04 Jun 2027 08:35:40.759   04 Jun 2027 08:35:56.968            16.209              Murmansk1           506.531
       428   04 Jun 2027 08:35:56.968   04 Jun 2027 08:36:08.542            11.574              Murmansk2           361.687
       429   04 Jun 2027 08:36:11.227   04 Jun 2027 08:36:41.453            30.226                Irkutsk           944.562
       430   04 Jun 2027 08:36:41.688   04 Jun 2027 08:37:43.633            61.945                Norilsk          1935.781
       431   04 Jun 2027 08:38:11.170   04 Jun 2027 08:38:23.372            12.202                Novosib           381.312
       432   04 Jun 2027 08:38:48.835   04 Jun 2027 08:39:08.983            20.148              Murmansk2           629.625
       433   04 Jun 2027 09:13:37.720   04 Jun 2027 09:14:03.254            25.534            RioGallegos           797.938
       434   04 Jun 2027 09:14:30.482   04 Jun 2027 09:14:49.639            19.157            RioGallegos           598.656
       435   04 Jun 2027 09:16:03.804   04 Jun 2027 09:16:11.034             7.230            RioGallegos           225.938
       436   04 Jun 2027 09:17:48.383   04 Jun 2027 09:18:07.206            18.823            RioGallegos           588.219
       437   04 Jun 2027 09:22:55.740   04 Jun 2027 09:23:13.061            17.321            RioGallegos           541.281
       438   04 Jun 2027 09:48:01.455   04 Jun 2027 09:49:00.770            59.315                Sumatra          1853.594
       439   04 Jun 2027 09:52:38.171   04 Jun 2027 09:52:53.478            15.307                Sumatra           478.344
       440   04 Jun 2027 09:57:21.693   04 Jun 2027 09:57:50.326            28.633                  Delhi           894.781
       441   04 Jun 2027 10:04:53.800   04 Jun 2027 10:05:15.175            21.375                  Delhi           667.969
       442   04 Jun 2027 10:08:28.447   04 Jun 2027 10:08:36.610             8.163                  Delhi           255.094
       443   04 Jun 2027 10:09:42.441   04 Jun 2027 10:09:51.058             8.617                Norilsk           269.281
       444   04 Jun 2027 10:10:00.139   04 Jun 2027 10:10:01.232             1.093              Murmansk1            34.156
       445   04 Jun 2027 10:10:11.836   04 Jun 2027 10:11:17.942            66.106                Novosib          2065.813
       446   04 Jun 2027 10:11:23.135   04 Jun 2027 10:11:39.892            16.757                Irkutsk           523.656
       447   04 Jun 2027 10:11:45.924   04 Jun 2027 10:12:03.821            17.897              Murmansk2           559.281
       448   04 Jun 2027 10:12:10.214   04 Jun 2027 10:12:21.730            11.516                Irkutsk           359.875
       449   04 Jun 2027 10:12:34.725   04 Jun 2027 10:12:59.365            24.640                Novosib           770.000
       450   04 Jun 2027 10:13:01.231   04 Jun 2027 10:13:10.578             9.347                Irkutsk           292.094
       451   04 Jun 2027 10:13:11.303   04 Jun 2027 10:14:00.258            48.955              Murmansk1          1529.844
       452   04 Jun 2027 10:14:06.144   04 Jun 2027 10:14:36.867            30.723                Novosib           960.094
       453   04 Jun 2027 10:14:49.669   04 Jun 2027 10:15:59.908            70.239                 Moscow          2194.969
       454   04 Jun 2027 11:32:38.749   04 Jun 2027 11:34:43.003           124.254                  Delhi          3882.938
       455   04 Jun 2027 11:45:26.301   04 Jun 2027 11:45:43.323            17.022                Novosib           531.938
       456   04 Jun 2027 11:45:46.118   04 Jun 2027 11:46:28.479            42.361                Norilsk          1323.781
       457   04 Jun 2027 11:46:31.312   04 Jun 2027 11:47:31.911            60.599                 Moscow          1893.719
       458   04 Jun 2027 11:47:47.174   04 Jun 2027 11:48:39.681            52.507                 Moscow          1640.844
       459   04 Jun 2027 11:49:09.341   04 Jun 2027 11:49:20.028            10.687              Murmansk2           333.969
       460   04 Jun 2027 11:49:31.920   04 Jun 2027 11:49:37.943             6.023                Norilsk           188.219
       461   04 Jun 2027 11:49:43.874   04 Jun 2027 11:50:43.246            59.372                 Moscow          1855.375
       462   04 Jun 2027 13:16:30.953   04 Jun 2027 13:19:06.174           155.221                 Moscow          4850.656
       463   04 Jun 2027 13:19:34.046   04 Jun 2027 13:20:36.642            62.596                 Moscow          1956.125
       464   04 Jun 2027 13:20:38.930   04 Jun 2027 13:24:11.469           212.539              Murmansk1          6641.844
       465   04 Jun 2027 13:27:37.176   04 Jun 2027 13:28:01.632            24.456                Norilsk           764.250
       466   04 Jun 2027 13:31:38.538   04 Jun 2027 13:31:51.418            12.880              Murmansk2           402.500
       467   04 Jun 2027 13:32:38.696   04 Jun 2027 13:32:53.251            14.555              Murmansk1           454.844
       468   04 Jun 2027 14:30:29.724   04 Jun 2027 14:32:24.431           114.707               CapeTown          3584.594
       469   04 Jun 2027 14:32:53.268   04 Jun 2027 14:34:03.248            69.980               CapeTown          2186.875
       470   04 Jun 2027 14:39:54.871   04 Jun 2027 14:41:13.428            78.557               CapeTown          2454.906
       471   04 Jun 2027 14:57:33.711   04 Jun 2027 14:58:04.417            30.706              Murmansk1           959.562
       472   04 Jun 2027 14:59:37.465   04 Jun 2027 15:01:05.503            88.038              Murmansk1          2751.188
       473   04 Jun 2027 15:07:10.058   04 Jun 2027 15:07:15.644             5.586              Murmansk2           174.562
       474   04 Jun 2027 15:10:50.765   04 Jun 2027 15:13:14.092           143.327                Anadyr2          4478.969
       475   04 Jun 2027 15:16:31.448   04 Jun 2027 15:16:53.703            22.255                Anadyr2           695.469
       476   04 Jun 2027 15:20:47.829   04 Jun 2027 15:21:13.091            25.262                Anadyr1           789.438
       477   04 Jun 2027 16:16:36.716   04 Jun 2027 16:16:43.796             7.080               CapeTown           221.250
       478   04 Jun 2027 16:17:07.245   04 Jun 2027 16:17:21.709            14.464               CapeTown           452.000
       479   04 Jun 2027 16:37:36.342   04 Jun 2027 16:39:54.734           138.392              Murmansk2          4324.750
       480   04 Jun 2027 16:43:11.084   04 Jun 2027 16:44:18.597            67.513              Murmansk2          2109.781
       481   04 Jun 2027 16:46:32.288   04 Jun 2027 16:47:30.601            58.313                Anadyr2          1822.281
       482   04 Jun 2027 16:48:14.458   04 Jun 2027 16:48:20.092             5.634                Anadyr2           176.062
