uniorb/output/strategy_2/Drop/Drop_KinoSat_110103.txt

KinoSat_110103
-------------------------
    Access    *     Start Time (UTCG)     *     Stop Time (UTCG)  *   Duration (s)        *       Station  *  Data (Mbytes)
         1   01 Jun 2027 04:26:02.303   01 Jun 2027 04:26:16.133            13.830                  Delhi           596.500
         2   01 Jun 2027 04:26:23.069   01 Jun 2027 04:27:01.433            38.364                Norilsk          3468.000
         3   01 Jun 2027 04:27:10.351   01 Jun 2027 04:28:14.098            63.747                Novosib          4459.000
         4   01 Jun 2027 04:28:23.880   01 Jun 2027 04:29:10.629            46.749                Novosib          4891.000
         5   01 Jun 2027 04:29:11.031   01 Jun 2027 04:29:16.190             5.159              Murmansk2           201.000
         6   01 Jun 2027 04:29:16.281   01 Jun 2027 04:30:00.963            44.682              Murmansk1            45.500
         7   01 Jun 2027 04:30:12.055   01 Jun 2027 04:31:14.438            62.383                Irkutsk          5546.000
         8   01 Jun 2027 04:31:33.565   01 Jun 2027 04:32:54.356            80.791              Murmansk2          9563.500
         9   01 Jun 2027 06:04:12.839   01 Jun 2027 06:04:49.334            36.495              Murmansk2          4100.000
        10   01 Jun 2027 06:04:57.432   01 Jun 2027 06:05:40.351            42.919              Murmansk2          4049.000
        11   01 Jun 2027 06:05:44.419   01 Jun 2027 06:06:04.995            20.576              Murmansk1          2034.000
        12   01 Jun 2027 06:06:13.441   01 Jun 2027 06:08:03.823           110.382                Novosib          4223.000
        13   01 Jun 2027 06:08:09.881   01 Jun 2027 06:08:31.813            21.932              Murmansk2          2741.500
        14   01 Jun 2027 06:08:31.813   01 Jun 2027 06:09:03.900            32.087              Murmansk1           287.500
        15   01 Jun 2027 07:37:50.039   01 Jun 2027 07:38:06.758            16.719                 Moscow           843.500
        16   01 Jun 2027 07:38:14.637   01 Jun 2027 07:39:02.878            48.241              Murmansk1          3939.500
        17   01 Jun 2027 07:39:02.884   01 Jun 2027 07:39:58.051            55.167              Murmansk1             3.000
        18   01 Jun 2027 07:40:37.021   01 Jun 2027 07:43:43.535           186.514              Murmansk2         19485.000
        19   01 Jun 2027 07:44:01.656   01 Jun 2027 07:45:49.858           108.202              Murmansk2          9060.500
        20   02 Jun 2027 03:01:13.768   02 Jun 2027 03:01:48.221            34.453                Norilsk           254.500
        21   02 Jun 2027 03:02:04.012   02 Jun 2027 03:03:12.671            68.659                Novosib          7895.500
        22   02 Jun 2027 03:03:21.191   02 Jun 2027 03:04:05.196            44.005               Magadan2          4260.000
        23   02 Jun 2027 03:04:05.684   02 Jun 2027 03:04:17.108            11.424                Norilsk           244.000
        24   02 Jun 2027 03:04:21.539   02 Jun 2027 03:04:51.186            29.647                Norilsk          2215.500
        25   02 Jun 2027 03:04:52.448   02 Jun 2027 03:05:00.578             8.130               Magadan1           631.000
        26   02 Jun 2027 03:05:04.146   02 Jun 2027 03:05:55.777            51.631                Novosib          1784.000
        27   02 Jun 2027 03:06:01.260   02 Jun 2027 03:06:38.322            37.062               Magadan2          2741.500
        28   02 Jun 2027 03:06:40.545   02 Jun 2027 03:06:57.881            17.336                Novosib          1111.500
        29   02 Jun 2027 03:07:00.242   02 Jun 2027 03:07:18.081            17.839              Murmansk2          1180.500
        30   02 Jun 2027 03:07:27.080   02 Jun 2027 03:08:11.003            43.923              Murmansk1          4499.500
        31   02 Jun 2027 03:08:14.529   02 Jun 2027 03:08:28.812            14.283              Murmansk2          1763.000
        32   02 Jun 2027 03:08:30.673   02 Jun 2027 03:08:31.544             0.871                Norilsk           108.875
        33   02 Jun 2027 03:08:34.801   02 Jun 2027 03:08:57.402            22.601              Murmansk2          2450.125
        34   02 Jun 2027 04:38:35.768   02 Jun 2027 04:38:39.103             3.335                  Delhi           416.875
        35   02 Jun 2027 04:39:01.374   02 Jun 2027 04:41:50.421           169.047                Norilsk         21130.875
        36   02 Jun 2027 04:41:53.140   02 Jun 2027 04:42:23.380            30.240                Norilsk          3780.000
        37   02 Jun 2027 04:42:32.179   02 Jun 2027 04:43:36.221            64.042                 Moscow          5390.750
        38   02 Jun 2027 04:43:46.115   02 Jun 2027 04:44:16.439            30.324                 Moscow           692.000
        39   02 Jun 2027 04:44:20.822   02 Jun 2027 04:44:41.888            21.066              Murmansk2          2191.500
        40   02 Jun 2027 06:15:51.277   02 Jun 2027 06:16:37.470            46.193                 Moscow          4570.000
        41   02 Jun 2027 06:16:38.292   02 Jun 2027 06:17:18.192            39.900                Norilsk           411.000
        42   02 Jun 2027 06:17:19.318   02 Jun 2027 06:17:36.088            16.770                Norilsk           563.000
        43   02 Jun 2027 06:17:36.592   02 Jun 2027 06:18:24.816            48.224                 Moscow           252.000
        44   02 Jun 2027 06:18:24.861   02 Jun 2027 06:18:49.922            25.061                Novosib            22.500
        45   02 Jun 2027 06:18:49.932   02 Jun 2027 06:18:56.164             6.232                Norilsk             5.000
        46   02 Jun 2027 06:18:59.717   02 Jun 2027 06:19:31.489            31.772              Murmansk2          1776.500
        47   02 Jun 2027 06:19:42.776   02 Jun 2027 06:20:30.718            47.942                 Moscow          5643.500
        48   02 Jun 2027 07:50:08.297   02 Jun 2027 07:50:36.224            27.927                 Moscow          1672.000
        49   02 Jun 2027 07:50:50.503   02 Jun 2027 07:51:49.985            59.482              Murmansk1          7139.500
        50   02 Jun 2027 07:51:59.709   02 Jun 2027 07:52:34.357            34.648              Murmansk1          2670.500
        51   02 Jun 2027 07:52:50.644   02 Jun 2027 07:54:24.141            93.497                 Moscow          8143.500
        52   02 Jun 2027 07:54:32.962   02 Jun 2027 07:54:50.252            17.290                 Moscow          2161.250
        53   02 Jun 2027 07:54:51.726   02 Jun 2027 07:55:48.874            57.148                Norilsk          2986.250
        54   03 Jun 2027 03:13:47.480   03 Jun 2027 03:15:07.338            79.858                Novosib          6086.500
        55   03 Jun 2027 03:15:10.825   03 Jun 2027 03:15:25.565            14.740               Magadan2          1743.500
        56   03 Jun 2027 03:15:26.410   03 Jun 2027 03:15:55.593            29.183               Magadan2           422.500
        57   03 Jun 2027 03:16:03.880   03 Jun 2027 03:16:48.192            44.312                Novosib          4143.500
        58   03 Jun 2027 03:16:51.231   03 Jun 2027 03:17:07.762            16.531                Norilsk          1519.500
        59   03 Jun 2027 03:17:08.955   03 Jun 2027 03:18:08.049            59.094                Novosib           596.500
        60   03 Jun 2027 03:18:17.299   03 Jun 2027 03:19:00.843            43.544                Novosib          4625.000
        61   03 Jun 2027 03:19:07.351   03 Jun 2027 03:19:20.054            12.703              Murmansk2          1587.875
        62   03 Jun 2027 03:19:20.819   03 Jun 2027 03:20:05.576            44.757                Novosib          2048.625
        63   03 Jun 2027 03:20:15.088   03 Jun 2027 03:20:53.324            38.236                Norilsk          4756.000
        64   03 Jun 2027 04:50:56.727   03 Jun 2027 04:51:16.463            19.736                Norilsk          2467.000
        65   03 Jun 2027 04:51:16.518   03 Jun 2027 04:52:16.903            60.385                Novosib          7213.000
        66   03 Jun 2027 04:52:29.175   03 Jun 2027 04:53:28.370            59.195                 Moscow          6136.000
        67   03 Jun 2027 04:53:44.103   03 Jun 2027 04:54:42.052            57.949                Norilsk          7243.625
        68   03 Jun 2027 04:54:44.529   03 Jun 2027 04:55:22.383            37.854                 Moscow          1861.375
        69   03 Jun 2027 04:55:25.277   03 Jun 2027 04:55:40.899            15.622                Novosib          1447.000
        70   03 Jun 2027 04:55:56.862   03 Jun 2027 04:56:07.088            10.226                Irkutsk          1278.250
        71   03 Jun 2027 04:56:17.724   03 Jun 2027 04:58:00.906           103.182                Novosib         12021.250
        72   03 Jun 2027 06:27:33.764   03 Jun 2027 06:27:59.543            25.779                Norilsk          3222.375
        73   03 Jun 2027 06:28:00.323   03 Jun 2027 06:28:34.070            33.747              Murmansk2          1028.625
        74   03 Jun 2027 06:28:39.549   03 Jun 2027 06:29:25.408            45.859                 Moscow          2739.500
        75   03 Jun 2027 06:29:41.144   03 Jun 2027 06:31:10.810            89.666                 Moscow          7868.000
        76   03 Jun 2027 06:31:12.566   03 Jun 2027 06:31:35.450            22.884                Novosib           878.000
        77   03 Jun 2027 06:31:38.491   03 Jun 2027 06:33:07.186            88.695                Novosib          1520.500
        78   03 Jun 2027 08:03:00.710   03 Jun 2027 08:03:42.677            41.967              Murmansk1           617.500
        79   03 Jun 2027 08:04:30.399   03 Jun 2027 08:05:11.459            41.060              Murmansk1          1003.500
        80   03 Jun 2027 08:05:18.281   03 Jun 2027 08:06:01.026            42.745              Murmansk1          3411.000
        81   03 Jun 2027 08:06:02.560   03 Jun 2027 08:06:46.626            44.066                 Moscow           767.000
        82   03 Jun 2027 08:07:32.511   03 Jun 2027 08:09:31.111           118.600              Murmansk1         11569.500
        83   04 Jun 2027 03:25:55.890   04 Jun 2027 03:27:23.071            87.181                Irkutsk          4849.500
        84   04 Jun 2027 03:27:27.299   04 Jun 2027 03:27:52.119            24.820                Novosib          2114.000
        85   04 Jun 2027 03:28:07.540   04 Jun 2027 03:28:50.841            43.301                Norilsk          5412.625
        86   04 Jun 2027 03:29:02.450   04 Jun 2027 03:30:09.865            67.415                Norilsk          8102.375
        87   04 Jun 2027 03:30:25.772   04 Jun 2027 03:31:31.254            65.482                Novosib          7953.500
        88   04 Jun 2027 03:31:36.033   04 Jun 2027 03:31:49.335            13.302                Novosib          1662.750
        89   04 Jun 2027 03:31:54.988   04 Jun 2027 03:32:30.542            35.554                Irkutsk          3553.250
        90   04 Jun 2027 03:32:31.206   04 Jun 2027 03:32:52.987            21.781              Murmansk2            79.000
        91   04 Jun 2027 05:03:05.319   04 Jun 2027 05:03:50.277            44.958                Norilsk          5619.750
        92   04 Jun 2027 05:03:54.098   04 Jun 2027 05:04:27.087            32.989                Novosib          2518.250
        93   04 Jun 2027 05:04:27.910   04 Jun 2027 05:05:27.055            59.145                Irkutsk           411.500
        94   04 Jun 2027 05:05:41.250   04 Jun 2027 05:06:45.522            64.272                 Moscow          7097.500
        95   04 Jun 2027 05:06:46.020   04 Jun 2027 05:06:58.801            12.781              Murmansk2           249.000
        96   04 Jun 2027 05:07:07.597   04 Jun 2027 05:07:55.449            47.852              Murmansk1          4398.000
        97   04 Jun 2027 06:39:37.821   04 Jun 2027 06:40:21.727            43.906              Murmansk1          4301.000
        98   04 Jun 2027 06:40:31.446   04 Jun 2027 06:41:18.501            47.055                Norilsk          4859.500
        99   04 Jun 2027 06:41:20.866   04 Jun 2027 06:41:45.086            24.220              Murmansk1          1182.500
       100   04 Jun 2027 06:41:56.804   04 Jun 2027 06:42:53.918            57.114              Murmansk2          5859.000
       101   04 Jun 2027 06:43:02.760   04 Jun 2027 06:43:41.037            38.277                Norilsk          4421.000
       102   04 Jun 2027 06:43:42.233   04 Jun 2027 06:44:26.283            44.050              Murmansk2           598.000
       103   04 Jun 2027 06:44:26.971   04 Jun 2027 06:44:37.946            10.975                 Moscow           344.000
       104   04 Jun 2027 06:44:38.592   04 Jun 2027 06:44:42.414             3.822              Murmansk2            86.500
       105   04 Jun 2027 08:17:51.044   04 Jun 2027 08:18:13.224            22.180              Murmansk1          1356.000
       106   04 Jun 2027 08:18:52.871   04 Jun 2027 08:18:57.770             4.899                 Moscow           612.375
       107   04 Jun 2027 08:19:28.038   04 Jun 2027 08:21:19.394           111.356              Murmansk1         12043.125
       108   05 Jun 2027 03:38:34.213   05 Jun 2027 03:39:36.006            61.793                Novosib          7135.000
       109   05 Jun 2027 03:39:37.436   05 Jun 2027 03:39:50.461            13.025                Irkutsk           715.000
       110   05 Jun 2027 03:39:54.240   05 Jun 2027 03:41:32.897            98.657                Irkutsk          1889.500
       111   05 Jun 2027 03:41:40.051   05 Jun 2027 03:42:20.093            40.042              Murmansk2          3577.000
       112   05 Jun 2027 03:42:22.485   05 Jun 2027 03:42:35.347            12.862                Novosib          1196.000
       113   05 Jun 2027 03:42:44.963   05 Jun 2027 03:43:08.283            23.320                Novosib          2915.000
       114   05 Jun 2027 03:43:29.788   05 Jun 2027 03:44:36.906            67.118                Norilsk          8389.750
       115   05 Jun 2027 03:44:39.088   05 Jun 2027 03:45:17.553            38.465                Norilsk          4370.750
       116   05 Jun 2027 05:15:46.920   05 Jun 2027 05:16:37.306            50.386                 Moscow           950.500
       117   05 Jun 2027 05:16:39.301   05 Jun 2027 05:16:59.919            20.618              Murmansk2           997.500
       118   05 Jun 2027 05:17:23.125   05 Jun 2027 05:18:31.747            68.622                Novosib          8577.750
       119   05 Jun 2027 05:18:35.685   05 Jun 2027 05:19:00.199            24.514                Novosib          3064.250
       120   05 Jun 2027 05:19:08.575   05 Jun 2027 05:20:30.339            81.764                 Moscow          6118.000
       121   05 Jun 2027 06:52:02.718   05 Jun 2027 06:52:58.974            56.256                Novosib          3368.000
       122   05 Jun 2027 06:53:03.422   05 Jun 2027 06:53:58.991            55.569                Norilsk          2224.000
       123   05 Jun 2027 06:54:04.797   05 Jun 2027 06:54:34.857            30.060                Novosib          2903.000
       124   05 Jun 2027 06:54:44.727   05 Jun 2027 06:55:27.822            43.095                 Moscow          4935.000
       125   05 Jun 2027 06:55:33.834   05 Jun 2027 06:55:40.670             6.836                Norilsk           854.500
       126   05 Jun 2027 06:55:47.644   05 Jun 2027 06:56:42.304            54.660                 Moscow          5638.500
       127   06 Jun 2027 03:50:27.609   06 Jun 2027 03:51:59.436            91.827                Norilsk         11478.375
       128   06 Jun 2027 03:52:10.177   06 Jun 2027 03:53:15.055            64.878                Novosib          7500.125
       129   06 Jun 2027 03:53:26.644   06 Jun 2027 03:54:16.404            49.760                Novosib          5794.500
       130   06 Jun 2027 03:54:22.919   06 Jun 2027 03:54:29.423             6.504                Norilsk           813.000
       131   06 Jun 2027 03:54:33.008   06 Jun 2027 03:55:12.422            39.414              Murmansk1          4237.000
       132   06 Jun 2027 03:55:12.749   06 Jun 2027 03:55:24.784            12.035                Novosib           163.500
       133   06 Jun 2027 03:55:31.326   06 Jun 2027 03:56:16.820            45.494              Murmansk2          3271.000
       134   06 Jun 2027 03:56:20.384   06 Jun 2027 03:56:56.540            36.156              Murmansk2            77.500
       135   06 Jun 2027 05:28:01.042   06 Jun 2027 05:28:38.710            37.668              Murmansk2          3992.500
       136   06 Jun 2027 05:28:41.827   06 Jun 2027 05:29:54.522            72.695                 Moscow          1558.500
       137   06 Jun 2027 05:30:00.467   06 Jun 2027 05:30:26.405            25.938                Novosib          2972.500
       138   06 Jun 2027 05:30:33.353   06 Jun 2027 05:31:11.161            37.808              Murmansk2          3474.000
       139   06 Jun 2027 05:31:13.398   06 Jun 2027 05:31:56.525            43.127              Murmansk2          1118.500
       140   06 Jun 2027 05:32:05.389   06 Jun 2027 05:33:12.810            67.421                Novosib          4432.000
       141   06 Jun 2027 07:03:51.568   06 Jun 2027 07:04:51.012            59.444                Novosib           583.500
       142   06 Jun 2027 07:04:52.108   06 Jun 2027 07:05:03.066            10.958                 Moscow           548.000
       143   06 Jun 2027 07:05:18.595   06 Jun 2027 07:06:24.595            66.000                 Moscow          7764.500
       144   06 Jun 2027 07:06:43.730   06 Jun 2027 07:08:20.205            96.475              Murmansk1          9567.500
       145   06 Jun 2027 07:08:38.875   06 Jun 2027 07:09:08.295            29.420                Norilsk          3677.500
       146   06 Jun 2027 07:09:11.270   06 Jun 2027 07:09:41.833            30.563              Murmansk2          3820.375
       147   06 Jun 2027 07:09:41.833   06 Jun 2027 07:10:05.113            23.280              Murmansk1          1837.125
       148   07 Jun 2027 04:02:07.662   07 Jun 2027 04:02:59.028            51.366                Irkutsk           570.000
       149   07 Jun 2027 04:03:00.695   07 Jun 2027 04:03:17.705            17.010                Novosib           833.500
       150   07 Jun 2027 04:03:17.991   07 Jun 2027 04:03:27.866             9.875                Norilsk           143.000
       151   07 Jun 2027 04:03:34.851   07 Jun 2027 04:04:15.874            41.023                Irkutsk          3492.500
       152   07 Jun 2027 04:04:36.383   07 Jun 2027 04:06:16.812           100.429                Norilsk         10254.500
       153   07 Jun 2027 04:06:25.468   07 Jun 2027 04:07:02.774            37.306                Norilsk          4328.000
       154   07 Jun 2027 04:07:14.354   07 Jun 2027 04:08:08.136            53.782              Murmansk2          5790.000
       155   07 Jun 2027 04:08:12.956   07 Jun 2027 04:08:56.288            43.332                 Moscow          2410.000
       156   07 Jun 2027 05:40:36.727   07 Jun 2027 05:42:00.615            83.888              Murmansk2          7340.000
       157   07 Jun 2027 05:42:03.293   07 Jun 2027 05:42:53.042            49.749                Irkutsk          1339.000
       158   07 Jun 2027 05:43:03.711   07 Jun 2027 05:43:38.706            34.995                Novosib          4374.375
       159   07 Jun 2027 05:43:46.689   07 Jun 2027 05:44:32.916            46.227              Murmansk2          4951.625
       160   07 Jun 2027 07:13:54.350   07 Jun 2027 07:15:11.801            77.451                 Moscow          6861.500
       161   07 Jun 2027 07:15:40.528   07 Jun 2027 07:16:25.697            45.169                Novosib          1851.000
       162   07 Jun 2027 07:16:31.066   07 Jun 2027 07:16:55.950            24.884              Murmansk2          2684.500
       163   07 Jun 2027 07:17:02.510   07 Jun 2027 07:17:42.177            39.667                Norilsk          3280.000
       164   07 Jun 2027 07:17:45.348   07 Jun 2027 07:18:02.607            17.259                Novosib          1585.500
       165   07 Jun 2027 07:18:11.621   07 Jun 2027 07:19:00.149            48.528              Murmansk1          4507.000
       166   07 Jun 2027 07:19:01.734   07 Jun 2027 07:19:14.666            12.932              Murmansk1           792.500
       167   07 Jun 2027 07:19:21.456   07 Jun 2027 07:19:55.815            34.359                Norilsk          3395.000
       168   07 Jun 2027 07:20:36.422   07 Jun 2027 07:22:25.706           109.284              Murmansk2          9731.000
       169   08 Jun 2027 04:14:29.234   08 Jun 2027 04:15:01.714            32.480                Novosib          1176.500
       170   08 Jun 2027 04:15:18.594   08 Jun 2027 04:16:06.370            47.776                Norilsk          5972.000
       171   08 Jun 2027 04:16:12.279   08 Jun 2027 04:17:05.172            52.893                Novosib          5422.500
       172   08 Jun 2027 04:17:10.440   08 Jun 2027 04:17:35.646            25.206                Norilsk          2634.000
       173   08 Jun 2027 04:17:41.098   08 Jun 2027 04:18:07.912            26.814                Irkutsk          2726.000
       174   08 Jun 2027 04:18:11.364   08 Jun 2027 04:19:01.011            49.647                Norilsk          1726.000
       175   08 Jun 2027 04:19:10.938   08 Jun 2027 04:19:23.193            12.255                Novosib          1531.875
       176   08 Jun 2027 04:19:27.136   08 Jun 2027 04:20:31.824            64.688              Murmansk1          5403.125
       177   08 Jun 2027 04:20:40.461   08 Jun 2027 04:21:09.842            29.381                 Moscow          1198.000
       178   08 Jun 2027 05:52:29.798   08 Jun 2027 05:53:23.342            53.544              Murmansk2          4649.500
       179   08 Jun 2027 05:53:27.036   08 Jun 2027 05:53:35.760             8.724                Novosib          1090.500
       180   08 Jun 2027 05:53:43.268   08 Jun 2027 05:54:39.907            56.639                Norilsk          4510.500
       181   08 Jun 2027 05:54:46.711   08 Jun 2027 05:55:23.948            37.237                 Moscow          3402.000
       182   08 Jun 2027 05:55:32.119   08 Jun 2027 05:56:10.310            38.191                Norilsk          4085.500
       183   08 Jun 2027 05:56:17.073   08 Jun 2027 05:56:34.844            17.771                Novosib          2221.375
       184   08 Jun 2027 05:56:35.321   08 Jun 2027 05:56:45.150             9.829              Murmansk1          1160.125
       185   08 Jun 2027 07:25:37.686   08 Jun 2027 07:25:40.529             2.843                 Moscow            28.500
       186   08 Jun 2027 07:25:41.619   08 Jun 2027 07:26:00.391            18.772                 Moscow           545.000
       187   08 Jun 2027 07:26:19.696   08 Jun 2027 07:27:48.989            89.293                 Moscow          9652.500
       188   08 Jun 2027 07:27:50.293   08 Jun 2027 07:27:55.970             5.677                Novosib           652.000
       189   08 Jun 2027 07:28:21.551   08 Jun 2027 07:30:26.153           124.602              Murmansk1         12790.500
       190   08 Jun 2027 07:30:29.111   08 Jun 2027 07:30:44.549            15.438                Norilsk          1479.000
       191   08 Jun 2027 07:30:47.082   08 Jun 2027 07:31:08.324            21.242                Novosib          1266.500
       192   08 Jun 2027 07:31:15.544   08 Jun 2027 07:32:38.204            82.660                 Moscow          3610.000
       193   08 Jun 2027 07:32:39.224   08 Jun 2027 07:32:58.457            19.233                 Moscow           510.000
       194   08 Jun 2027 07:33:04.370   08 Jun 2027 07:33:12.415             8.045                Norilsk          1005.625
       195   08 Jun 2027 07:33:22.576   08 Jun 2027 07:34:23.078            60.502              Murmansk2          7031.375
       196   09 Jun 2027 04:26:16.552   09 Jun 2027 04:26:31.654            15.102                  Delhi           459.500
       197   09 Jun 2027 04:26:34.768   09 Jun 2027 04:26:38.073             3.305                Irkutsk           413.125
       198   09 Jun 2027 04:26:40.415   09 Jun 2027 04:27:09.466            29.051                Norilsk          2314.875
       199   09 Jun 2027 04:27:28.460   09 Jun 2027 04:28:31.464            63.004                Novosib          7875.500
       200   09 Jun 2027 04:28:38.960   09 Jun 2027 04:29:24.899            45.939                Novosib          5369.500
       201   09 Jun 2027 04:29:25.832   09 Jun 2027 04:29:30.677             4.845              Murmansk2           466.500
       202   09 Jun 2027 04:29:33.870   09 Jun 2027 04:30:18.736            44.866              Murmansk1          1596.500
       203   09 Jun 2027 04:30:27.487   09 Jun 2027 04:31:28.787            61.300                Irkutsk          4375.500
       204   09 Jun 2027 04:31:29.242   09 Jun 2027 04:32:29.822            60.580                Novosib           227.500
       205   09 Jun 2027 04:32:33.362   09 Jun 2027 04:32:36.426             3.064                Irkutsk           383.000
       206   09 Jun 2027 04:32:36.610   09 Jun 2027 04:33:04.750            28.140                 Moscow          1479.000
       207   09 Jun 2027 06:04:28.852   09 Jun 2027 06:05:12.522            43.670              Murmansk2          4661.500
       208   09 Jun 2027 06:05:26.437   09 Jun 2027 06:06:28.534            62.097                Novosib          6957.500
       209   09 Jun 2027 06:06:33.128   09 Jun 2027 06:07:09.133            36.005                 Moscow          2297.000
       210   09 Jun 2027 06:07:15.363   09 Jun 2027 06:07:55.345            39.982              Murmansk1          3115.000
       211   09 Jun 2027 06:07:58.837   09 Jun 2027 06:08:22.348            23.511                Norilsk          1746.000
       212   09 Jun 2027 06:08:24.599   09 Jun 2027 06:08:41.022            16.423                Norilsk          1125.500
       213   09 Jun 2027 07:38:05.840   09 Jun 2027 07:38:21.777            15.937                 Moscow          1071.500
       214   09 Jun 2027 07:38:29.674   09 Jun 2027 07:38:53.047            23.373              Murmansk2          2921.625
       215   09 Jun 2027 07:38:53.047   09 Jun 2027 07:39:00.720             7.673              Murmansk1           959.125
       216   09 Jun 2027 07:39:17.932   09 Jun 2027 07:40:54.534            96.602              Murmansk2          8673.750
       217   09 Jun 2027 07:41:03.113   09 Jun 2027 07:41:47.620            44.507                 Moscow          4289.500
       218   09 Jun 2027 07:41:50.819   09 Jun 2027 07:42:13.560            22.741              Murmansk2          1599.500
       219   09 Jun 2027 07:42:19.894   09 Jun 2027 07:42:53.670            33.776                Norilsk          3167.000
       220   09 Jun 2027 07:42:57.514   09 Jun 2027 07:43:17.054            19.540              Murmansk1          1922.000
       221   09 Jun 2027 07:43:18.601   09 Jun 2027 07:43:58.176            39.575              Murmansk2           773.500
       222   09 Jun 2027 07:44:16.180   09 Jun 2027 07:46:04.667           108.487              Murmansk1          9002.000
       223   10 Jun 2027 03:01:30.120   10 Jun 2027 03:01:52.107            21.987                Novosib           804.000
       224   10 Jun 2027 03:02:00.728   10 Jun 2027 03:02:47.548            46.820               Magadan1          4310.500
       225   10 Jun 2027 03:02:53.273   10 Jun 2027 03:02:54.781             1.508                Norilsk           188.500
       226   10 Jun 2027 03:03:08.703   10 Jun 2027 03:04:45.615            96.912                Irkutsk          9635.000
       227   10 Jun 2027 03:05:04.050   10 Jun 2027 03:06:41.748            97.698                Novosib          9217.500
       228   10 Jun 2027 03:06:52.907   10 Jun 2027 03:07:09.476            16.569               Magadan2          2071.125
       229   10 Jun 2027 03:07:15.489   10 Jun 2027 03:08:26.878            71.389              Murmansk1          6514.875
       230   10 Jun 2027 03:08:31.121   10 Jun 2027 03:08:57.821            26.700                Irkutsk          2121.500
       231   10 Jun 2027 04:38:37.657   10 Jun 2027 04:39:33.757            56.100                Novosib          7012.500
       232   10 Jun 2027 04:39:41.768   10 Jun 2027 04:41:26.452           104.684                Irkutsk          4421.000
       233   10 Jun 2027 04:41:31.927   10 Jun 2027 04:42:01.422            29.495                Novosib          2737.500
       234   10 Jun 2027 04:42:13.747   10 Jun 2027 04:43:11.564            57.817                 Moscow          6162.500
       235   10 Jun 2027 04:43:16.248   10 Jun 2027 04:43:37.178            20.930              Murmansk2          2342.000
       236   10 Jun 2027 04:44:00.848   10 Jun 2027 04:44:32.587            31.739                 Moscow           861.500
       237   10 Jun 2027 04:44:36.851   10 Jun 2027 04:44:56.361            19.510              Murmansk1          2132.000
       238   10 Jun 2027 06:16:10.068   10 Jun 2027 06:17:05.341            55.273                 Moscow          6551.000
       239   10 Jun 2027 06:17:24.962   10 Jun 2027 06:19:04.697            99.735                Novosib          9810.500
       240   10 Jun 2027 06:19:04.897   10 Jun 2027 06:19:13.147             8.250                Norilsk           100.000
       241   10 Jun 2027 06:19:16.341   10 Jun 2027 06:19:47.085            30.744              Murmansk1          1597.000
       242   10 Jun 2027 06:19:58.893   10 Jun 2027 06:20:00.260             1.367                 Moscow           170.875
       243   10 Jun 2027 06:20:04.301   10 Jun 2027 06:21:20.017            75.716                Novosib          7753.625
       244   10 Jun 2027 07:50:23.306   10 Jun 2027 07:50:51.046            27.740                 Moscow          1959.000
       245   10 Jun 2027 07:51:05.572   10 Jun 2027 07:52:04.704            59.132              Murmansk1          7263.000
       246   10 Jun 2027 07:52:14.191   10 Jun 2027 07:52:51.754            37.563              Murmansk2          2080.000
       247   10 Jun 2027 07:53:08.836   10 Jun 2027 07:54:40.061            91.225                 Moscow          8541.000
       248   10 Jun 2027 07:54:47.822   10 Jun 2027 07:54:56.344             8.522                 Moscow          1065.250
       249   10 Jun 2027 07:55:04.327   10 Jun 2027 07:56:33.189            88.862                Norilsk          6806.750
       250   11 Jun 2027 03:13:56.244   11 Jun 2027 03:14:28.635            32.391                Norilsk          2842.500
       251   11 Jun 2027 03:14:30.423   11 Jun 2027 03:15:06.553            36.130                Irkutsk           894.000
       252   11 Jun 2027 03:15:20.211   11 Jun 2027 03:16:21.497            61.286                Norilsk          6829.000
       253   11 Jun 2027 03:16:22.735   11 Jun 2027 03:16:37.840            15.105               Magadan1           619.000
       254   11 Jun 2027 03:16:43.683   11 Jun 2027 03:17:08.668            24.985               Magadan2          2921.500
       255   11 Jun 2027 03:17:11.625   11 Jun 2027 03:17:26.154            14.529                Novosib          1478.500
       256   11 Jun 2027 03:17:33.549   11 Jun 2027 03:17:57.400            23.851               Magadan2          2981.375
       257   11 Jun 2027 03:18:19.362   11 Jun 2027 03:19:34.663            75.301              Murmansk1          9412.625
       258   11 Jun 2027 03:19:37.194   11 Jun 2027 03:20:20.199            43.005                Novosib          3550.000
       259   11 Jun 2027 03:20:33.619   11 Jun 2027 03:21:08.147            34.528                Norilsk          4316.000
       260   11 Jun 2027 03:21:14.661   11 Jun 2027 03:21:48.800            34.139              Murmansk1          2394.000
       261   11 Jun 2027 04:51:12.895   11 Jun 2027 04:52:13.115            60.220                Norilsk          7527.500
       262   11 Jun 2027 04:52:19.087   11 Jun 2027 04:53:19.822            60.735                 Moscow          5813.000
       263   11 Jun 2027 04:53:20.124   11 Jun 2027 04:53:25.217             5.093                Novosib           151.000
       264   11 Jun 2027 04:53:26.834   11 Jun 2027 04:53:34.943             8.109                Novosib           808.500
       265   11 Jun 2027 04:53:36.844   11 Jun 2027 04:54:43.364            66.520                Irkutsk           950.500
       266   11 Jun 2027 04:54:50.118   11 Jun 2027 04:55:37.032            46.914                 Moscow          3377.000
       267   11 Jun 2027 04:55:43.314   11 Jun 2027 04:56:31.814            48.500                Novosib          3141.000
       268   11 Jun 2027 04:56:36.745   11 Jun 2027 04:56:58.888            22.143                 Moscow          2465.500
       269   11 Jun 2027 06:28:14.282   11 Jun 2027 06:30:29.593           135.311                Norilsk         15917.500
       270   11 Jun 2027 06:30:47.817   11 Jun 2027 06:32:14.199            86.382                 Moscow          9112.000
       271   11 Jun 2027 06:32:32.269   11 Jun 2027 06:33:30.493            58.224                 Moscow          5629.500
       272   11 Jun 2027 08:05:15.143   11 Jun 2027 08:07:01.442           106.299                 Moscow         10136.000
       273   11 Jun 2027 08:07:47.169   11 Jun 2027 08:09:46.367           119.198              Murmansk1         11582.000
       274   12 Jun 2027 03:26:08.494   12 Jun 2027 03:26:48.592            40.098                Irkutsk          3698.500
       275   12 Jun 2027 03:26:49.405   12 Jun 2027 03:27:02.568            13.163                Norilsk           406.500
       276   12 Jun 2027 03:27:23.759   12 Jun 2027 03:29:18.392           114.633                Novosib         10595.500
       277   12 Jun 2027 03:29:31.506   12 Jun 2027 03:30:43.286            71.780                Novosib          6557.000
       278   12 Jun 2027 03:30:43.871   12 Jun 2027 03:31:15.626            31.755              Murmansk2           292.500
       279   12 Jun 2027 03:31:18.418   12 Jun 2027 03:31:59.700            41.282              Murmansk2          1396.000
       280   12 Jun 2027 03:32:04.012   12 Jun 2027 03:32:47.123            43.111                Novosib          2156.000
       281   12 Jun 2027 05:03:39.661   12 Jun 2027 05:05:48.412           128.751                Norilsk         13885.000
       282   12 Jun 2027 05:05:55.756   12 Jun 2027 05:05:59.517             3.761                Norilsk           470.125
       283   12 Jun 2027 05:06:02.800   12 Jun 2027 05:06:56.946            54.146                Norilsk          4843.375
       284   12 Jun 2027 05:07:00.624   12 Jun 2027 05:07:24.290            23.666              Murmansk1          1839.000
       285   12 Jun 2027 05:07:28.001   12 Jun 2027 05:07:36.215             8.214                 Moscow           752.000
       286   12 Jun 2027 05:07:42.145   12 Jun 2027 05:09:18.660            96.515                Novosib          2965.000
       287   12 Jun 2027 06:39:52.376   12 Jun 2027 06:40:36.775            44.399              Murmansk2          3848.500
       288   12 Jun 2027 06:40:49.058   12 Jun 2027 06:42:01.437            72.379                Norilsk          6141.500
       289   12 Jun 2027 06:42:04.475   12 Jun 2027 06:42:28.588            24.113                Norilsk          1519.000
       290   12 Jun 2027 06:42:44.891   12 Jun 2027 06:44:18.901            94.010                Novosib          8151.500
       291   12 Jun 2027 06:44:25.978   12 Jun 2027 06:44:55.709            29.731                 Moscow          3538.500
       292   12 Jun 2027 08:18:06.012   12 Jun 2027 08:18:27.829            21.817              Murmansk2          1501.500
       293   12 Jun 2027 08:18:49.555   12 Jun 2027 08:19:52.492            62.937              Murmansk2          7867.125
       294   12 Jun 2027 08:20:11.530   12 Jun 2027 08:20:28.684            17.154              Murmansk1          2144.250
       295   12 Jun 2027 08:20:28.684   12 Jun 2027 08:20:36.214             7.530              Murmansk2           851.625
       296   13 Jun 2027 03:38:46.689   13 Jun 2027 03:39:33.460            46.771                Norilsk          5776.000
       297   13 Jun 2027 03:39:52.187   13 Jun 2027 03:41:48.011           115.824                Irkutsk          9363.500
       298   13 Jun 2027 03:41:54.783   13 Jun 2027 03:42:34.595            39.812              Murmansk1          3386.000
       299   13 Jun 2027 03:42:39.752   13 Jun 2027 03:43:26.052            46.300                Novosib          2578.500
       300   13 Jun 2027 03:43:27.280   13 Jun 2027 03:43:53.158            25.878              Murmansk1           614.000
       301   13 Jun 2027 03:44:12.533   13 Jun 2027 03:45:32.170            79.637                Norilsk          9687.500
       302   13 Jun 2027 05:16:00.622   13 Jun 2027 05:16:39.536            38.914              Murmansk1           434.500
       303   13 Jun 2027 05:16:40.584   13 Jun 2027 05:16:55.321            14.737                Irkutsk           524.000
       304   13 Jun 2027 05:16:55.582   13 Jun 2027 05:17:14.673            19.091              Murmansk2           130.500
       305   13 Jun 2027 05:17:15.522   13 Jun 2027 05:17:41.209            25.687                Norilsk           424.500
       306   13 Jun 2027 05:17:41.395   13 Jun 2027 05:18:06.264            24.869              Murmansk1            93.000
       307   13 Jun 2027 05:18:13.088   13 Jun 2027 05:18:41.146            28.058                 Moscow          3412.000
       308   13 Jun 2027 05:18:50.189   13 Jun 2027 05:19:25.915            35.726                Novosib          4465.750
       309   13 Jun 2027 05:19:26.120   13 Jun 2027 05:19:29.810             3.690              Murmansk2           158.250
       310   13 Jun 2027 05:19:37.690   13 Jun 2027 05:20:12.241            34.551                Norilsk          3940.000
       311   13 Jun 2027 05:20:21.515   13 Jun 2027 05:21:10.884            49.369              Murmansk2          4637.000
       312   13 Jun 2027 06:52:16.925   13 Jun 2027 06:53:13.706            56.781                Novosib          2970.000
       313   13 Jun 2027 06:53:18.972   13 Jun 2027 06:54:13.757            54.785                Norilsk          2633.000
       314   13 Jun 2027 06:54:19.491   13 Jun 2027 06:54:49.201            29.710                Novosib          2867.000
       315   13 Jun 2027 06:54:59.637   13 Jun 2027 06:55:41.043            41.406                 Moscow          5175.750
       316   13 Jun 2027 06:55:41.871   13 Jun 2027 06:55:49.604             7.733              Murmansk1           456.250
       317   13 Jun 2027 06:55:55.407   13 Jun 2027 06:56:24.920            29.513                Norilsk          2901.500
