uniorb/output/strategy_2/Drop/Drop_KinoSat_110407.txt

KinoSat_110407
-------------------------
    Access    *     Start Time (UTCG)     *     Stop Time (UTCG)  *   Duration (s)        *       Station  *  Data (Mbytes)
         1   01 Jun 2027 03:31:37.272   01 Jun 2027 03:32:38.405            61.133               Magadan2          5893.000
         2   01 Jun 2027 03:32:44.437   01 Jun 2027 03:33:16.715            32.278                Irkutsk          3016.000
         3   01 Jun 2027 03:33:18.789   01 Jun 2027 03:33:42.368            23.579                Norilsk          1037.000
         4   01 Jun 2027 03:33:43.057   01 Jun 2027 03:34:23.562            40.505               Magadan1           344.500
         5   01 Jun 2027 03:34:24.290   01 Jun 2027 03:34:38.761            14.471                Norilsk           364.000
         6   01 Jun 2027 03:34:41.142   01 Jun 2027 03:34:54.982            13.840               Magadan1          1190.500
         7   01 Jun 2027 03:35:00.141   01 Jun 2027 03:35:26.969            26.828                Anadyr1          2579.500
         8   01 Jun 2027 03:35:27.290   01 Jun 2027 03:36:14.764            47.474                Irkutsk           160.500
         9   01 Jun 2027 03:36:15.261   01 Jun 2027 03:36:28.970            13.709                Novosib           248.500
        10   01 Jun 2027 03:36:31.282   01 Jun 2027 03:36:47.461            16.179               Magadan1          1156.000
        11   01 Jun 2027 03:36:54.470   01 Jun 2027 03:38:11.610            77.140                Novosib          3504.500
        12   01 Jun 2027 03:38:22.946   01 Jun 2027 03:39:07.148            44.202                Norilsk          5525.250
        13   01 Jun 2027 03:39:17.279   01 Jun 2027 03:40:11.417            54.138              Murmansk2          5208.250
        14   01 Jun 2027 05:08:37.321   01 Jun 2027 05:09:18.170            40.849                Irkutsk          2180.000
        15   01 Jun 2027 05:09:19.599   01 Jun 2027 05:09:21.239             1.640                Novosib           205.000
        16   01 Jun 2027 05:09:24.593   01 Jun 2027 05:09:45.104            20.511                Norilsk          2186.500
        17   01 Jun 2027 05:09:47.412   01 Jun 2027 05:10:00.899            13.487               Magadan2          1154.000
        18   01 Jun 2027 05:10:06.426   01 Jun 2027 05:10:11.540             5.114                Irkutsk           639.250
        19   01 Jun 2027 05:10:16.616   01 Jun 2027 05:11:05.331            48.715                Norilsk          4662.250
        20   01 Jun 2027 05:11:18.015   01 Jun 2027 05:12:20.329            62.314                Novosib          6342.000
        21   01 Jun 2027 05:12:20.681   01 Jun 2027 05:13:08.934            48.253               Magadan1           176.000
        22   01 Jun 2027 05:13:16.677   01 Jun 2027 05:13:50.645            33.968                Norilsk          3871.500
        23   01 Jun 2027 05:14:04.509   01 Jun 2027 05:15:07.418            62.909                Norilsk          6932.000
        24   01 Jun 2027 05:15:11.946   01 Jun 2027 05:15:33.982            22.036              Murmansk2          2264.000
        25   01 Jun 2027 05:15:35.585   01 Jun 2027 05:15:56.334            20.749                Norilsk           801.500
        26   01 Jun 2027 06:45:44.827   01 Jun 2027 06:46:51.019            66.192                Irkutsk          4409.500
        27   01 Jun 2027 06:47:01.872   01 Jun 2027 06:47:46.887            45.015                Norilsk          5426.500
        28   01 Jun 2027 06:47:53.033   01 Jun 2027 06:48:20.128            27.095                Norilsk          3073.000
        29   01 Jun 2027 06:48:23.818   01 Jun 2027 06:48:51.539            27.721                Novosib          1845.000
        30   01 Jun 2027 06:48:59.489   01 Jun 2027 06:49:56.683            57.194                Norilsk          3975.000
        31   01 Jun 2027 06:49:59.933   01 Jun 2027 06:50:51.180            51.247                 Moscow          1625.000
        32   01 Jun 2027 06:51:03.047   01 Jun 2027 06:51:49.504            46.457                Norilsk          5807.125
        33   01 Jun 2027 06:51:56.946   01 Jun 2027 06:52:02.894             5.948                 Moscow           126.375
        34   01 Jun 2027 08:22:35.190   01 Jun 2027 08:22:50.702            15.512                Norilsk           825.500
        35   01 Jun 2027 08:23:05.457   01 Jun 2027 08:24:34.204            88.747                Norilsk          7377.500
        36   01 Jun 2027 08:24:39.200   01 Jun 2027 08:25:05.699            26.499                Novosib          2498.000
        37   01 Jun 2027 08:25:06.438   01 Jun 2027 08:25:26.834            20.396                Novosib           369.500
        38   01 Jun 2027 08:25:29.275   01 Jun 2027 08:25:58.841            29.566                Norilsk          1220.500
        39   01 Jun 2027 08:26:00.415   01 Jun 2027 08:26:09.890             9.475                 Moscow           787.000
        40   01 Jun 2027 08:26:14.291   01 Jun 2027 08:26:27.538            13.247                Norilsk          1655.875
        41   01 Jun 2027 08:26:28.139   01 Jun 2027 08:27:30.199            62.060                 Moscow           845.124
        42   01 Jun 2027 09:57:53.670   01 Jun 2027 09:58:39.056            45.386                 Moscow          5673.250
        43   01 Jun 2027 09:58:47.340   01 Jun 2027 09:59:11.580            24.240              Murmansk1          2728.250
        44   01 Jun 2027 09:59:29.328   01 Jun 2027 10:00:51.908            82.580                 Moscow          6292.000
        45   01 Jun 2027 10:01:21.504   01 Jun 2027 10:02:01.743            40.239                 Moscow          5029.875
        46   01 Jun 2027 10:02:24.340   01 Jun 2027 10:06:17.115           232.775                 Moscow         21066.625
        47   02 Jun 2027 03:43:39.571   02 Jun 2027 03:43:52.587            13.016               Magadan1           157.500
        48   02 Jun 2027 03:43:53.834   02 Jun 2027 03:44:20.247            26.413               Magadan1           623.500
        49   02 Jun 2027 03:44:28.270   02 Jun 2027 03:45:43.138            74.868                Irkutsk          4011.500
        50   02 Jun 2027 03:45:43.298   02 Jun 2027 03:45:45.963             2.665               Magadan2            80.000
        51   02 Jun 2027 03:45:57.759   02 Jun 2027 03:46:57.092            59.333                Novosib          5898.000
        52   02 Jun 2027 03:47:01.448   02 Jun 2027 03:47:25.999            24.551               Magadan2          2178.000
        53   02 Jun 2027 03:47:30.021   02 Jun 2027 03:48:03.552            33.531                Novosib          2011.000
        54   02 Jun 2027 03:48:15.893   02 Jun 2027 03:49:28.118            72.225               Magadan2          6170.500
        55   02 Jun 2027 03:49:31.362   02 Jun 2027 03:50:19.711            48.349                Norilsk          1622.000
        56   02 Jun 2027 03:50:21.382   02 Jun 2027 03:50:33.699            12.317                Anadyr2           835.500
        57   02 Jun 2027 03:50:39.391   02 Jun 2027 03:51:06.601            27.210                Novosib          2846.000
        58   02 Jun 2027 03:51:12.630   02 Jun 2027 03:51:29.085            16.455                Novosib          2056.875
        59   02 Jun 2027 03:51:35.968   02 Jun 2027 03:51:52.441            16.473               Magadan2          2059.125
        60   02 Jun 2027 03:51:58.620   02 Jun 2027 03:52:27.302            28.682              Murmansk1          3577.500
        61   02 Jun 2027 05:21:11.516   02 Jun 2027 05:21:30.804            19.288                Novosib          2411.000
        62   02 Jun 2027 05:21:39.816   02 Jun 2027 05:22:59.314            79.498                Norilsk          8237.500
        63   02 Jun 2027 05:22:59.806   02 Jun 2027 05:23:24.096            24.290                Novosib           246.000
        64   02 Jun 2027 05:23:48.397   02 Jun 2027 05:25:45.015           116.618                Irkutsk         12150.500
        65   02 Jun 2027 05:25:53.077   02 Jun 2027 05:26:36.331            43.254                Norilsk          4031.000
        66   02 Jun 2027 05:26:39.195   02 Jun 2027 05:26:53.149            13.954              Murmansk1          1432.000
        67   02 Jun 2027 05:26:57.560   02 Jun 2027 05:27:29.069            31.509                Norilsk          2205.500
        68   02 Jun 2027 05:27:39.736   02 Jun 2027 05:27:57.824            18.088                Irkutsk          2261.000
        69   02 Jun 2027 05:27:57.871   02 Jun 2027 05:28:25.046            27.175                Norilsk          3072.500
        70   02 Jun 2027 06:57:57.709   02 Jun 2027 06:58:23.776            26.067                Norilsk           854.000
        71   02 Jun 2027 06:58:56.462   02 Jun 2027 07:01:12.840           136.378                 Moscow         16343.000
        72   02 Jun 2027 07:01:17.367   02 Jun 2027 07:02:21.075            63.708              Murmansk1          2263.500
        73   02 Jun 2027 07:02:27.309   02 Jun 2027 07:03:11.073            43.764                Novosib          3117.000
        74   02 Jun 2027 07:03:20.608   02 Jun 2027 07:03:54.373            33.765                Norilsk          4220.625
        75   02 Jun 2027 07:03:56.005   02 Jun 2027 07:04:27.864            31.859                 Moscow           546.875
        76   02 Jun 2027 08:34:51.470   02 Jun 2027 08:35:11.497            20.027                 Moscow          2503.375
        77   02 Jun 2027 08:35:15.355   02 Jun 2027 08:35:23.696             8.341                Norilsk          1042.625
        78   02 Jun 2027 08:35:24.305   02 Jun 2027 08:36:28.569            64.264              Murmansk1          1206.500
        79   02 Jun 2027 08:36:35.229   02 Jun 2027 08:37:43.814            68.585                Novosib          3330.000
        80   02 Jun 2027 08:37:45.287   02 Jun 2027 08:38:58.522            73.235                Novosib           736.500
        81   02 Jun 2027 08:39:02.080   02 Jun 2027 08:39:16.967            14.887                Novosib          1779.000
        82   02 Jun 2027 10:12:30.298   02 Jun 2027 10:13:03.274            32.976                 Moscow          1395.500
        83   02 Jun 2027 10:13:31.176   02 Jun 2027 10:15:44.061           132.885              Murmansk2         13951.000
        84   03 Jun 2027 03:57:07.827   03 Jun 2027 03:57:44.397            36.570               Magadan1          4486.500
        85   03 Jun 2027 03:57:48.716   03 Jun 2027 03:58:20.902            32.186               Magadan1          2159.500
        86   03 Jun 2027 03:58:41.221   03 Jun 2027 04:00:18.290            97.069                Norilsk         10159.500
        87   03 Jun 2027 04:00:33.403   03 Jun 2027 04:02:00.468            87.065                Irkutsk          7556.500
        88   03 Jun 2027 04:02:02.400   03 Jun 2027 04:02:36.193            33.793               Magadan2           966.000
        89   03 Jun 2027 04:02:42.989   03 Jun 2027 04:02:46.803             3.814               Magadan2           476.750
        90   03 Jun 2027 04:02:51.803   03 Jun 2027 04:03:27.404            35.601                Irkutsk          4006.750
        91   03 Jun 2027 04:03:35.751   03 Jun 2027 04:03:47.261            11.510               Magadan2          1438.750
        92   03 Jun 2027 04:03:49.343   03 Jun 2027 04:04:48.528            59.185                Novosib          3775.750
        93   03 Jun 2027 05:33:08.974   03 Jun 2027 05:33:35.172            26.198                Norilsk          1094.500
        94   03 Jun 2027 05:33:43.702   03 Jun 2027 05:34:12.400            28.698                Novosib          3587.250
        95   03 Jun 2027 05:34:42.581   03 Jun 2027 05:37:26.869           164.288                Irkutsk         15768.250
        96   03 Jun 2027 05:37:33.412   03 Jun 2027 05:38:03.701            30.289                Norilsk          3271.500
        97   03 Jun 2027 05:38:09.421   03 Jun 2027 05:38:46.961            37.540              Murmansk2          2860.000
        98   03 Jun 2027 05:38:48.073   03 Jun 2027 05:39:17.798            29.725              Murmansk2           556.000
        99   03 Jun 2027 05:39:19.459   03 Jun 2027 05:39:53.789            34.330              Murmansk1           830.500
       100   03 Jun 2027 07:10:56.259   03 Jun 2027 07:11:19.155            22.896                Norilsk          2582.000
       101   03 Jun 2027 07:11:23.815   03 Jun 2027 07:11:49.673            25.858                Norilsk          2330.000
       102   03 Jun 2027 07:11:55.771   03 Jun 2027 07:12:23.960            28.189                Norilsk          3049.000
       103   03 Jun 2027 07:12:25.548   03 Jun 2027 07:12:56.010            30.462                Novosib           794.000
       104   03 Jun 2027 07:12:56.490   03 Jun 2027 07:13:17.002            20.512              Murmansk2           240.000
       105   03 Jun 2027 07:13:22.170   03 Jun 2027 07:13:46.954            24.784                 Moscow          2584.000
       106   03 Jun 2027 07:13:47.949   03 Jun 2027 07:13:53.087             5.138                Norilsk           497.500
       107   03 Jun 2027 07:14:00.108   03 Jun 2027 07:14:40.530            40.422                Norilsk          3510.500
       108   03 Jun 2027 07:14:42.697   03 Jun 2027 07:15:01.058            18.361                Irkutsk          1083.500
       109   03 Jun 2027 07:15:02.988   03 Jun 2027 07:15:52.225            49.237                 Moscow           965.000
       110   03 Jun 2027 08:47:04.715   03 Jun 2027 08:47:53.032            48.317                 Moscow          4044.500
       111   03 Jun 2027 08:47:55.492   03 Jun 2027 08:48:38.812            43.320                Norilsk          1230.000
       112   03 Jun 2027 08:48:43.232   03 Jun 2027 08:49:07.067            23.835                 Moscow          2210.000
       113   03 Jun 2027 08:49:09.265   03 Jun 2027 08:49:21.626            12.361              Murmansk1          1099.000
       114   03 Jun 2027 08:49:27.859   03 Jun 2027 08:49:57.845            29.986                 Moscow          3116.500
       115   03 Jun 2027 08:49:59.386   03 Jun 2027 08:50:55.395            56.009                Novosib           770.500
       116   03 Jun 2027 08:51:01.884   03 Jun 2027 08:51:51.544            49.660                Novosib          3244.500
       117   04 Jun 2027 04:09:17.937   04 Jun 2027 04:09:27.339             9.402               Magadan1           844.500
       118   04 Jun 2027 04:09:33.235   04 Jun 2027 04:10:26.022            52.787                Novosib          2948.000
       119   04 Jun 2027 04:10:32.379   04 Jun 2027 04:11:18.873            46.494               Magadan1          3178.500
       120   04 Jun 2027 04:11:20.688   04 Jun 2027 04:11:32.929            12.241                Norilsk           907.500
       121   04 Jun 2027 04:11:35.445   04 Jun 2027 04:11:50.409            14.964                Novosib          1258.000
       122   04 Jun 2027 04:11:53.507   04 Jun 2027 04:12:35.004            41.497                Irkutsk          1549.000
       123   04 Jun 2027 04:12:35.185   04 Jun 2027 04:12:39.154             3.969               Magadan1            90.500
       124   04 Jun 2027 04:12:39.410   04 Jun 2027 04:13:33.809            54.399                Novosib           128.000
       125   04 Jun 2027 04:13:41.802   04 Jun 2027 04:14:12.216            30.414                Irkutsk          3801.750
       126   04 Jun 2027 04:14:14.926   04 Jun 2027 04:14:35.086            20.160                Norilsk          1549.750
       127   04 Jun 2027 04:14:37.766   04 Jun 2027 04:15:06.452            28.686              Murmansk1          1340.000
       128   04 Jun 2027 04:15:09.860   04 Jun 2027 04:15:34.675            24.815                Norilsk          1704.000
       129   04 Jun 2027 04:15:36.536   04 Jun 2027 04:15:40.354             3.818               Magadan1           477.250
       130   04 Jun 2027 04:15:43.890   04 Jun 2027 04:15:51.793             7.903                Irkutsk           987.875
       131   04 Jun 2027 04:15:52.151   04 Jun 2027 04:16:14.730            22.579              Murmansk1          1412.375
       132   04 Jun 2027 05:45:56.078   04 Jun 2027 05:47:12.542            76.464                Norilsk          8287.000
       133   04 Jun 2027 05:47:21.720   04 Jun 2027 05:48:04.572            42.852                Norilsk          4589.000
       134   04 Jun 2027 05:48:16.895   04 Jun 2027 05:49:09.062            52.167                Norilsk          6161.500
       135   04 Jun 2027 05:49:12.030   04 Jun 2027 05:49:28.865            16.835              Murmansk2          1484.000
       136   04 Jun 2027 05:49:29.912   04 Jun 2027 05:49:52.236            22.324                Norilsk           523.500
       137   04 Jun 2027 05:50:02.260   04 Jun 2027 05:50:53.017            50.757              Murmansk1          5012.000
       138   04 Jun 2027 05:51:00.470   04 Jun 2027 05:51:52.246            51.776                Novosib          3726.500
       139   04 Jun 2027 07:22:56.954   04 Jun 2027 07:23:29.319            32.365              Murmansk2           204.500
       140   04 Jun 2027 07:23:38.478   04 Jun 2027 07:24:15.720            37.242                Norilsk          4579.500
       141   04 Jun 2027 07:24:17.413   04 Jun 2027 07:25:31.933            74.520                Irkutsk           846.500
       142   04 Jun 2027 07:25:33.005   04 Jun 2027 07:25:52.999            19.994                 Moscow           536.000
       143   04 Jun 2027 07:25:53.227   04 Jun 2027 07:26:08.721            15.494                Norilsk           114.000
       144   04 Jun 2027 07:26:21.738   04 Jun 2027 07:27:41.514            79.776                Novosib          6508.500
       145   04 Jun 2027 08:59:20.743   04 Jun 2027 09:00:16.162            55.419              Murmansk1          5571.000
       146   04 Jun 2027 09:00:23.621   04 Jun 2027 09:01:44.262            80.641                Novosib          3729.500
       147   04 Jun 2027 09:01:44.903   04 Jun 2027 09:03:00.191            75.288              Murmansk2           320.500
       148   04 Jun 2027 09:03:04.759   04 Jun 2027 09:03:34.069            29.310                Novosib          2284.000
       149   04 Jun 2027 09:03:44.769   04 Jun 2027 09:04:22.177            37.408                Norilsk          4676.000
       150   04 Jun 2027 09:04:23.477   04 Jun 2027 09:04:48.730            25.253              Murmansk2           674.000
       151   05 Jun 2027 04:21:16.527   05 Jun 2027 04:22:27.707            71.180                Norilsk          8897.500
       152   05 Jun 2027 04:22:28.504   05 Jun 2027 04:22:55.532            27.028               Magadan2          2620.500
       153   05 Jun 2027 04:22:58.148   05 Jun 2027 04:23:07.378             9.230                Irkutsk          1153.750
       154   05 Jun 2027 04:23:15.306   05 Jun 2027 04:23:32.316            17.010                Norilsk          2126.250
       155   05 Jun 2027 04:23:38.827   05 Jun 2027 04:24:35.774            56.947               Magadan2          5247.500
       156   05 Jun 2027 04:24:39.876   05 Jun 2027 04:25:26.232            46.356                Irkutsk          2051.000
       157   05 Jun 2027 04:25:35.552   05 Jun 2027 04:25:51.496            15.944               Magadan1          1993.000
       158   05 Jun 2027 04:25:51.496   05 Jun 2027 04:26:13.844            22.348               Magadan2          2667.000
       159   05 Jun 2027 04:26:19.067   05 Jun 2027 04:27:07.478            48.411              Murmansk2          2611.500
       160   05 Jun 2027 04:27:21.991   05 Jun 2027 04:28:34.855            72.864              Murmansk2          7256.500
       161   05 Jun 2027 05:57:19.146   05 Jun 2027 05:58:20.446            61.300                Novosib          2748.000
       162   05 Jun 2027 05:58:25.484   05 Jun 2027 05:58:47.723            22.239                Norilsk          2519.000
       163   05 Jun 2027 05:59:00.080   05 Jun 2027 06:00:04.663            64.583                Norilsk          6178.500
       164   05 Jun 2027 06:00:10.366   05 Jun 2027 06:00:44.367            34.001                Irkutsk          2851.500
       165   05 Jun 2027 06:00:46.522   05 Jun 2027 06:01:07.391            20.869                Norilsk          1077.500
       166   05 Jun 2027 06:01:09.854   05 Jun 2027 06:01:31.080            21.226              Murmansk1          1231.500
       167   05 Jun 2027 06:01:34.997   05 Jun 2027 06:02:46.072            71.075                Irkutsk          1958.500
       168   05 Jun 2027 06:02:49.378   05 Jun 2027 06:03:22.971            33.593              Murmansk1          1653.000
       169   05 Jun 2027 06:03:31.844   05 Jun 2027 06:04:20.847            49.003              Murmansk1          4436.500
       170   05 Jun 2027 07:35:29.773   05 Jun 2027 07:35:38.098             8.325              Murmansk2           186.000
       171   05 Jun 2027 07:35:45.979   05 Jun 2027 07:36:08.134            22.155                Norilsk          2769.375
       172   05 Jun 2027 07:36:09.905   05 Jun 2027 07:36:58.245            48.340                Novosib          2056.625
       173   05 Jun 2027 07:37:05.449   05 Jun 2027 07:37:54.737            49.288                Norilsk          3602.000
       174   05 Jun 2027 07:37:56.094   05 Jun 2027 07:38:42.745            46.651                Novosib           678.500
       175   05 Jun 2027 07:38:45.739   05 Jun 2027 07:38:59.722            13.983              Murmansk2          1497.000
       176   05 Jun 2027 07:39:10.405   05 Jun 2027 07:40:05.405            55.000              Murmansk2          5341.500
       177   05 Jun 2027 09:10:55.834   05 Jun 2027 09:12:08.350            72.516              Murmansk1          2918.000
       178   05 Jun 2027 09:12:10.261   05 Jun 2027 09:12:28.311            18.050                 Moscow           955.500
       179   05 Jun 2027 09:12:29.724   05 Jun 2027 09:12:51.750            22.026                 Moscow           706.500
       180   05 Jun 2027 09:12:57.050   05 Jun 2027 09:13:31.268            34.218              Murmansk2          2650.000
       181   05 Jun 2027 09:13:35.504   05 Jun 2027 09:14:32.638            57.134                Norilsk          2118.000
       182   05 Jun 2027 09:14:44.564   05 Jun 2027 09:15:15.408            30.844                 Moscow          3855.500
       183   05 Jun 2027 09:15:19.609   05 Jun 2027 09:15:37.633            18.024                Norilsk          2107.500
       184   05 Jun 2027 09:15:40.361   05 Jun 2027 09:15:56.384            16.023                Norilsk          1364.000
       185   05 Jun 2027 09:15:57.294   05 Jun 2027 09:16:12.497            15.203              Murmansk2           455.000
       186   05 Jun 2027 09:16:23.057   05 Jun 2027 09:16:52.451            29.394                Norilsk          3674.250
       187   05 Jun 2027 09:16:56.404   05 Jun 2027 09:17:04.540             8.136              Murmansk1           246.750
       188   06 Jun 2027 03:00:01.295   06 Jun 2027 03:00:12.515            11.220                Anadyr1           647.500
       189   06 Jun 2027 03:00:26.549   06 Jun 2027 03:02:19.039           112.490                Anadyr1          7017.000
       190   06 Jun 2027 04:32:30.383   06 Jun 2027 04:33:05.786            35.403                Norilsk          1346.500
       191   06 Jun 2027 04:33:06.850   06 Jun 2027 04:33:32.530            25.680               Magadan2           532.000
       192   06 Jun 2027 04:33:47.352   06 Jun 2027 04:34:55.389            68.037                Novosib          7411.000
       193   06 Jun 2027 04:35:09.845   06 Jun 2027 04:36:22.658            72.813                Irkutsk          7228.000
       194   06 Jun 2027 04:36:25.103   06 Jun 2027 04:36:48.173            23.070                Irkutsk          1222.500
       195   06 Jun 2027 04:37:13.717   06 Jun 2027 04:39:33.853           140.136                Irkutsk         12772.000
       196   06 Jun 2027 04:39:51.862   06 Jun 2027 04:40:01.763             9.901                Irkutsk          1237.625
       197   06 Jun 2027 04:40:02.112   06 Jun 2027 04:41:13.055            70.943                Novosib          7819.375
       198   06 Jun 2027 06:09:38.228   06 Jun 2027 06:10:14.014            35.786                Norilsk          2358.500
       199   06 Jun 2027 06:10:33.480   06 Jun 2027 06:11:55.800            82.320                Novosib          9733.000
       200   06 Jun 2027 06:12:03.893   06 Jun 2027 06:13:02.881            58.988                Norilsk          4046.500
       201   06 Jun 2027 06:13:03.707   06 Jun 2027 06:13:07.025             3.318                Norilsk           413.000
       202   06 Jun 2027 06:13:08.176   06 Jun 2027 06:13:33.307            25.131              Murmansk2           575.500
       203   06 Jun 2027 06:13:33.686   06 Jun 2027 06:13:50.152            16.466              Murmansk2           189.500
       204   06 Jun 2027 06:13:50.781   06 Jun 2027 06:14:25.476            34.695                Novosib           314.500
       205   06 Jun 2027 06:14:25.489   06 Jun 2027 06:15:51.435            85.946                Irkutsk             6.500
       206   06 Jun 2027 06:16:00.679   06 Jun 2027 06:16:46.394            45.715                 Moscow          2223.500
       207   06 Jun 2027 07:47:35.231   06 Jun 2027 07:48:00.399            25.168                 Moscow          1735.500
       208   06 Jun 2027 07:48:00.829   06 Jun 2027 07:49:02.405            61.576                Norilsk           215.000
       209   06 Jun 2027 07:49:06.523   06 Jun 2027 07:49:42.339            35.816                Norilsk          2059.000
       210   06 Jun 2027 07:49:50.437   06 Jun 2027 07:50:55.347            64.910                Novosib          4049.000
       211   06 Jun 2027 07:50:58.038   06 Jun 2027 07:51:10.424            12.386              Murmansk1          1345.500
       212   06 Jun 2027 07:51:14.226   06 Jun 2027 07:51:24.297            10.071                 Moscow          1258.875
       213   06 Jun 2027 07:51:28.820   06 Jun 2027 07:51:48.132            19.312                Norilsk          2123.625
       214   06 Jun 2027 09:21:30.685   06 Jun 2027 09:25:05.229           214.544                 Moscow         25037.500
       215   06 Jun 2027 09:25:06.648   06 Jun 2027 09:25:31.338            24.690                Norilsk           709.500
       216   06 Jun 2027 09:25:34.620   06 Jun 2027 09:26:00.361            25.741                 Moscow          1641.000
       217   06 Jun 2027 09:26:06.623   06 Jun 2027 09:26:42.791            36.168                Novosib          3131.000
       218   06 Jun 2027 09:26:46.455   06 Jun 2027 09:27:21.742            35.287                 Moscow          1832.000
       219   06 Jun 2027 09:27:24.364   06 Jun 2027 09:27:39.854            15.490              Murmansk2          1311.000
       220   06 Jun 2027 09:27:44.528   06 Jun 2027 09:28:28.403            43.875              Murmansk1          2337.000
       221   06 Jun 2027 09:28:53.392   06 Jun 2027 09:30:31.038            97.646                Norilsk          4212.000
       222   07 Jun 2027 03:07:25.581   07 Jun 2027 03:07:49.963            24.382               Magadan1          1399.000
       223   07 Jun 2027 03:07:56.580   07 Jun 2027 03:08:13.710            17.130               Magadan1          2141.250
       224   07 Jun 2027 03:08:27.419   07 Jun 2027 03:10:00.405            92.986                Anadyr2          8021.750
       225   07 Jun 2027 03:10:08.846   07 Jun 2027 03:10:35.199            26.353                Irkutsk          3294.125
       226   07 Jun 2027 03:10:38.547   07 Jun 2027 03:11:02.911            24.364                Anadyr1          2600.375
       227   07 Jun 2027 03:11:07.192   07 Jun 2027 03:11:38.370            31.178               Magadan1          2140.500
       228   07 Jun 2027 03:11:41.894   07 Jun 2027 03:11:57.147            15.253                Norilsk          1762.000
       229   07 Jun 2027 03:12:02.888   07 Jun 2027 03:12:42.113            39.225               Magadan2          2870.500
       230   07 Jun 2027 03:12:45.559   07 Jun 2027 03:12:59.932            14.373                Novosib          1723.000
       231   07 Jun 2027 03:13:12.828   07 Jun 2027 03:14:00.211            47.383                Irkutsk          5922.875
       232   07 Jun 2027 03:14:07.551   07 Jun 2027 03:15:18.915            71.364               Magadan2          4195.126
       233   07 Jun 2027 03:15:19.183   07 Jun 2027 03:15:23.839             4.656                Anadyr1           134.000
       234   07 Jun 2027 03:15:25.422   07 Jun 2027 03:15:37.356            11.934                Anadyr1           791.500
       235   07 Jun 2027 03:15:41.274   07 Jun 2027 03:16:20.308            39.034              Murmansk1          1564.500
       236   07 Jun 2027 04:44:54.694   07 Jun 2027 04:45:17.572            22.878                Norilsk          2859.750
       237   07 Jun 2027 04:45:26.448   07 Jun 2027 04:46:26.122            59.674                Novosib          5373.250
       238   07 Jun 2027 04:46:31.261   07 Jun 2027 04:47:25.851            54.590                Novosib          2569.500
       239   07 Jun 2027 04:47:27.460   07 Jun 2027 04:48:41.351            73.891                Irkutsk           804.500
       240   07 Jun 2027 04:48:45.294   07 Jun 2027 04:49:06.268            20.974                Novosib          1971.500
       241   07 Jun 2027 04:49:09.215   07 Jun 2027 04:49:49.028            39.813                Norilsk          1473.500
       242   07 Jun 2027 04:49:50.869   07 Jun 2027 04:49:57.334             6.465                Novosib           808.125
       243   07 Jun 2027 04:49:57.587   07 Jun 2027 04:50:24.795            27.208               Magadan2           238.875
       244   07 Jun 2027 04:50:36.013   07 Jun 2027 04:50:59.969            23.956              Murmansk2          2994.500
       245   07 Jun 2027 04:50:59.969   07 Jun 2027 04:51:28.420            28.451              Murmansk1          2614.500
       246   07 Jun 2027 04:51:32.554   07 Jun 2027 04:51:49.985            17.431                Irkutsk          2067.000
       247   07 Jun 2027 04:52:05.612   07 Jun 2027 04:52:27.335            21.723                Norilsk          2715.375
       248   07 Jun 2027 04:52:44.288   07 Jun 2027 04:53:28.531            44.243              Murmansk1          5098.125
       249   07 Jun 2027 06:21:42.692   07 Jun 2027 06:22:29.853            47.161                Irkutsk          3877.500
       250   07 Jun 2027 06:22:32.506   07 Jun 2027 06:22:54.300            21.794                Norilsk          1326.500
       251   07 Jun 2027 06:23:14.251   07 Jun 2027 06:24:39.367            85.116                Novosib          9975.500
       252   07 Jun 2027 06:24:41.562   07 Jun 2027 06:25:06.958            25.396              Murmansk2          1097.500
       253   07 Jun 2027 06:25:07.964   07 Jun 2027 06:25:14.355             6.391                Norilsk           503.000
       254   07 Jun 2027 06:25:14.723   07 Jun 2027 06:25:26.870            12.147                Irkutsk           184.000
       255   07 Jun 2027 06:25:27.970   07 Jun 2027 06:26:08.541            40.571                 Moscow           550.000
       256   07 Jun 2027 06:26:09.375   07 Jun 2027 06:26:13.196             3.821                 Moscow           417.000
       257   07 Jun 2027 06:26:19.677   07 Jun 2027 06:27:06.219            46.542                Norilsk          3240.500
       258   07 Jun 2027 06:27:10.051   07 Jun 2027 06:28:06.913            56.862                Norilsk          1916.000
       259   07 Jun 2027 07:59:34.152   07 Jun 2027 07:59:54.995            20.843                Norilsk          1075.500
       260   07 Jun 2027 08:00:02.674   07 Jun 2027 08:00:59.914            57.240                Norilsk          3839.500
       261   07 Jun 2027 08:01:00.277   07 Jun 2027 08:01:36.786            36.509                 Moscow           181.500
       262   07 Jun 2027 08:01:53.253   07 Jun 2027 08:03:00.674            67.421                Novosib          8233.500
       263   07 Jun 2027 08:03:09.091   07 Jun 2027 08:03:50.043            40.952              Murmansk2          4208.500
       264   07 Jun 2027 09:33:11.360   07 Jun 2027 09:33:32.953            21.593                 Moscow          1827.500
       265   07 Jun 2027 09:33:40.683   07 Jun 2027 09:33:48.041             7.358              Murmansk2           919.750
       266   07 Jun 2027 09:33:59.527   07 Jun 2027 09:35:16.156            76.629                 Moscow          8688.250
       267   07 Jun 2027 09:35:35.293   07 Jun 2027 09:36:52.337            77.044              Murmansk2          9568.500
       268   07 Jun 2027 09:37:02.176   07 Jun 2027 09:37:44.042            41.866              Murmansk1          4919.500
       269   07 Jun 2027 09:37:46.853   07 Jun 2027 09:38:10.172            23.319                 Moscow          1405.500
       270   07 Jun 2027 09:38:10.981   07 Jun 2027 09:38:36.105            25.124                Norilsk           404.500
       271   07 Jun 2027 09:38:48.443   07 Jun 2027 09:39:52.474            64.031              Murmansk2          6169.000
       272   07 Jun 2027 09:39:59.870   07 Jun 2027 09:40:19.482            19.612              Murmansk1          2451.500
       273   07 Jun 2027 09:40:19.482   07 Jun 2027 09:40:54.101            34.619              Murmansk2          1246.500
       274   08 Jun 2027 03:18:55.435   08 Jun 2027 03:19:24.269            28.834               Magadan2          2065.500
       275   08 Jun 2027 03:19:25.534   08 Jun 2027 03:19:59.971            34.437                Irkutsk           632.500
       276   08 Jun 2027 03:20:04.983   08 Jun 2027 03:20:14.287             9.304               Magadan2          1163.000
       277   08 Jun 2027 03:20:30.455   08 Jun 2027 03:21:33.600            63.145               Magadan2          7893.125
       278   08 Jun 2027 03:21:36.147   08 Jun 2027 03:22:17.632            41.485                Norilsk          2807.375
       279   08 Jun 2027 03:22:17.737   08 Jun 2027 03:22:19.874             2.137                Irkutsk            52.500
       280   08 Jun 2027 03:22:23.976   08 Jun 2027 03:23:08.068            44.092                Anadyr2          2051.000
       281   08 Jun 2027 03:23:18.100   08 Jun 2027 03:24:20.835            62.735                Irkutsk          5016.000
       282   08 Jun 2027 03:24:22.507   08 Jun 2027 03:24:48.996            26.489                Norilsk           836.000
       283   08 Jun 2027 03:24:53.750   08 Jun 2027 03:26:19.570            85.820                Anadyr1          2377.000
       284   08 Jun 2027 03:26:23.035   08 Jun 2027 03:27:08.448            45.413                Anadyr1          1732.500
       285   08 Jun 2027 03:27:12.685   08 Jun 2027 03:27:27.580            14.895                Anadyr1           784.500
       286   08 Jun 2027 03:27:30.202   08 Jun 2027 03:27:35.205             5.003                Irkutsk           625.375
       287   08 Jun 2027 03:27:35.635   08 Jun 2027 03:28:00.218            24.583                Novosib           900.625
       288   08 Jun 2027 04:56:43.358   08 Jun 2027 04:57:05.471            22.113                Norilsk          1171.000
       289   08 Jun 2027 04:57:05.657   08 Jun 2027 04:57:13.580             7.923                Irkutsk            93.000
       290   08 Jun 2027 04:57:22.873   08 Jun 2027 04:58:00.799            37.926               Magadan2          4646.500
       291   08 Jun 2027 04:58:01.671   08 Jun 2027 04:58:04.334             2.663                Novosib           332.875
       292   08 Jun 2027 04:58:13.844   08 Jun 2027 04:59:08.447            54.603               Magadan1          4858.125
       293   08 Jun 2027 04:59:12.379   08 Jun 2027 04:59:27.806            15.427                Irkutsk          1928.375
       294   08 Jun 2027 04:59:30.888   08 Jun 2027 05:00:13.738            42.850                Novosib          1578.625
       295   08 Jun 2027 05:00:22.405   08 Jun 2027 05:01:19.694            57.289                Norilsk          4333.500
       296   08 Jun 2027 05:01:35.539   08 Jun 2027 05:02:41.129            65.590                Novosib          7922.500
       297   08 Jun 2027 05:02:49.898   08 Jun 2027 05:03:29.919            40.021              Murmansk2          4384.500
       298   08 Jun 2027 05:03:30.493   08 Jun 2027 05:03:33.836             3.343              Murmansk1           287.000
       299   08 Jun 2027 05:03:37.857   08 Jun 2027 05:04:44.832            66.975              Murmansk1          2010.500
       300   08 Jun 2027 06:33:30.594   08 Jun 2027 06:34:01.424            30.830                Novosib          2572.000
       301   08 Jun 2027 06:34:09.242   08 Jun 2027 06:35:27.962            78.720                Novosib          3909.000
       302   08 Jun 2027 06:35:30.578   08 Jun 2027 06:36:08.653            38.075                Irkutsk          1308.000
       303   08 Jun 2027 06:36:19.264   08 Jun 2027 06:37:03.205            43.941                Novosib          5305.500
       304   08 Jun 2027 06:37:06.160   08 Jun 2027 06:37:37.708            31.548              Murmansk2          1477.500
       305   08 Jun 2027 06:37:38.061   08 Jun 2027 06:38:19.824            41.763                Novosib           176.500
       306   08 Jun 2027 06:38:19.930   08 Jun 2027 06:38:33.536            13.606                Irkutsk            53.000
       307   08 Jun 2027 06:38:42.171   08 Jun 2027 06:39:45.099            62.928              Murmansk2          4317.500
       308   08 Jun 2027 06:39:54.368   08 Jun 2027 06:40:51.173            56.805                 Moscow          4634.500
       309   08 Jun 2027 08:11:39.883   08 Jun 2027 08:12:18.877            38.994                Novosib          2912.500
       310   08 Jun 2027 08:12:29.463   08 Jun 2027 08:13:17.171            47.708                Novosib          5293.000
       311   08 Jun 2027 08:13:22.936   08 Jun 2027 08:13:52.221            29.285                Norilsk          2882.500
       312   08 Jun 2027 08:13:54.963   08 Jun 2027 08:14:07.745            12.782                Novosib          1371.000
       313   08 Jun 2027 08:14:08.045   08 Jun 2027 08:14:11.634             3.589                Norilsk           150.000
       314   08 Jun 2027 08:14:11.710   08 Jun 2027 08:14:12.199             0.489                 Moscow            38.000
       315   08 Jun 2027 08:14:15.568   08 Jun 2027 08:14:31.298            15.730              Murmansk1          1684.500
       316   08 Jun 2027 08:14:34.536   08 Jun 2027 08:15:43.486            68.950              Murmansk1          1619.000
       317   08 Jun 2027 09:45:34.693   08 Jun 2027 09:46:34.444            59.751                 Moscow          4981.500
       318   08 Jun 2027 09:46:36.069   08 Jun 2027 09:47:04.787            28.718              Murmansk2           812.500
       319   08 Jun 2027 09:47:07.278   08 Jun 2027 09:47:27.754            20.476                 Moscow          1245.500
       320   08 Jun 2027 09:47:33.354   08 Jun 2027 09:48:09.662            36.308                 Moscow          2800.000
       321   08 Jun 2027 09:48:23.673   08 Jun 2027 09:49:44.385            80.712              Murmansk1          7005.500
       322   08 Jun 2027 09:49:52.175   08 Jun 2027 09:50:09.525            17.350                 Moscow          2168.750
       323   08 Jun 2027 09:50:36.396   08 Jun 2027 09:52:55.941           139.545                 Moscow         15161.750
       324   09 Jun 2027 03:31:53.402   09 Jun 2027 03:32:13.659            20.257               Magadan1          2532.125
       325   09 Jun 2027 03:32:25.194   09 Jun 2027 03:33:58.457            93.263               Magadan2         10129.375
       326   09 Jun 2027 03:33:59.701   09 Jun 2027 03:34:38.768            39.067               Magadan1           622.000
       327   09 Jun 2027 03:34:55.753   09 Jun 2027 03:36:23.808            88.055               Magadan1          8492.500
       328   09 Jun 2027 03:36:28.892   09 Jun 2027 03:36:54.391            25.499                Irkutsk          2542.000
       329   09 Jun 2027 03:36:54.848   09 Jun 2027 03:37:01.350             6.502                Norilsk           228.500
       330   09 Jun 2027 03:37:02.467   09 Jun 2027 03:37:35.316            32.849               Magadan2           558.500
       331   09 Jun 2027 03:37:42.758   09 Jun 2027 03:38:19.111            36.353               Magadan1          3721.000
       332   09 Jun 2027 03:38:20.310   09 Jun 2027 03:38:52.346            32.036                Anadyr2           599.500
       333   09 Jun 2027 03:38:53.768   09 Jun 2027 03:39:24.689            30.921                Norilsk           711.000
       334   09 Jun 2027 03:39:34.272   09 Jun 2027 03:40:16.518            42.246              Murmansk1          4791.500
       335   09 Jun 2027 05:08:51.789   09 Jun 2027 05:09:32.225            40.436                Irkutsk          2016.500
       336   09 Jun 2027 05:09:34.528   09 Jun 2027 05:09:36.386             1.858                Novosib           232.250
       337   09 Jun 2027 05:09:39.125   09 Jun 2027 05:10:00.000            20.876                Norilsk          2288.750
       338   09 Jun 2027 05:10:01.998   09 Jun 2027 05:10:10.101             8.103                Novosib           998.500
       339   09 Jun 2027 05:10:15.898   09 Jun 2027 05:10:44.453            28.555               Magadan2          2898.500
       340   09 Jun 2027 05:10:53.561   09 Jun 2027 05:11:50.112            56.551               Magadan1          4554.000
       341   09 Jun 2027 05:11:50.893   09 Jun 2027 05:12:54.459            63.566                Irkutsk           390.500
       342   09 Jun 2027 05:13:17.498   09 Jun 2027 05:15:41.139           143.641                Novosib         11519.500
       343   09 Jun 2027 05:15:42.226   09 Jun 2027 05:16:10.966            28.740                Irkutsk           543.500
       344   09 Jun 2027 06:46:01.061   09 Jun 2027 06:47:48.633           107.572                Novosib          5163.500
       345   09 Jun 2027 06:47:51.414   09 Jun 2027 06:48:31.467            40.053                 Moscow          1390.500
       346   09 Jun 2027 06:48:35.060   09 Jun 2027 06:48:58.540            23.480                Norilsk          1796.500
       347   09 Jun 2027 06:49:00.394   09 Jun 2027 06:49:14.976            14.582              Murmansk2           927.000
       348   09 Jun 2027 06:49:18.467   09 Jun 2027 06:49:39.465            20.998                Norilsk          1745.500
       349   09 Jun 2027 06:49:39.816   09 Jun 2027 06:50:38.445            58.629              Murmansk1           175.500
       350   09 Jun 2027 06:50:56.025   09 Jun 2027 06:51:51.552            55.527              Murmansk2          5054.000
       351   09 Jun 2027 06:52:11.741   09 Jun 2027 06:52:36.959            25.218                Norilsk          2684.500
       352   09 Jun 2027 08:22:51.379   09 Jun 2027 08:23:27.830            36.451              Murmansk1          1839.000
       353   09 Jun 2027 08:23:29.012   09 Jun 2027 08:23:44.563            15.551                Norilsk           591.000
       354   09 Jun 2027 08:23:49.820   09 Jun 2027 08:24:50.559            60.739              Murmansk2          2628.500
       355   09 Jun 2027 08:24:53.785   09 Jun 2027 08:25:20.854            27.069                Novosib          1613.000
       356   09 Jun 2027 08:25:21.217   09 Jun 2027 08:25:44.350            23.133                Novosib           181.500
       357   09 Jun 2027 08:25:48.030   09 Jun 2027 08:26:04.000            15.970              Murmansk1          1840.000
       358   09 Jun 2027 08:26:15.172   09 Jun 2027 08:27:45.038            89.866                 Moscow          5586.000
       359   09 Jun 2027 09:58:08.368   09 Jun 2027 09:59:21.638            73.270                 Moscow          8306.000
       360   09 Jun 2027 09:59:32.698   09 Jun 2027 09:59:54.123            21.425              Murmansk1           620.500
       361   09 Jun 2027 10:00:13.786   09 Jun 2027 10:01:44.998            91.212              Murmansk1          9831.500
       362   09 Jun 2027 10:02:08.007   09 Jun 2027 10:02:21.716            13.709                 Moscow          1713.625
       363   09 Jun 2027 10:02:28.601   09 Jun 2027 10:04:40.878           132.277              Murmansk1         13233.375
       364   10 Jun 2027 03:44:07.333   10 Jun 2027 03:44:52.863            45.530               Magadan1          3912.000
       365   10 Jun 2027 03:44:55.060   10 Jun 2027 03:45:06.378            11.318               Magadan2          1098.500
       366   10 Jun 2027 03:45:16.177   10 Jun 2027 03:46:01.691            45.514                Norilsk          4899.500
       367   10 Jun 2027 03:46:11.880   10 Jun 2027 03:46:20.453             8.573                Novosib          1071.625
       368   10 Jun 2027 03:46:28.124   10 Jun 2027 03:47:35.619            67.495                Norilsk          7858.375
       369   10 Jun 2027 03:47:37.481   10 Jun 2027 03:47:47.393             9.912                Anadyr1           931.000
       370   10 Jun 2027 03:47:48.874   10 Jun 2027 03:48:16.821            27.947               Magadan1           740.500
       371   10 Jun 2027 03:48:17.677   10 Jun 2027 03:48:47.259            29.582                Anadyr1           428.000
       372   10 Jun 2027 03:48:47.628   10 Jun 2027 03:49:03.052            15.424               Magadan1           184.500
       373   10 Jun 2027 03:49:03.351   10 Jun 2027 03:50:36.646            93.295                Irkutsk           149.500
       374   10 Jun 2027 03:50:37.253   10 Jun 2027 03:50:49.698            12.445                Anadyr1           303.500
       375   10 Jun 2027 03:50:57.848   10 Jun 2027 03:51:35.791            37.943              Murmansk1          4075.000
       376   10 Jun 2027 03:51:39.934   10 Jun 2027 03:52:07.026            27.092               Magadan2          2071.500
       377   10 Jun 2027 03:52:13.099   10 Jun 2027 03:52:24.788            11.689              Murmansk1          1229.000
       378   10 Jun 2027 05:21:25.711   10 Jun 2027 05:21:46.019            20.308                Novosib          2538.500
       379   10 Jun 2027 05:21:54.725   10 Jun 2027 05:23:15.680            80.955                Norilsk          7649.500
       380   10 Jun 2027 05:23:22.198   10 Jun 2027 05:24:03.258            41.060                Irkutsk          3259.000
       381   10 Jun 2027 05:24:07.926   10 Jun 2027 05:24:45.053            37.127                Novosib          2334.000
       382   10 Jun 2027 05:24:45.520   10 Jun 2027 05:24:49.636             4.116                Novosib           233.500
       383   10 Jun 2027 05:24:52.232   10 Jun 2027 05:25:30.586            38.354                Norilsk          1298.000
       384   10 Jun 2027 05:25:32.803   10 Jun 2027 05:25:42.511             9.708              Murmansk1          1108.500
       385   10 Jun 2027 05:25:44.225   10 Jun 2027 05:25:59.345            15.120                Norilsk           857.000
       386   10 Jun 2027 05:26:00.296   10 Jun 2027 05:26:27.679            27.383                Irkutsk           475.500
       387   10 Jun 2027 05:26:31.308   10 Jun 2027 05:26:51.869            20.561                Norilsk          1814.500
       388   10 Jun 2027 05:26:56.998   10 Jun 2027 05:27:34.548            37.550              Murmansk2          2564.500
       389   10 Jun 2027 05:27:42.548   10 Jun 2027 05:28:20.073            37.525              Murmansk1          4000.000
       390   10 Jun 2027 06:58:15.069   10 Jun 2027 06:58:30.377            15.308                  Delhi          1913.500
       391   10 Jun 2027 06:59:10.620   10 Jun 2027 07:01:41.302           150.682                 Moscow         18835.250
       392   10 Jun 2027 07:01:41.828   10 Jun 2027 07:02:36.023            54.195              Murmansk1          1785.250
       393   10 Jun 2027 07:02:42.529   10 Jun 2027 07:03:27.449            44.920                Novosib          3253.000
       394   10 Jun 2027 07:03:28.400   10 Jun 2027 07:03:41.853            13.453              Murmansk2           475.500
       395   10 Jun 2027 08:35:06.690   10 Jun 2027 08:36:36.898            90.208                Novosib          2782.500
       396   10 Jun 2027 08:36:42.605   10 Jun 2027 08:37:12.506            29.901                Norilsk          2853.500
       397   10 Jun 2027 08:37:18.345   10 Jun 2027 08:37:32.387            14.042                 Moscow          1755.250
       398   10 Jun 2027 08:37:33.355   10 Jun 2027 08:37:49.939            16.584              Murmansk1          1648.250
       399   10 Jun 2027 08:37:58.544   10 Jun 2027 08:39:13.609            75.065                Novosib          4302.500
       400   10 Jun 2027 08:39:13.683   10 Jun 2027 08:39:21.255             7.572                Norilsk            37.000
       401   10 Jun 2027 08:39:28.400   10 Jun 2027 08:40:19.933            51.533              Murmansk2          3572.500
       402   10 Jun 2027 10:13:01.387   10 Jun 2027 10:13:45.833            44.446              Murmansk1           943.000
       403   10 Jun 2027 10:14:05.480   10 Jun 2027 10:14:41.067            35.587                 Moscow          4448.375
       404   10 Jun 2027 10:14:55.963   10 Jun 2027 10:15:58.700            62.737              Murmansk1          5375.125
       405   11 Jun 2027 03:57:22.655   11 Jun 2027 03:58:01.127            38.472               Magadan2          4563.500
       406   11 Jun 2027 03:58:04.004   11 Jun 2027 03:58:35.430            31.426               Magadan1          1438.500
       407   11 Jun 2027 03:58:55.713   11 Jun 2027 04:00:34.999            99.286                Norilsk         10141.500
       408   11 Jun 2027 04:00:37.750   11 Jun 2027 04:02:14.854            97.104                Irkutsk          1375.500
       409   11 Jun 2027 04:02:17.476   11 Jun 2027 04:02:52.426            34.950               Magadan1          1311.000
       410   11 Jun 2027 04:02:57.776   11 Jun 2027 04:03:42.792            45.016               Magadan2          2675.000
       411   11 Jun 2027 04:03:52.732   11 Jun 2027 04:04:01.827             9.095               Magadan1          1136.875
       412   11 Jun 2027 04:04:06.233   11 Jun 2027 04:05:03.295            57.062                Novosib          6036.125
       413   11 Jun 2027 05:33:23.527   11 Jun 2027 05:33:50.094            26.567                Norilsk           701.500
       414   11 Jun 2027 05:33:53.266   11 Jun 2027 05:33:58.988             5.722                Novosib           715.250
       415   11 Jun 2027 05:34:28.003   11 Jun 2027 05:34:30.758             2.755                Novosib           344.375
       416   11 Jun 2027 05:34:56.950   11 Jun 2027 05:38:12.340           195.390                Irkutsk         24423.750
       417   11 Jun 2027 05:38:15.493   11 Jun 2027 05:39:02.820            47.327              Murmansk1          5282.625
       418   11 Jun 2027 05:39:04.634   11 Jun 2027 05:39:32.587            27.953              Murmansk1           907.000
       419   11 Jun 2027 05:39:35.360   11 Jun 2027 05:40:00.730            25.370                Novosib          1386.500
       420   11 Jun 2027 05:40:08.294   11 Jun 2027 05:40:25.877            17.583              Murmansk2           335.500
       421   11 Jun 2027 07:11:11.637   11 Jun 2027 07:11:24.069            12.432                Norilsk          1554.000
       422   11 Jun 2027 07:11:33.819   11 Jun 2027 07:12:40.287            66.468                Norilsk          6057.000
       423   11 Jun 2027 07:13:01.765   11 Jun 2027 07:14:01.747            59.982                 Moscow          7497.750
       424   11 Jun 2027 07:14:04.727   11 Jun 2027 07:14:15.085            10.358                Norilsk          1294.750
       425   11 Jun 2027 07:14:24.619   11 Jun 2027 07:16:09.642           105.023                 Moscow          8203.500
       426   11 Jun 2027 08:47:17.891   11 Jun 2027 08:47:42.538            24.647                 Moscow          3080.875
       427   11 Jun 2027 08:48:10.153   11 Jun 2027 08:50:02.797           112.644                Norilsk         13934.125
       428   11 Jun 2027 08:50:03.599   11 Jun 2027 08:51:07.565            63.966              Murmansk2           401.000
       429   11 Jun 2027 08:51:10.172   11 Jun 2027 08:52:08.841            58.669                Novosib          1303.500
       430   12 Jun 2027 04:09:32.723   12 Jun 2027 04:09:42.212             9.489               Magadan2           857.000
       431   12 Jun 2027 04:09:53.473   12 Jun 2027 04:10:40.521            47.048                Novosib          5630.500
       432   12 Jun 2027 04:10:47.244   12 Jun 2027 04:11:34.544            47.300               Magadan2          3361.500
       433   12 Jun 2027 04:11:36.420   12 Jun 2027 04:12:08.553            32.133                Irkutsk           938.000
       434   12 Jun 2027 04:12:10.756   12 Jun 2027 04:12:49.911            39.155               Magadan2          1101.500
       435   12 Jun 2027 04:12:50.355   12 Jun 2027 04:12:54.448             4.093                Novosib           222.000
       436   12 Jun 2027 04:12:54.698   12 Jun 2027 04:13:47.381            52.683               Magadan2           125.000
       437   12 Jun 2027 04:13:48.529   12 Jun 2027 04:14:08.649            20.120               Magadan2           574.000
       438   12 Jun 2027 04:14:26.217   12 Jun 2027 04:15:36.935            70.718                Irkutsk          8784.000
       439   12 Jun 2027 04:15:39.368   12 Jun 2027 04:16:06.734            27.366              Murmansk1          1216.500
       440   12 Jun 2027 04:16:29.577   12 Jun 2027 04:16:44.331            14.754              Murmansk2           141.500
       441   12 Jun 2027 05:46:15.517   12 Jun 2027 05:47:22.633            67.116                Novosib          8389.500
       442   12 Jun 2027 05:47:27.405   12 Jun 2027 05:48:19.217            51.812                Norilsk          4861.000
       443   12 Jun 2027 05:48:35.018   12 Jun 2027 05:50:00.054            85.036                Irkutsk          7900.500
       444   12 Jun 2027 05:50:07.584   12 Jun 2027 05:50:50.292            42.708              Murmansk2          3765.000
       445   12 Jun 2027 05:50:54.462   12 Jun 2027 05:51:00.184             5.722                Norilsk           715.250
       446   12 Jun 2027 05:51:06.266   12 Jun 2027 05:52:12.882            66.616                Irkutsk          4410.750
       447   12 Jun 2027 07:23:14.519   12 Jun 2027 07:23:34.325            19.806                Irkutsk          1691.500
       448   12 Jun 2027 07:23:35.696   12 Jun 2027 07:23:55.215            19.519                Norilsk           685.500
       449   12 Jun 2027 07:24:03.341   12 Jun 2027 07:25:12.064            68.723                Novosib          4063.000
       450   12 Jun 2027 07:25:19.444   12 Jun 2027 07:26:07.955            48.511                Norilsk          3690.000
       451   12 Jun 2027 07:26:08.151   12 Jun 2027 07:26:41.424            33.273                Irkutsk            98.000
       452   12 Jun 2027 07:26:47.064   12 Jun 2027 07:27:20.251            33.187              Murmansk1          2820.000
       453   12 Jun 2027 07:27:26.143   12 Jun 2027 07:28:28.897            62.754              Murmansk2          2946.000
       454   12 Jun 2027 08:59:35.650   12 Jun 2027 09:00:33.392            57.742              Murmansk2          5809.500
       455   12 Jun 2027 09:00:38.139   12 Jun 2027 09:01:58.967            80.828                Novosib          2373.500
       456   12 Jun 2027 09:01:59.539   12 Jun 2027 09:02:53.959            54.420              Murmansk1           286.000
       457   12 Jun 2027 09:02:59.984   12 Jun 2027 09:03:03.095             3.111                 Moscow           388.875
       458   12 Jun 2027 09:03:09.539   12 Jun 2027 09:03:59.439            49.900                Norilsk          5845.625
       459   12 Jun 2027 09:04:02.117   12 Jun 2027 09:04:26.116            23.999              Murmansk2          1339.000
       460   13 Jun 2027 04:21:32.484   13 Jun 2027 04:22:42.547            70.063                Norilsk          8757.875
       461   13 Jun 2027 04:22:43.780   13 Jun 2027 04:23:00.089            16.309               Magadan1          2038.625
       462   13 Jun 2027 04:23:00.089   13 Jun 2027 04:23:30.372            30.283               Magadan2          1845.501
       463   13 Jun 2027 04:23:32.585   13 Jun 2027 04:23:49.680            17.095                Novosib          1106.500
       464   13 Jun 2027 04:23:54.655   13 Jun 2027 04:24:50.492            55.837               Magadan1          2487.500
       465   13 Jun 2027 04:24:54.813   13 Jun 2027 04:25:40.455            45.642                Irkutsk          2160.500
       466   13 Jun 2027 04:25:52.014   13 Jun 2027 04:26:56.504            64.490               Magadan2          5779.500
       467   13 Jun 2027 04:27:22.934   13 Jun 2027 04:29:21.802           118.868              Murmansk2         13215.000
       468   13 Jun 2027 05:57:42.652   13 Jun 2027 05:58:41.810            59.158                Norilsk          7242.000
       469   13 Jun 2027 05:59:00.540   13 Jun 2027 06:00:25.175            84.635                Irkutsk          9365.000
       470   13 Jun 2027 06:00:27.150   13 Jun 2027 06:01:09.571            42.421                Norilsk           987.500
       471   13 Jun 2027 06:01:13.342   13 Jun 2027 06:01:49.241            35.899                Irkutsk          1885.500
       472   13 Jun 2027 06:01:50.807   13 Jun 2027 06:03:00.611            69.804                Irkutsk           783.000
       473   13 Jun 2027 06:03:14.848   13 Jun 2027 06:04:36.855            82.007              Murmansk1          7118.500
       474   13 Jun 2027 07:35:46.950   13 Jun 2027 07:36:10.143            23.193              Murmansk1          1287.500
       475   13 Jun 2027 07:36:11.224   13 Jun 2027 07:36:31.935            20.711                Irkutsk           540.500
       476   13 Jun 2027 07:36:33.387   13 Jun 2027 07:36:46.341            12.954                 Moscow           726.000
       477   13 Jun 2027 07:36:52.521   13 Jun 2027 07:38:00.180            67.659                 Moscow          3090.000
       478   13 Jun 2027 07:38:01.908   13 Jun 2027 07:38:10.561             8.653                Novosib           864.000
       479   13 Jun 2027 07:38:13.231   13 Jun 2027 07:38:29.289            16.058                 Moscow          1335.000
       480   13 Jun 2027 07:38:31.993   13 Jun 2027 07:39:00.360            28.367              Murmansk2          1352.000
       481   13 Jun 2027 07:39:01.318   13 Jun 2027 07:40:12.833            71.515                Novosib           479.000
       482   13 Jun 2027 09:11:10.370   13 Jun 2027 09:12:25.487            75.117              Murmansk1          2709.500
